passes_logs/2026/01/09/R2M6_AANII_01/R2M6_AANII_01__20260109_105048_NOAA_21_JPSS-2_rec.log

#Pass ID: 20260109_105048_NOAA 21 (JPSS-2)
#Satellite: NOAA 21 (JPSS-2)
#Configuration: NOAA 21
#almurnet v.1.7.20240730
#Start time: 2026-01-09 10:51:58

#Version: 2.2.20231116
#Station: R2M6_AANII_01
#Location: 30.233357 lon 59.946436 lat
#TLE: 1 54234U 22150A   26008.45757862  .00000119  00000+0  77172-4 0  9996
#TLE: 2 54234  98.7494 309.4367 0000894 328.2777  31.8345 14.19533328163889

#Time	Az	El	Level	Level2	SNR	BER	BlckErr	Temp	State	Recorded	gain1	gain2
2026-01-09 10:51:58.18	179.60	12.92	-33.5	-45.0	3.8	8.46e-01	0	42	0	0	26	13559
2026-01-09 10:51:59.18	179.65	13.02	-34.0	-45.8	3.8	1.49e+00	0	43	104	0	28	13997
2026-01-09 10:52:00.17	179.70	13.12	-34.0	-45.9	3.8	1.49e+00	0	43	104	0	28	14161
2026-01-09 10:52:01.17	179.75	13.21	-34.0	-45.9	3.8	1.49e+00	0	43	104	0	28	14151
2026-01-09 10:52:02.16	179.80	13.31	-34.1	-46.0	3.8	1.49e+00	0	43	104	0	28	14189
2026-01-09 10:52:03.16	179.85	13.40	-34.1	-46.0	3.8	1.49e+00	0	43	104	0	28	14232
2026-01-09 10:52:04.16	179.90	13.50	-34.1	-46.1	3.8	1.49e+00	0	42	104	0	28	14253
2026-01-09 10:52:05.17	179.96	13.60	-34.1	-46.0	3.8	1.49e+00	0	43	104	0	28	14227
2026-01-09 10:52:06.17	180.01	13.70	-34.1	-46.0	3.8	1.49e+00	0	42	104	0	28	14231
2026-01-09 10:52:07.17	180.06	13.80	-34.1	-46.0	3.8	1.49e+00	0	43	104	0	28	14239
2026-01-09 10:52:08.17	180.11	13.90	-34.1	-46.0	3.8	1.49e+00	0	42	104	0	28	14212
2026-01-09 10:52:09.16	180.17	13.99	-34.1	-46.0	3.8	1.49e+00	0	43	104	0	28	14172
2026-01-09 10:52:10.16	180.22	14.09	-34.1	-46.0	3.8	1.49e+00	0	43	104	0	28	14215
2026-01-09 10:52:11.16	180.27	14.19	-34.1	-46.0	3.8	1.49e+00	0	43	104	0	28	14191
2026-01-09 10:52:12.17	180.33	14.29	-34.1	-45.9	3.8	1.49e+00	0	43	104	0	28	14155
2026-01-09 10:52:13.17	180.38	14.40	-34.1	-46.0	3.8	1.49e+00	0	43	104	0	28	14182
2026-01-09 10:52:14.16	180.44	14.50	-34.1	-46.0	3.8	1.49e+00	0	43	104	0	28	14221
2026-01-09 10:52:15.17	180.49	14.60	-34.1	-46.0	3.8	1.49e+00	0	43	104	0	28	14194
2026-01-09 10:52:16.18	180.55	14.70	-34.1	-46.0	3.8	1.49e+00	0	43	104	0	28	14218
2026-01-09 10:52:17.18	180.60	14.80	-34.0	-46.0	3.8	1.49e+00	0	43	104	0	28	14207
2026-01-09 10:52:18.18	180.66	14.91	-34.1	-46.0	3.8	1.49e+00	0	43	104	0	28	14219
2026-01-09 10:52:19.18	180.72	15.01	-34.1	-46.0	3.8	1.49e+00	0	43	104	0	28	14179
2026-01-09 10:52:20.19	180.77	15.11	-34.0	-45.9	3.8	1.49e+00	0	43	104	0	28	14166
2026-01-09 10:52:21.18	180.83	15.22	-34.0	-46.0	3.8	1.49e+00	0	43	104	0	28	14190
2026-01-09 10:52:22.18	180.89	15.32	-34.1	-46.1	3.8	1.49e+00	0	43	104	0	28	14280
2026-01-09 10:52:23.19	180.95	15.43	-34.1	-46.0	3.8	1.49e+00	0	43	104	0	28	14216
2026-01-09 10:52:24.18	181.00	15.53	-34.0	-45.8	3.8	1.49e+00	0	43	104	0	28	14055
2026-01-09 10:52:25.19	181.06	15.64	-34.0	-45.8	3.8	1.49e+00	0	43	104	0	28	14110
2026-01-09 10:52:26.19	181.12	15.75	-33.9	-45.8	3.8	1.49e+00	0	43	104	0	28	14027
2026-01-09 10:52:27.19	181.18	15.85	-33.9	-45.7	3.8	1.49e+00	0	43	104	0	28	13996
2026-01-09 10:52:28.20	181.24	15.96	-33.9	-45.6	3.8	1.49e+00	0	43	104	0	28	13887
2026-01-09 10:52:29.19	181.30	16.07	-33.8	-45.5	3.8	1.49e+00	0	43	104	0	28	13804
2026-01-09 10:52:30.19	181.36	16.17	-33.8	-45.4	3.8	1.49e+00	0	43	104	0	28	13698
2026-01-09 10:52:31.19	181.42	16.28	-33.7	-45.2	3.8	1.49e+00	0	43	104	0	28	13570
2026-01-09 10:52:32.19	181.49	16.39	-33.7	-45.2	3.8	1.49e+00	0	43	104	0	28	13556
2026-01-09 10:52:33.19	181.55	16.50	-33.7	-45.2	3.8	1.49e+00	0	43	104	0	28	13567
2026-01-09 10:52:34.19	181.61	16.61	-33.6	-45.1	3.8	1.49e+00	0	42	104	0	28	13510
2026-01-09 10:52:35.18	181.67	16.72	-33.6	-45.1	3.8	1.49e+00	0	43	104	0	28	13488
2026-01-09 10:52:36.18	181.74	16.83	-33.5	-44.8	3.8	1.49e+00	0	43	104	0	28	13187
2026-01-09 10:52:37.18	181.80	16.94	-33.3	-44.9	3.8	1.49e+00	0	43	104	0	27	13645
2026-01-09 10:52:38.19	181.86	17.06	-32.3	-38.7	4.2	1.47e+00	0	43	104	0	26	7453
2026-01-09 10:52:39.18	181.93	17.17	-32.1	-38.2	4.3	1.44e+00	0	43	104	0	25	7244
2026-01-09 10:52:40.18	181.99	17.28	-31.8	-36.2	7.0	1.80e-01	0	43	104	0	25	5957
2026-01-09 10:52:41.18	182.06	17.39	-31.4	-35.1	8.2	6.87e-02	0	43	0	2097152	24	5528
2026-01-09 10:52:42.18	182.13	17.51	-30.8	-33.7	9.5	2.63e-02	0	43	0	5242880	23	5056
2026-01-09 10:52:43.19	182.19	17.62	-30.1	-32.8	10.8	4.50e-03	0	43	0	8388608	21	4911
2026-01-09 10:52:44.18	182.26	17.73	-29.4	-31.3	12.1	4.33e-04	0	43	0	11534336	20	4492
2026-01-09 10:52:45.18	182.33	17.85	-28.8	-30.3	13.1	4.34e-05	0	43	0	14680064	19	4268
2026-01-09 10:52:46.18	182.39	17.97	-28.2	-29.9	13.9	1.29e-05	0	43	0	17825792	17	4361
2026-01-09 10:52:47.18	182.46	18.08	-27.8	-29.0	14.5	7.00e-07	0	43	0	20971520	17	4106
2026-01-09 10:52:48.19	182.53	18.20	-27.6	-29.0	14.8	0.00e+00	0	42	0	24117248	16	4209
2026-01-09 10:52:49.19	182.60	18.32	-27.7	-29.1	14.7	9.90e-06	0	43	0	27262976	16	4256
2026-01-09 10:52:50.18	182.67	18.43	-27.9	-29.5	14.5	7.00e-07	0	43	0	30408704	16	4364
2026-01-09 10:52:51.19	182.74	18.55	-28.2	-30.4	14.0	0.00e+00	0	43	0	33554432	16	4622
2026-01-09 10:52:52.19	182.81	18.67	-28.7	-31.0	13.3	1.60e-05	0	43	0	36700160	17	4705
2026-01-09 10:52:53.19	182.89	18.79	-28.6	-30.9	13.4	1.98e-05	0	43	0	39845888	17	4673
2026-01-09 10:52:54.18	182.96	18.91	-28.2	-29.9	14.0	7.00e-07	0	43	0	42991616	17	4361
2026-01-09 10:52:55.17	183.03	19.03	-28.6	-30.8	13.4	1.22e-05	0	43	0	45088768	17	4651
2026-01-09 10:52:56.17	183.10	19.15	-28.3	-30.0	13.9	2.20e-06	0	43	0	48234496	17	4405
2026-01-09 10:52:57.16	183.17	19.27	-27.9	-29.3	14.3	0.00e+00	0	43	0	51380224	17	4185
2026-01-09 10:52:58.17	183.25	19.39	-27.7	-29.1	14.8	3.80e-06	0	43	0	54525952	16	4254
2026-01-09 10:52:59.17	183.32	19.52	-27.5	-28.8	15.0	0.00e+00	0	43	0	57671680	16	4148
2026-01-09 10:53:00.17	183.40	19.64	-27.5	-28.6	15.0	7.00e-07	0	43	0	60817408	16	4114
2026-01-09 10:53:01.18	183.48	19.76	-27.5	-28.7	15.0	0.00e+00	0	43	0	63963136	16	4131
2026-01-09 10:53:02.18	183.55	19.89	-27.4	-28.5	15.2	0.00e+00	0	43	0	67108864	16	4067
2026-01-09 10:53:03.17	183.63	20.01	-27.4	-28.5	15.1	0.00e+00	0	43	0	70254592	16	4081
2026-01-09 10:53:04.17	183.71	20.14	-27.3	-28.2	15.2	3.80e-06	0	43	0	73400320	16	4009
2026-01-09 10:53:05.17	183.79	20.26	-27.1	-28.4	15.3	0.00e+00	0	43	0	76546048	15	4152
2026-01-09 10:53:06.17	183.86	20.39	-27.1	-28.4	15.3	0.00e+00	0	43	0	79691776	15	4154
2026-01-09 10:53:07.17	183.94	20.52	-27.1	-28.3	15.3	0.00e+00	0	43	0	82837504	15	4126
2026-01-09 10:53:08.16	184.02	20.64	-26.8	-27.7	15.7	0.00e+00	0	43	0	85983232	15	3988
2026-01-09 10:53:09.16	184.10	20.77	-26.8	-27.7	15.7	0.00e+00	0	43	0	89128960	15	3993
2026-01-09 10:53:10.16	184.19	20.90	-26.8	-27.7	15.7	0.00e+00	0	43	0	92274688	15	3987
2026-01-09 10:53:11.16	184.27	21.03	-26.7	-28.0	15.8	0.00e+00	0	43	0	95420416	14	4161
2026-01-09 10:53:12.16	184.35	21.16	-26.8	-28.0	15.8	0.00e+00	0	43	0	98566144	14	4176
2026-01-09 10:53:13.15	184.43	21.29	-26.9	-28.3	15.6	5.30e-06	0	43	0	101711872	14	4252
2026-01-09 10:53:14.15	184.52	21.42	-26.6	-27.7	16.0	0.00e+00	0	43	0	104857600	14	4079
2026-01-09 10:53:15.16	184.60	21.55	-26.4	-27.3	16.2	0.00e+00	0	43	0	108003328	14	3971
2026-01-09 10:53:16.16	184.69	21.69	-26.3	-27.1	16.3	0.00e+00	0	43	0	111149056	14	3921
2026-01-09 10:53:17.15	184.78	21.82	-26.4	-27.3	16.3	0.00e+00	0	43	0	114294784	14	3969
2026-01-09 10:53:18.16	184.86	21.95	-26.4	-27.3	16.2	0.00e+00	0	43	0	117440512	14	3971
2026-01-09 10:53:19.15	184.95	22.09	-26.6	-27.6	16.1	0.00e+00	0	43	0	120586240	14	4048
2026-01-09 10:53:20.15	185.04	22.22	-26.3	-27.1	16.4	0.00e+00	0	43	0	123731968	14	3916
2026-01-09 10:53:21.15	185.13	22.36	-26.1	-27.1	16.6	0.00e+00	0	43	0	126877696	13	4037
2026-01-09 10:53:22.15	185.22	22.50	-26.1	-27.0	16.7	0.00e+00	0	43	0	130023424	13	3995
2026-01-09 10:53:23.14	185.31	22.63	-26.0	-26.7	16.8	0.00e+00	0	43	0	133169152	13	3937
2026-01-09 10:53:24.14	185.40	22.77	-25.9	-26.7	16.8	0.00e+00	0	43	0	136314880	13	3931
2026-01-09 10:53:25.14	185.49	22.91	-26.1	-27.0	16.7	0.00e+00	0	43	0	139460608	13	4005
2026-01-09 10:53:26.14	185.58	23.05	-26.0	-26.8	16.8	0.00e+00	0	43	0	142606336	13	3957
2026-01-09 10:53:27.15	185.68	23.19	-26.0	-26.8	16.8	0.00e+00	0	43	0	145752064	13	3951
2026-01-09 10:53:28.15	185.77	23.33	-26.0	-26.9	16.7	0.00e+00	0	43	0	148897792	13	3993
2026-01-09 10:53:29.16	185.87	23.47	-26.1	-27.1	16.6	0.00e+00	0	43	0	152043520	13	4028
2026-01-09 10:53:30.16	185.97	23.61	-26.0	-26.7	16.8	0.00e+00	0	43	0	155189248	13	3931
2026-01-09 10:53:31.16	186.06	23.76	-26.0	-26.8	16.8	0.00e+00	0	43	0	158334976	13	3943
2026-01-09 10:53:32.16	186.16	23.90	-26.0	-26.8	16.8	0.00e+00	0	43	0	161480704	13	3944
2026-01-09 10:53:33.15	186.26	24.04	-26.1	-27.0	16.7	0.00e+00	0	43	0	164626432	13	4008
2026-01-09 10:53:34.14	186.36	24.19	-26.1	-27.0	16.7	0.00e+00	0	43	0	167772160	13	3997
2026-01-09 10:53:35.15	186.46	24.33	-26.2	-27.2	16.6	0.00e+00	0	43	0	170917888	13	4052
2026-01-09 10:53:36.15	186.56	24.48	-26.2	-27.1	16.6	0.00e+00	0	43	0	174063616	13	4033
2026-01-09 10:53:37.15	186.66	24.63	-26.2	-27.3	16.6	0.00e+00	0	43	0	177209344	13	4062
2026-01-09 10:53:38.15	186.77	24.77	-26.2	-27.2	16.6	0.00e+00	0	43	0	180355072	13	4043
2026-01-09 10:53:39.15	186.87	24.92	-26.4	-27.7	16.4	0.00e+00	0	43	0	183500800	13	4177
2026-01-09 10:53:40.15	186.98	25.07	-26.3	-27.5	16.4	0.00e+00	0	43	0	186646528	13	4138
2026-01-09 10:53:41.16	187.08	25.22	-26.3	-27.5	16.4	0.00e+00	0	43	0	189792256	13	4133
2026-01-09 10:53:42.16	187.19	25.37	-26.4	-27.6	16.4	0.00e+00	0	42	0	192937984	13	4166
2026-01-09 10:53:43.16	187.30	25.53	-26.4	-27.6	16.4	0.00e+00	0	43	0	196083712	13	4148
2026-01-09 10:53:44.16	187.41	25.68	-26.4	-27.7	16.3	0.00e+00	0	43	0	198180864	13	4187
2026-01-09 10:53:45.16	187.52	25.83	-26.4	-27.8	16.3	0.00e+00	0	43	0	201326592	13	4193
2026-01-09 10:53:46.17	187.63	25.99	-26.5	-28.0	16.2	0.00e+00	0	43	0	204472320	13	4247
2026-01-09 10:53:47.17	187.74	26.14	-26.6	-28.1	16.1	0.00e+00	0	43	0	207618048	13	4290
2026-01-09 10:53:48.18	187.86	26.30	-26.7	-28.4	16.0	0.00e+00	0	43	0	211812352	13	4376
2026-01-09 10:53:49.18	187.97	26.45	-26.9	-28.7	15.8	0.00e+00	0	43	0	214958080	13	4460
2026-01-09 10:53:50.18	188.09	26.61	-26.9	-28.9	15.8	0.00e+00	0	43	0	218103808	13	4498
2026-01-09 10:53:51.19	188.21	26.77	-26.9	-28.9	15.7	0.00e+00	0	43	0	221249536	13	4515
2026-01-09 10:53:52.19	188.32	26.93	-27.1	-28.8	15.5	0.00e+00	0	43	0	223346688	14	4354
2026-01-09 10:53:53.19	188.44	27.09	-27.3	-29.1	15.4	0.00e+00	0	43	0	226492416	14	4449
2026-01-09 10:53:54.19	188.56	27.25	-27.2	-29.0	15.4	0.00e+00	0	43	0	229638144	14	4418
2026-01-09 10:53:55.19	188.68	27.41	-27.2	-28.9	15.5	0.00e+00	0	43	0	232783872	14	4385
2026-01-09 10:53:56.20	188.81	27.57	-27.3	-29.3	15.2	0.00e+00	0	43	0	235929600	14	4516
2026-01-09 10:53:57.20	188.93	27.74	-27.3	-29.1	15.4	0.00e+00	0	43	0	239075328	14	4455
2026-01-09 10:53:58.20	189.06	27.90	-27.3	-29.1	15.4	0.00e+00	0	43	0	242221056	14	4460
2026-01-09 10:53:59.20	189.18	28.06	-27.4	-29.5	15.2	0.00e+00	0	43	0	245366784	14	4566
2026-01-09 10:54:00.20	189.31	28.23	-27.3	-29.1	15.3	7.00e-07	0	43	0	248512512	14	4457
2026-01-09 10:54:01.20	189.44	28.40	-27.2	-28.9	15.4	0.00e+00	0	43	0	251658240	14	4409
2026-01-09 10:54:02.21	189.57	28.56	-27.2	-29.0	15.4	0.00e+00	0	43	0	254803968	14	4419
2026-01-09 10:54:03.20	189.70	28.73	-27.1	-28.8	15.6	0.00e+00	0	43	0	257949696	14	4366
2026-01-09 10:54:04.20	189.83	28.90	-27.2	-28.9	15.5	0.00e+00	0	43	0	261095424	14	4389
2026-01-09 10:54:05.20	189.97	29.07	-27.1	-28.8	15.6	0.00e+00	0	43	0	264241152	14	4364
2026-01-09 10:54:06.19	190.10	29.24	-27.2	-29.1	15.4	0.00e+00	0	43	0	267386880	14	4438
2026-01-09 10:54:07.19	190.24	29.41	-27.1	-28.7	15.6	0.00e+00	0	43	0	270532608	14	4348
2026-01-09 10:54:08.19	190.38	29.58	-27.1	-28.7	15.6	0.00e+00	0	43	0	273678336	14	4347
2026-01-09 10:54:09.19	190.52	29.75	-27.1	-28.8	15.5	0.00e+00	0	43	0	276824064	14	4377
2026-01-09 10:54:10.19	190.66	29.93	-27.1	-28.7	15.6	0.00e+00	0	43	0	279969792	14	4329
2026-01-09 10:54:11.20	190.80	30.10	-27.1	-28.7	15.6	0.00e+00	0	43	0	283115520	14	4327
2026-01-09 10:54:12.20	190.95	30.28	-27.2	-29.0	15.4	5.30e-06	0	43	0	286261248	14	4425
2026-01-09 10:54:13.21	191.09	30.46	-27.0	-28.5	15.7	0.00e+00	0	43	0	289406976	14	4284
2026-01-09 10:54:14.20	191.24	30.63	-27.0	-28.4	15.8	0.00e+00	0	43	0	292552704	14	4263
2026-01-09 10:54:15.20	191.39	30.81	-27.0	-28.5	15.7	0.00e+00	0	43	0	295698432	14	4273
2026-01-09 10:54:16.20	191.54	30.99	-26.9	-28.4	15.8	0.00e+00	0	43	0	298844160	14	4241
2026-01-09 10:54:17.19	191.69	31.17	-26.9	-28.3	15.9	0.00e+00	0	43	0	301989888	14	4223
2026-01-09 10:54:18.19	191.84	31.35	-26.9	-28.3	15.9	0.00e+00	0	43	0	305135616	14	4217
2026-01-09 10:54:19.19	192.00	31.53	-26.9	-28.4	15.8	7.00e-07	0	43	0	308281344	14	4248
2026-01-09 10:54:20.20	192.16	31.71	-26.9	-28.3	15.9	0.00e+00	0	43	0	311427072	14	4216
2026-01-09 10:54:21.19	192.31	31.90	-26.9	-28.4	15.9	0.00e+00	0	43	0	314572800	14	4253
2026-01-09 10:54:22.20	192.48	32.08	-27.0	-28.4	15.8	0.00e+00	0	43	0	317718528	14	4257
2026-01-09 10:54:23.20	192.64	32.27	-27.0	-28.5	15.8	0.00e+00	0	43	0	320864256	14	4290
2026-01-09 10:54:24.19	192.80	32.45	-27.0	-28.5	15.8	0.00e+00	0	43	0	324009984	14	4275
2026-01-09 10:54:25.19	192.97	32.64	-27.0	-28.5	15.8	0.00e+00	0	43	0	327155712	14	4279
2026-01-09 10:54:26.19	193.13	32.83	-27.3	-29.2	15.4	0.00e+00	0	43	0	330301440	14	4491
2026-01-09 10:54:27.19	193.30	33.02	-27.1	-28.7	15.7	0.00e+00	0	43	0	333447168	14	4327
2026-01-09 10:54:28.19	193.48	33.21	-27.1	-28.6	15.8	0.00e+00	0	43	0	336592896	14	4307
2026-01-09 10:54:29.18	193.65	33.39	-27.2	-29.0	15.5	0.00e+00	0	43	0	339738624	14	4415
2026-01-09 10:54:30.18	193.82	33.59	-27.3	-29.1	15.5	0.00e+00	0	43	0	342884352	14	4440
2026-01-09 10:54:31.18	194.00	33.78	-27.3	-29.2	15.4	0.00e+00	0	43	0	346030080	14	4482
2026-01-09 10:54:32.18	194.18	33.97	-27.4	-29.3	15.4	0.00e+00	0	43	0	349175808	14	4508
2026-01-09 10:54:33.18	194.36	34.17	-27.6	-29.3	15.1	3.00e-06	0	43	0	352321536	15	4412
2026-01-09 10:54:34.18	194.55	34.36	-27.7	-29.6	14.9	0.00e+00	0	43	0	355467264	15	4495
2026-01-09 10:54:35.18	194.73	34.56	-27.8	-29.7	14.8	7.00e-07	0	43	0	358612992	15	4520
2026-01-09 10:54:36.18	194.92	34.76	-27.7	-29.7	14.9	6.10e-06	0	43	0	361758720	15	4505
2026-01-09 10:54:37.18	195.11	34.95	-27.9	-30.1	14.7	0.00e+00	0	43	0	364904448	15	4617
2026-01-09 10:54:38.18	195.31	35.15	-27.9	-30.2	14.6	0.00e+00	0	43	0	368050176	15	4649
2026-01-09 10:54:39.17	195.50	35.35	-27.9	-30.1	14.6	7.00e-07	0	43	0	370147328	15	4618
2026-01-09 10:54:40.18	195.70	35.55	-27.9	-30.1	14.6	0.00e+00	0	43	0	374341632	15	4628
2026-01-09 10:54:41.18	195.90	35.75	-28.3	-30.5	14.3	1.50e-06	0	43	0	377487360	16	4614
2026-01-09 10:54:42.18	196.10	35.96	-28.2	-30.2	14.5	8.30e-06	0	43	0	380633088	16	4519
2026-01-09 10:54:43.18	196.31	36.16	-28.2	-30.3	14.4	7.00e-07	0	43	0	382730240	16	4564
2026-01-09 10:54:44.18	196.51	36.36	-28.3	-30.4	14.4	0.00e+00	0	43	0	385875968	16	4592
2026-01-09 10:54:45.18	196.72	36.57	-28.3	-30.4	14.4	4.50e-06	0	43	0	389021696	16	4588
2026-01-09 10:54:46.17	196.93	36.77	-28.3	-30.4	14.4	7.00e-07	0	43	0	392167424	16	4580
2026-01-09 10:54:47.17	197.15	36.98	-28.2	-30.3	14.5	0.00e+00	0	43	0	395313152	16	4560
2026-01-09 10:54:48.18	197.37	37.19	-28.3	-30.4	14.4	1.50e-06	0	43	0	398458880	16	4578
2026-01-09 10:54:49.17	197.59	37.40	-28.5	-30.3	14.2	7.00e-07	0	43	0	401604608	17	4456
2026-01-09 10:54:50.18	197.81	37.61	-28.5	-30.3	14.2	1.50e-06	0	43	0	404750336	17	4452
2026-01-09 10:54:51.17	198.04	37.82	-28.8	-31.1	13.7	9.90e-06	0	43	0	407896064	17	4685
2026-01-09 10:54:52.17	198.27	38.03	-28.7	-30.8	13.9	7.60e-06	0	43	0	411041792	17	4605
2026-01-09 10:54:53.18	198.50	38.24	-28.7	-30.7	13.9	4.50e-06	0	43	0	414187520	17	4578
2026-01-09 10:54:54.17	198.73	38.45	-28.8	-31.1	13.7	3.00e-06	0	43	0	417333248	17	4701
2026-01-09 10:54:55.16	198.97	38.66	-28.8	-31.1	13.7	6.80e-06	0	43	0	420478976	17	4690
2026-01-09 10:54:56.15	199.21	38.88	-28.9	-31.3	13.6	3.80e-06	0	43	0	423624704	17	4749
2026-01-09 10:54:57.16	199.46	39.09	-29.1	-31.3	13.3	1.83e-05	0	43	0	426770432	18	4645
2026-01-09 10:54:58.15	199.70	39.31	-29.1	-31.2	13.4	1.67e-05	0	43	0	429916160	18	4619
2026-01-09 10:54:59.15	199.95	39.52	-29.5	-32.2	12.8	2.59e-05	0	43	0	433061888	18	4947
2026-01-09 10:55:00.15	200.21	39.74	-29.6	-32.1	12.5	1.14e-04	0	43	0	436207616	19	4809
2026-01-09 10:55:01.15	200.46	39.96	-29.5	-31.8	12.7	8.54e-05	0	43	0	439353344	19	4707
2026-01-09 10:55:02.14	200.72	40.18	-29.3	-31.4	12.9	4.95e-05	0	43	0	442499072	19	4578
2026-01-09 10:55:03.15	200.99	40.40	-29.3	-31.2	13.1	3.05e-05	0	43	0	445644800	19	4503
2026-01-09 10:55:04.15	201.26	40.62	-29.2	-31.2	13.1	2.89e-05	0	43	0	448790528	19	4489
2026-01-09 10:55:05.15	201.53	40.84	-29.0	-30.6	13.4	1.44e-05	0	43	0	451936256	19	4334
2026-01-09 10:55:06.16	201.81	41.06	-29.2	-31.0	13.2	2.13e-05	0	43	0	455081984	19	4426
2026-01-09 10:55:07.16	202.08	41.29	-28.9	-30.3	13.7	2.05e-05	0	43	0	458227712	19	4241
2026-01-09 10:55:08.17	202.37	41.51	-29.1	-30.8	13.3	2.36e-05	0	42	0	461373440	19	4391
2026-01-09 10:55:09.16	202.65	41.73	-29.3	-31.3	13.0	2.59e-05	0	43	0	464519168	19	4544
2026-01-09 10:55:10.17	202.95	41.96	-29.2	-31.1	13.1	2.13e-05	0	43	0	467664896	19	4472
2026-01-09 10:55:11.18	203.25	42.19	-29.5	-31.7	12.8	4.80e-05	0	43	0	470810624	19	4667
2026-01-09 10:55:12.17	203.54	42.41	-29.7	-32.2	12.4	1.32e-04	0	43	0	473956352	19	4822
2026-01-09 10:55:13.17	203.84	42.63	-29.9	-32.9	12.0	2.37e-04	0	43	0	477102080	19	5066
2026-01-09 10:55:14.17	204.15	42.86	-29.7	-32.4	12.4	1.76e-04	0	43	0	480247808	19	4886
2026-01-09 10:55:15.15	204.46	43.08	-29.5	-31.7	12.8	6.10e-05	0	43	0	483393536	19	4649
2026-01-09 10:55:16.15	204.77	43.31	-29.2	-31.1	13.2	2.67e-05	0	43	0	486539264	19	4473
2026-01-09 10:55:17.15	205.09	43.54	-29.4	-31.5	13.0	4.19e-05	0	43	0	489684992	19	4585
2026-01-09 10:55:18.15	205.42	43.76	-29.5	-31.8	12.8	5.41e-05	0	43	0	492830720	19	4698
2026-01-09 10:55:19.14	205.74	43.99	-29.4	-31.6	12.9	4.04e-05	0	43	0	495976448	19	4626
2026-01-09 10:55:20.14	206.08	44.22	-29.4	-31.6	12.9	4.34e-05	0	43	0	499122176	19	4642
2026-01-09 10:55:21.14	206.41	44.45	-29.5	-31.7	12.8	5.49e-05	0	43	0	502267904	19	4644
2026-01-09 10:55:22.14	206.76	44.67	-29.3	-31.3	13.1	4.73e-05	0	43	0	505413632	19	4534
2026-01-09 10:55:23.14	207.11	44.90	-29.3	-31.3	13.1	2.05e-05	0	43	0	508559360	19	4538
2026-01-09 10:55:24.15	207.46	45.14	-29.4	-31.6	12.9	3.05e-05	0	43	0	511705088	19	4625
2026-01-09 10:55:25.15	207.82	45.36	-29.4	-31.5	13.0	4.34e-05	0	43	0	514850816	19	4592
2026-01-09 10:55:26.15	208.18	45.59	-29.4	-31.4	13.0	3.12e-05	0	43	0	516947968	19	4573
2026-01-09 10:55:27.15	208.55	45.82	-29.1	-30.8	13.4	1.67e-05	0	43	0	520093696	19	4380
2026-01-09 10:55:28.15	208.93	46.05	-29.1	-30.8	13.4	2.13e-05	0	43	0	523239424	19	4376
2026-01-09 10:55:29.15	209.31	46.28	-29.2	-30.9	13.3	2.13e-05	0	43	0	526385152	19	4415
2026-01-09 10:55:30.14	209.69	46.51	-28.8	-30.2	13.8	6.10e-06	0	42	0	529530880	19	4191
2026-01-09 10:55:31.14	210.08	46.74	-28.8	-30.5	13.9	5.30e-06	0	43	0	532676608	18	4392
2026-01-09 10:55:32.14	210.47	46.97	-29.0	-31.1	13.5	1.22e-05	0	42	0	535822336	18	4576
2026-01-09 10:55:33.14	210.88	47.20	-29.0	-31.1	13.5	1.83e-05	0	43	0	538968064	18	4561
2026-01-09 10:55:34.13	211.28	47.42	-29.2	-31.4	13.3	1.37e-05	0	43	0	542113792	18	4673
2026-01-09 10:55:35.13	211.69	47.65	-29.3	-31.8	13.1	2.51e-05	0	43	0	545259520	18	4807
2026-01-09 10:55:36.14	212.12	47.88	-29.4	-31.9	13.0	2.21e-05	0	43	0	548405248	18	4849
2026-01-09 10:55:37.15	212.55	48.11	-29.3	-31.8	13.1	2.13e-05	0	43	0	551550976	18	4813
2026-01-09 10:55:38.16	212.98	48.34	-29.1	-31.4	13.4	1.52e-05	0	42	0	554696704	18	4659
2026-01-09 10:55:39.16	213.42	48.57	-29.2	-31.6	13.3	1.37e-05	0	43	0	557842432	18	4720
2026-01-09 10:55:40.17	213.87	48.79	-29.1	-31.3	13.4	1.37e-05	0	43	0	560988160	18	4619
2026-01-09 10:55:41.18	214.33	49.02	-29.1	-31.3	13.4	1.44e-05	0	43	0	564133888	18	4643
2026-01-09 10:55:42.18	214.79	49.24	-29.0	-31.0	13.5	1.67e-05	0	43	0	567279616	18	4559
2026-01-09 10:55:43.18	215.25	49.47	-28.9	-30.8	13.7	1.14e-05	0	43	0	570425344	18	4482
2026-01-09 10:55:44.18	215.72	49.69	-28.9	-30.9	13.7	3.80e-06	0	43	0	573571072	18	4494
2026-01-09 10:55:45.18	216.20	49.91	-29.1	-31.3	13.4	1.22e-05	0	43	0	576716800	18	4647
2026-01-09 10:55:46.18	216.69	50.13	-28.9	-30.7	13.8	4.50e-06	0	43	0	579862528	18	4452
2026-01-09 10:55:47.17	217.17	50.35	-29.0	-30.9	13.6	8.30e-06	0	43	0	583008256	18	4515
2026-01-09 10:55:48.18	217.68	50.57	-28.6	-30.2	14.1	4.50e-06	0	43	0	586153984	18	4292
2026-01-09 10:55:49.17	218.18	50.78	-28.5	-29.8	14.4	2.20e-06	0	43	0	589299712	18	4176
2026-01-09 10:55:50.18	218.70	51.00	-28.5	-29.7	14.4	0.00e+00	0	43	0	592445440	18	4169
2026-01-09 10:55:51.18	219.22	51.22	-28.6	-30.1	14.2	0.00e+00	0	43	0	595591168	18	4271
2026-01-09 10:55:52.17	219.74	51.43	-28.7	-30.3	14.0	5.30e-06	0	43	0	598736896	18	4333
2026-01-09 10:55:53.17	220.28	51.64	-28.8	-30.6	13.8	1.50e-06	0	43	0	601882624	18	4424
2026-01-09 10:55:54.17	220.82	51.85	-28.5	-29.9	14.2	2.20e-06	0	43	0	605028352	18	4229
2026-01-09 10:55:55.16	221.37	52.05	-28.7	-30.3	14.0	1.50e-06	0	43	0	608174080	18	4351
2026-01-09 10:55:56.16	221.93	52.26	-28.7	-30.4	14.0	5.30e-06	0	43	0	611319808	18	4361
2026-01-09 10:55:57.15	222.49	52.46	-28.6	-30.1	14.2	2.20e-06	0	43	0	614465536	18	4259
2026-01-09 10:55:58.16	223.07	52.66	-28.5	-29.9	14.3	1.50e-06	0	43	0	617611264	18	4218
2026-01-09 10:55:59.15	223.64	52.86	-28.7	-30.4	14.0	6.10e-06	0	43	0	620756992	18	4365
2026-01-09 10:56:00.14	224.23	53.06	-28.8	-30.5	13.9	3.80e-06	0	43	0	623902720	18	4408
2026-01-09 10:56:01.15	224.83	53.25	-28.6	-30.1	14.1	3.00e-06	0	43	0	627048448	18	4285
2026-01-09 10:56:02.15	225.44	53.45	-28.5	-29.9	14.3	7.00e-07	0	43	0	630194176	18	4233
2026-01-09 10:56:03.15	226.05	53.64	-28.4	-29.7	14.4	3.00e-06	0	43	0	633339904	18	4159
2026-01-09 10:56:04.15	226.67	53.82	-28.5	-29.8	14.4	1.50e-06	0	43	0	636485632	18	4200
2026-01-09 10:56:05.15	227.30	54.01	-28.6	-30.0	14.2	1.50e-06	0	43	0	639631360	18	4251
2026-01-09 10:56:06.14	227.93	54.19	-28.8	-30.6	13.8	7.00e-07	0	43	0	642777088	18	4433
2026-01-09 10:56:07.14	228.58	54.37	-29.2	-31.6	13.2	1.22e-05	0	43	0	645922816	18	4747
2026-01-09 10:56:08.14	229.23	54.54	-28.9	-30.8	13.7	6.10e-06	0	43	0	649068544	18	4484
2026-01-09 10:56:09.15	229.90	54.72	-28.9	-30.8	13.7	2.20e-06	0	43	0	652214272	18	4495
2026-01-09 10:56:10.14	230.56	54.89	-28.8	-30.5	14.0	1.50e-06	0	43	0	655360000	18	4393
2026-01-09 10:56:11.14	231.24	55.05	-28.7	-30.3	14.1	6.10e-06	0	43	0	658505728	18	4328
2026-01-09 10:56:12.14	231.92	55.22	-28.7	-30.3	14.1	7.00e-07	0	43	0	661651456	18	4343
2026-01-09 10:56:13.14	232.61	55.38	-29.0	-31.0	13.7	7.60e-06	0	43	0	664797184	18	4552
2026-01-09 10:56:14.14	233.32	55.53	-29.2	-31.5	13.3	1.06e-05	0	43	0	667942912	18	4716
2026-01-09 10:56:15.13	234.02	55.68	-29.0	-31.0	13.6	1.67e-05	0	43	0	671088640	18	4530
2026-01-09 10:56:16.14	234.74	55.83	-28.1	-29.5	14.8	0.00e+00	0	42	0	673185792	17	4213
2026-01-09 10:56:17.14	235.46	55.98	-27.5	-28.6	15.6	0.00e+00	0	43	0	676331520	16	4059
2026-01-09 10:56:18.14	236.19	56.12	-27.4	-28.3	15.8	0.00e+00	0	43	0	679477248	16	3988
2026-01-09 10:56:19.13	236.92	56.25	-27.7	-29.0	15.4	0.00e+00	0	43	0	682622976	16	4170
2026-01-09 10:56:20.14	237.67	56.38	-27.9	-29.4	15.1	7.00e-07	0	43	0	685768704	16	4299
2026-01-09 10:56:21.14	238.43	56.51	-27.8	-29.2	15.3	0.00e+00	0	43	0	688914432	16	4246
2026-01-09 10:56:22.14	239.18	56.63	-27.0	-27.8	16.1	0.00e+00	0	43	0	692060160	15	3984
2026-01-09 10:56:23.14	239.95	56.75	-26.9	-27.7	16.2	0.00e+00	0	43	0	695205888	15	3947
2026-01-09 10:56:24.14	240.72	56.87	-27.2	-28.4	15.8	0.00e+00	0	43	0	698351616	15	4122
2026-01-09 10:56:25.13	241.49	56.97	-27.1	-28.1	15.9	0.00e+00	0	43	0	701497344	15	4057
2026-01-09 10:56:26.13	242.27	57.08	-26.7	-27.8	16.4	0.00e+00	0	43	0	704643072	14	4080
2026-01-09 10:56:27.13	243.06	57.18	-26.3	-26.9	16.9	0.00e+00	0	43	0	707788800	14	3845
2026-01-09 10:56:28.13	243.86	57.27	-26.3	-27.4	16.8	0.00e+00	0	43	0	710934528	13	4084
2026-01-09 10:56:29.12	244.65	57.36	-26.4	-27.7	16.7	0.00e+00	0	43	0	714080256	13	4152
2026-01-09 10:56:30.13	245.46	57.44	-26.6	-28.2	16.4	0.00e+00	0	43	0	717225984	13	4289
2026-01-09 10:56:31.12	246.27	57.52	-26.6	-27.9	16.6	0.00e+00	0	43	0	720371712	13	4228
2026-01-09 10:56:32.12	247.08	57.60	-26.9	-28.7	16.2	0.00e+00	0	43	0	723517440	13	4445
2026-01-09 10:56:33.12	247.90	57.67	-27.3	-29.1	15.7	0.00e+00	0	43	0	726663168	14	4425
2026-01-09 10:56:34.13	248.73	57.73	-27.4	-29.3	15.6	0.00e+00	0	43	0	729808896	14	4506
2026-01-09 10:56:35.13	249.56	57.79	-26.8	-28.1	16.3	1.50e-06	0	43	0	732954624	14	4160
2026-01-09 10:56:36.13	250.39	57.84	-26.4	-27.2	16.8	0.00e+00	0	43	0	736100352	14	3922
2026-01-09 10:56:37.13	251.22	57.88	-26.5	-27.4	16.6	0.00e+00	0	43	0	739246080	14	3992
2026-01-09 10:56:38.12	252.05	57.92	-26.6	-27.5	16.6	0.00e+00	0	43	0	742391808	14	4003
2026-01-09 10:56:39.12	252.88	57.96	-26.5	-27.4	16.7	0.00e+00	0	43	0	745537536	14	3985
2026-01-09 10:56:40.12	253.72	57.99	-26.7	-27.8	16.5	0.00e+00	0	43	0	748683264	14	4072
2026-01-09 10:56:41.12	254.56	58.01	-26.7	-27.8	16.4	4.50e-06	0	43	0	751828992	14	4087
2026-01-09 10:56:42.12	255.41	58.03	-26.9	-28.1	16.2	0.00e+00	0	43	0	754974720	14	4170
2026-01-09 10:56:43.12	256.25	58.04	-26.7	-27.7	16.5	0.00e+00	0	43	0	758120448	14	4056
2026-01-09 10:56:44.12	257.09	58.05	-26.5	-27.3	16.7	9.90e-06	0	43	0	761266176	14	3942
2026-01-09 10:56:45.12	257.94	58.05	-26.8	-27.9	16.3	0.00e+00	0	43	0	764411904	14	4112
2026-01-09 10:56:46.12	258.78	58.05	-26.8	-27.9	16.3	0.00e+00	0	43	0	767557632	14	4100
2026-01-09 10:56:47.13	259.63	58.03	-26.9	-28.2	16.1	6.10e-06	0	43	0	770703360	14	4188
2026-01-09 10:56:48.14	260.49	58.02	-27.0	-28.5	16.1	0.00e+00	0	43	0	773849088	14	4263
2026-01-09 10:56:49.14	261.33	58.00	-27.0	-28.4	16.1	0.00e+00	0	43	0	776994816	14	4257
2026-01-09 10:56:50.15	262.18	57.97	-26.9	-28.3	16.2	6.80e-06	0	43	0	780140544	14	4219
2026-01-09 10:56:51.16	263.02	57.93	-27.1	-28.7	15.9	0.00e+00	0	43	0	783286272	14	4318
2026-01-09 10:56:52.16	263.86	57.89	-27.1	-28.8	15.9	0.00e+00	0	43	0	786432000	14	4340
2026-01-09 10:56:53.16	264.69	57.85	-27.2	-28.8	15.9	7.60e-06	0	43	0	789577728	14	4348
2026-01-09 10:56:54.16	265.52	57.80	-27.0	-28.5	16.0	0.00e+00	0	43	0	792723456	14	4267
2026-01-09 10:56:55.17	266.35	57.74	-27.1	-28.7	15.9	0.00e+00	0	43	0	795869184	14	4319
2026-01-09 10:56:56.17	267.18	57.68	-27.3	-29.2	15.7	6.10e-06	0	43	0	799014912	14	4468
2026-01-09 10:56:57.18	268.01	57.61	-27.1	-28.7	15.9	0.00e+00	0	43	0	802160640	14	4316
2026-01-09 10:56:58.19	268.83	57.54	-27.0	-28.5	16.1	0.00e+00	0	43	0	805306368	14	4257
2026-01-09 10:56:59.20	269.65	57.46	-27.2	-29.0	15.8	0.00e+00	0	43	0	808452096	14	4397
2026-01-09 10:57:00.20	270.45	57.38	-27.1	-28.7	15.9	0.00e+00	0	43	0	811597824	14	4329
2026-01-09 10:57:01.20	271.25	57.29	-27.1	-28.6	16.0	0.00e+00	0	43	0	814743552	14	4310
2026-01-09 10:57:02.21	272.06	57.20	-27.0	-28.6	16.0	5.30e-06	0	43	0	817889280	14	4284
2026-01-09 10:57:03.22	272.85	57.10	-27.3	-29.2	15.7	0.00e+00	0	43	0	821035008	14	4466
2026-01-09 10:57:04.23	273.64	56.99	-27.5	-29.5	15.5	0.00e+00	0	43	0	824180736	14	4550
2026-01-09 10:57:05.23	274.42	56.88	-27.5	-29.1	15.4	0.00e+00	0	43	0	827326464	15	4325
2026-01-09 10:57:06.23	275.19	56.77	-27.5	-29.2	15.3	0.00e+00	0	42	0	830472192	15	4335
2026-01-09 10:57:07.23	275.96	56.65	-27.2	-28.5	15.7	0.00e+00	0	43	0	833617920	15	4166
2026-01-09 10:57:08.24	276.72	56.53	-27.1	-28.2	15.9	0.00e+00	0	43	0	836763648	15	4085
2026-01-09 10:57:09.25	277.48	56.40	-27.4	-28.8	15.6	0.00e+00	0	43	0	839909376	15	4249
2026-01-09 10:57:10.26	278.24	56.27	-27.4	-28.9	15.6	0.00e+00	0	43	0	843055104	15	4266
2026-01-09 10:57:11.26	278.97	56.14	-27.6	-29.3	15.4	0.00e+00	0	42	0	846200832	15	4363
2026-01-09 10:57:12.27	279.71	55.99	-27.6	-29.2	15.4	0.00e+00	0	43	0	849346560	15	4347
2026-01-09 10:57:13.28	280.44	55.85	-27.7	-29.5	15.3	0.00e+00	0	43	0	852492288	15	4421
2026-01-09 10:57:14.29	281.16	55.70	-28.2	-30.2	14.7	0.00e+00	0	43	0	855638016	16	4509
2026-01-09 10:57:15.29	281.87	55.55	-28.4	-30.6	14.5	0.00e+00	0	43	0	858783744	16	4641
2026-01-09 10:57:16.30	282.58	55.39	-28.8	-31.1	13.8	7.60e-06	0	43	0	861929472	17	4672
2026-01-09 10:57:17.31	283.28	55.23	-28.5	-30.4	14.3	7.00e-07	0	43	0	865075200	17	4469
2026-01-09 10:57:18.31	283.96	55.07	-28.5	-30.2	14.4	7.00e-07	0	43	0	868220928	17	4417
2026-01-09 10:57:19.31	284.64	54.90	-28.1	-29.5	14.9	0.00e+00	0	43	0	871366656	17	4208
2026-01-09 10:57:20.31	285.31	54.74	-27.9	-29.0	15.2	0.00e+00	0	43	0	874512384	17	4073
2026-01-09 10:57:21.32	285.97	54.56	-27.8	-28.8	15.3	0.00e+00	0	43	0	877658112	17	4013
2026-01-09 10:57:22.33	286.63	54.38	-27.8	-29.1	15.4	0.00e+00	0	43	0	880803840	16	4195
2026-01-09 10:57:23.33	287.28	54.21	-27.9	-29.5	15.2	0.00e+00	0	43	0	883949568	16	4309
2026-01-09 10:57:24.33	287.91	54.03	-28.1	-29.9	14.9	0.00e+00	0	43	0	887095296	16	4428
2026-01-09 10:57:25.34	288.55	53.84	-28.1	-29.9	15.0	0.00e+00	0	43	0	890241024	16	4418
2026-01-09 10:57:26.35	289.18	53.65	-28.0	-29.6	15.1	0.00e+00	0	43	0	893386752	16	4354
2026-01-09 10:57:27.35	289.79	53.46	-28.1	-29.8	15.0	0.00e+00	0	43	0	896532480	16	4397
2026-01-09 10:57:28.36	290.40	53.27	-28.3	-30.4	14.7	0.00e+00	0	43	0	899678208	16	4564
2026-01-09 10:57:29.37	291.00	53.07	-28.2	-30.0	14.9	0.00e+00	0	43	0	902823936	16	4459
2026-01-09 10:57:30.38	291.60	52.87	-28.2	-30.1	14.8	7.00e-07	0	43	0	905969664	16	4475
2026-01-09 10:57:31.39	292.18	52.67	-28.5	-30.7	14.4	0.00e+00	0	43	0	909115392	16	4683
2026-01-09 10:57:32.40	292.76	52.47	-28.5	-30.5	14.3	7.00e-07	0	43	0	912261120	17	4486
2026-01-09 10:57:33.41	293.33	52.26	-28.6	-30.7	14.2	0.00e+00	0	43	0	915406848	17	4538
2026-01-09 10:57:34.42	293.89	52.06	-28.4	-30.2	14.5	7.00e-07	0	43	0	918552576	17	4400
2026-01-09 10:57:35.42	294.44	51.85	-28.7	-30.9	14.1	1.50e-06	0	43	0	921698304	17	4607
2026-01-09 10:57:36.42	294.99	51.64	-28.7	-30.7	14.2	0.00e+00	0	43	0	924844032	17	4541
2026-01-09 10:57:37.42	295.52	51.43	-28.4	-30.0	14.6	0.00e+00	0	43	0	927989760	17	4339
2026-01-09 10:57:38.43	296.05	51.22	-28.6	-30.5	14.3	0.00e+00	0	43	0	931135488	17	4497
2026-01-09 10:57:39.43	296.57	51.00	-28.8	-31.1	14.0	3.80e-06	0	43	0	934281216	17	4664
2026-01-09 10:57:40.44	297.09	50.79	-29.1	-31.4	13.5	1.14e-05	0	43	0	937426944	18	4647
2026-01-09 10:57:41.45	297.60	50.57	-29.1	-31.3	13.5	6.80e-06	0	43	0	940572672	18	4620
2026-01-09 10:57:42.45	298.10	50.35	-29.2	-31.5	13.4	9.90e-06	0	43	0	943718400	18	4700
2026-01-09 10:57:43.46	298.59	50.13	-29.4	-32.1	13.0	3.43e-05	0	43	0	946864128	18	4900
2026-01-09 10:57:44.47	299.08	49.91	-29.6	-31.9	12.9	5.11e-05	0	43	0	950009856	19	4693
2026-01-09 10:57:45.47	299.56	49.69	-29.6	-32.0	12.8	4.34e-05	0	43	0	953155584	19	4723
2026-01-09 10:57:46.48	300.03	49.46	-29.7	-32.3	12.6	9.68e-05	0	43	0	956301312	19	4836
2026-01-09 10:57:47.48	300.49	49.24	-29.8	-32.6	12.5	6.79e-05	0	43	0	959447040	19	4935
2026-01-09 10:57:48.49	300.96	49.02	-29.9	-32.2	12.4	2.34e-04	0	43	0	962592768	20	4694
2026-01-09 10:57:49.50	301.41	48.79	-29.6	-31.4	12.8	8.01e-05	0	43	0	965738496	20	4466
2026-01-09 10:57:50.50	301.85	48.57	-29.4	-31.0	13.1	5.11e-05	0	43	0	968884224	20	4333
2026-01-09 10:57:51.51	302.29	48.34	-29.4	-31.1	13.0	3.58e-05	0	43	0	972029952	20	4353
2026-01-09 10:57:52.51	302.72	48.11	-29.3	-31.3	13.2	2.67e-05	0	43	0	975175680	19	4518
2026-01-09 10:57:53.51	303.15	47.89	-29.2	-31.0	13.4	1.60e-05	0	43	0	978321408	19	4427
2026-01-09 10:57:54.52	303.57	47.66	-29.1	-30.8	13.4	1.67e-05	0	43	0	981467136	19	4378
2026-01-09 10:57:55.52	303.98	47.43	-28.9	-30.3	13.8	4.50e-06	0	43	0	984612864	19	4217
2026-01-09 10:57:56.53	304.39	47.20	-28.7	-30.2	14.2	4.50e-06	0	43	0	987758592	18	4289
2026-01-09 10:57:57.53	304.79	46.97	-28.5	-29.7	14.4	0.00e+00	0	43	0	990904320	18	4150
2026-01-09 10:57:58.54	305.19	46.74	-28.5	-29.7	14.5	5.30e-06	0	43	0	994050048	18	4149
2026-01-09 10:57:59.55	305.59	46.51	-28.7	-30.2	14.2	1.50e-06	0	43	0	997195776	18	4293
2026-01-09 10:58:00.54	305.97	46.29	-29.2	-31.4	13.5	9.90e-06	0	43	0	1000341504	18	4653
2026-01-09 10:58:01.54	306.34	46.06	-29.5	-31.8	12.9	3.66e-05	0	43	0	1003487232	19	4680
2026-01-09 10:58:02.55	306.72	45.83	-29.7	-32.3	12.6	8.77e-05	0	43	0	1006632960	19	4824
2026-01-09 10:58:03.56	307.09	45.60	-29.5	-31.8	12.8	5.11e-05	0	43	0	1009778688	19	4665
2026-01-09 10:58:04.56	307.45	45.37	-29.4	-31.5	13.0	3.89e-05	0	43	0	1012924416	19	4581
2026-01-09 10:58:05.56	307.81	45.14	-29.5	-31.7	12.9	4.88e-05	0	43	0	1016070144	19	4636
2026-01-09 10:58:06.56	308.16	44.91	-29.5	-31.8	12.9	5.49e-05	0	43	0	1019215872	19	4662
2026-01-09 10:58:07.58	308.51	44.68	-29.3	-31.2	13.2	3.50e-05	0	43	0	1021313024	19	4480
2026-01-09 10:58:08.58	308.86	44.45	-29.2	-30.9	13.4	1.52e-05	0	43	0	1025507328	19	4395
2026-01-09 10:58:09.58	309.19	44.22	-29.4	-31.5	13.1	2.36e-05	0	43	0	1027604480	19	4565
2026-01-09 10:58:10.58	309.53	44.00	-29.6	-32.1	12.8	7.70e-05	0	43	0	1031798784	19	4767
2026-01-09 10:58:11.58	309.85	43.77	-29.9	-32.7	12.3	1.29e-04	0	43	0	1034944512	19	4978
2026-01-09 10:58:12.59	310.18	43.54	-29.9	-32.4	12.1	2.97e-04	0	43	0	1038090240	20	4762
2026-01-09 10:58:13.60	310.50	43.31	-29.7	-31.8	12.5	1.22e-04	0	43	0	1041235968	20	4581
2026-01-09 10:58:14.60	310.82	43.09	-29.4	-31.0	13.0	5.56e-05	0	43	0	1044381696	20	4315
2026-01-09 10:58:15.61	311.13	42.86	-29.1	-30.8	13.5	1.52e-05	0	43	0	1046478848	19	4350
2026-01-09 10:58:16.62	311.44	42.63	-29.1	-30.8	13.4	9.10e-06	0	43	0	1049624576	19	4373
2026-01-09 10:58:17.62	311.74	42.41	-29.1	-30.8	13.5	1.06e-05	0	43	0	1052770304	19	4366
2026-01-09 10:58:18.63	312.04	42.18	-29.3	-31.2	13.3	1.52e-05	0	43	0	1056964608	19	4487
2026-01-09 10:58:19.63	312.33	41.96	-29.6	-32.0	12.7	5.03e-05	0	43	0	1060110336	19	4754
2026-01-09 10:58:20.64	312.62	41.73	-29.6	-32.0	12.7	1.17e-04	0	43	0	1063256064	19	4750
2026-01-09 10:58:21.65	312.91	41.51	-29.5	-31.8	12.8	4.57e-05	0	43	0	1066401792	19	4687
2026-01-09 10:58:22.65	313.19	41.29	-29.5	-31.7	12.9	4.73e-05	0	43	0	1068498944	19	4661
2026-01-09 10:58:23.65	313.47	41.07	-29.6	-32.1	12.7	7.01e-05	0	43	0	1071644672	19	4769
2026-01-09 10:58:24.66	313.75	40.85	-29.6	-32.0	12.7	7.32e-05	0	43	0	1074790400	19	4747
2026-01-09 10:58:25.66	314.02	40.63	-29.6	-31.9	12.8	7.32e-05	0	42	0	1077936128	19	4715
2026-01-09 10:58:26.67	314.29	40.40	-29.7	-32.1	12.7	6.94e-05	0	43	0	1082130432	19	4793
2026-01-09 10:58:27.67	314.55	40.19	-29.5	-31.9	12.8	8.77e-05	0	43	0	1085276160	19	4711
2026-01-09 10:58:28.68	314.81	39.97	-29.3	-31.2	13.2	2.74e-05	0	43	0	1088421888	19	4487
2026-01-09 10:58:29.69	315.07	39.75	-29.2	-30.9	13.5	1.44e-05	0	43	0	1091567616	19	4392
2026-01-09 10:58:30.70	315.33	39.53	-29.1	-30.8	13.5	9.90e-06	0	43	0	1093664768	19	4375
2026-01-09 10:58:31.70	315.58	39.31	-29.0	-30.6	13.6	6.80e-06	0	43	0	1096810496	19	4304
2026-01-09 10:58:32.71	315.83	39.10	-28.8	-30.1	13.9	2.20e-06	0	43	0	1099956224	19	4181
2026-01-09 10:58:33.72	316.07	38.88	-28.9	-30.3	13.8	3.80e-06	0	43	0	1104150528	19	4212
2026-01-09 10:58:34.72	316.31	38.67	-29.1	-30.7	13.5	7.60e-06	0	43	0	1107296256	19	4342
2026-01-09 10:58:35.73	316.55	38.45	-28.9	-30.4	13.7	3.00e-06	0	43	0	1110441984	19	4241
2026-01-09 10:58:36.73	316.78	38.24	-29.0	-30.4	13.7	3.80e-06	0	43	0	1113587712	19	4266
2026-01-09 10:58:37.74	317.02	38.03	-28.7	-30.4	14.0	2.20e-06	0	43	0	1115684864	18	4346
2026-01-09 10:58:38.74	317.24	37.82	-28.6	-30.2	14.1	2.20e-06	0	43	0	1118830592	18	4285
2026-01-09 10:58:39.75	317.47	37.61	-28.7	-30.3	14.1	3.00e-06	0	43	0	1121976320	18	4335
2026-01-09 10:58:40.76	317.70	37.40	-28.7	-30.2	14.1	1.50e-06	0	43	0	1125122048	18	4303
2026-01-09 10:58:41.77	317.92	37.19	-28.7	-30.4	14.0	2.20e-06	0	43	0	1129316352	18	4362
2026-01-09 10:58:42.77	318.14	36.98	-28.5	-29.9	14.3	2.20e-06	0	43	0	1132462080	18	4204
2026-01-09 10:58:43.78	318.35	36.78	-28.4	-29.7	14.4	0.00e+00	0	43	0	1135607808	18	4152
2026-01-09 10:58:44.79	318.56	36.57	-28.4	-29.6	14.5	7.00e-07	0	43	0	1138753536	18	4131
2026-01-09 10:58:45.79	318.77	36.37	-28.5	-29.9	14.3	7.00e-07	0	43	0	1140850688	18	4211
2026-01-09 10:58:46.80	318.98	36.16	-28.4	-29.7	14.4	7.00e-07	0	43	0	1143996416	18	4157
2026-01-09 10:58:47.81	319.19	35.96	-28.2	-29.7	14.7	0.00e+00	0	43	0	1147142144	17	4255
2026-01-09 10:58:48.82	319.39	35.75	-28.2	-29.7	14.6	0.00e+00	0	43	0	1151336448	17	4267
2026-01-09 10:58:49.83	319.59	35.55	-28.4	-30.1	14.4	0.00e+00	0	43	0	1154482176	17	4386
2026-01-09 10:58:50.83	319.79	35.35	-28.1	-29.5	14.8	7.00e-07	0	43	0	1157627904	17	4205
2026-01-09 10:58:51.84	319.98	35.15	-28.0	-29.1	15.0	0.00e+00	0	43	0	1160773632	17	4116
2026-01-09 10:58:52.84	320.18	34.95	-28.0	-29.2	15.0	7.00e-07	0	43	0	1162870784	17	4121
2026-01-09 10:58:53.85	320.37	34.76	-28.1	-29.3	14.8	0.00e+00	0	43	0	1166016512	17	4168
2026-01-09 10:58:54.86	320.56	34.56	-28.1	-29.4	14.8	0.00e+00	0	43	0	1169162240	17	4184
2026-01-09 10:58:55.86	320.74	34.36	-27.9	-29.0	15.0	0.00e+00	0	43	0	1172307968	17	4066
2026-01-09 10:58:56.87	320.93	34.17	-27.9	-29.0	15.0	0.00e+00	0	43	0	1176502272	17	4070
2026-01-09 10:58:57.88	321.11	33.97	-28.2	-29.7	14.6	0.00e+00	0	43	0	1179648000	17	4268
2026-01-09 10:58:58.89	321.29	33.78	-28.2	-29.6	14.7	0.00e+00	0	43	0	1182793728	17	4243
2026-01-09 10:58:59.90	321.47	33.59	-28.6	-30.7	14.1	7.00e-07	0	43	0	1185939456	17	4558
2026-01-09 10:59:00.90	321.64	33.40	-28.9	-31.3	13.7	1.50e-06	0	43	0	1188036608	17	4743
2026-01-09 10:59:01.91	321.82	33.20	-29.1	-31.3	13.4	1.44e-05	0	43	0	1191182336	18	4635
2026-01-09 10:59:02.91	321.99	33.02	-29.2	-31.6	13.3	1.14e-05	0	43	0	1194328064	18	4733
2026-01-09 10:59:03.93	322.16	32.82	-28.9	-30.7	13.8	9.90e-06	0	43	0	1198522368	18	4465
2026-01-09 10:59:04.93	322.33	32.64	-28.6	-30.0	14.2	3.80e-06	0	43	0	1201668096	18	4252
2026-01-09 10:59:05.94	322.49	32.45	-28.4	-29.6	14.4	7.00e-07	0	43	0	1204813824	18	4139
2026-01-09 10:59:06.94	322.66	32.27	-28.3	-29.5	14.4	7.00e-07	0	43	0	1207959552	18	4103
2026-01-09 10:59:07.95	322.82	32.08	-28.4	-30.0	14.4	7.00e-07	0	43	0	1210056704	17	4361
2026-01-09 10:59:08.96	322.98	31.90	-27.9	-28.9	15.1	0.00e+00	0	43	0	1213202432	17	4041
2026-01-09 10:59:09.96	323.14	31.71	-28.0	-29.2	14.9	0.00e+00	0	43	0	1216348160	17	4131
2026-01-09 10:59:10.96	323.30	31.53	-27.6	-28.8	15.4	0.00e+00	0	43	0	1219493888	16	4128
2026-01-09 10:59:11.97	323.45	31.35	-27.4	-28.4	15.6	0.00e+00	0	43	0	1223688192	16	4014
2026-01-09 10:59:12.98	323.61	31.17	-27.3	-28.2	15.7	0.00e+00	0	43	0	1226833920	16	3961
2026-01-09 10:59:13.99	323.76	30.99	-27.1	-28.2	15.8	0.00e+00	0	43	0	1229979648	15	4079
2026-01-09 10:59:15.00	323.91	30.81	-27.2	-28.4	15.7	0.00e+00	0	43	0	1233125376	15	4127
2026-01-09 10:59:16.00	324.06	30.63	-27.6	-29.4	15.2	0.00e+00	0	43	0	1235222528	15	4414
2026-01-09 10:59:17.01	324.21	30.46	-27.4	-28.8	15.5	0.00e+00	0	43	0	1238368256	15	4253
2026-01-09 10:59:18.02	324.35	30.28	-27.4	-28.9	15.4	0.00e+00	0	43	0	1242562560	15	4281
2026-01-09 10:59:19.02	324.49	30.10	-27.4	-28.9	15.5	0.00e+00	0	43	0	1245708288	15	4266
2026-01-09 10:59:20.03	324.64	29.93	-27.4	-28.9	15.5	0.00e+00	0	43	0	1248854016	15	4259
2026-01-09 10:59:21.04	324.78	29.76	-27.3	-28.7	15.5	0.00e+00	0	43	0	1251999744	15	4229
2026-01-09 10:59:22.04	324.92	29.58	-27.3	-28.7	15.5	0.00e+00	0	43	0	1255145472	15	4201
2026-01-09 10:59:23.04	325.06	29.41	-27.5	-29.0	15.4	0.00e+00	0	43	0	1257242624	15	4303
2026-01-09 10:59:24.05	325.19	29.24	-27.3	-28.5	15.6	0.00e+00	0	43	0	1260388352	15	4173
2026-01-09 10:59:25.05	325.33	29.07	-27.5	-29.2	15.3	0.00e+00	0	43	0	1263534080	15	4351
2026-01-09 10:59:26.05	325.46	28.91	-27.3	-28.7	15.5	0.00e+00	0	43	0	1266679808	15	4228
2026-01-09 10:59:27.06	325.59	28.74	-27.3	-28.5	15.6	0.00e+00	0	43	0	1269825536	15	4171
2026-01-09 10:59:28.06	325.73	28.57	-27.2	-28.5	15.6	0.00e+00	0	43	0	1274019840	15	4165
2026-01-09 10:59:29.07	325.86	28.40	-27.2	-28.3	15.7	0.00e+00	0	43	0	1277165568	15	4112
2026-01-09 10:59:30.08	325.99	28.24	-27.1	-28.1	15.8	0.00e+00	0	43	0	1280311296	15	4061
2026-01-09 10:59:31.09	326.11	28.07	-27.0	-27.9	15.9	0.00e+00	0	43	0	1282408448	15	4005
2026-01-09 10:59:32.10	326.24	27.91	-27.1	-28.1	15.8	0.00e+00	0	43	0	1285554176	15	4061
2026-01-09 10:59:33.11	326.37	27.74	-27.2	-28.4	15.7	7.00e-07	0	43	0	1288699904	15	4140
2026-01-09 10:59:34.11	326.49	27.58	-27.1	-28.1	15.8	0.00e+00	0	43	0	1291845632	15	4063
2026-01-09 10:59:35.12	326.61	27.42	-27.0	-27.9	15.9	0.00e+00	0	43	0	1296039936	15	4015
2026-01-09 10:59:36.13	326.73	27.26	-27.0	-28.0	15.8	0.00e+00	0	43	0	1299185664	15	4040
2026-01-09 10:59:37.13	326.85	27.10	-27.0	-27.9	15.9	0.00e+00	0	43	0	1302331392	15	4005
2026-01-09 10:59:38.14	326.97	26.94	-27.0	-27.9	15.9	0.00e+00	0	43	0	1304428544	15	4003
2026-01-09 10:59:39.15	327.09	26.78	-27.0	-28.0	15.8	0.00e+00	0	43	0	1307574272	15	4034
2026-01-09 10:59:40.15	327.21	26.63	-26.9	-27.8	15.9	0.00e+00	0	43	0	1310720000	15	3997
2026-01-09 10:59:41.16	327.32	26.47	-27.0	-27.9	15.9	0.00e+00	0	43	0	1313865728	15	4013
2026-01-09 10:59:42.16	327.44	26.31	-27.1	-28.1	15.8	0.00e+00	0	43	0	1317011456	15	4065
2026-01-09 10:59:43.17	327.55	26.16	-26.9	-27.7	16.0	0.00e+00	0	43	0	1321205760	15	3954
2026-01-09 10:59:44.18	327.66	26.00	-26.9	-27.8	15.9	0.00e+00	0	43	0	1324351488	15	3998
2026-01-09 10:59:45.18	327.78	25.85	-27.0	-28.1	15.8	0.00e+00	0	43	0	1327497216	15	4052
2026-01-09 10:59:46.19	327.89	25.70	-26.8	-27.6	16.1	0.00e+00	0	43	0	1329594368	15	3924
2026-01-09 10:59:47.20	328.00	25.55	-26.8	-28.0	16.1	0.00e+00	0	43	0	1332740096	14	4131
2026-01-09 10:59:48.20	328.10	25.40	-26.8	-28.1	16.1	0.00e+00	0	43	0	1335885824	14	4157
2026-01-09 10:59:49.21	328.21	25.24	-26.8	-28.0	16.1	0.00e+00	0	43	0	1339031552	14	4136
2026-01-09 10:59:50.22	328.32	25.09	-26.6	-27.7	16.3	0.00e+00	0	43	0	1343225856	14	4056
2026-01-09 10:59:51.23	328.42	24.95	-26.7	-27.7	16.3	0.00e+00	0	43	0	1346371584	14	4071
2026-01-09 10:59:52.23	328.53	24.80	-26.8	-28.1	16.1	0.00e+00	0	43	0	1349517312	14	4164
2026-01-09 10:59:53.24	328.63	24.65	-26.8	-27.9	16.2	0.00e+00	0	43	0	1351614464	14	4127
2026-01-09 10:59:54.24	328.73	24.50	-26.9	-28.2	16.0	0.00e+00	0	43	0	1354760192	14	4198
2026-01-09 10:59:55.25	328.84	24.36	-26.9	-28.2	16.0	0.00e+00	0	43	0	1357905920	14	4197
2026-01-09 10:59:56.26	328.94	24.21	-26.9	-28.4	15.9	0.00e+00	0	43	0	1361051648	14	4247
2026-01-09 10:59:57.26	329.04	24.07	-27.0	-28.6	15.8	0.00e+00	0	43	0	1364197376	14	4304
2026-01-09 10:59:58.27	329.14	23.92	-26.9	-28.3	15.9	0.00e+00	0	43	0	1368391680	14	4226
2026-01-09 10:59:59.29	329.24	23.78	-26.9	-28.3	15.9	0.00e+00	0	43	0	1371537408	14	4216
2026-01-09 11:00:00.29	329.33	23.64	-26.9	-28.3	15.9	0.00e+00	0	43	0	1374683136	14	4214
2026-01-09 11:00:01.29	329.43	23.50	-26.8	-28.1	16.0	0.00e+00	0	43	0	1376780288	14	4168
2026-01-09 11:00:02.30	329.53	23.36	-27.1	-28.7	15.7	0.00e+00	0	43	0	1379926016	14	4316
2026-01-09 11:00:03.31	329.62	23.21	-27.1	-28.8	15.7	0.00e+00	0	43	0	1383071744	14	4367
2026-01-09 11:00:04.32	329.72	23.07	-27.0	-28.4	15.8	0.00e+00	0	43	0	1387266048	14	4251
2026-01-09 11:00:05.32	329.81	22.94	-26.9	-28.2	16.0	0.00e+00	0	43	0	1390411776	14	4205
2026-01-09 11:00:06.33	329.90	22.80	-27.0	-28.4	15.9	0.00e+00	0	43	0	1393557504	14	4248
2026-01-09 11:00:07.34	329.99	22.66	-26.9	-28.3	15.9	0.00e+00	0	43	0	1396703232	14	4232
2026-01-09 11:00:08.35	330.08	22.52	-26.9	-28.3	15.9	0.00e+00	0	43	0	1398800384	14	4214
2026-01-09 11:00:09.36	330.17	22.39	-27.0	-28.4	15.9	0.00e+00	0	43	0	1401946112	14	4249
2026-01-09 11:00:10.37	330.26	22.25	-26.9	-28.2	16.0	0.00e+00	0	43	0	1406140416	14	4202
2026-01-09 11:00:11.37	330.35	22.12	-26.9	-28.2	16.0	0.00e+00	0	43	0	1409286144	14	4192
2026-01-09 11:00:12.38	330.44	21.98	-26.8	-28.1	16.0	0.00e+00	0	43	0	1412431872	14	4163
2026-01-09 11:00:13.39	330.53	21.85	-26.8	-28.0	16.0	0.00e+00	0	43	0	1415577600	14	4151
2026-01-09 11:00:14.39	330.61	21.72	-26.8	-28.0	16.1	0.00e+00	0	43	0	1418723328	14	4138
2026-01-09 11:00:15.40	330.70	21.58	-26.8	-28.0	16.0	0.00e+00	0	43	0	1421869056	14	4150
2026-01-09 11:00:16.40	330.79	21.45	-26.7	-27.8	16.2	0.00e+00	0	43	0	1423966208	14	4094
2026-01-09 11:00:17.41	330.87	21.32	-26.7	-27.7	16.2	0.00e+00	0	43	0	1427111936	14	4075
2026-01-09 11:00:18.42	330.95	21.19	-26.7	-27.9	16.1	0.00e+00	0	43	0	1431306240	14	4106
2026-01-09 11:00:19.43	331.04	21.06	-26.8	-28.0	16.0	0.00e+00	0	43	0	1434451968	14	4140
2026-01-09 11:00:20.44	331.12	20.93	-26.8	-28.0	16.0	0.00e+00	0	43	0	1437597696	14	4149
2026-01-09 11:00:21.45	331.20	20.80	-26.8	-28.0	16.0	0.00e+00	0	43	0	1440743424	14	4139
2026-01-09 11:00:22.45	331.28	20.67	-26.9	-28.2	15.9	0.00e+00	0	43	0	1443889152	14	4194
2026-01-09 11:00:23.46	331.36	20.55	-26.9	-28.2	15.9	0.00e+00	0	43	0	1445986304	14	4200
2026-01-09 11:00:24.47	331.45	20.42	-26.8	-28.1	16.0	0.00e+00	0	43	0	1450180608	14	4176
2026-01-09 11:00:25.48	331.52	20.29	-26.9	-28.2	15.9	0.00e+00	0	43	0	1453326336	14	4194
2026-01-09 11:00:26.48	331.60	20.17	-26.8	-28.1	15.9	0.00e+00	0	43	0	1456472064	14	4181
2026-01-09 11:00:27.49	331.68	20.04	-26.8	-28.1	15.9	0.00e+00	0	43	0	1459617792	14	4175
2026-01-09 11:00:28.50	331.76	19.92	-26.9	-28.2	15.9	0.00e+00	0	43	0	1462763520	14	4208
2026-01-09 11:00:29.51	331.84	19.79	-26.8	-28.1	15.9	0.00e+00	0	43	0	1465909248	14	4183
2026-01-09 11:00:30.51	331.91	19.67	-26.9	-28.3	15.8	0.00e+00	0	43	0	1469054976	14	4224
2026-01-09 11:00:31.52	331.99	19.55	-26.9	-28.2	15.9	0.00e+00	0	43	0	1472200704	14	4205
2026-01-09 11:00:32.52	332.06	19.42	-26.9	-28.4	15.8	0.00e+00	0	43	0	1475346432	14	4238
2026-01-09 11:00:33.53	332.14	19.30	-27.0	-28.4	15.8	0.00e+00	0	43	0	1478492160	14	4263
2026-01-09 11:00:34.54	332.21	19.18	-27.0	-28.5	15.7	0.00e+00	0	43	0	1481637888	14	4286
2026-01-09 11:00:35.55	332.29	19.06	-27.0	-28.6	15.6	0.00e+00	0	43	0	1484783616	14	4302
2026-01-09 11:00:36.56	332.36	18.94	-27.1	-28.7	15.6	0.00e+00	0	43	0	1487929344	14	4338
2026-01-09 11:00:37.56	332.43	18.82	-27.1	-28.7	15.6	0.00e+00	0	43	0	1491075072	14	4346
2026-01-09 11:00:38.57	332.50	18.70	-27.2	-29.0	15.4	0.00e+00	0	42	0	1494220800	14	4412
2026-01-09 11:00:39.58	332.58	18.58	-27.2	-29.0	15.4	0.00e+00	0	43	0	1497366528	14	4415
2026-01-09 11:00:40.58	332.65	18.47	-27.2	-29.0	15.3	0.00e+00	0	43	0	1500512256	14	4431
2026-01-09 11:00:41.59	332.72	18.35	-27.3	-29.1	15.3	0.00e+00	0	43	0	1503657984	14	4454
2026-01-09 11:00:42.60	332.79	18.23	-27.4	-29.3	15.2	7.00e-07	0	43	0	1506803712	14	4519
2026-01-09 11:00:43.61	332.86	18.11	-27.4	-29.5	15.1	0.00e+00	0	43	0	1509949440	14	4576
2026-01-09 11:00:44.61	332.92	18.00	-27.5	-29.6	15.0	0.00e+00	0	43	0	1513095168	14	4593
2026-01-09 11:00:45.62	332.99	17.88	-27.6	-29.3	14.9	0.00e+00	0	42	0	1516240896	15	4417
2026-01-09 11:00:46.62	333.06	17.77	-27.8	-30.0	14.5	1.50e-06	0	43	0	1519386624	15	4595
2026-01-09 11:00:47.63	333.13	17.65	-27.8	-30.0	14.5	0.00e+00	0	43	0	1522532352	15	4594
2026-01-09 11:00:48.64	333.20	17.54	-27.9	-30.0	14.5	7.00e-07	0	43	0	1525678080	15	4626
2026-01-09 11:00:49.65	333.26	17.43	-28.0	-29.9	14.4	7.00e-07	0	43	0	1528823808	16	4457
2026-01-09 11:00:50.65	333.33	17.31	-28.0	-29.7	14.5	7.00e-07	0	43	0	1531969536	16	4394
2026-01-09 11:00:51.66	333.39	17.20	-27.9	-29.7	14.6	7.00e-07	0	43	0	1535115264	16	4390
2026-01-09 11:00:52.66	333.46	17.09	-28.0	-29.9	14.5	0.00e+00	0	43	0	1538260992	16	4442
2026-01-09 11:00:53.67	333.52	16.98	-28.1	-30.1	14.3	7.00e-07	0	43	0	1541406720	16	4504
2026-01-09 11:00:54.68	333.59	16.87	-28.3	-30.5	14.1	7.00e-07	0	43	0	1544552448	16	4637
2026-01-09 11:00:55.68	333.65	16.76	-28.2	-30.3	14.2	1.50e-06	0	43	0	1547698176	16	4581
2026-01-09 11:00:56.69	333.72	16.65	-28.0	-29.9	14.4	3.00e-06	0	43	0	1550843904	16	4452
2026-01-09 11:00:57.70	333.78	16.54	-27.9	-29.5	14.7	7.00e-07	0	43	0	1553989632	16	4346
2026-01-09 11:00:58.71	333.84	16.43	-27.8	-29.4	14.7	7.00e-07	0	43	0	1557135360	16	4317
2026-01-09 11:00:59.71	333.90	16.32	-27.9	-29.5	14.6	0.00e+00	0	43	0	1560281088	16	4333
2026-01-09 11:01:00.72	333.96	16.21	-27.9	-29.5	14.6	7.00e-07	0	43	0	1563426816	16	4346
2026-01-09 11:01:01.72	334.03	16.11	-27.9	-29.5	14.6	0.00e+00	0	43	0	1566572544	16	4346
2026-01-09 11:01:02.72	334.09	16.00	-28.1	-29.9	14.4	1.50e-06	0	43	0	1569718272	16	4473
2026-01-09 11:01:03.73	334.15	15.89	-27.9	-29.5	14.6	0.00e+00	0	43	0	1572864000	16	4337
2026-01-09 11:01:04.75	334.21	15.78	-27.8	-29.4	14.7	0.00e+00	0	43	0	1576009728	16	4314
2026-01-09 11:01:05.76	334.27	15.68	-27.9	-29.6	14.6	0.00e+00	0	43	0	1579155456	16	4377
2026-01-09 11:01:06.76	334.33	15.57	-27.9	-29.5	14.6	0.00e+00	0	43	0	1582301184	16	4340
2026-01-09 11:01:07.77	334.39	15.47	-28.0	-29.7	14.5	0.00e+00	0	43	0	1585446912	16	4406
2026-01-09 11:01:08.78	334.44	15.36	-27.9	-29.5	14.6	7.00e-07	0	43	0	1588592640	16	4351
2026-01-09 11:01:09.79	334.50	15.26	-27.8	-29.4	14.6	0.00e+00	0	43	0	1591738368	16	4326
2026-01-09 11:01:10.80	334.56	15.15	-27.9	-29.6	14.6	0.00e+00	0	43	0	1594884096	16	4359
2026-01-09 11:01:11.80	334.62	15.05	-28.0	-29.7	14.4	0.00e+00	0	43	0	1598029824	16	4398
2026-01-09 11:01:12.80	334.67	14.95	-28.0	-29.9	14.4	7.00e-07	0	43	0	1601175552	16	4445
2026-01-09 11:01:13.81	334.73	14.85	-28.1	-30.0	14.3	1.50e-06	0	43	0	1604321280	16	4501
2026-01-09 11:01:14.82	334.79	14.74	-28.0	-29.9	14.3	1.50e-06	0	43	0	1607467008	16	4472
2026-01-09 11:01:15.83	334.84	14.64	-28.0	-29.8	14.3	7.00e-07	0	43	0	1610612736	16	4448
2026-01-09 11:01:16.83	334.90	14.54	-28.0	-30.0	14.2	1.50e-06	0	43	0	1613758464	16	4484
2026-01-09 11:01:17.83	334.95	14.44	-28.1	-30.1	14.2	7.00e-07	0	43	0	1616904192	16	4533
2026-01-09 11:01:18.83	335.01	14.34	-28.2	-30.3	14.0	1.50e-06	0	43	0	1620049920	16	4601
2026-01-09 11:01:19.83	335.06	14.24	-28.1	-30.2	14.1	2.20e-06	0	43	0	1623195648	16	4552
2026-01-09 11:01:20.83	335.12	14.14	-28.3	-30.5	13.9	2.20e-06	0	43	0	1626341376	16	4647
2026-01-09 11:01:21.84	335.17	14.04	-28.2	-30.3	14.0	1.50e-06	0	43	0	1629487104	16	4580
2026-01-09 11:01:22.85	335.22	13.94	-28.2	-30.2	14.1	7.00e-07	0	43	0	1632632832	16	4554
2026-01-09 11:01:23.85	335.28	13.85	-28.1	-30.2	14.1	3.00e-06	0	43	0	1635778560	16	4547
2026-01-09 11:01:24.86	335.33	13.75	-28.2	-30.2	14.0	1.50e-06	0	43	0	1637875712	16	4574
2026-01-09 11:01:25.86	335.38	13.65	-28.3	-30.5	13.9	5.30e-06	0	43	0	1641021440	16	4668
2026-01-09 11:01:26.87	335.44	13.55	-28.1	-30.2	14.1	3.80e-06	0	43	0	1645215744	16	4552
2026-01-09 11:01:27.89	335.49	13.45	-28.0	-30.0	14.2	7.00e-07	0	43	0	1648361472	16	4492
2026-01-09 11:01:28.89	335.54	13.36	-28.0	-30.0	14.2	3.00e-06	0	43	0	1651507200	16	4486
2026-01-09 11:01:29.90	335.59	13.26	-28.1	-30.1	14.1	1.50e-06	0	43	0	1654652928	16	4530
2026-01-09 11:01:30.91	335.64	13.17	-28.0	-29.9	14.2	1.50e-06	0	43	0	1657798656	16	4474
2026-01-09 11:01:31.91	335.69	13.07	-28.0	-29.8	14.3	1.50e-06	0	43	0	1659895808	16	4434
2026-01-09 11:01:32.92	335.74	12.98	-28.1	-30.0	14.1	7.00e-07	0	43	0	1664090112	16	4516
2026-01-09 11:01:33.93	335.79	12.88	-28.0	-29.8	14.3	1.50e-06	0	43	0	1667235840	16	4440
2026-01-09 11:01:34.94	335.84	12.78	-28.1	-30.1	14.1	0.00e+00	0	42	0	1670381568	16	4534
2026-01-09 11:01:35.95	335.89	12.69	-27.9	-29.7	14.3	1.50e-06	0	43	0	1673527296	16	4412
2026-01-09 11:01:36.96	335.94	12.60	-27.8	-29.5	14.4	1.50e-06	0	43	0	1676673024	16	4348
2026-01-09 11:01:37.96	335.99	12.50	-28.0	-29.8	14.3	7.00e-07	0	43	0	1679818752	16	4442
2026-01-09 11:01:38.97	336.04	12.41	-27.9	-29.7	14.3	3.00e-06	0	43	0	1682964480	16	4419
2026-01-09 11:01:39.98	336.09	12.32	-28.0	-29.9	14.2	0.00e+00	0	43	0	1686110208	16	4462
2026-01-09 11:01:40.98	336.14	12.23	-28.1	-30.1	14.1	3.00e-06	0	43	0	1689255936	16	4521
2026-01-09 11:01:41.99	336.19	12.13	-27.9	-29.7	14.3	1.50e-06	0	43	0	1692401664	16	4418
2026-01-09 11:01:42.99	336.23	12.04	-27.9	-29.6	14.3	0.00e+00	0	43	0	1695547392	16	4396
2026-01-09 11:01:44.00	336.28	11.95	-27.9	-29.6	14.4	2.20e-06	0	43	0	1698693120	16	4374
2026-01-09 11:01:45.01	336.33	11.86	-28.1	-30.0	14.1	7.00e-07	0	43	0	1701838848	16	4508
2026-01-09 11:01:46.02	336.37	11.77	-28.1	-30.0	14.1	1.50e-06	0	43	0	1704984576	16	4515
2026-01-09 11:01:47.02	336.42	11.68	-28.0	-29.9	14.1	2.20e-06	0	43	0	1708130304	16	4477
2026-01-09 11:01:48.03	336.47	11.59	-28.0	-29.9	14.1	1.50e-06	0	43	0	1711276032	16	4481
2026-01-09 11:01:49.04	336.51	11.50	-28.0	-30.0	14.1	1.50e-06	0	43	0	1714421760	16	4492
2026-01-09 11:01:50.04	336.56	11.41	-28.1	-30.0	14.1	3.80e-06	0	43	0	1717567488	16	4505
2026-01-09 11:01:51.05	336.60	11.32	-28.1	-30.1	14.0	4.50e-06	0	43	0	1720713216	16	4535
2026-01-09 11:01:52.06	336.65	11.23	-28.2	-30.4	13.8	5.30e-06	0	43	0	1723858944	16	4627
2026-01-09 11:01:53.07	336.70	11.14	-28.2	-30.4	13.8	5.30e-06	0	43	0	1727004672	16	4623
2026-01-09 11:01:54.08	336.74	11.05	-28.2	-30.4	13.8	3.80e-06	0	43	0	1730150400	16	4612
2026-01-09 11:01:55.09	336.78	10.96	-28.1	-30.2	13.9	1.50e-06	0	43	0	1733296128	16	4576
2026-01-09 11:01:56.09	336.83	10.88	-28.3	-30.6	13.7	2.20e-06	0	43	0	1736441856	16	4681
2026-01-09 11:01:57.10	336.87	10.79	-28.3	-30.5	13.7	7.00e-07	0	43	0	1739587584	16	4658
2026-01-09 11:01:58.11	336.92	10.70	-28.2	-30.5	13.8	9.10e-06	0	43	0	1742733312	16	4650
2026-01-09 11:01:59.12	336.96	10.61	-28.2	-30.4	13.8	3.00e-06	0	43	0	1745879040	16	4612
2026-01-09 11:02:00.12	337.00	10.53	-28.6	-30.7	13.3	9.10e-06	0	43	0	1749024768	17	4623
2026-01-09 11:02:01.12	337.05	10.44	-28.5	-30.5	13.4	9.10e-06	0	43	0	1752170496	17	4553
2026-01-09 11:02:02.13	337.09	10.36	-28.3	-30.2	13.6	7.60e-06	0	43	0	1755316224	17	4471
2026-01-09 11:02:03.13	337.13	10.27	-28.5	-30.5	13.4	1.14e-05	0	43	0	1758461952	17	4550
2026-01-09 11:02:04.14	337.18	10.19	-28.5	-30.6	13.3	1.67e-05	0	43	0	1761607680	17	4575
2026-01-09 11:02:05.15	337.22	10.10	-28.6	-30.8	13.2	1.67e-05	0	43	0	1764753408	17	4647
2026-01-09 11:02:06.16	337.26	10.01	-28.8	-31.2	12.9	3.05e-05	0	43	0	1767899136	17	4792
2026-01-09 11:02:07.16	337.30	9.93	-28.6	-31.0	13.1	3.05e-05	0	43	0	1771044864	17	4708
2026-01-09 11:02:08.16	337.34	9.85	-28.8	-31.3	12.8	4.65e-05	0	43	0	1774190592	17	4826
2026-01-09 11:02:09.17	337.38	9.76	-28.6	-30.8	13.2	4.27e-05	0	43	0	1777336320	17	4651
2026-01-09 11:02:10.18	337.43	9.68	-28.7	-31.0	13.0	2.97e-05	0	43	0	1780482048	17	4731
2026-01-09 11:02:11.19	337.47	9.60	-28.7	-31.2	12.9	3.58e-05	0	43	0	1783627776	17	4771
2026-01-09 11:02:12.19	337.51	9.51	-28.7	-31.1	13.0	3.81e-05	0	43	0	1786773504	17	4745
2026-01-09 11:02:13.20	337.55	9.43	-28.6	-30.9	13.1	2.74e-05	0	43	0	1789919232	17	4694
2026-01-09 11:02:14.21	337.59	9.35	-28.8	-31.5	12.7	6.02e-05	0	43	0	1793064960	17	4870
2026-01-09 11:02:15.21	337.63	9.26	-28.7	-31.3	12.9	4.27e-05	0	43	0	1796210688	17	4805
2026-01-09 11:02:16.22	337.67	9.18	-28.8	-31.3	12.8	5.64e-05	0	43	0	1799356416	17	4821
2026-01-09 11:02:17.23	337.71	9.10	-29.0	-31.5	12.4	1.78e-04	0	43	0	1802502144	18	4768
2026-01-09 11:02:18.24	337.75	9.02	-28.9	-31.2	12.6	1.12e-04	0	43	0	1805647872	18	4674
2026-01-09 11:02:19.24	337.79	8.94	-28.7	-30.7	12.9	5.64e-05	0	43	0	1808793600	18	4522
2026-01-09 11:02:20.25	337.83	8.86	-28.6	-30.5	13.0	4.88e-05	0	43	0	1811939328	18	4457
2026-01-09 11:02:21.25	337.87	8.78	-28.6	-30.4	13.0	4.50e-05	0	43	0	1815085056	18	4437
2026-01-09 11:02:22.26	337.90	8.69	-28.8	-30.9	12.8	6.10e-05	0	43	0	1818230784	18	4568
2026-01-09 11:02:23.27	337.94	8.61	-28.8	-30.9	12.7	6.48e-05	0	43	0	1821376512	18	4594
2026-01-09 11:02:24.28	337.98	8.53	-28.8	-30.9	12.7	6.63e-05	0	43	0	1824522240	18	4585
2026-01-09 11:02:25.28	338.02	8.45	-29.0	-31.4	12.4	1.27e-04	0	43	0	1827667968	18	4739
2026-01-09 11:02:26.29	338.06	8.37	-28.9	-31.1	12.6	1.11e-04	0	43	0	1830813696	18	4635
2026-01-09 11:02:27.30	338.10	8.30	-28.8	-30.8	12.7	7.93e-05	0	43	0	1833959424	18	4562
2026-01-09 11:02:28.30	338.13	8.22	-28.9	-31.1	12.5	1.86e-04	0	43	0	1837105152	18	4648
2026-01-09 11:02:29.30	338.17	8.14	-28.9	-31.1	12.6	8.39e-05	0	43	0	1840250880	18	4637
2026-01-09 11:02:30.31	338.21	8.06	-29.0	-31.3	12.4	2.14e-04	0	43	0	1843396608	18	4724
2026-01-09 11:02:31.32	338.25	7.98	-28.9	-31.1	12.5	1.13e-04	0	43	0	1846542336	18	4640
2026-01-09 11:02:32.32	338.28	7.90	-28.9	-31.1	12.6	1.01e-04	0	43	0	1849688064	18	4645
2026-01-09 11:02:33.33	338.32	7.83	-29.0	-31.5	12.2	2.53e-04	0	43	0	1852833792	18	4798
2026-01-09 11:02:34.33	338.36	7.75	-29.0	-31.4	12.3	2.00e-04	0	43	0	1855979520	18	4758
2026-01-09 11:02:35.33	338.39	7.67	-28.9	-31.3	12.3	2.31e-04	0	43	0	1859125248	18	4730
2026-01-09 11:02:36.34	338.43	7.59	-29.0	-31.6	12.2	2.43e-04	0	43	0	1862270976	18	4810
2026-01-09 11:02:37.34	338.46	7.52	-29.2	-31.9	11.9	4.59e-04	0	43	0	1865416704	18	4926
2026-01-09 11:02:38.35	338.50	7.44	-29.3	-32.1	11.8	4.20e-04	0	43	0	1868562432	18	5018
2026-01-09 11:02:39.36	338.54	7.36	-29.4	-32.4	11.6	6.58e-04	0	43	0	1871708160	18	5121
2026-01-09 11:02:40.36	338.57	7.29	-29.2	-32.0	11.8	5.32e-04	0	43	0	1873805312	18	4974
2026-01-09 11:02:41.37	338.61	7.21	-29.3	-32.3	11.6	4.92e-04	0	43	0	1877999616	18	5089
2026-01-09 11:02:42.38	338.64	7.13	-29.3	-32.3	11.6	5.90e-04	0	43	0	1881145344	18	5077
2026-01-09 11:02:43.39	338.68	7.06	-32.4	-40.5	5.1	6.94e-03	0	43	0	1884291072	24	9148
2026-01-09 11:02:44.39	338.71	6.98	-33.3	-45.3	3.8	1.49e+00	0	43	104	1884291072	26	14470

#Closed at: 2026-01-09 11:02:45
#Recorded file [1884 MB]: D:/data/31010_260109_135240.dat