passes_logs/2026/01/09/R2M6_AANII_01/R2M6_AANII_01__20260109_082216_NOAA_20_JPSS-1_rec.log

#Pass ID: 20260109_082216_NOAA 20 (JPSS-1)
#Satellite: NOAA 20 (JPSS-1)
#Configuration: NOAA 20
#almurnet v.1.7.20240730
#Start time: 2026-01-09 08:22:17

#Version: 2.2.20231116
#Station: R2M6_AANII_01
#Location: 30.233357 lon 59.946436 lat
#TLE: 1 43013U 17073A   26008.42245989  .00000120  00000+0  77990-4 0  9996
#TLE: 2 43013  98.7631 309.4315 0001737  48.7960 311.3365 14.19534455421802

#Time	Az	El	Level	Level2	SNR	BER	BlckErr	Temp	State	Recorded	gain1	gain2
2026-01-09 08:22:17.85	99.68	7.10	-31.4	-45.2	3.8	1.49e+00	0	40	0	0	23	17675
2026-01-09 08:22:18.85	99.59	7.16	-31.3	-44.7	3.8	1.49e+00	0	40	104	0	24	16681
2026-01-09 08:22:19.86	99.49	7.23	-31.3	-44.6	3.8	1.49e+00	0	40	104	0	24	16605
2026-01-09 08:22:20.86	99.40	7.29	-31.3	-45.0	3.8	1.49e+00	0	40	104	0	23	17451
2026-01-09 08:22:21.87	99.30	7.36	-31.2	-44.8	3.8	1.49e+00	0	40	104	0	23	17242
2026-01-09 08:22:22.88	99.21	7.42	-31.1	-44.7	3.8	1.49e+00	0	40	104	0	23	17182
2026-01-09 08:22:23.89	99.11	7.49	-31.0	-44.3	3.8	1.49e+00	0	41	104	0	23	16614
2026-01-09 08:22:24.89	99.01	7.55	-30.9	-43.7	3.8	1.49e+00	0	40	104	0	23	15610
2026-01-09 08:22:25.90	98.92	7.62	-30.9	-42.7	3.8	1.49e+00	0	41	104	0	23	13979
2026-01-09 08:22:26.91	98.82	7.68	-30.8	-41.5	3.9	1.49e+00	0	41	104	0	23	12285
2026-01-09 08:22:27.91	98.72	7.74	-30.8	-40.8	4.2	1.46e+00	0	41	104	0	23	11375
2026-01-09 08:22:28.92	98.62	7.81	-30.9	-40.5	4.0	1.36e+00	0	41	104	0	23	10867
2026-01-09 08:22:29.92	98.52	7.87	-31.0	-40.4	4.5	1.46e+00	0	41	104	0	23	10712
2026-01-09 08:22:30.93	98.42	7.94	-30.9	-41.3	3.9	1.45e+00	0	41	104	0	23	11845
2026-01-09 08:22:31.94	98.32	8.01	-31.0	-41.9	4.0	1.46e+00	0	41	104	0	23	12636
2026-01-09 08:22:32.94	98.22	8.07	-31.0	-42.5	3.8	1.48e+00	0	41	104	0	23	13481
2026-01-09 08:22:33.94	98.12	8.14	-31.0	-42.9	3.9	1.48e+00	0	41	104	0	23	14039
2026-01-09 08:22:34.96	98.02	8.20	-31.0	-43.2	3.8	1.49e+00	0	41	104	0	23	14541
2026-01-09 08:22:35.96	97.92	8.27	-31.1	-43.5	3.8	1.49e+00	0	41	104	0	23	15111
2026-01-09 08:22:36.97	97.82	8.33	-31.1	-43.8	3.8	1.49e+00	0	41	104	0	23	15560
2026-01-09 08:22:37.98	97.72	8.40	-31.1	-44.1	3.8	1.49e+00	0	41	104	0	23	16132
2026-01-09 08:22:38.98	97.61	8.46	-31.1	-44.5	3.8	1.49e+00	0	41	104	0	23	16899
2026-01-09 08:22:39.99	97.51	8.53	-31.0	-44.6	3.8	1.49e+00	0	41	104	0	23	17242
2026-01-09 08:22:41.00	97.41	8.60	-31.0	-44.4	3.8	1.49e+00	0	41	104	0	23	16939
2026-01-09 08:22:42.00	97.30	8.66	-31.0	-44.4	3.8	1.49e+00	0	41	104	0	23	16870
2026-01-09 08:22:43.00	97.20	8.73	-31.0	-44.4	3.8	1.49e+00	0	41	104	0	23	17027
2026-01-09 08:22:44.01	97.09	8.80	-30.9	-44.4	3.8	1.49e+00	0	41	104	0	23	16979
2026-01-09 08:22:45.02	96.98	8.86	-30.9	-44.3	3.8	1.49e+00	0	41	104	0	23	16834
2026-01-09 08:22:46.03	96.88	8.93	-30.9	-44.4	3.8	1.49e+00	0	41	104	0	23	16948
2026-01-09 08:22:47.03	96.77	8.99	-30.9	-44.4	3.8	1.49e+00	0	41	104	0	23	16964
2026-01-09 08:22:48.04	96.66	9.06	-30.9	-44.4	3.8	1.49e+00	0	41	104	0	23	16970
2026-01-09 08:22:49.04	96.56	9.13	-30.9	-44.4	3.8	1.49e+00	0	41	104	0	23	16964
2026-01-09 08:22:50.04	96.45	9.19	-30.9	-44.3	3.8	1.49e+00	0	41	104	0	23	16766
2026-01-09 08:22:51.06	96.34	9.26	-30.9	-44.2	3.8	1.49e+00	0	41	104	0	23	16669
2026-01-09 08:22:52.06	96.23	9.33	-30.8	-44.1	3.8	1.49e+00	0	41	104	0	23	16570
2026-01-09 08:22:53.07	96.12	9.40	-30.8	-44.0	3.8	1.49e+00	0	41	104	0	23	16554
2026-01-09 08:22:54.07	96.01	9.46	-30.7	-44.4	3.8	1.49e+00	0	41	104	0	22	17419
2026-01-09 08:22:55.07	95.90	9.53	-30.7	-44.2	3.8	1.49e+00	0	41	104	0	22	17093
2026-01-09 08:22:56.08	95.79	9.60	-30.7	-44.2	3.8	1.49e+00	0	41	104	0	22	17123
2026-01-09 08:22:57.09	95.68	9.66	-30.7	-44.2	3.8	1.49e+00	0	41	104	0	22	16979
2026-01-09 08:22:58.10	95.56	9.73	-30.7	-44.1	3.8	1.49e+00	0	41	104	0	22	16692
2026-01-09 08:22:59.11	95.45	9.80	-30.8	-44.0	3.8	1.49e+00	0	41	104	0	22	16493
2026-01-09 08:23:00.11	95.34	9.87	-30.9	-43.7	3.8	1.49e+00	0	41	104	0	22	15798
2026-01-09 08:23:01.12	95.22	9.93	-31.0	-43.4	3.8	1.49e+00	0	41	104	0	22	15129
2026-01-09 08:23:02.13	95.11	10.00	-31.1	-43.0	3.8	1.49e+00	0	41	104	0	22	14139
2026-01-09 08:23:03.13	94.99	10.07	-31.2	-42.1	4.2	1.48e+00	0	41	104	0	22	12593
2026-01-09 08:23:04.14	94.88	10.14	-31.2	-40.8	4.2	1.18e+00	0	41	104	0	22	10894
2026-01-09 08:23:05.14	94.76	10.20	-31.3	-39.9	5.6	1.30e+00	0	41	104	0	22	9679
2026-01-09 08:23:06.15	94.64	10.27	-31.4	-39.4	6.1	3.58e-01	0	41	0	0	22	9060
2026-01-09 08:23:07.16	94.52	10.34	-31.6	-39.2	6.1	3.69e-01	0	42	0	2097152	23	8718
2026-01-09 08:23:08.17	94.41	10.41	-31.8	-40.1	5.8	3.54e-01	0	42	0	4194304	23	9379
2026-01-09 08:23:09.18	94.29	10.48	-32.0	-41.3	4.9	5.99e-01	0	42	0	6291456	24	10452
2026-01-09 08:23:10.18	94.17	10.55	-32.1	-41.2	5.0	8.01e-01	0	41	0	7340032	24	10337
2026-01-09 08:23:11.19	94.05	10.61	-31.9	-39.7	5.9	4.67e-01	0	42	0	9437184	24	8816
2026-01-09 08:23:12.19	93.93	10.68	-31.8	-38.8	6.7	2.41e-01	0	41	0	11534336	24	8057
2026-01-09 08:23:13.20	93.81	10.75	-32.0	-39.6	6.2	2.44e-01	0	42	0	13631488	24	8636
2026-01-09 08:23:14.21	93.69	10.82	-32.2	-40.5	5.7	4.13e-01	0	42	0	15728640	24	9378
2026-01-09 08:23:15.22	93.56	10.89	-32.1	-39.9	6.1	3.92e-01	0	42	0	16777216	24	8839
2026-01-09 08:23:16.23	93.44	10.96	-31.9	-38.3	7.3	2.06e-01	0	42	0	18874368	24	7564
2026-01-09 08:23:17.23	93.32	11.03	-31.8	-37.8	7.7	1.03e-01	0	42	0	20971520	24	7208
2026-01-09 08:23:18.24	93.19	11.10	-31.5	-36.6	8.7	4.73e-02	0	42	0	23068672	24	6448
2026-01-09 08:23:19.25	93.07	11.16	-31.3	-35.6	9.5	2.32e-02	0	42	0	25165824	24	5914
2026-01-09 08:23:20.25	92.94	11.23	-31.1	-35.3	10.1	8.39e-03	0	42	0	26214400	23	5869
2026-01-09 08:23:21.26	92.82	11.30	-30.9	-34.5	10.8	3.55e-03	0	42	0	28311552	23	5471
2026-01-09 08:23:22.26	92.69	11.37	-30.8	-34.7	11.1	2.16e-03	0	42	0	30408704	22	5639
2026-01-09 08:23:23.25	92.57	11.44	-30.6	-34.3	11.3	1.34e-03	0	42	0	32505856	22	5477
2026-01-09 08:23:24.26	92.44	11.51	-30.7	-34.4	11.2	1.48e-03	0	42	0	34603008	22	5550
2026-01-09 08:23:25.27	92.31	11.58	-30.7	-34.4	11.2	1.12e-03	0	42	0	35651584	22	5529
2026-01-09 08:23:26.27	92.18	11.65	-30.7	-34.6	11.1	1.38e-03	0	42	0	37748736	22	5620
2026-01-09 08:23:27.28	92.05	11.72	-30.8	-34.6	11.1	1.81e-03	0	42	0	39845888	22	5632
2026-01-09 08:23:28.28	91.93	11.78	-30.7	-34.3	11.3	1.41e-03	0	42	0	41943040	22	5489
2026-01-09 08:23:29.29	91.79	11.85	-30.6	-34.1	11.5	8.83e-04	0	42	0	44040192	22	5380
2026-01-09 08:23:30.30	91.66	11.92	-30.6	-33.9	11.7	6.93e-04	0	42	0	45088768	22	5304
2026-01-09 08:23:31.30	91.53	11.99	-30.6	-34.0	11.6	7.50e-04	0	42	0	47185920	22	5314
2026-01-09 08:23:32.31	91.40	12.06	-30.6	-33.9	11.7	7.55e-04	0	42	0	49283072	22	5303
2026-01-09 08:23:33.31	91.27	12.13	-30.4	-33.5	12.0	4.78e-04	0	42	0	51380224	22	5120
2026-01-09 08:23:34.30	91.14	12.20	-30.5	-33.7	11.9	3.55e-04	0	42	0	53477376	22	5214
2026-01-09 08:23:35.30	91.00	12.27	-30.5	-33.8	11.9	4.42e-04	0	42	0	54525952	22	5217
2026-01-09 08:23:36.31	90.87	12.34	-30.5	-33.7	11.9	4.04e-04	0	42	0	56623104	22	5219
2026-01-09 08:23:37.32	90.73	12.41	-30.6	-34.0	11.8	5.07e-04	0	42	0	58720256	22	5310
2026-01-09 08:23:38.32	90.60	12.48	-30.7	-34.4	11.5	7.80e-04	0	42	0	60817408	22	5475
2026-01-09 08:23:39.33	90.46	12.55	-30.9	-35.0	11.0	2.15e-03	0	42	0	61865984	22	5765
2026-01-09 08:23:40.33	90.32	12.62	-30.8	-34.5	11.4	1.37e-03	0	42	0	63963136	22	5553
2026-01-09 08:23:41.34	90.18	12.69	-30.8	-34.5	11.4	1.04e-03	0	42	0	66060288	22	5525
2026-01-09 08:23:42.35	90.04	12.76	-30.7	-34.4	11.5	8.73e-04	0	42	0	68157440	22	5469
2026-01-09 08:23:43.35	89.90	12.83	-30.7	-34.4	11.5	7.09e-04	0	42	0	70254592	22	5471
2026-01-09 08:23:44.36	89.76	12.90	-30.7	-34.3	11.6	8.29e-04	0	42	0	72351744	22	5446
2026-01-09 08:23:45.36	89.62	12.97	-30.7	-34.4	11.5	5.29e-04	0	42	0	73400320	22	5461
2026-01-09 08:23:46.36	89.48	13.04	-30.8	-34.5	11.4	1.12e-03	0	42	0	75497472	22	5518
2026-01-09 08:23:47.37	89.34	13.11	-30.7	-34.1	11.8	6.11e-04	0	42	0	77594624	22	5342
2026-01-09 08:23:48.37	89.20	13.18	-30.5	-33.7	12.0	3.39e-04	0	42	0	79691776	22	5201
2026-01-09 08:23:49.38	89.05	13.25	-30.5	-33.6	12.1	2.78e-04	0	42	0	80740352	22	5156
2026-01-09 08:23:50.38	88.91	13.32	-30.5	-33.6	12.1	2.72e-04	0	42	0	82837504	22	5144
2026-01-09 08:23:51.39	88.76	13.39	-30.5	-33.6	12.2	2.32e-04	0	42	0	84934656	22	5126
2026-01-09 08:23:52.40	88.62	13.46	-30.5	-33.6	12.1	2.13e-04	0	42	0	87031808	22	5157
2026-01-09 08:23:53.40	88.47	13.53	-30.5	-33.7	12.2	2.18e-04	0	42	0	89128960	22	5166
2026-01-09 08:23:54.41	88.33	13.60	-30.6	-33.7	12.1	2.62e-04	0	42	0	90177536	22	5179
2026-01-09 08:23:55.41	88.18	13.67	-30.5	-33.6	12.2	2.55e-04	0	42	0	92274688	22	5131
2026-01-09 08:23:56.42	88.03	13.74	-30.6	-33.7	12.1	2.84e-04	0	42	0	94371840	22	5181
2026-01-09 08:23:57.42	87.88	13.81	-30.6	-33.7	12.2	2.21e-04	0	42	0	96468992	22	5161
2026-01-09 08:23:58.41	87.73	13.88	-30.6	-33.9	12.0	3.13e-04	0	42	0	98566144	22	5242
2026-01-09 08:23:59.42	87.58	13.95	-30.7	-34.0	12.0	2.78e-04	0	42	0	99614720	22	5282
2026-01-09 08:24:00.43	87.43	14.02	-30.8	-34.3	11.7	4.75e-04	0	42	0	101711872	22	5418
2026-01-09 08:24:01.44	87.28	14.09	-30.8	-34.4	11.7	4.58e-04	0	42	0	103809024	22	5436
2026-01-09 08:24:02.44	87.13	14.16	-30.8	-34.4	11.7	6.32e-04	0	42	0	105906176	22	5457
2026-01-09 08:24:03.44	86.97	14.23	-30.8	-34.3	11.8	5.01e-04	0	42	0	108003328	22	5398
2026-01-09 08:24:04.44	86.82	14.30	-30.7	-34.2	11.9	4.23e-04	0	42	0	109051904	22	5352
2026-01-09 08:24:05.45	86.66	14.37	-30.8	-34.5	11.7	5.13e-04	0	42	0	111149056	22	5499
2026-01-09 08:24:06.46	86.51	14.44	-30.8	-34.5	11.7	6.95e-04	0	42	0	113246208	22	5500
2026-01-09 08:24:07.47	86.35	14.51	-30.9	-34.6	11.6	6.35e-04	0	42	0	115343360	22	5526
2026-01-09 08:24:08.47	86.19	14.58	-30.9	-34.7	11.5	7.48e-04	0	42	0	117440512	22	5557
2026-01-09 08:24:09.47	86.04	14.65	-30.9	-34.6	11.6	7.75e-04	0	42	0	118489088	22	5539
2026-01-09 08:24:10.48	85.88	14.72	-30.9	-34.6	11.6	1.02e-03	0	42	0	120586240	22	5541
2026-01-09 08:24:11.49	85.72	14.79	-30.9	-34.7	11.6	8.85e-04	0	42	0	122683392	22	5568
2026-01-09 08:24:12.49	85.56	14.86	-31.0	-35.1	11.2	9.96e-04	0	42	0	124780544	22	5745
2026-01-09 08:24:13.50	85.40	14.93	-31.1	-35.3	11.1	1.84e-03	0	42	0	126877696	22	5845
2026-01-09 08:24:14.51	85.23	15.00	-31.0	-34.9	11.4	1.12e-03	0	42	0	127926272	22	5642
2026-01-09 08:24:15.52	85.07	15.07	-30.9	-34.6	11.6	7.99e-04	0	42	0	130023424	22	5528
2026-01-09 08:24:16.52	84.91	15.14	-30.9	-34.5	11.7	6.26e-04	0	42	0	132120576	22	5499
2026-01-09 08:24:17.52	84.75	15.21	-31.0	-34.9	11.4	9.19e-04	0	42	0	134217728	22	5656
2026-01-09 08:24:18.52	84.58	15.28	-31.1	-35.2	11.2	9.86e-04	0	42	0	136314880	22	5788
2026-01-09 08:24:19.52	84.42	15.35	-31.1	-35.3	11.2	1.83e-03	0	42	0	137363456	22	5840
2026-01-09 08:24:20.52	84.25	15.42	-31.1	-35.2	11.2	1.43e-03	0	42	0	139460608	22	5777
2026-01-09 08:24:21.53	84.08	15.49	-31.0	-35.1	11.3	1.16e-03	0	42	0	141557760	22	5755
2026-01-09 08:24:22.53	83.92	15.56	-31.0	-35.1	11.4	9.92e-04	0	42	0	143654912	22	5719
2026-01-09 08:24:23.53	83.75	15.63	-31.0	-35.0	11.4	1.24e-03	0	42	0	145752064	22	5714
2026-01-09 08:24:24.54	83.58	15.70	-31.1	-35.1	11.3	1.04e-03	0	42	0	146800640	22	5750
2026-01-09 08:24:25.55	83.41	15.77	-31.1	-35.2	11.3	1.35e-03	0	42	0	148897792	22	5766
2026-01-09 08:24:26.55	83.24	15.84	-31.1	-35.2	11.2	1.26e-03	0	42	0	150994944	22	5794
2026-01-09 08:24:27.56	83.06	15.91	-31.1	-35.3	11.2	1.19e-03	0	42	0	153092096	22	5817
2026-01-09 08:24:28.56	82.89	15.98	-31.0	-35.0	11.4	1.18e-03	0	42	0	155189248	22	5705
2026-01-09 08:24:29.57	82.72	16.05	-30.9	-34.7	11.6	7.79e-04	0	42	0	156237824	22	5565
2026-01-09 08:24:30.58	82.54	16.12	-31.0	-34.9	11.5	7.53e-04	0	42	0	158334976	22	5663
2026-01-09 08:24:31.58	82.37	16.18	-31.0	-34.8	11.5	8.73e-04	0	42	0	160432128	22	5616
2026-01-09 08:24:32.59	82.19	16.25	-31.0	-34.9	11.5	6.64e-04	0	42	0	162529280	22	5664
2026-01-09 08:24:33.59	82.01	16.32	-30.9	-34.7	11.6	7.91e-04	0	42	0	164626432	22	5577
2026-01-09 08:24:34.59	81.84	16.39	-31.0	-34.9	11.5	7.66e-04	0	43	0	165675008	22	5626
2026-01-09 08:24:35.60	81.66	16.46	-31.0	-34.9	11.5	7.75e-04	0	42	0	167772160	22	5664
2026-01-09 08:24:36.61	81.48	16.53	-30.9	-34.6	11.7	6.08e-04	0	42	0	169869312	22	5517
2026-01-09 08:24:37.61	81.30	16.60	-31.0	-34.9	11.5	7.26e-04	0	42	0	171966464	22	5622
2026-01-09 08:24:38.62	81.12	16.67	-31.0	-34.7	11.7	7.25e-04	0	42	0	174063616	22	5559
2026-01-09 08:24:39.62	80.94	16.74	-30.9	-34.7	11.7	5.86e-04	0	42	0	175112192	22	5562
2026-01-09 08:24:40.63	80.75	16.80	-31.0	-34.9	11.6	5.68e-04	0	42	0	177209344	22	5612
2026-01-09 08:24:41.63	80.57	16.87	-30.9	-34.5	11.8	6.32e-04	0	42	0	179306496	22	5471
2026-01-09 08:24:42.63	80.39	16.94	-30.7	-33.9	12.3	2.72e-04	0	42	0	181403648	22	5202
2026-01-09 08:24:43.63	80.20	17.01	-30.6	-33.8	12.4	1.62e-04	0	42	0	182452224	22	5151
2026-01-09 08:24:44.64	80.02	17.08	-30.7	-33.8	12.4	1.81e-04	0	42	0	184549376	22	5181
2026-01-09 08:24:45.64	79.83	17.14	-30.7	-34.0	12.3	2.27e-04	0	42	0	186646528	22	5227
2026-01-09 08:24:46.65	79.64	17.21	-30.7	-34.0	12.3	1.78e-04	0	42	0	188743680	22	5231
2026-01-09 08:24:47.65	79.45	17.28	-30.6	-33.7	12.5	1.98e-04	0	42	0	190840832	22	5113
2026-01-09 08:24:48.66	79.26	17.35	-30.4	-33.2	12.8	8.69e-05	0	42	0	192937984	22	4920
2026-01-09 08:24:49.67	79.07	17.41	-30.3	-32.8	13.1	3.81e-05	0	42	0	193986560	22	4780
2026-01-09 08:24:50.67	78.88	17.48	-30.3	-32.7	13.1	3.35e-05	0	42	0	196083712	22	4757
2026-01-09 08:24:51.67	78.69	17.55	-30.2	-32.9	13.3	1.98e-05	0	42	0	198180864	21	4932
2026-01-09 08:24:52.68	78.50	17.61	-30.2	-32.9	13.3	1.14e-05	0	42	0	200278016	21	4918
2026-01-09 08:24:53.68	78.31	17.68	-30.1	-32.7	13.4	1.44e-05	0	42	0	201326592	21	4850
2026-01-09 08:24:54.69	78.11	17.75	-30.0	-32.5	13.5	6.10e-06	0	42	0	203423744	21	4804
2026-01-09 08:24:55.69	77.92	17.81	-30.1	-32.7	13.5	9.90e-06	0	42	0	205520896	21	4857
2026-01-09 08:24:56.71	77.72	17.88	-29.9	-32.3	13.7	1.06e-05	0	42	0	207618048	21	4703
2026-01-09 08:24:57.71	77.52	17.95	-29.8	-32.0	13.9	6.80e-06	0	42	0	209715200	21	4619
2026-01-09 08:24:58.72	77.32	18.01	-30.0	-32.4	13.7	4.50e-06	0	42	0	210763776	21	4736
2026-01-09 08:24:59.72	77.12	18.08	-29.9	-32.1	13.9	6.10e-06	0	42	0	212860928	21	4641
2026-01-09 08:25:00.73	76.92	18.14	-29.8	-32.0	14.0	2.20e-06	0	42	0	214958080	21	4607
2026-01-09 08:25:01.73	76.72	18.21	-29.8	-32.0	13.9	2.20e-06	0	42	0	217055232	21	4605
2026-01-09 08:25:02.74	76.52	18.27	-29.8	-32.0	14.0	6.80e-06	0	42	0	219152384	21	4610
2026-01-09 08:25:03.74	76.32	18.34	-29.7	-32.1	14.2	5.30e-06	0	42	0	220200960	20	4752
2026-01-09 08:25:04.75	76.12	18.40	-29.6	-31.9	14.4	0.00e+00	0	42	0	222298112	20	4663
2026-01-09 08:25:05.75	75.91	18.47	-29.6	-31.8	14.4	2.20e-06	0	42	0	224395264	20	4636
2026-01-09 08:25:06.75	75.71	18.53	-29.6	-31.9	14.3	0.00e+00	0	42	0	226492416	20	4683
2026-01-09 08:25:07.75	75.50	18.59	-29.6	-31.8	14.4	7.00e-07	0	42	0	228589568	20	4648
2026-01-09 08:25:08.77	75.29	18.66	-29.6	-31.8	14.4	5.30e-06	0	42	0	229638144	20	4653
2026-01-09 08:25:09.76	75.09	18.72	-29.6	-31.8	14.4	7.00e-07	0	42	0	231735296	20	4637
2026-01-09 08:25:10.76	74.88	18.78	-29.6	-31.7	14.5	7.00e-07	0	43	0	233832448	20	4618
2026-01-09 08:25:11.77	74.67	18.85	-29.5	-31.4	14.7	1.50e-06	0	42	0	235929600	20	4526
2026-01-09 08:25:12.78	74.46	18.91	-29.4	-31.4	14.7	7.00e-07	0	42	0	238026752	20	4517
2026-01-09 08:25:13.79	74.25	18.97	-29.6	-31.7	14.5	0.00e+00	0	42	0	239075328	20	4626
2026-01-09 08:25:14.79	74.04	19.04	-29.4	-31.4	14.7	1.50e-06	0	43	0	241172480	20	4525
2026-01-09 08:25:15.80	73.82	19.10	-29.4	-31.3	14.7	0.00e+00	0	42	0	243269632	20	4479
2026-01-09 08:25:16.80	73.61	19.16	-29.4	-31.4	14.7	7.00e-07	0	42	0	245366784	20	4512
2026-01-09 08:25:17.81	73.40	19.22	-29.4	-31.3	14.7	3.00e-06	0	42	0	247463936	20	4492
2026-01-09 08:25:18.81	73.18	19.28	-29.4	-31.3	14.8	0.00e+00	0	42	0	248512512	20	4483
2026-01-09 08:25:19.82	72.96	19.34	-29.4	-31.4	14.7	0.00e+00	0	42	0	250609664	20	4507
2026-01-09 08:25:20.82	72.75	19.40	-29.5	-31.5	14.7	7.00e-07	0	42	0	252706816	20	4530
2026-01-09 08:25:21.83	72.53	19.46	-29.4	-31.3	14.7	0.00e+00	0	42	0	254803968	20	4488
2026-01-09 08:25:22.83	72.31	19.52	-29.4	-31.3	14.8	0.00e+00	0	42	0	256901120	20	4472
2026-01-09 08:25:23.85	72.09	19.59	-29.5	-31.5	14.7	7.00e-07	0	42	0	257949696	20	4533
2026-01-09 08:25:24.85	71.87	19.64	-29.5	-31.5	14.6	0.00e+00	0	42	0	260046848	20	4559
2026-01-09 08:25:25.85	71.65	19.70	-29.5	-31.7	14.6	7.00e-07	0	42	0	262144000	20	4594
2026-01-09 08:25:26.86	71.43	19.76	-29.5	-31.7	14.5	7.00e-07	0	42	0	264241152	20	4594
2026-01-09 08:25:27.86	71.20	19.82	-29.5	-31.6	14.6	0.00e+00	0	42	0	266338304	20	4577
2026-01-09 08:25:28.86	70.98	19.88	-29.6	-31.8	14.5	1.50e-06	0	42	0	267386880	20	4635
2026-01-09 08:25:29.87	70.75	19.94	-29.6	-31.9	14.4	7.00e-07	0	42	0	269484032	20	4672
2026-01-09 08:25:30.87	70.53	20.00	-29.6	-31.9	14.3	0.00e+00	0	43	0	271581184	20	4687
2026-01-09 08:25:31.87	70.30	20.05	-29.6	-31.9	14.4	0.00e+00	0	43	0	273678336	20	4664
2026-01-09 08:25:32.88	70.08	20.11	-29.6	-31.9	14.4	0.00e+00	0	43	0	275775488	20	4664
2026-01-09 08:25:33.88	69.85	20.17	-29.6	-31.8	14.5	1.50e-06	0	42	0	276824064	20	4651
2026-01-09 08:25:34.89	69.62	20.22	-29.7	-32.0	14.4	0.00e+00	0	43	0	278921216	20	4704
2026-01-09 08:25:35.90	69.39	20.28	-29.6	-31.7	14.5	1.50e-06	0	43	0	281018368	20	4611
2026-01-09 08:25:36.91	69.16	20.33	-29.4	-31.4	14.7	7.00e-07	0	42	0	283115520	20	4513
2026-01-09 08:25:37.92	68.92	20.39	-29.4	-31.3	14.8	0.00e+00	0	43	0	285212672	20	4484
2026-01-09 08:25:38.92	68.69	20.44	-29.4	-31.3	14.8	0.00e+00	0	42	0	286261248	20	4466
2026-01-09 08:25:39.93	68.46	20.50	-29.3	-31.1	14.9	2.20e-06	0	42	0	288358400	20	4429
2026-01-09 08:25:40.94	68.22	20.55	-29.3	-31.2	14.9	0.00e+00	0	42	0	290455552	20	4437
2026-01-09 08:25:41.94	67.99	20.61	-29.3	-31.4	15.1	7.00e-07	0	43	0	292552704	19	4606
2026-01-09 08:25:42.95	67.75	20.66	-29.0	-30.9	15.4	0.00e+00	0	42	0	294649856	19	4446
2026-01-09 08:25:43.96	67.51	20.71	-29.1	-31.0	15.3	0.00e+00	0	42	0	295698432	19	4480
2026-01-09 08:25:44.97	67.27	20.77	-29.0	-30.7	15.6	0.00e+00	0	43	0	297795584	19	4379
2026-01-09 08:25:45.97	67.04	20.82	-28.9	-30.6	15.6	0.00e+00	0	42	0	299892736	19	4363
2026-01-09 08:25:46.98	66.80	20.87	-29.0	-30.6	15.6	0.00e+00	0	43	0	301989888	19	4360
2026-01-09 08:25:47.98	66.56	20.92	-28.9	-30.6	15.6	0.00e+00	0	43	0	304087040	19	4344
2026-01-09 08:25:48.99	66.32	20.97	-29.0	-30.7	15.6	0.00e+00	0	42	0	305135616	19	4381
2026-01-09 08:25:49.99	66.08	21.02	-29.0	-30.7	15.6	0.00e+00	0	43	0	307232768	19	4378
2026-01-09 08:25:51.01	65.83	21.07	-29.1	-31.1	15.3	0.00e+00	0	43	0	309329920	19	4497
2026-01-09 08:25:52.01	65.59	21.12	-29.0	-30.8	15.5	0.00e+00	0	42	0	311427072	19	4415
2026-01-09 08:25:53.01	65.35	21.17	-28.9	-30.5	15.7	0.00e+00	0	43	0	313524224	19	4329
2026-01-09 08:25:54.02	65.10	21.22	-28.9	-30.5	15.7	0.00e+00	0	43	0	314572800	19	4326
2026-01-09 08:25:55.02	64.86	21.27	-29.0	-30.7	15.5	0.00e+00	0	43	0	316669952	19	4400
2026-01-09 08:25:56.03	64.61	21.32	-28.8	-30.4	15.7	0.00e+00	0	43	0	318767104	19	4288
2026-01-09 08:25:57.04	64.36	21.36	-28.8	-30.3	15.8	0.00e+00	0	43	0	320864256	19	4273
2026-01-09 08:25:58.04	64.11	21.41	-29.0	-30.8	15.5	0.00e+00	0	42	0	322961408	19	4416
2026-01-09 08:25:59.04	63.87	21.46	-28.9	-30.5	15.7	0.00e+00	0	42	0	324009984	19	4318
2026-01-09 08:26:00.05	63.62	21.50	-28.9	-30.4	15.7	0.00e+00	0	43	0	326107136	19	4300
2026-01-09 08:26:01.06	63.37	21.55	-28.9	-30.5	15.7	0.00e+00	0	43	0	328204288	19	4316
2026-01-09 08:26:02.06	63.12	21.59	-28.8	-30.2	15.8	0.00e+00	0	42	0	330301440	19	4249
2026-01-09 08:26:03.07	62.86	21.64	-28.7	-30.6	15.9	0.00e+00	0	43	0	332398592	18	4444
2026-01-09 08:26:04.08	62.61	21.68	-28.9	-31.0	15.7	0.00e+00	0	42	0	333447168	18	4576
2026-01-09 08:26:05.09	62.36	21.72	-28.9	-31.0	15.7	0.00e+00	0	43	0	335544320	18	4584
2026-01-09 08:26:06.09	62.10	21.76	-29.0	-31.3	15.4	0.00e+00	0	42	0	337641472	18	4683
2026-01-09 08:26:07.09	61.85	21.81	-28.9	-31.0	15.6	0.00e+00	0	43	0	339738624	18	4595
2026-01-09 08:26:08.10	61.60	21.85	-28.9	-31.1	15.6	0.00e+00	0	43	0	341835776	18	4611
2026-01-09 08:26:09.11	61.34	21.89	-29.1	-31.5	15.4	0.00e+00	0	42	0	342884352	18	4743
2026-01-09 08:26:10.11	61.08	21.93	-29.0	-31.2	15.6	0.00e+00	0	43	0	344981504	18	4644
2026-01-09 08:26:11.12	60.83	21.97	-29.1	-31.5	15.4	0.00e+00	0	43	0	347078656	18	4739
2026-01-09 08:26:12.13	60.57	22.01	-29.0	-31.2	15.5	0.00e+00	0	42	0	349175808	18	4652
2026-01-09 08:26:13.13	60.31	22.05	-29.1	-31.4	15.4	0.00e+00	0	42	0	351272960	18	4703
2026-01-09 08:26:14.14	60.05	22.09	-29.0	-31.3	15.4	0.00e+00	0	43	0	352321536	18	4683
2026-01-09 08:26:15.14	59.79	22.12	-29.2	-31.8	15.2	0.00e+00	0	43	0	354418688	18	4837
2026-01-09 08:26:16.14	59.53	22.16	-29.3	-32.1	15.0	0.00e+00	0	43	0	356515840	18	4934
2026-01-09 08:26:17.15	59.27	22.20	-29.4	-32.3	14.9	0.00e+00	0	43	0	358612992	18	5010
2026-01-09 08:26:18.17	59.01	22.23	-29.6	-32.3	14.6	1.50e-06	0	42	0	360710144	19	4899
2026-01-09 08:26:19.17	58.75	22.27	-29.8	-32.8	14.3	7.00e-07	0	43	0	361758720	19	5071
2026-01-09 08:26:20.17	58.48	22.30	-30.0	-33.2	14.0	0.00e+00	0	43	0	363855872	19	5219
2026-01-09 08:26:21.18	58.22	22.34	-29.9	-33.0	14.1	3.80e-06	0	43	0	365953024	19	5138
2026-01-09 08:26:22.19	57.96	22.37	-29.9	-33.1	14.0	2.20e-06	0	42	0	368050176	19	5188
2026-01-09 08:26:23.19	57.69	22.40	-29.8	-32.8	14.2	7.00e-07	0	43	0	369098752	19	5090
2026-01-09 08:26:24.19	57.43	22.44	-29.9	-33.1	14.0	5.30e-06	0	43	0	371195904	19	5181
2026-01-09 08:26:25.20	57.16	22.47	-30.0	-33.3	13.9	3.00e-06	0	43	0	373293056	19	5267
2026-01-09 08:26:26.21	56.90	22.50	-30.1	-33.1	13.6	9.90e-06	0	42	0	375390208	20	5101
2026-01-09 08:26:27.22	56.63	22.53	-29.9	-32.7	13.9	3.80e-06	0	43	0	377487360	20	4943
2026-01-09 08:26:28.22	56.36	22.56	-29.9	-32.7	13.9	3.80e-06	0	43	0	379584512	20	4940
2026-01-09 08:26:29.23	56.09	22.59	-30.1	-33.0	13.7	3.80e-06	0	42	0	380633088	20	5038
2026-01-09 08:26:30.24	55.82	22.62	-30.0	-32.8	13.9	4.50e-06	0	43	0	382730240	20	4964
2026-01-09 08:26:31.24	55.56	22.65	-30.0	-32.9	13.8	5.30e-06	0	42	0	384827392	20	5012
2026-01-09 08:26:32.25	55.29	22.67	-30.0	-33.0	13.8	4.50e-06	0	43	0	386924544	20	5040
2026-01-09 08:26:33.26	55.02	22.70	-30.0	-32.9	13.7	5.30e-06	0	43	0	389021696	20	5027
2026-01-09 08:26:34.27	54.75	22.73	-30.1	-33.1	13.6	4.50e-06	0	43	0	390070272	20	5094
2026-01-09 08:26:35.27	54.48	22.75	-30.2	-33.4	13.5	3.00e-06	0	43	0	392167424	20	5207
2026-01-09 08:26:36.28	54.21	22.78	-30.3	-33.8	13.2	2.36e-05	0	43	0	394264576	20	5344
2026-01-09 08:26:37.28	53.94	22.80	-30.4	-33.8	13.2	2.59e-05	0	42	0	396361728	20	5378
2026-01-09 08:26:38.29	53.66	22.82	-30.4	-33.9	13.1	2.82e-05	0	43	0	397410304	20	5379
2026-01-09 08:26:39.29	53.39	22.85	-30.4	-34.1	13.0	2.21e-05	0	43	0	399507456	20	5472
2026-01-09 08:26:40.30	53.12	22.87	-30.6	-34.0	12.7	3.81e-05	0	43	0	401604608	21	5322
2026-01-09 08:26:41.30	52.85	22.89	-30.8	-34.5	12.4	1.62e-04	0	42	0	403701760	21	5520
2026-01-09 08:26:42.31	52.57	22.91	-30.6	-34.0	12.7	9.15e-05	0	43	0	405798912	21	5324
2026-01-09 08:26:43.32	52.30	22.93	-30.5	-33.6	13.0	4.57e-05	0	43	0	407896064	21	5175
2026-01-09 08:26:44.32	52.03	22.95	-30.3	-33.1	13.4	1.06e-05	0	43	0	408944640	21	4973
2026-01-09 08:26:45.33	51.75	22.97	-30.2	-32.9	13.5	9.90e-06	0	43	0	411041792	21	4922
2026-01-09 08:26:46.33	51.48	22.99	-30.3	-33.0	13.4	1.67e-05	0	43	0	413138944	21	4956
2026-01-09 08:26:47.34	51.20	23.00	-30.3	-33.2	13.3	1.22e-05	0	43	0	415236096	21	5007
2026-01-09 08:26:48.35	50.93	23.02	-30.4	-33.4	13.2	2.74e-05	0	43	0	417333248	21	5083
2026-01-09 08:26:49.34	50.65	23.04	-30.3	-33.2	13.3	3.05e-05	0	43	0	418381824	21	5029
2026-01-09 08:26:50.35	50.38	23.05	-30.6	-34.0	12.8	4.88e-05	0	43	0	420478976	21	5330
2026-01-09 08:26:51.35	50.10	23.06	-30.8	-34.6	12.3	2.28e-04	0	43	0	422576128	21	5566
2026-01-09 08:26:52.36	49.83	23.08	-30.6	-33.9	12.9	8.46e-05	0	43	0	424673280	21	5278
2026-01-09 08:26:53.36	49.55	23.09	-30.6	-33.9	12.9	5.79e-05	0	43	0	425721856	21	5279
2026-01-09 08:26:54.37	49.27	23.10	-30.4	-33.4	13.2	3.28e-05	0	43	0	427819008	21	5076
2026-01-09 08:26:55.37	49.00	23.11	-30.4	-33.4	13.1	2.28e-05	0	43	0	429916160	21	5096
2026-01-09 08:26:56.37	48.72	23.13	-30.7	-34.2	12.6	6.94e-05	0	43	0	432013312	21	5401
2026-01-09 08:26:57.38	48.44	23.14	-30.4	-33.4	13.1	5.26e-05	0	42	0	434110464	21	5111
2026-01-09 08:26:58.38	48.17	23.15	-30.3	-33.1	13.4	1.52e-05	0	43	0	435159040	21	4981
2026-01-09 08:26:59.39	47.89	23.15	-30.1	-32.7	13.6	1.90e-05	0	43	0	437256192	21	4838
2026-01-09 08:27:00.40	47.61	23.16	-30.1	-32.5	13.7	1.06e-05	0	43	0	439353344	21	4756
2026-01-09 08:27:01.41	47.33	23.17	-30.2	-32.8	13.5	8.30e-06	0	43	0	441450496	21	4857
2026-01-09 08:27:02.42	47.05	23.18	-30.6	-34.0	12.8	1.44e-05	0	43	0	443547648	21	5307
2026-01-09 08:27:03.43	46.77	23.18	-30.5	-33.6	13.0	4.11e-05	0	43	0	444596224	21	5180
2026-01-09 08:27:04.43	46.50	23.19	-30.4	-33.5	13.1	3.73e-05	0	43	0	446693376	21	5124
2026-01-09 08:27:05.44	46.22	23.19	-30.4	-33.4	13.1	2.44e-05	0	43	0	448790528	21	5108
2026-01-09 08:27:06.44	45.94	23.19	-30.3	-33.2	13.2	1.60e-05	0	43	0	450887680	21	5033
2026-01-09 08:27:07.45	45.66	23.20	-30.3	-33.0	13.4	4.27e-05	0	43	0	452984832	21	4942
2026-01-09 08:27:08.46	45.38	23.20	-30.2	-32.8	13.6	9.10e-06	0	43	0	454033408	21	4854
2026-01-09 08:27:09.46	45.11	23.20	-29.8	-31.9	14.2	3.80e-06	0	42	0	456130560	21	4577
2026-01-09 08:27:10.46	44.83	23.20	-29.9	-32.1	13.9	7.00e-07	0	43	0	458227712	21	4617
2026-01-09 08:27:11.47	44.55	23.20	-29.9	-32.2	13.9	7.60e-06	0	43	0	460324864	21	4672
2026-01-09 08:27:12.47	44.27	23.20	-29.7	-32.2	14.2	4.50e-06	0	43	0	462422016	20	4774
2026-01-09 08:27:13.47	44.00	23.20	-29.5	-31.6	14.6	7.00e-07	0	43	0	463470592	20	4586
2026-01-09 08:27:14.48	43.72	23.20	-29.4	-31.3	14.8	0.00e+00	0	43	0	465567744	20	4484
2026-01-09 08:27:15.48	43.44	23.19	-29.5	-31.4	14.7	2.20e-06	0	42	0	467664896	20	4522
2026-01-09 08:27:16.48	43.16	23.19	-29.5	-31.4	14.7	0.00e+00	0	43	0	469762048	20	4510
2026-01-09 08:27:17.49	42.88	23.19	-29.5	-31.5	14.7	7.00e-07	0	43	0	471859200	20	4539
2026-01-09 08:27:18.50	42.61	23.18	-29.4	-31.4	14.7	0.00e+00	0	43	0	472907776	20	4516
2026-01-09 08:27:19.49	42.33	23.18	-29.4	-31.2	14.8	0.00e+00	0	43	0	475004928	20	4443
2026-01-09 08:27:20.49	42.06	23.17	-29.4	-31.2	14.9	0.00e+00	0	43	0	477102080	20	4454
2026-01-09 08:27:21.49	41.78	23.16	-29.4	-31.4	14.7	0.00e+00	0	43	0	479199232	20	4502
2026-01-09 08:27:22.50	41.50	23.15	-29.4	-31.2	14.8	0.00e+00	0	43	0	481296384	20	4461
2026-01-09 08:27:23.50	41.23	23.14	-29.2	-31.1	15.2	0.00e+00	0	43	0	482344960	19	4524
2026-01-09 08:27:24.51	40.95	23.14	-29.1	-30.9	15.4	0.00e+00	0	43	0	484442112	19	4466
2026-01-09 08:27:25.51	40.67	23.13	-29.1	-31.0	15.3	0.00e+00	0	43	0	486539264	19	4476
2026-01-09 08:27:26.52	40.39	23.11	-29.0	-30.6	15.6	0.00e+00	0	43	0	488636416	19	4370
2026-01-09 08:27:27.52	40.12	23.10	-29.1	-30.9	15.4	0.00e+00	0	43	0	490733568	19	4459
2026-01-09 08:27:28.53	39.84	23.09	-29.1	-31.0	15.3	0.00e+00	0	43	0	491782144	19	4468
2026-01-09 08:27:29.54	39.56	23.08	-28.9	-30.5	15.6	0.00e+00	0	43	0	493879296	19	4330
2026-01-09 08:27:30.54	39.29	23.06	-28.8	-30.2	15.8	0.00e+00	0	43	0	495976448	19	4243
2026-01-09 08:27:31.55	39.01	23.05	-28.8	-30.6	15.8	0.00e+00	0	43	0	498073600	18	4474
2026-01-09 08:27:32.55	38.74	23.03	-28.9	-30.9	15.7	0.00e+00	0	43	0	500170752	18	4561
2026-01-09 08:27:33.56	38.46	23.02	-28.9	-30.9	15.7	0.00e+00	0	43	0	501219328	18	4563
2026-01-09 08:27:34.57	38.19	23.00	-28.7	-30.6	15.8	0.00e+00	0	43	0	503316480	18	4469
2026-01-09 08:27:35.58	37.91	22.98	-28.8	-30.7	15.8	0.00e+00	0	43	0	505413632	18	4480
2026-01-09 08:27:36.58	37.64	22.97	-28.8	-30.7	15.8	0.00e+00	0	43	0	507510784	18	4499
2026-01-09 08:27:37.58	37.37	22.95	-28.7	-30.4	15.9	0.00e+00	0	43	0	509607936	18	4418
2026-01-09 08:27:38.59	37.09	22.93	-28.6	-30.2	16.1	0.00e+00	0	43	0	510656512	18	4360
2026-01-09 08:27:39.59	36.82	22.91	-28.7	-30.6	15.8	0.00e+00	0	43	0	512753664	18	4477
2026-01-09 08:27:40.60	36.55	22.89	-28.7	-30.6	15.8	0.00e+00	0	43	0	514850816	18	4468
2026-01-09 08:27:41.61	36.27	22.87	-28.6	-30.3	16.0	0.00e+00	0	43	0	516947968	18	4395
2026-01-09 08:27:42.61	36.00	22.84	-28.6	-30.3	16.0	0.00e+00	0	43	0	519045120	18	4368
2026-01-09 08:27:43.61	35.73	22.82	-28.6	-30.2	16.0	0.00e+00	0	43	0	520093696	18	4360
2026-01-09 08:27:44.62	35.46	22.80	-28.8	-30.7	15.8	0.00e+00	0	43	0	522190848	18	4492
2026-01-09 08:27:45.62	35.19	22.77	-29.0	-31.3	15.5	0.00e+00	0	43	0	524288000	18	4691
2026-01-09 08:27:46.63	34.92	22.75	-29.1	-31.5	15.3	0.00e+00	0	43	0	526385152	18	4764
2026-01-09 08:27:47.63	34.65	22.72	-29.1	-31.5	15.3	0.00e+00	0	43	0	527433728	18	4743
2026-01-09 08:27:48.63	34.38	22.70	-29.1	-31.5	15.3	0.00e+00	0	43	0	529530880	18	4739
2026-01-09 08:27:49.64	34.11	22.67	-28.8	-30.8	15.7	0.00e+00	0	42	0	531628032	18	4531
2026-01-09 08:27:50.64	33.84	22.64	-28.8	-30.7	15.8	0.00e+00	0	43	0	533725184	18	4500
2026-01-09 08:27:51.64	33.58	22.62	-28.8	-30.9	15.7	0.00e+00	0	43	0	535822336	18	4556
2026-01-09 08:27:52.65	33.31	22.59	-28.9	-31.0	15.6	0.00e+00	0	43	0	537919488	18	4597
2026-01-09 08:27:53.66	33.04	22.56	-29.0	-31.3	15.4	0.00e+00	0	43	0	538968064	18	4690
2026-01-09 08:27:54.66	32.78	22.53	-29.0	-31.3	15.4	0.00e+00	0	43	0	541065216	18	4675
2026-01-09 08:27:55.67	32.51	22.50	-29.1	-31.6	15.2	0.00e+00	0	43	0	543162368	18	4796
2026-01-09 08:27:56.68	32.24	22.47	-29.2	-31.8	15.1	0.00e+00	0	43	0	545259520	18	4859
2026-01-09 08:27:57.68	31.98	22.44	-29.4	-32.3	14.8	0.00e+00	0	43	0	546308096	18	5036
2026-01-09 08:27:58.69	31.71	22.40	-29.5	-31.9	14.8	0.00e+00	0	43	0	548405248	19	4774
2026-01-09 08:27:59.69	31.45	22.37	-29.7	-32.5	14.4	1.50e-06	0	43	0	550502400	19	4974
2026-01-09 08:28:00.70	31.19	22.34	-29.6	-32.4	14.4	1.50e-06	0	43	0	552599552	19	4943
2026-01-09 08:28:01.71	30.92	22.30	-29.6	-32.2	14.6	2.20e-06	0	43	0	554696704	19	4863
2026-01-09 08:28:02.71	30.66	22.27	-29.8	-32.8	14.2	1.50e-06	0	43	0	555745280	19	5094
2026-01-09 08:28:03.72	30.40	22.23	-29.8	-32.7	14.3	1.50e-06	0	42	0	557842432	19	5049
2026-01-09 08:28:04.73	30.14	22.20	-29.8	-32.8	14.2	0.00e+00	0	43	0	559939584	19	5075
2026-01-09 08:28:05.73	29.88	22.16	-30.0	-33.3	13.9	5.30e-06	0	43	0	562036736	19	5252
2026-01-09 08:28:06.74	29.62	22.12	-30.2	-33.4	13.4	9.10e-06	0	43	0	564133888	20	5210
2026-01-09 08:28:07.74	29.36	22.09	-30.1	-32.7	13.5	9.38e-05	0	43	0	565182464	21	4861
2026-01-09 08:28:08.74	29.10	22.05	-30.0	-32.4	13.7	9.90e-06	0	43	0	567279616	21	4746
2026-01-09 08:28:09.75	28.85	22.01	-29.9	-32.2	13.9	6.10e-06	0	43	0	569376768	21	4675
2026-01-09 08:28:10.75	28.59	21.97	-30.3	-33.1	13.3	7.00e-07	0	43	0	571473920	21	5001
2026-01-09 08:28:11.76	28.33	21.93	-30.3	-33.3	13.1	4.50e-05	0	43	0	573571072	21	5067
2026-01-09 08:28:12.77	28.08	21.89	-30.2	-32.9	13.4	1.44e-05	0	43	0	574619648	21	4923
2026-01-09 08:28:13.78	27.82	21.85	-30.1	-32.6	13.6	1.29e-05	0	43	0	576716800	21	4824
2026-01-09 08:28:14.78	27.57	21.81	-30.2	-32.8	13.4	1.22e-05	0	43	0	578813952	21	4893
2026-01-09 08:28:15.79	27.31	21.76	-30.1	-32.8	13.4	1.14e-05	0	43	0	580911104	21	4890
2026-01-09 08:28:16.78	27.06	21.72	-30.1	-32.7	13.5	1.37e-05	0	43	0	583008256	21	4848
2026-01-09 08:28:17.78	26.81	21.68	-30.4	-33.4	13.0	2.59e-05	0	43	0	584056832	21	5121
2026-01-09 08:28:18.78	26.56	21.64	-30.2	-33.1	13.2	3.20e-05	0	43	0	586153984	21	4980
2026-01-09 08:28:19.79	26.31	21.59	-30.1	-32.8	13.4	1.75e-05	0	43	0	588251136	21	4895
2026-01-09 08:28:20.79	26.06	21.55	-30.0	-32.5	13.6	9.10e-06	0	43	0	590348288	21	4793
2026-01-09 08:28:21.80	25.81	21.50	-30.1	-32.7	13.5	1.06e-05	0	43	0	592445440	21	4849
2026-01-09 08:28:22.81	25.56	21.46	-30.1	-32.7	13.5	1.37e-05	0	43	0	593494016	21	4841
2026-01-09 08:28:23.81	25.31	21.41	-30.2	-32.8	13.4	1.14e-05	0	43	0	595591168	21	4894
2026-01-09 08:28:24.83	25.06	21.36	-30.3	-33.4	13.1	1.44e-05	0	42	0	597688320	21	5091
2026-01-09 08:28:25.83	24.82	21.32	-30.2	-33.1	13.2	2.97e-05	0	43	0	599785472	21	4988
2026-01-09 08:28:26.84	24.57	21.27	-30.1	-32.6	13.5	1.90e-05	0	43	0	601882624	21	4825
2026-01-09 08:28:27.85	24.33	21.22	-30.0	-32.4	13.6	4.50e-06	0	42	0	602931200	21	4751
2026-01-09 08:28:28.85	24.08	21.17	-29.9	-32.3	13.8	5.30e-06	0	43	0	605028352	21	4698
2026-01-09 08:28:29.86	23.84	21.12	-30.0	-32.4	13.7	6.10e-06	0	43	0	607125504	21	4728
2026-01-09 08:28:30.86	23.60	21.07	-29.9	-32.1	13.9	6.80e-06	0	42	0	609222656	21	4661
2026-01-09 08:28:31.87	23.36	21.02	-30.3	-33.2	13.1	1.29e-05	0	43	0	611319808	21	5046
2026-01-09 08:28:32.88	23.11	20.97	-30.3	-33.1	13.2	1.37e-05	0	42	0	612368384	21	5002
2026-01-09 08:28:33.87	22.88	20.92	-30.3	-33.1	13.2	3.28e-05	0	43	0	614465536	21	4995
2026-01-09 08:28:34.87	22.64	20.87	-30.4	-33.5	12.9	3.50e-05	0	43	0	616562688	21	5149
2026-01-09 08:28:35.88	22.40	20.82	-30.2	-32.9	13.3	2.89e-05	0	43	0	618659840	21	4930
2026-01-09 08:28:36.89	22.16	20.77	-30.0	-32.5	13.6	8.30e-06	0	43	0	620756992	21	4762
2026-01-09 08:28:37.89	21.93	20.72	-30.0	-32.4	13.7	3.80e-06	0	43	0	621805568	21	4734
2026-01-09 08:28:38.90	21.69	20.66	-29.9	-32.2	13.8	7.60e-06	0	43	0	623902720	21	4691
2026-01-09 08:28:39.91	21.45	20.61	-29.9	-32.2	13.8	2.20e-06	0	42	0	625999872	21	4663
2026-01-09 08:28:40.92	21.22	20.56	-30.0	-32.4	13.7	6.80e-06	0	43	0	628097024	21	4732
2026-01-09 08:28:41.92	20.99	20.50	-30.0	-32.3	13.7	5.30e-06	0	43	0	630194176	21	4710
2026-01-09 08:28:42.93	20.75	20.45	-30.0	-32.5	13.6	3.00e-06	0	43	0	631242752	21	4766
2026-01-09 08:28:43.94	20.52	20.39	-30.0	-32.3	13.7	1.14e-05	0	43	0	633339904	21	4719
2026-01-09 08:28:44.94	20.29	20.34	-30.0	-32.3	13.7	3.00e-06	0	43	0	635437056	21	4715
2026-01-09 08:28:45.95	20.06	20.28	-29.9	-32.2	13.8	5.30e-06	0	42	0	637534208	21	4682
2026-01-09 08:28:46.96	19.83	20.23	-30.0	-32.3	13.7	4.50e-06	0	43	0	639631360	21	4728
2026-01-09 08:28:47.97	19.60	20.17	-30.0	-32.5	13.6	6.10e-06	0	43	0	640679936	21	4800
2026-01-09 08:28:48.97	19.37	20.11	-29.9	-32.1	13.8	8.30e-06	0	43	0	642777088	21	4644
2026-01-09 08:28:49.97	19.15	20.06	-29.8	-31.9	14.0	2.20e-06	0	43	0	644874240	21	4568
2026-01-09 08:28:50.98	18.92	20.00	-29.8	-32.5	13.9	1.50e-06	0	43	0	646971392	20	4873
2026-01-09 08:28:51.98	18.70	19.94	-29.9	-32.7	13.8	2.20e-06	0	42	0	649068544	20	4941
2026-01-09 08:28:52.99	18.47	19.89	-29.9	-32.6	13.8	9.10e-06	0	43	0	650117120	20	4933
2026-01-09 08:28:53.99	18.25	19.83	-29.9	-32.5	13.9	2.20e-06	0	43	0	652214272	20	4901
2026-01-09 08:28:54.99	18.03	19.77	-30.0	-32.8	13.7	6.10e-06	0	43	0	654311424	20	4996
2026-01-09 08:28:55.99	17.81	19.71	-29.8	-32.4	13.9	4.50e-06	0	42	0	656408576	20	4869
2026-01-09 08:28:57.00	17.59	19.65	-29.9	-32.7	13.8	2.20e-06	0	43	0	658505728	20	4950
2026-01-09 08:28:58.00	17.37	19.59	-30.0	-32.9	13.6	6.80e-06	0	43	0	659554304	20	5040
2026-01-09 08:28:59.01	17.15	19.53	-29.9	-32.6	13.8	5.30e-06	0	43	0	661651456	20	4929
2026-01-09 08:29:00.01	16.93	19.47	-29.9	-32.5	13.9	1.50e-06	0	43	0	663748608	20	4888
2026-01-09 08:29:01.01	16.71	19.41	-29.8	-32.5	13.9	3.80e-06	0	42	0	665845760	20	4898
2026-01-09 08:29:02.02	16.50	19.35	-29.9	-32.6	13.8	7.00e-07	0	43	0	667942912	20	4915
2026-01-09 08:29:03.03	16.28	19.29	-29.9	-32.6	13.8	3.00e-06	0	43	0	668991488	20	4931
2026-01-09 08:29:04.03	16.07	19.23	-30.0	-32.9	13.6	4.50e-06	0	43	0	671088640	20	5018
2026-01-09 08:29:05.04	15.85	19.17	-29.8	-32.4	13.9	3.80e-06	0	43	0	673185792	20	4868
2026-01-09 08:29:06.05	15.64	19.11	-29.9	-32.7	13.7	7.60e-06	0	43	0	675282944	20	4977
2026-01-09 08:29:07.04	15.43	19.05	-30.0	-32.9	13.5	6.80e-06	0	43	0	677380096	20	5048
2026-01-09 08:29:08.04	15.22	18.98	-29.9	-32.6	13.8	5.30e-06	0	43	0	678428672	20	4912
2026-01-09 08:29:09.04	15.01	18.92	-29.8	-32.4	13.9	3.00e-06	0	43	0	680525824	20	4867
2026-01-09 08:29:10.04	14.80	18.86	-29.9	-32.5	13.8	2.20e-06	0	43	0	682622976	20	4906
2026-01-09 08:29:11.05	14.59	18.80	-29.9	-32.7	13.7	5.30e-06	0	43	0	684720128	20	4976
2026-01-09 08:29:12.06	14.38	18.73	-29.8	-32.5	13.8	4.50e-06	0	43	0	686817280	20	4902
2026-01-09 08:29:13.05	14.18	18.67	-29.9	-32.6	13.8	4.50e-06	0	43	0	687865856	20	4931
2026-01-09 08:29:14.06	13.97	18.61	-29.9	-32.7	13.8	9.90e-06	0	43	0	689963008	20	4964
2026-01-09 08:29:15.06	13.77	18.54	-29.9	-32.7	13.7	6.10e-06	0	43	0	692060160	20	4968
2026-01-09 08:29:16.06	13.57	18.48	-29.8	-32.5	13.8	3.00e-06	0	43	0	694157312	20	4903
2026-01-09 08:29:17.06	13.36	18.42	-29.8	-32.5	13.8	4.50e-06	0	43	0	695205888	20	4902
2026-01-09 08:29:18.07	13.16	18.35	-30.0	-33.0	13.5	8.30e-06	0	43	0	697303040	20	5070
2026-01-09 08:29:19.08	12.96	18.29	-29.9	-32.6	13.7	6.10e-06	0	43	0	699400192	20	4947
2026-01-09 08:29:20.08	12.76	18.22	-29.9	-32.8	13.6	8.30e-06	0	43	0	701497344	20	5014
2026-01-09 08:29:21.08	12.56	18.16	-30.1	-33.2	13.3	5.30e-06	0	43	0	703594496	20	5145
2026-01-09 08:29:22.09	12.36	18.09	-29.9	-32.8	13.6	7.60e-06	0	43	0	704643072	20	5002
2026-01-09 08:29:23.10	12.16	18.03	-29.9	-32.6	13.7	4.50e-06	0	43	0	706740224	20	4941
2026-01-09 08:29:24.10	11.97	17.96	-29.8	-32.4	13.9	5.30e-06	0	43	0	708837376	20	4851
2026-01-09 08:29:25.11	11.77	17.89	-29.8	-32.4	13.9	3.00e-06	0	43	0	710934528	20	4848
2026-01-09 08:29:26.11	11.57	17.83	-29.7	-32.2	14.0	4.50e-06	0	43	0	713031680	20	4808
2026-01-09 08:29:27.12	11.38	17.76	-29.7	-32.3	14.0	3.80e-06	0	43	0	714080256	20	4817
2026-01-09 08:29:28.13	11.18	17.70	-29.7	-32.3	14.0	3.00e-06	0	43	0	716177408	20	4816
2026-01-09 08:29:29.14	10.99	17.63	-29.8	-32.3	13.9	2.20e-06	0	43	0	718274560	20	4836
2026-01-09 08:29:30.15	10.80	17.56	-29.7	-32.2	14.0	6.10e-06	0	43	0	720371712	20	4794
2026-01-09 08:29:31.15	10.61	17.50	-29.7	-32.2	13.9	2.20e-06	0	43	0	722468864	20	4809
2026-01-09 08:29:32.16	10.42	17.43	-29.7	-32.1	14.0	4.50e-06	0	43	0	723517440	20	4774
2026-01-09 08:29:33.16	10.23	17.36	-29.8	-32.4	13.8	3.80e-06	0	43	0	725614592	20	4877
2026-01-09 08:29:34.17	10.04	17.29	-29.8	-32.5	13.8	7.60e-06	0	42	0	727711744	20	4887
2026-01-09 08:29:35.17	9.85	17.23	-29.8	-32.4	13.9	3.00e-06	0	43	0	729808896	20	4855
2026-01-09 08:29:36.18	9.66	17.16	-29.7	-32.2	13.9	4.50e-06	0	43	0	731906048	20	4811
2026-01-09 08:29:37.18	9.48	17.09	-29.7	-32.2	14.0	3.00e-06	0	43	0	732954624	20	4781
2026-01-09 08:29:38.19	9.29	17.02	-29.7	-32.1	14.0	3.80e-06	0	43	0	735051776	20	4763
2026-01-09 08:29:39.19	9.11	16.96	-29.7	-32.2	14.0	4.50e-06	0	43	0	737148928	20	4785
2026-01-09 08:29:40.20	8.93	16.89	-29.8	-32.4	13.8	2.20e-06	0	43	0	739246080	20	4864
2026-01-09 08:29:41.20	8.74	16.82	-29.9	-32.7	13.6	3.80e-06	0	43	0	741343232	20	4989
2026-01-09 08:29:42.20	8.56	16.75	-29.7	-32.2	14.0	3.00e-06	0	43	0	742391808	20	4780
2026-01-09 08:29:43.21	8.38	16.69	-29.5	-31.7	14.2	1.50e-06	0	43	0	744488960	20	4630
2026-01-09 08:29:44.21	8.20	16.62	-29.4	-31.5	14.4	0.00e+00	0	43	0	746586112	20	4583
2026-01-09 08:29:45.21	8.02	16.55	-29.5	-31.6	14.3	2.20e-06	0	43	0	748683264	20	4590
2026-01-09 08:29:46.22	7.85	16.48	-29.5	-31.6	14.3	2.20e-06	0	43	0	750780416	20	4615
2026-01-09 08:29:47.23	7.67	16.41	-29.6	-31.8	14.2	1.50e-06	0	43	0	751828992	20	4679
2026-01-09 08:29:48.23	7.49	16.34	-29.6	-31.8	14.1	3.80e-06	0	43	0	753926144	20	4676
2026-01-09 08:29:49.24	7.31	16.27	-29.5	-31.7	14.2	7.00e-07	0	43	0	756023296	20	4636
2026-01-09 08:29:50.25	7.14	16.20	-29.5	-31.6	14.3	3.00e-06	0	43	0	758120448	20	4584
2026-01-09 08:29:51.25	6.96	16.14	-29.6	-31.8	14.2	2.20e-06	0	43	0	760217600	20	4677
2026-01-09 08:29:52.25	6.79	16.07	-29.6	-32.0	14.1	7.00e-07	0	43	0	761266176	20	4717
2026-01-09 08:29:53.26	6.62	16.00	-29.7	-32.1	14.0	7.00e-07	0	43	0	763363328	20	4759
2026-01-09 08:29:54.26	6.45	15.93	-29.4	-31.4	14.4	2.20e-06	0	43	0	765460480	20	4520
2026-01-09 08:29:55.27	6.28	15.86	-29.3	-31.7	14.6	7.00e-07	0	43	0	767557632	19	4714
2026-01-09 08:29:56.28	6.10	15.79	-29.2	-31.4	14.8	1.50e-06	0	43	0	769654784	19	4628
2026-01-09 08:29:57.29	5.93	15.72	-29.3	-31.6	14.7	0.00e+00	0	43	0	770703360	19	4699
2026-01-09 08:29:58.29	5.77	15.65	-29.5	-32.1	14.4	0.00e+00	0	43	0	772800512	19	4853
2026-01-09 08:29:59.30	5.60	15.58	-29.3	-31.7	14.6	0.00e+00	0	42	0	774897664	19	4740
2026-01-09 08:30:00.30	5.43	15.51	-29.3	-31.6	14.7	0.00e+00	0	43	0	776994816	19	4705
2026-01-09 08:30:01.30	5.27	15.44	-29.5	-32.1	14.3	0.00e+00	0	43	0	779091968	19	4876
2026-01-09 08:30:02.31	5.10	15.37	-29.6	-32.4	14.1	1.50e-06	0	43	0	780140544	19	4983
2026-01-09 08:30:03.32	4.93	15.30	-29.5	-32.1	14.3	7.00e-07	0	43	0	782237696	19	4871
2026-01-09 08:30:04.32	4.77	15.23	-29.7	-32.8	13.9	1.50e-06	0	43	0	784334848	19	5104
2026-01-09 08:30:05.33	4.61	15.16	-29.8	-32.9	13.8	5.30e-06	0	43	0	786432000	19	5170
2026-01-09 08:30:06.33	4.45	15.10	-29.5	-32.3	14.2	3.80e-06	0	42	0	788529152	19	4935
2026-01-09 08:30:07.34	4.28	15.03	-29.4	-32.0	14.3	2.20e-06	0	43	0	789577728	19	4843
2026-01-09 08:30:08.35	4.12	14.96	-29.4	-32.0	14.4	0.00e+00	0	43	0	791674880	19	4840
2026-01-09 08:30:09.36	3.96	14.89	-29.5	-32.1	14.3	0.00e+00	0	43	0	793772032	19	4882
2026-01-09 08:30:10.36	3.80	14.82	-29.4	-32.0	14.4	7.00e-07	0	43	0	795869184	19	4833
2026-01-09 08:30:11.36	3.65	14.75	-29.5	-32.2	14.3	1.50e-06	0	43	0	797966336	19	4908
2026-01-09 08:30:12.36	3.49	14.68	-29.4	-32.0	14.4	7.00e-07	0	43	0	799014912	19	4829
2026-01-09 08:30:13.37	3.33	14.61	-29.3	-31.7	14.5	0.00e+00	0	43	0	801112064	19	4741
2026-01-09 08:30:14.37	3.18	14.54	-29.4	-31.8	14.5	0.00e+00	0	43	0	803209216	19	4762
2026-01-09 08:30:15.38	3.02	14.47	-29.4	-31.8	14.4	0.00e+00	0	43	0	805306368	19	4782
2026-01-09 08:30:16.37	2.87	14.40	-29.5	-32.1	14.3	0.00e+00	0	43	0	806354944	19	4859
2026-01-09 08:30:17.38	2.71	14.33	-29.5	-32.1	14.3	0.00e+00	0	43	0	808452096	19	4884
2026-01-09 08:30:18.38	2.56	14.26	-29.7	-32.6	14.0	2.20e-06	0	43	0	810549248	19	5052
2026-01-09 08:30:19.39	2.41	14.19	-29.6	-32.5	14.0	3.80e-06	0	43	0	812646400	19	5036
2026-01-09 08:30:20.39	2.26	14.12	-29.8	-32.9	13.8	6.10e-06	0	43	0	814743552	19	5158
2026-01-09 08:30:21.39	2.10	14.05	-29.8	-32.9	13.7	9.10e-06	0	43	0	816840704	19	5178
2026-01-09 08:30:22.40	1.95	13.98	-29.8	-32.9	13.7	9.10e-06	0	42	0	817889280	19	5180
2026-01-09 08:30:23.40	1.80	13.91	-29.8	-33.1	13.5	6.10e-06	0	43	0	819986432	19	5238
2026-01-09 08:30:24.41	1.66	13.84	-29.9	-33.4	13.4	6.80e-06	0	43	0	822083584	19	5344
2026-01-09 08:30:25.41	1.51	13.77	-29.9	-32.8	13.3	1.83e-05	0	43	0	824180736	20	5054
2026-01-09 08:30:26.42	1.36	13.70	-29.8	-32.7	13.4	1.29e-05	0	43	0	825229312	20	4991
2026-01-09 08:30:27.43	1.21	13.63	-29.8	-32.6	13.4	1.29e-05	0	43	0	827326464	20	4981
2026-01-09 08:30:28.43	1.07	13.56	-29.8	-32.6	13.5	7.60e-06	0	43	0	829423616	20	4970
2026-01-09 08:30:29.44	0.92	13.49	-29.8	-32.5	13.5	6.80e-06	0	43	0	831520768	20	4934
2026-01-09 08:30:30.44	0.78	13.42	-29.8	-32.6	13.5	9.10e-06	0	43	0	833617920	20	4957
2026-01-09 08:30:31.45	0.63	13.35	-29.8	-32.7	13.4	1.37e-05	0	43	0	834666496	20	5010
2026-01-09 08:30:32.45	0.49	13.28	-29.8	-32.6	13.4	6.80e-06	0	43	0	836763648	20	4983
2026-01-09 08:30:33.46	0.35	13.21	-29.7	-32.5	13.5	6.80e-06	0	43	0	838860800	20	4920
2026-01-09 08:30:34.47	0.20	13.14	-29.8	-32.5	13.5	1.06e-05	0	43	0	840957952	20	4940
2026-01-09 08:30:35.47	0.06	13.07	-29.8	-32.7	13.4	9.90e-06	0	43	0	843055104	20	5009
2026-01-09 08:30:36.48	359.92	13.00	-29.9	-32.8	13.3	1.60e-05	0	43	0	845152256	20	5040
2026-01-09 08:30:37.48	359.78	12.93	-30.0	-33.2	13.1	2.74e-05	0	43	0	846200832	20	5191
2026-01-09 08:30:38.48	359.64	12.86	-30.0	-33.1	13.0	3.81e-05	0	43	0	848297984	20	5179
2026-01-09 08:30:39.49	359.51	12.79	-29.9	-32.8	13.3	1.22e-05	0	43	0	850395136	20	5042
2026-01-09 08:30:40.50	359.37	12.72	-29.8	-32.7	13.4	7.60e-06	0	43	0	852492288	20	4994
2026-01-09 08:30:41.50	359.23	12.65	-29.8	-32.7	13.3	1.22e-05	0	43	0	853540864	20	5024
2026-01-09 08:30:42.51	359.09	12.58	-29.9	-33.0	13.1	2.05e-05	0	43	0	855638016	20	5129
2026-01-09 08:30:43.51	358.96	12.51	-30.1	-33.4	12.9	4.27e-05	0	43	0	857735168	20	5288
2026-01-09 08:30:44.52	358.82	12.44	-30.1	-33.5	12.8	5.26e-05	0	43	0	859832320	20	5299
2026-01-09 08:30:45.51	358.69	12.37	-30.0	-33.1	13.0	3.96e-05	0	43	0	861929472	20	5157
2026-01-09 08:30:46.52	358.56	12.31	-30.0	-33.3	12.9	4.57e-05	0	43	0	862978048	20	5232
2026-01-09 08:30:47.52	358.42	12.24	-30.0	-33.3	12.9	5.72e-05	0	43	0	865075200	20	5231
2026-01-09 08:30:48.52	358.29	12.17	-30.0	-33.2	13.0	3.35e-05	0	42	0	867172352	20	5202
2026-01-09 08:30:49.53	358.16	12.10	-30.1	-33.5	12.8	5.26e-05	0	43	0	869269504	20	5333
2026-01-09 08:30:50.54	358.03	12.03	-30.0	-33.1	13.0	6.71e-05	0	43	0	871366656	20	5171
2026-01-09 08:30:51.54	357.90	11.96	-29.9	-32.9	13.1	2.82e-05	0	43	0	872415232	20	5089
2026-01-09 08:30:52.55	357.77	11.89	-30.0	-33.1	13.1	3.96e-05	0	43	0	874512384	20	5156
2026-01-09 08:30:53.56	357.64	11.82	-30.0	-33.1	13.0	2.97e-05	0	43	0	876609536	20	5169
2026-01-09 08:30:54.56	357.51	11.75	-30.0	-33.2	12.9	3.73e-05	0	43	0	878706688	20	5220
2026-01-09 08:30:55.57	357.38	11.68	-30.0	-33.3	12.9	4.95e-05	0	43	0	880803840	20	5234
2026-01-09 08:30:56.57	357.25	11.61	-30.1	-33.4	12.8	6.56e-05	0	43	0	881852416	20	5275
2026-01-09 08:30:57.58	357.12	11.54	-30.0	-33.2	12.9	5.64e-05	0	43	0	883949568	20	5202
2026-01-09 08:30:58.58	357.00	11.48	-30.1	-33.4	12.8	4.42e-05	0	43	0	886046720	20	5291
2026-01-09 08:30:59.59	356.87	11.41	-30.1	-33.6	12.7	9.53e-05	0	43	0	888143872	20	5367
2026-01-09 08:31:00.59	356.75	11.34	-30.1	-33.5	12.7	7.55e-05	0	43	0	890241024	20	5338
2026-01-09 08:31:01.59	356.62	11.27	-30.2	-33.8	12.5	1.26e-04	0	43	0	891289600	20	5462
2026-01-09 08:31:02.60	356.50	11.20	-30.3	-34.0	12.4	1.28e-04	0	43	0	893386752	20	5517
2026-01-09 08:31:03.60	356.38	11.13	-30.3	-34.0	12.4	1.40e-04	0	43	0	895483904	20	5543
2026-01-09 08:31:04.61	356.25	11.06	-30.3	-34.1	12.3	2.09e-04	0	43	0	897581056	20	5583
2026-01-09 08:31:05.62	356.13	11.00	-30.3	-34.3	12.2	1.88e-04	0	43	0	899678208	20	5643
2026-01-09 08:31:06.61	356.01	10.93	-30.3	-34.3	12.2	2.96e-04	0	43	0	900726784	20	5649
2026-01-09 08:31:07.62	355.89	10.86	-30.2	-34.0	12.4	1.52e-04	0	43	0	902823936	20	5522
2026-01-09 08:31:08.62	355.77	10.79	-30.3	-34.1	12.3	1.68e-04	0	43	0	904921088	20	5590
2026-01-09 08:31:09.63	355.65	10.72	-30.3	-34.1	12.3	2.02e-04	0	43	0	907018240	20	5563
2026-01-09 08:31:10.63	355.53	10.66	-30.2	-33.9	12.4	1.50e-04	0	43	0	909115392	20	5503
2026-01-09 08:31:11.64	355.41	10.59	-30.3	-34.0	12.3	1.68e-04	0	43	0	910163968	20	5540
2026-01-09 08:31:12.64	355.29	10.52	-30.3	-34.0	12.3	1.93e-04	0	43	0	912261120	20	5549
2026-01-09 08:31:13.65	355.18	10.45	-30.2	-33.7	12.5	1.43e-04	0	43	0	914358272	20	5418
2026-01-09 08:31:14.66	355.06	10.38	-30.4	-34.4	12.0	2.37e-04	0	43	0	916455424	20	5717
2026-01-09 08:31:15.67	354.94	10.32	-30.4	-34.4	11.9	2.23e-04	0	43	0	918552576	20	5726
2026-01-09 08:31:16.67	354.83	10.25	-30.2	-33.9	12.3	2.05e-04	0	43	0	919601152	20	5498
2026-01-09 08:31:17.68	354.71	10.18	-30.2	-34.0	12.3	1.64e-04	0	43	0	921698304	20	5540
2026-01-09 08:31:18.69	354.59	10.11	-30.2	-33.8	12.4	1.60e-04	0	43	0	923795456	20	5447
2026-01-09 08:31:19.70	354.48	10.05	-30.6	-34.6	11.4	8.22e-04	0	43	0	925892608	21	5711
2026-01-09 08:31:20.70	354.37	9.98	-30.5	-34.2	11.8	6.21e-04	0	43	0	927989760	21	5510
2026-01-09 08:31:21.71	354.25	9.91	-30.5	-34.2	11.7	5.49e-04	0	43	0	929038336	21	5541
2026-01-09 08:31:22.71	354.14	9.84	-30.6	-34.5	11.6	7.08e-04	0	43	0	931135488	21	5654
2026-01-09 08:31:23.72	354.03	9.78	-30.6	-34.7	11.3	6.31e-04	0	43	0	933232640	21	5774
2026-01-09 08:31:24.72	353.92	9.71	-30.7	-35.0	11.2	8.89e-04	0	43	0	935329792	21	5892
2026-01-09 08:31:25.73	353.81	9.64	-30.6	-34.6	11.5	1.06e-03	0	43	0	937426944	21	5693
2026-01-09 08:31:26.73	353.70	9.58	-30.5	-34.4	11.6	8.79e-04	0	43	0	938475520	21	5626
2026-01-09 08:31:27.73	353.59	9.51	-30.6	-34.5	11.5	9.29e-04	0	43	0	940572672	21	5681
2026-01-09 08:31:28.74	353.48	9.44	-30.6	-34.5	11.5	8.27e-04	0	43	0	942669824	21	5650
2026-01-09 08:31:29.75	353.37	9.38	-30.5	-34.3	11.6	6.59e-04	0	43	0	944766976	21	5597
2026-01-09 08:31:30.75	353.26	9.31	-30.6	-34.5	11.5	7.02e-04	0	43	0	946864128	21	5654
2026-01-09 08:31:31.75	353.15	9.24	-30.5	-34.4	11.5	8.25e-04	0	43	0	947912704	21	5641
2026-01-09 08:31:32.76	353.04	9.18	-30.5	-34.4	11.5	7.17e-04	0	43	0	950009856	21	5625
2026-01-09 08:31:33.76	352.94	9.11	-30.7	-34.9	11.2	8.69e-04	0	43	0	952107008	21	5834
2026-01-09 08:31:34.76	352.83	9.04	-30.6	-34.7	11.2	1.55e-03	0	43	0	954204160	21	5784
2026-01-09 08:31:35.77	352.73	8.98	-30.7	-35.0	11.1	1.67e-03	0	43	0	955252736	21	5911
2026-01-09 08:31:36.78	352.62	8.91	-30.8	-35.3	10.8	2.03e-03	0	43	0	957349888	21	6061
2026-01-09 08:31:37.78	352.52	8.85	-30.8	-35.3	10.8	2.36e-03	0	43	0	959447040	21	6039
2026-01-09 08:31:38.79	352.41	8.78	-30.8	-35.3	10.9	2.29e-03	0	43	0	961544192	21	6055
2026-01-09 08:31:39.79	352.31	8.71	-30.8	-35.5	10.6	2.50e-03	0	43	0	963641344	21	6167
2026-01-09 08:31:40.80	352.20	8.65	-30.8	-35.5	10.6	3.94e-03	0	43	0	964689920	21	6183
2026-01-09 08:31:41.81	352.10	8.58	-30.9	-35.6	10.5	3.64e-03	0	43	0	966787072	21	6233
2026-01-09 08:31:42.82	352.00	8.52	-30.8	-35.5	10.7	3.69e-03	0	43	0	968884224	21	6147
2026-01-09 08:31:43.83	351.89	8.45	-30.8	-35.3	10.8	2.85e-03	0	43	0	970981376	21	6077
2026-01-09 08:31:44.83	351.79	8.38	-30.8	-35.3	10.8	2.50e-03	0	43	0	973078528	21	6061
2026-01-09 08:31:45.83	351.69	8.32	-30.6	-34.9	11.0	1.88e-03	0	43	0	975175680	21	5884
2026-01-09 08:31:46.84	351.59	8.25	-30.7	-35.2	10.9	1.96e-03	0	43	0	976224256	21	5999
2026-01-09 08:31:47.84	351.49	8.19	-30.7	-35.1	10.9	2.14e-03	0	43	0	978321408	21	5958
2026-01-09 08:31:48.84	351.39	8.12	-30.7	-35.0	11.0	1.93e-03	0	43	0	980418560	21	5906
2026-01-09 08:31:49.84	351.29	8.06	-30.8	-35.5	10.6	3.03e-03	0	43	0	982515712	21	6177
2026-01-09 08:31:50.85	351.19	7.99	-30.7	-35.2	10.8	3.33e-03	0	43	0	983564288	21	6042
2026-01-09 08:31:51.86	351.10	7.93	-30.7	-35.0	11.0	2.04e-03	0	43	0	985661440	21	5933
2026-01-09 08:31:52.87	351.00	7.86	-30.8	-35.3	10.8	2.52e-03	0	43	0	987758592	21	6085
2026-01-09 08:31:53.87	350.90	7.80	-30.7	-35.2	10.8	2.89e-03	0	43	0	989855744	21	6017
2026-01-09 08:31:54.88	350.80	7.73	-30.8	-35.4	10.6	3.33e-03	0	43	0	991952896	21	6138
2026-01-09 08:31:55.89	350.71	7.67	-30.8	-35.4	10.7	3.10e-03	0	43	0	993001472	21	6118
2026-01-09 08:31:56.90	350.61	7.60	-30.9	-35.8	10.4	3.14e-03	0	43	0	995098624	21	6315
2026-01-09 08:31:57.90	350.51	7.54	-30.8	-35.6	10.5	4.57e-03	0	43	0	997195776	21	6229
2026-01-09 08:31:58.91	350.42	7.48	-30.9	-35.7	10.4	3.93e-03	0	43	0	999292928	21	6276
2026-01-09 08:31:59.92	350.32	7.41	-30.8	-35.4	10.6	3.71e-03	0	43	0	1001390080	21	6134
2026-01-09 08:32:00.92	350.23	7.35	-30.8	-35.4	10.5	3.60e-03	0	43	0	1002438656	21	6142
2026-01-09 08:32:01.92	350.14	7.28	-30.9	-35.8	10.2	5.12e-03	0	43	0	1004535808	21	6353
2026-01-09 08:32:02.92	350.04	7.22	-30.8	-35.7	10.4	5.38e-03	0	43	0	1006632960	21	6271
2026-01-09 08:32:03.93	349.95	7.16	-30.9	-36.0	10.1	4.97e-03	0	43	0	1008730112	21	6425
2026-01-09 08:32:04.93	349.86	7.09	-30.9	-35.9	10.1	6.65e-03	0	43	0	1010827264	21	6414
2026-01-09 08:32:05.94	349.77	7.03	-32.9	-45.3	3.8	1.27e+00	0	43	104	1011875840	25	15128
2026-01-09 08:32:06.94	349.67	6.97	-33.2	-47.4	3.8	1.49e+00	0	43	104	1011875840	26	18317

#Closed at: 2026-01-09 08:32:07
#Recorded file [1011 MB]: D:/data/31010_260109_112305.dat