passes_logs/2026/01/09/R2M6_AANII_01/R2M6_AANII_01__20260109_032802_AQUA_rec.log

#Pass ID: 20260109_032802_AQUA
#Satellite: AQUA
#Configuration: AQUA
#almurnet v.1.7.20240730
#Start time: 2026-01-09 03:28:03

#Version: 2.2.20231116
#Station: R2M6_AANII_01
#Location: 30.233357 lon 59.946436 lat
#TLE: 1 27424U 02022A   26004.96787593  .00001598  00000+0  32997-3 0  9996
#TLE: 2 27424  98.4069 331.2279 0002002  90.2377   0.6092 14.61798176259425

#Time	Az	El	Level	Level2	SNR	BER	BlckErr	Temp	State	Recorded	gain1	gain2
2026-01-09 03:28:03.29	7.69	7.07	-32.5	-49.6	3.8	7.45e-01	0	40	0	0	25	25750
2026-01-09 03:28:04.29	7.60	7.14	-32.4	-49.1	3.8	7.46e-01	0	40	104	0	25	24535
2026-01-09 03:28:05.29	7.50	7.22	-32.5	-49.2	3.8	7.46e-01	0	40	104	0	25	24658
2026-01-09 03:28:06.29	7.41	7.29	-32.5	-49.1	3.8	7.46e-01	0	41	104	0	25	24558
2026-01-09 03:28:07.29	7.32	7.36	-32.5	-49.4	3.8	7.48e-01	0	40	104	0	25	25107
2026-01-09 03:28:08.30	7.23	7.43	-32.6	-49.6	3.8	7.44e-01	0	41	104	0	25	25522
2026-01-09 03:28:09.30	7.13	7.50	-32.6	-49.1	3.8	7.46e-01	0	40	104	0	26	24086
2026-01-09 03:28:10.31	7.04	7.58	-32.4	-48.6	3.8	7.43e-01	0	41	104	0	25	23311
2026-01-09 03:28:11.31	6.94	7.65	-31.1	-46.7	3.8	7.44e-01	0	41	104	0	25	21684
2026-01-09 03:28:12.32	6.85	7.72	-30.8	-45.8	3.8	7.46e-01	0	41	104	0	24	20228
2026-01-09 03:28:13.33	6.75	7.79	-31.8	-46.8	3.8	7.46e-01	0	41	104	0	24	20243
2026-01-09 03:28:14.33	6.66	7.87	-31.5	-46.1	3.8	7.43e-01	0	41	104	0	23	19341
2026-01-09 03:28:15.33	6.56	7.94	-31.4	-45.8	3.8	7.45e-01	0	40	104	0	23	18908
2026-01-09 03:28:16.34	6.46	8.01	-31.5	-46.1	3.8	7.44e-01	0	40	104	0	23	19288
2026-01-09 03:28:17.35	6.36	8.09	-31.4	-45.6	3.8	7.42e-01	0	41	104	0	23	18473
2026-01-09 03:28:18.35	6.27	8.16	-31.1	-44.8	3.8	7.46e-01	0	41	104	0	23	17334
2026-01-09 03:28:19.36	6.17	8.23	-31.0	-44.9	3.8	7.42e-01	0	41	104	0	22	17852
2026-01-09 03:28:20.37	6.07	8.31	-30.9	-44.7	3.8	7.45e-01	0	41	104	0	22	17618
2026-01-09 03:28:21.37	5.97	8.38	-31.0	-44.8	3.8	7.48e-01	0	41	104	0	22	17699
2026-01-09 03:28:22.38	5.86	8.46	-31.2	-45.2	3.8	7.45e-01	0	41	104	0	23	17894
2026-01-09 03:28:23.38	5.76	8.53	-31.5	-46.1	3.8	7.43e-01	0	41	104	0	23	19246
2026-01-09 03:28:24.39	5.66	8.61	-31.9	-46.7	3.8	7.42e-01	0	41	104	0	24	19931
2026-01-09 03:28:25.39	5.56	8.68	-32.1	-47.5	3.8	7.45e-01	0	41	104	0	25	21300
2026-01-09 03:28:26.39	5.46	8.75	-32.3	-48.2	3.8	7.47e-01	0	41	104	0	25	22234
2026-01-09 03:28:27.40	5.35	8.83	-32.5	-48.9	3.8	7.42e-01	0	41	104	0	25	23800
2026-01-09 03:28:28.41	5.25	8.91	-32.6	-48.9	3.8	7.43e-01	0	41	104	0	26	23552
2026-01-09 03:28:29.42	5.14	8.98	-32.6	-49.0	3.8	7.44e-01	0	41	104	0	26	23795
2026-01-09 03:28:30.42	5.04	9.06	-32.7	-49.1	3.8	7.43e-01	0	41	104	0	26	23908
2026-01-09 03:28:31.43	4.93	9.13	-32.7	-49.3	3.8	7.47e-01	0	41	104	0	26	24359
2026-01-09 03:28:32.44	4.82	9.21	-32.8	-49.7	3.8	7.47e-01	0	41	104	0	26	25180
2026-01-09 03:28:33.45	4.71	9.28	-32.9	-50.1	3.8	7.44e-01	0	41	104	0	26	26131
2026-01-09 03:28:34.45	4.60	9.36	-32.9	-50.4	3.8	7.45e-01	0	41	104	0	26	26949
2026-01-09 03:28:35.45	4.50	9.44	-33.0	-50.8	3.8	7.42e-01	0	41	104	0	26	27995
2026-01-09 03:28:36.46	4.39	9.51	-33.0	-51.1	3.8	7.46e-01	0	41	104	0	26	28806
2026-01-09 03:28:37.47	4.28	9.59	-33.1	-51.5	3.8	7.45e-01	0	41	104	0	26	29930
2026-01-09 03:28:38.48	4.16	9.67	-33.1	-51.3	3.8	7.43e-01	0	41	104	0	27	29251
2026-01-09 03:28:39.48	4.05	9.74	-33.2	-51.3	3.8	7.47e-01	0	41	104	0	27	29219
2026-01-09 03:28:40.49	3.94	9.82	-33.2	-51.3	3.8	7.47e-01	0	41	104	0	27	29189
2026-01-09 03:28:41.50	3.83	9.90	-33.2	-51.4	3.8	7.46e-01	0	41	104	0	27	29401
2026-01-09 03:28:42.51	3.71	9.98	-33.2	-51.2	3.8	7.46e-01	0	41	104	0	27	28769
2026-01-09 03:28:43.51	3.60	10.06	-33.1	-50.9	3.8	7.45e-01	0	41	104	0	27	27832
2026-01-09 03:28:44.52	3.48	10.13	-33.1	-51.0	3.8	7.41e-01	0	41	104	0	26	28458
2026-01-09 03:28:45.52	3.37	10.21	-33.0	-50.8	3.8	7.46e-01	0	41	104	0	26	27729
2026-01-09 03:28:46.53	3.25	10.29	-33.0	-50.3	3.8	7.48e-01	0	41	104	0	26	26404
2026-01-09 03:28:47.53	3.14	10.37	-32.9	-50.1	3.8	7.45e-01	0	41	104	0	26	26008
2026-01-09 03:28:48.54	3.02	10.45	-32.8	-49.7	3.8	7.46e-01	0	41	104	0	26	24970
2026-01-09 03:28:49.54	2.90	10.53	-32.7	-49.2	3.8	7.46e-01	0	41	104	0	26	23916
2026-01-09 03:28:50.55	2.78	10.60	-32.6	-48.5	3.8	7.43e-01	0	41	104	0	26	22333
2026-01-09 03:28:51.56	2.66	10.68	-32.4	-48.0	3.8	7.46e-01	0	42	104	0	25	21721
2026-01-09 03:28:52.57	2.54	10.76	-32.2	-47.2	3.8	7.42e-01	0	41	104	0	25	20359
2026-01-09 03:28:53.57	2.42	10.84	-32.0	-47.0	3.8	7.47e-01	0	41	104	0	24	20304
2026-01-09 03:28:54.58	2.30	10.92	-31.9	-46.8	3.8	7.46e-01	0	42	104	0	24	20015
2026-01-09 03:28:55.58	2.17	11.00	-32.0	-47.0	3.8	7.43e-01	0	42	104	0	24	20274
2026-01-09 03:28:56.58	2.05	11.08	-32.1	-47.2	3.8	7.47e-01	0	42	104	0	24	20561
2026-01-09 03:28:57.58	1.93	11.16	-32.1	-46.7	3.8	7.44e-01	0	42	104	0	25	19445
2026-01-09 03:28:58.59	1.80	11.24	-32.2	-47.4	3.8	7.46e-01	0	42	104	0	25	20498
2026-01-09 03:28:59.60	1.68	11.32	-32.1	-47.0	3.8	7.45e-01	0	42	104	0	25	19913
2026-01-09 03:29:00.61	1.55	11.40	-31.9	-46.7	3.8	7.46e-01	0	42	104	0	24	19684
2026-01-09 03:29:01.61	1.42	11.48	-31.6	-45.7	3.8	7.45e-01	0	42	104	0	24	18228
2026-01-09 03:29:02.62	1.29	11.57	-31.5	-45.7	3.8	7.43e-01	0	42	104	0	23	18464
2026-01-09 03:29:03.63	1.17	11.65	-31.4	-45.5	3.8	7.44e-01	0	42	104	0	23	18190
2026-01-09 03:29:04.64	1.04	11.73	-31.6	-45.8	3.8	7.44e-01	0	42	104	0	24	18273
2026-01-09 03:29:05.64	0.91	11.81	-31.9	-46.6	3.8	7.44e-01	0	42	104	0	24	19509
2026-01-09 03:29:06.65	0.77	11.89	-31.8	-46.4	3.8	7.41e-01	0	42	104	0	24	19209
2026-01-09 03:29:07.66	0.64	11.97	-31.6	-45.7	3.8	7.44e-01	0	42	104	0	24	18262
2026-01-09 03:29:08.67	0.51	12.06	-31.5	-45.7	3.8	7.43e-01	0	42	104	0	23	18534
2026-01-09 03:29:09.67	0.37	12.14	-31.3	-45.1	3.8	7.45e-01	0	42	104	0	23	17667
2026-01-09 03:29:10.67	0.24	12.22	-31.2	-44.8	3.8	7.44e-01	0	42	104	0	23	17305
2026-01-09 03:29:11.67	0.11	12.30	-31.4	-45.4	3.8	7.47e-01	0	42	104	0	23	18086
2026-01-09 03:29:12.68	359.97	12.38	-31.6	-45.8	3.9	7.43e-01	0	42	104	0	24	18297
2026-01-09 03:29:13.69	359.83	12.47	-32.0	-47.0	3.8	7.43e-01	0	42	104	0	24	20213
2026-01-09 03:29:14.69	359.70	12.55	-32.3	-47.7	3.8	7.49e-01	0	42	104	0	25	21103
2026-01-09 03:29:15.70	359.56	12.63	-32.6	-48.8	3.8	7.47e-01	0	42	104	0	25	23140
2026-01-09 03:29:16.71	359.42	12.72	-32.7	-48.9	3.8	7.46e-01	0	42	104	0	26	23094
2026-01-09 03:29:17.71	359.28	12.80	-32.9	-49.4	3.8	7.45e-01	0	42	104	0	26	24136
2026-01-09 03:29:18.72	359.13	12.88	-32.9	-49.4	3.8	7.46e-01	0	42	104	0	26	24244
2026-01-09 03:29:19.73	358.99	12.97	-32.9	-49.4	3.8	7.47e-01	0	42	104	0	26	24132
2026-01-09 03:29:20.74	358.85	13.05	-32.9	-49.6	3.8	7.43e-01	0	42	104	0	26	24651
2026-01-09 03:29:21.75	358.70	13.14	-33.0	-50.0	3.8	7.48e-01	0	42	104	0	26	25453
2026-01-09 03:29:22.75	358.56	13.22	-33.1	-50.4	3.8	7.47e-01	0	42	104	0	26	26467
2026-01-09 03:29:23.76	358.41	13.30	-33.1	-50.3	3.8	7.46e-01	0	42	104	0	27	25906
2026-01-09 03:29:24.76	358.27	13.39	-33.2	-50.6	3.8	7.45e-01	0	42	104	0	27	26641
2026-01-09 03:29:25.76	358.12	13.47	-33.3	-51.1	3.8	7.48e-01	0	42	104	0	27	28047
2026-01-09 03:29:26.77	357.97	13.56	-33.3	-51.5	3.8	7.42e-01	0	42	104	0	27	29088
2026-01-09 03:29:27.78	357.82	13.64	-33.3	-51.5	3.8	7.44e-01	0	42	104	0	27	29025
2026-01-09 03:29:28.79	357.67	13.73	-33.3	-51.1	3.8	7.46e-01	0	42	104	0	27	27998
2026-01-09 03:29:29.80	357.52	13.81	-33.2	-50.6	3.8	7.45e-01	0	42	104	0	27	26762
2026-01-09 03:29:30.80	357.37	13.90	-31.9	-49.5	3.8	7.44e-01	0	42	104	0	26	27365
2026-01-09 03:29:31.81	357.21	13.98	-33.2	-50.7	3.8	7.46e-01	0	42	104	0	26	27006
2026-01-09 03:29:32.82	357.06	14.07	-33.1	-50.3	3.8	7.45e-01	0	42	104	0	27	26014
2026-01-09 03:29:33.82	356.90	14.15	-33.1	-50.2	3.8	7.45e-01	0	42	104	0	26	25791
2026-01-09 03:29:34.83	356.75	14.24	-33.0	-49.9	3.8	7.45e-01	0	42	104	0	26	25194
2026-01-09 03:29:35.83	356.59	14.33	-32.9	-49.6	3.8	7.44e-01	0	42	104	0	26	24607
2026-01-09 03:29:36.83	356.43	14.41	-32.8	-48.9	3.8	7.45e-01	0	42	104	0	26	23061
2026-01-09 03:29:37.84	356.27	14.50	-32.6	-48.1	3.8	7.45e-01	0	42	104	0	26	21359
2026-01-09 03:29:38.84	356.11	14.58	-32.4	-47.9	3.8	7.46e-01	0	42	104	0	25	21402
2026-01-09 03:29:39.84	355.95	14.67	-32.1	-46.7	3.8	7.47e-01	0	42	104	0	25	19226
2026-01-09 03:29:40.85	355.79	14.76	-31.7	-45.9	3.8	7.43e-01	0	42	104	0	24	18335
2026-01-09 03:29:41.86	355.62	14.84	-31.4	-45.3	3.8	7.43e-01	0	42	104	0	23	17788
2026-01-09 03:29:42.87	355.46	14.93	-31.0	-44.6	3.8	7.41e-01	0	42	104	0	22	17266
2026-01-09 03:29:43.87	355.30	15.02	-31.0	-44.7	3.8	7.42e-01	0	42	104	0	22	17271
2026-01-09 03:29:44.88	355.13	15.10	-31.1	-44.4	3.8	7.42e-01	0	42	104	0	23	16674
2026-01-09 03:29:45.88	354.96	15.19	-31.3	-44.8	3.8	7.42e-01	0	42	104	0	23	17086
2026-01-09 03:29:46.88	354.79	15.28	-31.4	-45.2	3.8	7.44e-01	0	42	104	0	23	17621
2026-01-09 03:29:47.89	354.62	15.36	-31.7	-45.6	3.9	7.48e-01	0	42	104	0	24	17871
2026-01-09 03:29:48.90	354.45	15.45	-31.8	-45.9	3.8	7.45e-01	0	42	104	0	24	18382
2026-01-09 03:29:49.91	354.28	15.54	-31.6	-45.7	3.8	7.43e-01	0	42	104	0	23	18328
2026-01-09 03:29:50.91	354.11	15.63	-31.6	-45.2	3.8	7.39e-01	0	42	104	0	24	17352
2026-01-09 03:29:51.91	353.93	15.71	-31.7	-45.7	3.8	7.47e-01	0	42	104	0	24	17974
2026-01-09 03:29:52.91	353.76	15.80	-31.8	-45.8	3.8	7.45e-01	0	42	104	0	24	18113
2026-01-09 03:29:53.91	353.58	15.89	-32.1	-46.9	3.8	7.44e-01	0	42	104	0	24	19739
2026-01-09 03:29:54.91	353.41	15.98	-32.6	-48.2	3.8	7.43e-01	0	42	104	0	25	21739
2026-01-09 03:29:55.92	353.23	16.07	-32.9	-48.9	3.8	7.44e-01	0	42	104	0	26	22748
2026-01-09 03:29:56.93	353.05	16.15	-32.7	-48.0	3.8	7.45e-01	0	42	104	0	26	21133
2026-01-09 03:29:57.92	352.87	16.24	-32.5	-47.9	3.8	7.48e-01	0	42	104	0	25	21223
2026-01-09 03:29:58.93	352.69	16.33	-32.3	-47.1	3.8	7.43e-01	0	42	104	0	25	19846
2026-01-09 03:29:59.94	352.50	16.42	-32.1	-46.5	3.8	7.42e-01	0	42	104	0	25	18799
2026-01-09 03:30:00.95	352.32	16.51	-32.0	-46.6	3.8	7.43e-01	0	42	104	0	24	19265
2026-01-09 03:30:01.95	352.13	16.59	-32.2	-46.7	3.8	7.47e-01	0	42	104	0	25	19228
2026-01-09 03:30:02.96	351.95	16.68	-32.5	-47.8	3.8	7.45e-01	0	42	104	0	25	21068
2026-01-09 03:30:03.97	351.76	16.77	-32.8	-48.4	3.8	7.42e-01	0	42	104	0	26	21817
2026-01-09 03:30:04.98	351.57	16.86	-32.9	-49.1	3.8	7.44e-01	0	42	104	0	26	23121
2026-01-09 03:30:05.98	351.38	16.95	-33.0	-49.6	3.8	7.43e-01	0	42	104	0	26	24274
2026-01-09 03:30:06.98	351.19	17.04	-33.1	-49.8	3.8	7.48e-01	0	42	104	0	26	24706
2026-01-09 03:30:07.99	351.00	17.13	-33.1	-49.5	3.8	7.45e-01	0	42	104	0	27	23780
2026-01-09 03:30:09.00	350.80	17.22	-33.1	-49.7	3.8	7.41e-01	0	42	104	0	27	24191
2026-01-09 03:30:10.00	350.61	17.30	-33.2	-50.0	3.8	7.46e-01	0	42	104	0	27	24796
2026-01-09 03:30:11.01	350.41	17.39	-33.3	-50.3	3.8	7.46e-01	0	42	104	0	27	25508
2026-01-09 03:30:12.02	350.21	17.48	-33.3	-44.3	4.5	7.23e-01	0	42	104	0	27	12683
2026-01-09 03:30:13.03	350.01	17.57	-33.4	-44.1	7.7	6.53e-01	0	42	104	0	27	12415
2026-01-09 03:30:14.03	349.81	17.66	-33.4	-45.0	7.0	6.63e-01	0	42	0	1572864	27	13629
2026-01-09 03:30:15.03	349.61	17.75	-33.4	-44.5	7.5	6.52e-01	0	42	0	3670016	27	12846
2026-01-09 03:30:16.04	349.41	17.84	-33.3	-43.1	8.6	6.34e-01	0	42	0	5242880	27	11146
2026-01-09 03:30:17.04	349.20	17.93	-33.2	-42.2	9.5	6.22e-01	0	42	0	7340032	27	10146
2026-01-09 03:30:18.05	349.00	18.02	-33.1	-41.8	10.3	6.15e-01	0	42	0	8912896	26	9893
2026-01-09 03:30:19.06	348.79	18.11	-32.8	-40.4	11.5	6.08e-01	0	42	0	11010048	26	8656
2026-01-09 03:30:20.06	348.58	18.19	-32.6	-39.2	12.6	6.04e-01	0	42	0	13107200	26	7718
2026-01-09 03:30:21.07	348.37	18.28	-32.2	-38.0	13.9	6.05e-01	0	42	0	14680064	25	7041
2026-01-09 03:30:22.07	348.16	18.37	-31.9	-36.9	14.8	6.04e-01	0	42	0	16777216	25	6388
2026-01-09 03:30:23.08	347.95	18.46	-31.4	-35.7	16.1	6.01e-01	0	42	0	18350080	24	5856
2026-01-09 03:30:24.08	347.74	18.55	-31.0	-34.7	17.0	6.03e-01	0	42	0	20447232	23	5541
2026-01-09 03:30:25.08	347.53	18.64	-30.6	-33.6	17.8	6.03e-01	0	42	0	22544384	23	5105
2026-01-09 03:30:26.09	347.31	18.73	-30.3	-33.2	18.3	6.01e-01	0	42	0	24117248	22	5066
2026-01-09 03:30:27.10	347.09	18.82	-30.1	-32.7	18.6	6.02e-01	0	42	0	26214400	22	4881
2026-01-09 03:30:28.11	346.87	18.90	-30.1	-32.7	18.7	6.00e-01	0	42	0	27787264	22	4876
2026-01-09 03:30:29.11	346.65	18.99	-30.0	-33.1	18.8	6.01e-01	0	42	0	29884416	21	5110
2026-01-09 03:30:30.12	346.43	19.08	-30.2	-33.4	18.5	6.01e-01	0	42	0	31457280	21	5242
2026-01-09 03:30:31.12	346.21	19.17	-30.3	-33.9	18.2	6.02e-01	0	42	0	33554432	21	5434
2026-01-09 03:30:32.12	345.99	19.26	-30.2	-33.5	18.5	6.00e-01	0	42	0	35651584	21	5279
2026-01-09 03:30:33.13	345.76	19.34	-29.9	-32.6	19.1	6.01e-01	0	42	0	37224448	21	4935
2026-01-09 03:30:34.14	345.53	19.43	-29.8	-32.4	19.2	6.03e-01	0	42	0	39321600	21	4874
2026-01-09 03:30:35.14	345.30	19.52	-29.8	-32.9	19.2	6.00e-01	0	42	0	41418752	20	5140
2026-01-09 03:30:36.15	345.07	19.61	-29.8	-33.0	19.1	5.99e-01	0	42	0	42991616	20	5203
2026-01-09 03:30:37.16	344.84	19.70	-29.8	-32.9	19.2	6.00e-01	0	42	0	45088768	20	5133
2026-01-09 03:30:38.15	344.61	19.78	-29.8	-32.8	19.3	6.01e-01	0	42	0	46661632	20	5100
2026-01-09 03:30:39.16	344.38	19.87	-29.9	-33.1	19.0	6.02e-01	0	42	0	48758784	20	5237
2026-01-09 03:30:40.16	344.14	19.96	-29.7	-32.6	19.4	6.00e-01	0	43	0	50331648	20	5044
2026-01-09 03:30:41.17	343.91	20.04	-29.6	-32.3	19.5	5.99e-01	0	43	0	52428800	20	4931
2026-01-09 03:30:42.17	343.67	20.13	-29.6	-32.3	19.6	6.02e-01	0	42	0	54525952	20	4941
2026-01-09 03:30:43.17	343.43	20.22	-29.7	-32.6	19.4	6.00e-01	0	43	0	56098816	20	5036
2026-01-09 03:30:44.18	343.19	20.30	-29.7	-32.6	19.5	5.99e-01	0	42	0	58195968	20	5018
2026-01-09 03:30:45.19	342.94	20.39	-29.7	-32.7	19.4	6.00e-01	0	43	0	59768832	20	5057
2026-01-09 03:30:46.19	342.70	20.48	-29.8	-33.0	19.2	6.02e-01	0	42	0	61865984	20	5170
2026-01-09 03:30:47.19	342.46	20.56	-29.8	-32.9	19.3	6.01e-01	0	42	0	63963136	20	5142
2026-01-09 03:30:48.20	342.21	20.65	-29.8	-33.0	19.2	6.00e-01	0	42	0	65536000	20	5162
2026-01-09 03:30:49.21	341.96	20.73	-29.9	-33.2	19.1	6.00e-01	0	42	0	67633152	20	5247
2026-01-09 03:30:50.21	341.71	20.82	-29.7	-32.7	19.4	6.03e-01	0	42	0	69206016	20	5064
2026-01-09 03:30:51.22	341.46	20.90	-29.7	-32.7	19.4	6.04e-01	0	42	0	71303168	20	5062
2026-01-09 03:30:52.22	341.21	20.99	-29.9	-33.2	19.1	5.99e-01	0	43	0	73400320	20	5238
2026-01-09 03:30:53.23	340.95	21.07	-29.9	-33.1	19.1	6.02e-01	0	42	0	74973184	20	5214
2026-01-09 03:30:54.24	340.69	21.16	-29.9	-33.2	19.1	6.00e-01	0	42	0	77070336	20	5241
2026-01-09 03:30:55.24	340.44	21.24	-29.9	-33.0	19.2	6.00e-01	0	43	0	78643200	20	5175
2026-01-09 03:30:56.24	340.18	21.32	-29.8	-33.0	19.2	6.03e-01	0	42	0	80740352	20	5170
2026-01-09 03:30:57.25	339.92	21.41	-29.9	-33.0	19.2	6.01e-01	0	42	0	82837504	20	5196
2026-01-09 03:30:58.25	339.66	21.49	-29.7	-32.7	19.4	6.02e-01	0	42	0	84410368	20	5081
2026-01-09 03:30:59.26	339.39	21.57	-29.7	-32.5	19.5	6.00e-01	0	42	0	86507520	20	5010
2026-01-09 03:31:00.27	339.13	21.66	-29.7	-32.7	19.4	6.01e-01	0	42	0	88080384	20	5052
2026-01-09 03:31:01.27	338.86	21.74	-28.7	-32.2	18.5	6.03e-01	0	42	0	90177536	19	5355
2026-01-09 03:31:02.28	338.59	21.82	-30.3	-33.6	18.1	5.98e-01	0	42	0	91750400	20	5297
2026-01-09 03:31:03.28	338.33	21.90	-29.8	-32.8	19.3	6.01e-01	0	42	0	93847552	20	5100
2026-01-09 03:31:04.29	338.05	21.98	-29.8	-33.0	19.1	6.04e-01	0	42	0	95944704	20	5182
2026-01-09 03:31:05.30	337.78	22.06	-29.9	-33.2	19.0	6.01e-01	0	43	0	97517568	20	5236
2026-01-09 03:31:06.30	337.51	22.14	-29.8	-32.9	19.3	6.01e-01	0	42	0	99614720	20	5160
2026-01-09 03:31:07.30	337.24	22.22	-29.8	-32.9	19.3	6.01e-01	0	42	0	101711872	20	5152
2026-01-09 03:31:08.30	336.96	22.30	-29.9	-33.2	19.0	6.01e-01	0	42	0	103284736	20	5268
2026-01-09 03:31:09.30	336.68	22.38	-30.0	-33.4	18.9	6.01e-01	0	42	0	105381888	20	5343
2026-01-09 03:31:10.30	336.40	22.46	-29.9	-33.1	19.2	6.02e-01	0	43	0	106954752	20	5195
2026-01-09 03:31:11.30	336.12	22.54	-29.7	-32.7	19.3	6.02e-01	0	43	0	109051904	20	5077
2026-01-09 03:31:12.30	335.84	22.61	-29.8	-32.9	19.3	6.02e-01	0	42	0	110624768	20	5135
2026-01-09 03:31:13.31	335.56	22.69	-29.9	-33.1	19.2	6.00e-01	0	42	0	112721920	20	5202
2026-01-09 03:31:14.32	335.27	22.77	-29.9	-33.1	19.2	6.03e-01	0	42	0	114819072	20	5201
2026-01-09 03:31:15.33	334.98	22.84	-29.8	-32.9	19.3	6.02e-01	0	43	0	116391936	20	5121
2026-01-09 03:31:16.34	334.69	22.92	-29.8	-32.8	19.4	6.04e-01	0	42	0	118489088	20	5111
2026-01-09 03:31:17.34	334.40	23.00	-29.9	-33.0	19.2	6.05e-01	0	42	0	120061952	20	5188
2026-01-09 03:31:18.35	334.11	23.07	-29.8	-33.0	19.2	6.02e-01	0	43	0	122159104	20	5170
2026-01-09 03:31:19.36	333.82	23.14	-29.8	-33.0	19.2	6.00e-01	0	43	0	124256256	20	5168
2026-01-09 03:31:20.37	333.52	23.22	-29.7	-32.6	19.4	6.03e-01	0	43	0	125829120	20	5025
2026-01-09 03:31:21.38	333.22	23.29	-29.7	-32.5	19.4	6.01e-01	0	43	0	127926272	20	5006
2026-01-09 03:31:22.38	332.93	23.36	-29.8	-32.9	19.3	6.00e-01	0	43	0	130023424	20	5138
2026-01-09 03:31:23.39	332.63	23.44	-29.9	-33.2	19.1	6.00e-01	0	43	0	131596288	20	5237
2026-01-09 03:31:24.39	332.33	23.51	-29.8	-33.0	19.2	6.01e-01	0	43	0	133693440	20	5182
2026-01-09 03:31:25.40	332.02	23.58	-29.8	-32.8	19.3	6.01e-01	0	43	0	135266304	20	5102
2026-01-09 03:31:26.41	331.72	23.65	-29.8	-32.8	19.3	6.01e-01	0	42	0	137363456	20	5098
2026-01-09 03:31:27.42	331.41	23.72	-29.8	-32.9	19.3	6.03e-01	0	43	0	138936320	20	5124
2026-01-09 03:31:28.42	331.11	23.79	-29.8	-32.8	19.3	6.02e-01	0	43	0	141033472	20	5114
2026-01-09 03:31:29.43	330.80	23.85	-29.7	-32.6	19.4	6.00e-01	0	43	0	143130624	20	5022
2026-01-09 03:31:30.44	330.49	23.92	-29.8	-32.8	19.4	6.01e-01	0	43	0	144703488	20	5093
2026-01-09 03:31:31.44	330.18	23.99	-29.8	-33.0	19.2	6.02e-01	0	42	0	146800640	20	5180
2026-01-09 03:31:32.44	329.87	24.05	-29.8	-32.9	19.2	6.02e-01	0	43	0	148373504	20	5149
2026-01-09 03:31:33.45	329.55	24.12	-29.9	-33.0	19.2	6.03e-01	0	42	0	150470656	20	5197
2026-01-09 03:31:34.45	329.24	24.18	-29.9	-33.2	19.1	6.02e-01	0	43	0	152567808	20	5267
2026-01-09 03:31:35.46	328.92	24.25	-29.7	-32.6	19.4	6.01e-01	0	43	0	154140672	20	5029
2026-01-09 03:31:36.45	328.61	24.31	-29.6	-32.4	19.5	6.03e-01	0	43	0	156237824	20	4970
2026-01-09 03:31:37.46	328.29	24.37	-29.6	-32.4	19.6	6.00e-01	0	42	0	157810688	20	4955
2026-01-09 03:31:38.46	327.97	24.43	-29.8	-33.0	19.2	6.01e-01	0	42	0	159907840	20	5182
2026-01-09 03:31:39.46	327.65	24.49	-29.9	-33.0	19.2	6.02e-01	0	43	0	161480704	20	5191
2026-01-09 03:31:40.47	327.33	24.55	-29.8	-32.8	19.3	6.01e-01	0	43	0	163577856	20	5091
2026-01-09 03:31:41.47	327.01	24.61	-29.7	-32.7	19.4	6.02e-01	0	42	0	165675008	20	5075
2026-01-09 03:31:42.48	326.68	24.67	-29.9	-33.2	19.1	6.03e-01	0	43	0	167247872	20	5253
2026-01-09 03:31:43.48	326.36	24.73	-29.7	-32.7	19.4	6.01e-01	0	43	0	169345024	20	5061
2026-01-09 03:31:44.48	326.03	24.79	-29.8	-33.0	19.2	6.01e-01	0	43	0	171442176	20	5170
2026-01-09 03:31:45.49	325.70	24.84	-29.8	-33.0	19.2	6.00e-01	0	43	0	173015040	20	5172
2026-01-09 03:31:46.49	325.37	24.90	-30.0	-33.3	19.1	6.04e-01	0	43	0	175112192	20	5277
2026-01-09 03:31:47.50	325.04	24.95	-29.9	-33.0	19.2	6.00e-01	0	42	0	176685056	20	5178
2026-01-09 03:31:48.51	324.70	25.00	-29.7	-32.6	19.3	6.02e-01	0	42	0	178782208	20	5023
2026-01-09 03:31:49.51	324.37	25.06	-29.6	-32.3	19.7	6.00e-01	0	42	0	180355072	20	4938
2026-01-09 03:31:50.51	324.04	25.11	-29.7	-32.5	19.5	6.03e-01	0	42	0	182452224	20	4992
2026-01-09 03:31:51.52	323.70	25.16	-29.8	-32.7	19.4	6.01e-01	0	43	0	184549376	20	5083
2026-01-09 03:31:52.52	323.37	25.21	-29.7	-32.7	19.4	6.03e-01	0	43	0	186122240	20	5078
2026-01-09 03:31:53.52	323.03	25.25	-29.7	-32.7	19.4	6.03e-01	0	43	0	188219392	20	5045
2026-01-09 03:31:54.53	322.69	25.30	-29.6	-32.4	19.6	6.01e-01	0	42	0	189792256	20	4964
2026-01-09 03:31:55.53	322.35	25.35	-29.6	-32.4	19.6	6.00e-01	0	43	0	191889408	20	4968
2026-01-09 03:31:56.54	322.01	25.39	-29.7	-32.5	19.6	6.02e-01	0	43	0	193986560	20	4994
2026-01-09 03:31:57.54	321.67	25.44	-29.8	-32.7	19.5	6.00e-01	0	43	0	195559424	20	5068
2026-01-09 03:31:58.55	321.32	25.48	-29.6	-32.4	19.6	6.04e-01	0	43	0	197656576	20	4947
2026-01-09 03:31:59.56	320.98	25.53	-29.6	-32.4	19.6	6.02e-01	0	43	0	199229440	20	4948
2026-01-09 03:32:00.56	320.63	25.57	-29.6	-32.3	19.6	6.03e-01	0	43	0	201326592	20	4937
2026-01-09 03:32:01.57	320.28	25.61	-29.6	-32.5	19.6	6.03e-01	0	43	0	203423744	20	4977
2026-01-09 03:32:02.57	319.94	25.65	-29.8	-32.9	19.4	6.01e-01	0	43	0	204996608	20	5123
2026-01-09 03:32:03.57	319.59	25.69	-29.8	-32.9	19.3	5.99e-01	0	43	0	207093760	20	5140
2026-01-09 03:32:04.57	319.24	25.72	-29.6	-32.4	19.7	6.02e-01	0	43	0	208666624	20	4938
2026-01-09 03:32:05.58	318.89	25.76	-29.7	-32.5	19.5	6.01e-01	0	43	0	210763776	20	4995
2026-01-09 03:32:06.58	318.54	25.79	-29.5	-32.6	19.9	6.00e-01	0	43	0	212860928	19	5138
2026-01-09 03:32:07.59	318.19	25.83	-29.6	-32.3	19.7	6.04e-01	0	43	0	214433792	20	4931
2026-01-09 03:32:08.59	317.84	25.86	-29.6	-32.3	19.7	6.00e-01	0	43	0	216530944	20	4924
2026-01-09 03:32:09.60	317.49	25.89	-29.6	-32.4	19.6	6.01e-01	0	43	0	218103808	20	4943
2026-01-09 03:32:10.61	317.13	25.92	-29.7	-32.5	19.6	6.02e-01	0	43	0	220200960	20	4995
2026-01-09 03:32:11.61	316.78	25.95	-29.6	-32.4	19.6	6.03e-01	0	42	0	221773824	20	4967
2026-01-09 03:32:12.62	316.42	25.98	-29.6	-32.2	19.8	6.02e-01	0	43	0	223870976	20	4894
2026-01-09 03:32:13.62	316.07	26.01	-30.0	-33.2	19.1	6.01e-01	0	43	0	225968128	20	5261
2026-01-09 03:32:14.63	315.71	26.04	-29.8	-32.9	19.4	6.02e-01	0	43	0	227540992	20	5132
2026-01-09 03:32:15.63	315.35	26.06	-29.9	-33.1	19.3	6.02e-01	0	43	0	229638144	20	5187
2026-01-09 03:32:16.64	314.99	26.08	-30.4	-33.9	18.5	6.03e-01	0	43	0	231735296	21	5409
2026-01-09 03:32:17.65	314.63	26.11	-30.5	-34.2	18.3	6.02e-01	0	43	0	233308160	21	5518
2026-01-09 03:32:18.65	314.28	26.13	-30.5	-33.6	18.3	6.03e-01	0	43	0	235405312	22	5165
2026-01-09 03:32:19.66	313.92	26.15	-30.4	-33.8	18.5	6.02e-01	0	43	0	236978176	21	5357
2026-01-09 03:32:20.67	313.55	26.17	-29.9	-33.1	19.2	6.02e-01	0	42	0	239075328	20	5221
2026-01-09 03:32:21.67	313.20	26.19	-29.7	-32.5	19.6	6.02e-01	0	43	0	240648192	20	5000
2026-01-09 03:32:22.68	312.83	26.20	-30.0	-33.3	19.1	6.02e-01	0	43	0	242745344	20	5286
2026-01-09 03:32:23.69	312.47	26.22	-30.0	-33.3	19.1	6.00e-01	0	43	0	244842496	20	5290
2026-01-09 03:32:24.69	312.11	26.23	-29.7	-32.5	19.6	6.02e-01	0	43	0	246415360	20	4984
2026-01-09 03:32:25.69	311.75	26.25	-29.6	-32.4	19.6	6.02e-01	0	43	0	248512512	20	4944
2026-01-09 03:32:26.70	311.39	26.26	-29.9	-33.1	19.3	6.03e-01	0	43	0	250085376	20	5190
2026-01-09 03:32:27.70	311.03	26.27	-29.6	-32.4	19.7	5.98e-01	0	43	0	252182528	20	4942
2026-01-09 03:32:28.71	310.66	26.28	-29.9	-32.6	19.2	6.04e-01	0	43	0	254279680	21	4904
2026-01-09 03:32:29.71	310.30	26.29	-30.0	-33.3	19.1	6.02e-01	0	43	0	255852544	20	5281
2026-01-09 03:32:30.72	309.94	26.30	-29.7	-32.6	19.6	6.01e-01	0	43	0	257949696	20	5000
2026-01-09 03:32:31.72	309.57	26.30	-29.9	-32.7	19.1	5.99e-01	0	43	0	259522560	21	4937
2026-01-09 03:32:32.72	309.21	26.31	-30.1	-33.1	18.9	6.03e-01	0	43	0	261619712	21	5112
2026-01-09 03:32:33.72	308.85	26.31	-29.3	-32.4	19.4	6.03e-01	0	43	0	263716864	20	5144
2026-01-09 03:32:34.73	308.49	26.31	-28.2	-31.4	19.1	6.02e-01	0	43	0	265289728	19	5218
2026-01-09 03:32:35.73	308.12	26.31	-30.0	-33.3	18.8	6.00e-01	0	43	0	267386880	20	5289
2026-01-09 03:32:36.74	307.76	26.31	-29.8	-32.8	18.8	6.01e-01	0	42	0	268959744	20	5078
2026-01-09 03:32:37.75	307.39	26.31	-29.9	-33.1	19.1	6.01e-01	0	43	0	271056896	20	5205
2026-01-09 03:32:38.75	307.03	26.31	-29.8	-32.9	19.4	6.01e-01	0	43	0	273154048	20	5121
2026-01-09 03:32:39.75	306.67	26.30	-29.6	-32.4	19.6	6.01e-01	0	43	0	274726912	20	4944
2026-01-09 03:32:40.76	306.31	26.30	-30.7	-34.2	17.8	6.02e-01	0	43	0	276824064	22	5400
2026-01-09 03:32:41.77	305.94	26.29	-30.4	-34.0	18.4	6.00e-01	0	43	0	278396928	21	5455
2026-01-09 03:32:42.78	305.58	26.29	-29.7	-32.5	19.6	6.00e-01	0	43	0	280494080	20	4972
2026-01-09 03:32:43.78	305.21	26.28	-30.9	-35.0	17.3	6.00e-01	0	43	0	282066944	22	5731
2026-01-09 03:32:44.78	304.85	26.27	-30.6	-34.5	18.1	6.01e-01	0	43	0	284164096	21	5651
2026-01-09 03:32:45.78	304.49	26.26	-30.3	-33.5	18.6	6.02e-01	0	42	0	286261248	21	5254
2026-01-09 03:32:46.78	304.13	26.24	-30.8	-34.7	17.7	6.01e-01	0	43	0	287834112	22	5614
2026-01-09 03:32:47.79	303.77	26.23	-30.0	-32.8	19.1	6.00e-01	0	43	0	289931264	21	4991
2026-01-09 03:32:48.79	303.41	26.22	-30.6	-34.2	17.7	6.01e-01	0	42	0	292028416	22	5402
2026-01-09 03:32:49.79	303.05	26.20	-30.8	-34.5	17.8	6.03e-01	0	43	0	293601280	22	5533
2026-01-09 03:32:50.80	302.69	26.18	-29.8	-32.2	19.5	6.00e-01	0	43	0	295698432	21	4750
2026-01-09 03:32:51.80	302.33	26.16	-30.4	-33.4	18.3	6.01e-01	0	43	0	297271296	22	5108
2026-01-09 03:32:52.81	301.97	26.14	-30.0	-32.9	19.1	6.02e-01	0	42	0	299368448	21	5015
2026-01-09 03:32:53.82	301.61	26.12	-30.8	-34.7	17.6	6.05e-01	0	43	0	300941312	22	5597
2026-01-09 03:32:54.81	301.25	26.10	-30.3	-33.7	18.6	6.00e-01	0	43	0	303038464	21	5328
2026-01-09 03:32:55.82	300.89	26.08	-29.7	-32.0	19.3	6.01e-01	0	43	0	305135616	21	4685
2026-01-09 03:32:56.83	300.53	26.05	-30.6	-34.5	18.0	6.02e-01	0	42	0	306708480	21	5674
2026-01-09 03:32:57.84	300.17	26.03	-29.6	-32.4	19.7	6.03e-01	0	43	0	308805632	20	4930
2026-01-09 03:32:58.85	299.81	26.00	-30.0	-32.9	19.0	6.01e-01	0	43	0	310378496	21	5030
2026-01-09 03:32:59.85	299.46	25.97	-30.1	-33.1	18.9	5.99e-01	0	43	0	312475648	21	5108
2026-01-09 03:33:00.86	299.10	25.95	-30.2	-33.5	18.6	6.01e-01	0	43	0	314572800	21	5235
2026-01-09 03:33:01.87	298.75	25.92	-30.2	-33.3	18.8	6.01e-01	0	43	0	316145664	21	5177
2026-01-09 03:33:02.87	298.39	25.88	-29.8	-32.2	19.4	6.02e-01	0	43	0	318242816	21	4780
2026-01-09 03:33:03.87	298.04	25.85	-30.2	-33.4	18.7	6.01e-01	0	43	0	319815680	21	5192
2026-01-09 03:33:04.88	297.69	25.82	-30.1	-33.1	18.9	6.00e-01	0	42	0	321912832	21	5083
2026-01-09 03:33:05.89	297.33	25.78	-30.3	-33.7	18.6	5.99e-01	0	43	0	324009984	21	5333
2026-01-09 03:33:06.89	296.99	25.75	-29.8	-32.2	19.4	6.02e-01	0	43	0	325582848	21	4769
2026-01-09 03:33:07.90	296.63	25.71	-30.2	-33.4	18.7	6.03e-01	0	43	0	327680000	21	5217
2026-01-09 03:33:08.90	296.29	25.67	-29.7	-32.0	19.7	6.02e-01	0	43	0	329252864	21	4690
2026-01-09 03:33:09.91	295.94	25.64	-30.3	-33.7	18.5	6.01e-01	0	43	0	331350016	21	5308
2026-01-09 03:33:10.91	295.59	25.60	-30.0	-33.4	19.0	6.02e-01	0	43	0	333447168	20	5329
2026-01-09 03:33:11.92	295.24	25.55	-30.1	-33.6	18.9	6.04e-01	0	43	0	335020032	20	5408
2026-01-09 03:33:12.93	294.89	25.51	-29.9	-33.1	19.2	6.00e-01	0	43	0	337117184	20	5191
2026-01-09 03:33:13.93	294.55	25.47	-30.1	-33.1	18.8	6.01e-01	0	43	0	338690048	21	5121
2026-01-09 03:33:14.94	294.21	25.43	-29.7	-32.1	19.5	6.00e-01	0	43	0	340787200	21	4737
2026-01-09 03:33:15.95	293.86	25.38	-30.2	-33.4	18.7	6.02e-01	0	43	0	342884352	21	5201
2026-01-09 03:33:16.95	293.52	25.33	-29.9	-33.1	19.2	6.01e-01	0	42	0	344457216	20	5217
2026-01-09 03:33:17.96	293.18	25.29	-30.6	-34.1	17.8	6.04e-01	0	42	0	346554368	22	5387
2026-01-09 03:33:18.97	292.84	25.24	-29.6	-32.3	19.7	6.03e-01	0	42	0	348127232	20	4898
2026-01-09 03:33:19.97	292.50	25.19	-30.1	-33.2	18.7	6.01e-01	0	43	0	350224384	21	5139
2026-01-09 03:33:20.98	292.16	25.14	-29.5	-32.6	19.4	6.00e-01	0	43	0	351797248	20	5135
2026-01-09 03:33:21.98	291.83	25.09	-30.5	-33.7	18.1	6.01e-01	0	43	0	353894400	22	5215
2026-01-09 03:33:22.99	291.49	25.04	-29.8	-32.4	19.3	6.03e-01	0	42	0	355991552	21	4853
2026-01-09 03:33:23.99	291.16	24.99	-29.9	-32.5	19.1	6.01e-01	0	43	0	357564416	21	4895
2026-01-09 03:33:25.00	290.82	24.93	-30.2	-33.4	18.7	6.01e-01	0	43	0	359661568	21	5202
2026-01-09 03:33:26.00	290.49	24.88	-30.0	-32.8	18.9	6.03e-01	0	43	0	361758720	21	4992
2026-01-09 03:33:27.01	290.16	24.82	-30.5	-34.3	18.2	5.99e-01	0	43	0	363331584	21	5583
2026-01-09 03:33:28.01	289.83	24.77	-29.7	-32.2	19.4	6.00e-01	0	43	0	365428736	21	4764
2026-01-09 03:33:29.02	289.51	24.71	-30.4	-34.2	18.1	6.01e-01	0	43	0	367001600	21	5547
2026-01-09 03:33:30.03	289.18	24.65	-29.8	-32.3	19.2	6.03e-01	0	43	0	369098752	21	4827
2026-01-09 03:33:31.03	288.85	24.59	-30.4	-34.1	18.3	6.02e-01	0	43	0	371195904	21	5486
2026-01-09 03:33:32.04	288.53	24.53	-29.7	-32.0	19.4	6.01e-01	0	43	0	372768768	21	4716
2026-01-09 03:33:33.04	288.21	24.47	-30.6	-34.3	17.8	6.05e-01	0	43	0	374865920	22	5465
2026-01-09 03:33:34.05	287.88	24.41	-29.7	-32.2	19.1	6.03e-01	0	43	0	376438784	21	4773
2026-01-09 03:33:35.06	287.56	24.35	-30.1	-33.7	18.7	6.03e-01	0	43	0	378535936	20	5455
2026-01-09 03:33:36.06	287.24	24.29	-29.8	-32.5	19.0	6.02e-01	0	43	0	380108800	21	4886
2026-01-09 03:33:37.07	286.92	24.22	-29.9	-33.2	19.1	6.01e-01	0	43	0	382205952	20	5234
2026-01-09 03:33:38.08	286.61	24.16	-30.2	-33.4	18.5	6.01e-01	0	43	0	384303104	21	5220
2026-01-09 03:33:39.08	286.29	24.09	-29.7	-32.2	19.4	6.02e-01	0	42	0	385875968	21	4788
2026-01-09 03:33:40.09	285.98	24.03	-29.8	-33.0	19.1	6.01e-01	0	43	0	387973120	20	5190
2026-01-09 03:33:41.10	285.66	23.96	-30.0	-33.3	19.0	6.01e-01	0	43	0	390070272	20	5298
2026-01-09 03:33:42.10	285.35	23.89	-30.3	-33.7	18.3	6.02e-01	0	43	0	391643136	21	5357
2026-01-09 03:33:43.11	285.04	23.83	-29.4	-31.9	19.9	6.00e-01	0	42	0	393740288	20	4783
2026-01-09 03:33:44.11	284.74	23.76	-30.1	-33.7	18.7	6.02e-01	0	43	0	395313152	20	5476
2026-01-09 03:33:45.12	284.43	23.69	-29.9	-32.6	19.0	6.00e-01	0	43	0	397410304	21	4921
2026-01-09 03:33:46.13	284.12	23.62	-29.9	-33.1	19.1	6.00e-01	0	43	0	398983168	20	5235
2026-01-09 03:33:47.13	283.82	23.55	-30.4	-34.0	18.1	6.02e-01	0	43	0	401080320	21	5476
2026-01-09 03:33:48.14	283.52	23.48	-29.9	-32.7	19.0	6.00e-01	0	43	0	403177472	21	4953
2026-01-09 03:33:49.14	283.22	23.41	-30.3	-33.9	18.2	6.01e-01	0	43	0	404750336	21	5439
2026-01-09 03:33:50.15	282.92	23.33	-30.2	-33.4	18.5	6.02e-01	0	43	0	406847488	21	5211
2026-01-09 03:33:51.16	282.62	23.26	-29.9	-32.6	19.1	6.00e-01	0	43	0	408420352	21	4914
2026-01-09 03:33:52.16	282.32	23.19	-29.9	-32.7	19.0	5.99e-01	0	43	0	410517504	21	4966
2026-01-09 03:33:53.16	282.03	23.11	-29.8	-32.5	19.2	6.01e-01	0	43	0	412614656	21	4907
2026-01-09 03:33:54.16	281.74	23.04	-30.2	-33.5	18.5	6.02e-01	0	43	0	414187520	21	5259
2026-01-09 03:33:55.17	281.44	22.96	-30.1	-33.1	18.7	6.01e-01	0	43	0	416284672	21	5130
2026-01-09 03:33:56.17	281.15	22.89	-29.9	-33.3	19.0	6.03e-01	0	43	0	417857536	20	5289
2026-01-09 03:33:57.18	280.86	22.81	-30.0	-33.4	18.8	5.99e-01	0	43	0	419954688	20	5346
2026-01-09 03:33:58.18	280.58	22.74	-29.7	-32.8	18.9	6.01e-01	0	43	0	422051840	20	5101
2026-01-09 03:33:59.19	280.29	22.66	-29.7	-32.8	19.2	6.01e-01	0	43	0	423624704	20	5107
2026-01-09 03:34:00.20	280.00	22.58	-29.8	-33.0	18.9	6.04e-01	0	43	0	425721856	20	5201
2026-01-09 03:34:01.20	279.72	22.50	-29.5	-32.2	19.5	6.02e-01	0	43	0	427294720	20	4909
2026-01-09 03:34:02.20	279.44	22.43	-29.9	-33.1	19.1	6.02e-01	0	42	0	429391872	20	5227
2026-01-09 03:34:03.20	279.16	22.35	-29.9	-33.2	18.3	6.01e-01	0	43	0	431489024	20	5267
2026-01-09 03:34:04.21	278.88	22.27	-29.7	-32.7	18.3	6.01e-01	0	43	0	433061888	20	5062
2026-01-09 03:34:05.21	278.61	22.19	-29.9	-33.2	19.0	6.01e-01	0	43	0	435159040	20	5279
2026-01-09 03:34:06.22	278.33	22.11	-30.4	-34.1	17.5	6.01e-01	0	43	0	436731904	21	5532
2026-01-09 03:34:07.22	278.06	22.03	-30.0	-33.6	18.4	6.04e-01	0	42	0	438829056	20	5413
2026-01-09 03:34:08.22	277.78	21.95	-29.8	-32.9	19.1	6.03e-01	0	42	0	440401920	20	5148
2026-01-09 03:34:09.23	277.51	21.86	-30.2	-33.5	18.4	6.01e-01	0	43	0	442499072	21	5263
2026-01-09 03:34:10.23	277.24	21.78	-30.3	-33.9	18.2	6.03e-01	0	43	0	444596224	21	5425
2026-01-09 03:34:11.24	276.97	21.70	-30.2	-33.6	18.3	6.01e-01	0	43	0	446169088	21	5330
2026-01-09 03:34:12.24	276.71	21.62	-30.2	-33.6	18.4	6.02e-01	0	43	0	448266240	21	5315
2026-01-09 03:34:13.24	276.44	21.54	-30.6	-34.2	17.7	6.01e-01	0	43	0	450363392	22	5454
2026-01-09 03:34:14.24	276.18	21.45	-30.3	-33.8	18.2	5.99e-01	0	42	0	451936256	21	5401
2026-01-09 03:34:15.24	275.92	21.37	-30.1	-33.4	18.5	6.02e-01	0	43	0	454033408	21	5238
2026-01-09 03:34:16.24	275.66	21.29	-29.8	-33.1	19.0	6.01e-01	0	43	0	455606272	20	5218
2026-01-09 03:34:17.25	275.40	21.20	-29.9	-33.2	18.9	6.01e-01	0	43	0	457703424	20	5285
2026-01-09 03:34:18.25	275.14	21.12	-30.1	-33.7	18.6	5.99e-01	0	43	0	459276288	20	5472
2026-01-09 03:34:19.25	274.89	21.03	-30.1	-33.4	18.5	6.00e-01	0	43	0	461373440	21	5238
2026-01-09 03:34:20.25	274.64	20.95	-30.1	-33.7	18.6	6.02e-01	0	42	0	463470592	20	5476
2026-01-09 03:34:21.25	274.38	20.87	-30.0	-33.1	18.6	6.01e-01	0	43	0	465043456	21	5125
2026-01-09 03:34:22.26	274.13	20.78	-29.8	-32.9	19.1	6.01e-01	0	43	0	467140608	20	5165
2026-01-09 03:34:23.27	273.88	20.69	-29.9	-33.4	18.8	6.02e-01	0	42	0	468713472	20	5343
2026-01-09 03:34:24.27	273.63	20.61	-30.3	-33.9	18.2	6.00e-01	0	43	0	470810624	21	5439
2026-01-09 03:34:25.27	273.38	20.52	-30.1	-33.4	18.4	6.01e-01	0	43	0	472383488	21	5229
2026-01-09 03:34:26.28	273.14	20.44	-29.6	-32.6	19.2	6.00e-01	0	43	0	474480640	20	5049
2026-01-09 03:34:27.28	272.89	20.35	-29.6	-32.5	19.3	6.01e-01	0	43	0	476577792	20	5034
2026-01-09 03:34:28.29	272.65	20.26	-29.7	-32.8	19.1	6.01e-01	0	43	0	478150656	20	5148
2026-01-09 03:34:29.29	272.41	20.18	-29.8	-33.1	18.9	6.01e-01	0	43	0	480247808	20	5228
2026-01-09 03:34:30.30	272.17	20.09	-30.0	-33.5	18.6	6.00e-01	0	43	0	481820672	20	5394
2026-01-09 03:34:31.30	271.93	20.00	-29.7	-32.7	19.1	6.03e-01	0	43	0	483917824	20	5109
2026-01-09 03:34:32.31	271.69	19.91	-29.5	-32.3	19.4	6.02e-01	0	43	0	486014976	20	4949
2026-01-09 03:34:33.32	271.45	19.83	-29.6	-32.9	19.4	6.03e-01	0	43	0	487587840	19	5283
2026-01-09 03:34:34.33	271.22	19.74	-29.6	-32.5	19.3	6.03e-01	0	43	0	489684992	20	5026
2026-01-09 03:34:35.33	270.99	19.65	-29.5	-32.3	19.4	6.02e-01	0	43	0	491257856	20	4957
2026-01-09 03:34:36.33	270.76	19.56	-29.7	-32.6	19.2	6.00e-01	0	43	0	493355008	20	5079
2026-01-09 03:34:37.34	270.53	19.47	-29.7	-32.7	19.2	6.00e-01	0	43	0	495452160	20	5098
2026-01-09 03:34:38.35	270.30	19.39	-29.6	-32.5	19.3	5.99e-01	0	43	0	497025024	20	5027
2026-01-09 03:34:39.35	270.07	19.30	-29.6	-32.5	19.2	6.04e-01	0	43	0	499122176	20	5043
2026-01-09 03:34:40.35	269.84	19.21	-29.6	-32.4	19.3	6.02e-01	0	43	0	500695040	20	4985
2026-01-09 03:34:41.36	269.62	19.12	-29.7	-32.7	19.1	6.00e-01	0	43	0	502792192	20	5113
2026-01-09 03:34:42.36	269.40	19.03	-29.8	-33.0	18.9	6.00e-01	0	43	0	504889344	20	5202
2026-01-09 03:34:43.37	269.17	18.94	-29.6	-32.6	19.2	6.02e-01	0	43	0	506462208	20	5046
2026-01-09 03:34:44.37	268.95	18.85	-29.5	-32.4	19.3	6.03e-01	0	43	0	508559360	20	4978
2026-01-09 03:34:45.38	268.73	18.77	-29.5	-32.2	19.4	6.01e-01	0	42	0	510132224	20	4938
2026-01-09 03:34:46.39	268.51	18.68	-29.8	-33.0	18.9	6.00e-01	0	43	0	512229376	20	5224
2026-01-09 03:34:47.40	268.30	18.59	-29.7	-32.8	19.1	6.02e-01	0	43	0	514326528	20	5131
2026-01-09 03:34:48.40	268.08	18.50	-29.8	-33.0	19.0	6.01e-01	0	43	0	515899392	20	5205
2026-01-09 03:34:49.41	267.87	18.41	-29.8	-33.1	18.8	6.01e-01	0	43	0	517996544	20	5259
2026-01-09 03:34:50.42	267.65	18.32	-29.7	-32.9	18.9	6.00e-01	0	43	0	519569408	20	5171
2026-01-09 03:34:51.43	267.44	18.23	-29.7	-32.8	19.0	6.01e-01	0	42	0	521666560	20	5119
2026-01-09 03:34:52.43	267.23	18.14	-28.6	-32.0	18.3	6.01e-01	0	43	0	523763712	20	5351
2026-01-09 03:34:53.44	267.02	18.05	-30.1	-33.9	17.7	6.06e-01	0	43	0	525336576	20	5546
2026-01-09 03:34:54.44	266.82	17.96	-30.3	-34.0	17.9	6.02e-01	0	43	0	527433728	21	5482
2026-01-09 03:34:55.44	266.61	17.87	-30.2	-33.6	17.8	6.04e-01	0	43	0	529006592	21	5359
2026-01-09 03:34:56.45	266.41	17.78	-30.2	-33.7	17.6	6.04e-01	0	43	0	531103744	21	5372
2026-01-09 03:34:57.45	266.21	17.70	-30.3	-33.8	18.0	6.02e-01	0	43	0	533200896	21	5430
2026-01-09 03:34:58.46	266.00	17.61	-30.3	-34.0	17.1	6.01e-01	0	43	0	534773760	21	5497
2026-01-09 03:34:59.46	265.80	17.52	-30.3	-33.8	17.1	6.04e-01	0	43	0	536870912	21	5433
2026-01-09 03:35:00.47	265.60	17.43	-30.1	-33.5	18.3	6.01e-01	0	43	0	538443776	21	5301
2026-01-09 03:35:01.48	265.40	17.34	-30.2	-33.6	17.1	6.03e-01	0	43	0	540540928	21	5335
2026-01-09 03:35:02.48	265.21	17.25	-29.9	-33.3	17.5	6.01e-01	0	43	0	542113792	20	5331
2026-01-09 03:35:03.48	265.01	17.16	-29.7	-32.8	18.9	6.00e-01	0	43	0	544210944	20	5159
2026-01-09 03:35:04.49	264.82	17.07	-29.6	-32.7	19.0	6.03e-01	0	43	0	546308096	20	5100
2026-01-09 03:35:05.49	264.62	16.98	-29.6	-32.6	19.1	6.02e-01	0	43	0	547880960	20	5072
2026-01-09 03:35:06.49	264.43	16.89	-29.5	-32.4	19.2	6.04e-01	0	43	0	549978112	20	5016
2026-01-09 03:35:07.49	264.24	16.80	-29.5	-32.4	19.2	6.03e-01	0	43	0	552075264	20	4991
2026-01-09 03:35:08.50	264.05	16.72	-29.6	-32.6	19.1	6.03e-01	0	43	0	553648128	20	5083
2026-01-09 03:35:09.50	263.87	16.63	-29.7	-32.9	18.9	6.00e-01	0	43	0	555745280	20	5178
2026-01-09 03:35:10.51	263.68	16.54	-29.8	-33.1	18.8	6.00e-01	0	43	0	557318144	20	5267
2026-01-09 03:35:11.51	263.49	16.45	-29.8	-33.2	18.6	6.02e-01	0	43	0	559415296	20	5325
2026-01-09 03:35:12.52	263.31	16.36	-29.7	-32.7	19.0	6.02e-01	0	43	0	560988160	20	5129
2026-01-09 03:35:13.53	263.12	16.27	-29.5	-32.8	19.3	6.01e-01	0	43	0	563085312	19	5269
2026-01-09 03:35:14.54	262.94	16.18	-29.5	-32.7	19.4	6.00e-01	0	43	0	565182464	19	5217
2026-01-09 03:35:15.54	262.76	16.09	-29.5	-32.9	19.2	6.01e-01	0	43	0	566755328	19	5289
2026-01-09 03:35:16.55	262.58	16.01	-29.5	-32.9	19.2	6.02e-01	0	43	0	568852480	19	5286
2026-01-09 03:35:17.56	262.40	15.92	-29.6	-32.5	19.1	6.02e-01	0	43	0	570425344	20	5032
2026-01-09 03:35:18.57	262.22	15.83	-29.9	-33.5	18.5	5.99e-01	0	43	0	572522496	20	5440
2026-01-09 03:35:19.57	262.04	15.74	-30.0	-33.6	18.3	6.02e-01	0	42	0	574619648	20	5488
2026-01-09 03:35:20.57	261.87	15.65	-29.8	-33.0	18.7	6.03e-01	0	42	0	576192512	20	5252
2026-01-09 03:35:21.58	261.69	15.56	-29.6	-32.7	18.9	6.01e-01	0	43	0	578289664	20	5136
2026-01-09 03:35:22.58	261.52	15.48	-29.6	-33.0	19.1	6.01e-01	0	43	0	580386816	19	5348
2026-01-09 03:35:23.59	261.35	15.39	-29.6	-32.5	19.1	6.01e-01	0	42	0	581959680	20	5052
2026-01-09 03:35:24.59	261.18	15.30	-29.6	-32.6	19.0	6.01e-01	0	43	0	584056832	20	5078
2026-01-09 03:35:25.59	261.01	15.21	-29.5	-32.5	19.0	6.02e-01	0	43	0	585629696	20	5045
2026-01-09 03:35:26.60	260.84	15.13	-29.5	-32.9	19.2	5.99e-01	0	43	0	587726848	19	5297
2026-01-09 03:35:27.60	260.67	15.04	-29.6	-33.0	19.1	6.02e-01	0	43	0	589299712	19	5334
2026-01-09 03:35:28.61	260.50	14.95	-29.6	-32.7	19.0	6.00e-01	0	43	0	591396864	20	5115
2026-01-09 03:35:29.61	260.34	14.86	-29.7	-32.9	18.8	6.00e-01	0	43	0	593494016	20	5194
2026-01-09 03:35:30.62	260.17	14.78	-29.6	-32.7	18.9	6.01e-01	0	43	0	595066880	20	5136
2026-01-09 03:35:31.63	260.01	14.69	-29.6	-32.6	18.9	6.01e-01	0	43	0	597164032	20	5108
2026-01-09 03:35:32.63	259.84	14.60	-29.6	-32.6	17.3	6.12e-01	0	43	0	598736896	20	5101
2026-01-09 03:35:33.64	259.68	14.52	-29.6	-33.0	15.9	6.11e-01	0	43	0	600834048	19	5352
2026-01-09 03:35:34.64	259.52	14.43	-29.6	-32.5	18.3	6.03e-01	0	43	0	602931200	20	5069
2026-01-09 03:35:35.65	259.36	14.34	-29.7	-33.0	15.5	6.12e-01	0	43	0	604504064	20	5251
2026-01-09 03:35:36.66	259.20	14.26	-29.7	-32.9	16.0	6.02e-01	0	43	0	606601216	20	5225
2026-01-09 03:35:37.67	259.04	14.17	-29.7	-33.1	17.4	6.02e-01	0	43	0	608174080	20	5276
2026-01-09 03:35:38.67	258.89	14.08	-29.7	-32.9	17.8	6.01e-01	0	43	0	610271232	20	5228
2026-01-09 03:35:39.67	258.73	14.00	-29.6	-32.6	17.7	6.02e-01	0	43	0	612368384	20	5119
2026-01-09 03:35:40.68	258.58	13.91	-29.6	-32.6	18.8	6.04e-01	0	43	0	613941248	20	5097
2026-01-09 03:35:41.69	258.42	13.83	-29.6	-32.6	18.8	6.01e-01	0	43	0	616038400	20	5111
2026-01-09 03:35:42.69	258.27	13.74	-29.6	-32.8	18.7	5.99e-01	0	43	0	617611264	20	5183
2026-01-09 03:35:43.70	258.12	13.66	-29.6	-32.8	18.7	6.01e-01	0	42	0	619708416	20	5167
2026-01-09 03:35:44.70	257.97	13.57	-29.6	-33.1	19.0	6.02e-01	0	43	0	621805568	19	5375
2026-01-09 03:35:45.70	257.82	13.49	-29.6	-32.6	18.9	6.01e-01	0	43	0	623378432	20	5105
2026-01-09 03:35:46.71	257.67	13.40	-29.6	-32.8	18.8	6.01e-01	0	43	0	625475584	20	5162
2026-01-09 03:35:47.71	257.52	13.32	-29.6	-32.7	18.8	6.01e-01	0	43	0	627048448	20	5126
2026-01-09 03:35:48.72	257.37	13.23	-29.6	-33.1	19.0	6.01e-01	0	43	0	629145600	19	5376
2026-01-09 03:35:49.73	257.22	13.15	-29.6	-32.6	18.9	6.01e-01	0	43	0	630718464	20	5120
2026-01-09 03:35:50.74	257.08	13.06	-29.6	-32.8	18.7	6.01e-01	0	43	0	632815616	20	5175
2026-01-09 03:35:51.74	256.93	12.98	-29.7	-32.9	18.7	6.03e-01	0	43	0	634912768	20	5200
2026-01-09 03:35:52.75	256.79	12.89	-29.7	-33.0	18.6	6.02e-01	0	43	0	636485632	20	5275
2026-01-09 03:35:53.76	256.65	12.81	-29.7	-32.9	18.6	6.00e-01	0	43	0	638582784	20	5218
2026-01-09 03:35:54.76	256.50	12.73	-29.7	-32.9	18.6	6.00e-01	0	43	0	640679936	20	5236
2026-01-09 03:35:55.77	256.36	12.64	-29.8	-33.3	18.4	6.02e-01	0	43	0	642252800	20	5354
2026-01-09 03:35:56.77	256.22	12.56	-29.7	-33.1	18.5	6.03e-01	0	43	0	644349952	20	5294
2026-01-09 03:35:57.78	256.08	12.48	-29.7	-33.0	18.6	6.00e-01	0	43	0	645922816	20	5252
2026-01-09 03:35:58.79	255.94	12.39	-29.7	-33.1	18.5	6.00e-01	0	43	0	648019968	20	5286
2026-01-09 03:35:59.79	255.81	12.31	-29.8	-33.4	18.4	6.01e-01	0	43	0	650117120	20	5398
2026-01-09 03:36:00.79	255.67	12.23	-29.8	-33.2	18.4	6.01e-01	0	43	0	651689984	20	5352
2026-01-09 03:36:01.80	255.53	12.14	-29.9	-33.5	18.2	6.01e-01	0	43	0	653787136	20	5441
2026-01-09 03:36:02.81	255.40	12.06	-30.0	-33.7	18.1	6.00e-01	0	43	0	655360000	20	5545
2026-01-09 03:36:03.81	255.26	11.98	-29.8	-33.3	18.3	5.99e-01	0	43	0	657457152	20	5395
2026-01-09 03:36:04.82	255.13	11.90	-29.8	-33.2	18.4	6.04e-01	0	43	0	659030016	20	5326
2026-01-09 03:36:05.83	255.00	11.81	-29.8	-33.2	18.4	6.01e-01	0	43	0	661127168	20	5345
2026-01-09 03:36:06.84	254.87	11.73	-29.9	-33.5	18.2	6.00e-01	0	42	0	663224320	20	5463
2026-01-09 03:36:07.84	254.73	11.65	-29.7	-33.0	18.5	6.02e-01	0	43	0	664797184	20	5256
2026-01-09 03:36:08.84	254.61	11.57	-29.6	-32.8	18.7	6.00e-01	0	43	0	666894336	20	5186
2026-01-09 03:36:09.85	254.48	11.49	-29.6	-32.8	18.6	6.00e-01	0	43	0	668991488	20	5188
2026-01-09 03:36:10.86	254.35	11.41	-29.6	-32.8	18.6	6.03e-01	0	43	0	670564352	20	5183
2026-01-09 03:36:11.86	254.22	11.33	-29.7	-33.0	18.5	6.00e-01	0	43	0	672661504	20	5267
2026-01-09 03:36:12.87	254.09	11.25	-29.7	-33.1	18.4	6.00e-01	0	43	0	674234368	20	5297
2026-01-09 03:36:13.87	253.97	11.16	-29.8	-33.3	18.3	6.02e-01	0	43	0	676331520	20	5392
2026-01-09 03:36:14.88	253.84	11.08	-29.7	-33.1	18.4	6.01e-01	0	43	0	677904384	20	5321
2026-01-09 03:36:15.89	253.71	11.00	-29.7	-33.1	18.4	6.03e-01	0	43	0	680001536	20	5309
2026-01-09 03:36:16.88	253.59	10.92	-29.7	-33.0	18.4	6.01e-01	0	43	0	682098688	20	5283
2026-01-09 03:36:17.89	253.47	10.84	-29.7	-33.1	18.4	6.00e-01	0	43	0	683671552	20	5307
2026-01-09 03:36:18.90	253.34	10.76	-29.9	-33.5	18.1	6.03e-01	0	43	0	685768704	20	5482
2026-01-09 03:36:19.90	253.22	10.68	-29.8	-33.3	18.2	6.03e-01	0	43	0	687341568	20	5403
2026-01-09 03:36:20.90	253.10	10.61	-29.9	-33.6	18.0	6.00e-01	0	43	0	689438720	20	5513
2026-01-09 03:36:21.91	252.98	10.53	-29.8	-33.4	18.2	6.04e-01	0	42	0	691535872	20	5438
2026-01-09 03:36:22.91	252.86	10.45	-29.8	-33.3	18.2	6.01e-01	0	43	0	693108736	20	5400
2026-01-09 03:36:23.92	252.74	10.37	-29.9	-33.6	18.1	6.01e-01	0	43	0	695205888	20	5527
2026-01-09 03:36:24.92	252.62	10.29	-29.8	-33.5	18.1	6.01e-01	0	43	0	696778752	20	5463
2026-01-09 03:36:25.92	252.51	10.21	-29.9	-33.7	18.0	6.04e-01	0	43	0	698875904	20	5544
2026-01-09 03:36:26.93	252.39	10.13	-29.9	-33.6	17.9	6.00e-01	0	43	0	700448768	20	5548
2026-01-09 03:36:27.93	252.27	10.05	-30.0	-33.9	17.8	5.99e-01	0	43	0	702545920	20	5659
2026-01-09 03:36:28.94	252.16	9.98	-29.9	-33.8	17.8	6.03e-01	0	43	0	704643072	20	5596
2026-01-09 03:36:29.94	252.04	9.90	-29.9	-33.6	17.9	6.01e-01	0	43	0	706215936	20	5543
2026-01-09 03:36:30.95	251.93	9.82	-29.9	-33.7	17.8	6.03e-01	0	43	0	708313088	20	5584
2026-01-09 03:36:31.95	251.82	9.74	-29.9	-33.6	17.9	6.03e-01	0	43	0	710410240	20	5534
2026-01-09 03:36:32.95	251.70	9.67	-29.9	-33.7	17.9	6.02e-01	0	43	0	711983104	20	5565
2026-01-09 03:36:33.95	251.59	9.59	-29.8	-33.5	18.0	6.02e-01	0	43	0	714080256	20	5485
2026-01-09 03:36:34.96	251.48	9.51	-29.8	-33.4	17.9	6.03e-01	0	43	0	715653120	20	5454
2026-01-09 03:36:35.96	251.37	9.43	-29.8	-33.4	18.0	5.99e-01	0	43	0	717750272	20	5452
2026-01-09 03:36:36.97	251.26	9.36	-29.9	-33.8	17.8	6.02e-01	0	43	0	719323136	20	5615
2026-01-09 03:36:37.98	251.15	9.28	-29.8	-33.5	17.8	6.01e-01	0	43	0	721420288	20	5512
2026-01-09 03:36:38.98	251.04	9.20	-29.9	-33.6	17.9	6.03e-01	0	43	0	723517440	20	5551
2026-01-09 03:36:39.98	250.93	9.13	-29.9	-33.7	17.8	6.05e-01	0	43	0	725090304	20	5579
2026-01-09 03:36:40.99	250.82	9.05	-29.9	-33.8	17.7	6.03e-01	0	43	0	727187456	20	5642
2026-01-09 03:36:42.00	250.72	8.98	-29.9	-33.8	17.8	6.01e-01	0	43	0	728760320	20	5617
2026-01-09 03:36:43.01	250.61	8.90	-29.9	-33.8	17.7	6.02e-01	0	43	0	730857472	20	5644
2026-01-09 03:36:44.01	250.50	8.82	-30.0	-33.9	17.7	6.01e-01	0	43	0	732954624	20	5676
2026-01-09 03:36:45.01	250.40	8.75	-30.0	-34.1	17.6	6.00e-01	0	43	0	734527488	20	5739
2026-01-09 03:36:46.02	250.29	8.67	-30.0	-34.1	17.6	5.99e-01	0	43	0	736624640	20	5746
2026-01-09 03:36:47.03	250.19	8.60	-30.1	-33.9	17.4	6.00e-01	0	43	0	738197504	21	5551
2026-01-09 03:36:48.03	250.09	8.52	-30.0	-34.1	17.5	6.02e-01	0	43	0	740294656	20	5750
2026-01-09 03:36:49.03	249.98	8.45	-30.0	-34.1	17.6	6.00e-01	0	43	0	742391808	20	5741
2026-01-09 03:36:50.03	249.88	8.37	-30.0	-34.0	17.6	6.01e-01	0	43	0	743964672	20	5702
2026-01-09 03:36:51.04	249.78	8.30	-30.1	-34.3	17.4	6.02e-01	0	43	0	746061824	20	5834
2026-01-09 03:36:52.04	249.68	8.23	-30.0	-34.1	17.5	6.01e-01	0	43	0	747634688	20	5755
2026-01-09 03:36:53.05	249.58	8.15	-30.1	-34.3	17.4	6.00e-01	0	43	0	749731840	20	5833
2026-01-09 03:36:54.05	249.48	8.08	-30.1	-34.3	17.3	6.01e-01	0	43	0	751828992	20	5860
2026-01-09 03:36:55.06	249.38	8.00	-30.1	-33.8	17.4	6.00e-01	0	43	0	753401856	21	5523
2026-01-09 03:36:56.06	249.28	7.93	-30.1	-34.3	17.3	6.02e-01	0	43	0	755499008	20	5852
2026-01-09 03:36:57.07	249.18	7.86	-30.0	-34.2	17.4	6.01e-01	0	42	0	757071872	20	5833
2026-01-09 03:36:58.07	249.08	7.78	-30.0	-34.1	17.4	6.02e-01	0	42	0	759169024	20	5790
2026-01-09 03:36:59.08	248.99	7.71	-30.0	-34.1	17.4	6.02e-01	0	43	0	760741888	20	5775
2026-01-09 03:37:00.08	248.89	7.64	-30.1	-34.4	17.2	5.99e-01	0	43	0	762839040	20	5894
2026-01-09 03:37:01.08	248.80	7.56	-30.0	-34.2	17.4	6.02e-01	0	43	0	764936192	20	5805
2026-01-09 03:37:02.09	248.70	7.49	-30.1	-34.3	17.3	6.01e-01	0	43	0	766509056	20	5873
2026-01-09 03:37:03.09	248.60	7.42	-30.1	-34.3	17.3	6.02e-01	0	43	0	768606208	20	5863
2026-01-09 03:37:04.10	248.51	7.35	-30.1	-34.3	17.2	6.00e-01	0	42	0	770703360	20	5863
2026-01-09 03:37:05.11	248.41	7.27	-30.4	-34.9	16.6	6.00e-01	0	43	0	772276224	21	6017
2026-01-09 03:37:06.11	248.32	7.20	-30.2	-34.4	16.8	6.03e-01	0	43	0	774373376	21	5806
2026-01-09 03:37:07.12	248.23	7.13	-30.2	-34.3	16.9	6.02e-01	0	43	0	775946240	21	5766
2026-01-09 03:37:08.13	248.14	7.06	-33.3	-52.0	3.8	7.45e-01	0	43	104	776470528	27	31261
2026-01-09 03:37:09.13	248.04	6.99	-33.4	-52.9	3.8	7.46e-01	0	43	104	776470528	27	34180
2026-01-09 03:37:10.13	247.95	6.92	-33.6	-52.8	3.8	7.42e-01	0	43	104	776470528	27	33088

#Closed at: 2026-01-09 03:37:10
#Recorded file [776 MB]: D:/data/31010_260109_063012.dat