passes_logs/2026/01/09/R2M6_AANII_01/R2M6_AANII_01__20260109_104124_FENGYUN_3D_rec.log

#Pass ID: 20260109_104124_FENGYUN 3D
#Satellite: FENGYUN 3D
#Configuration: FENGYUN 3D
#almurnet v.1.7.20240730
#Start time: 2026-01-09 10:41:26

#Version: 2.2.20231116
#Station: R2M6_AANII_01
#Location: 30.233357 lon 59.946436 lat
#TLE: 1 43010U 17072A   26008.51967461  .00000013  00000+0  27718-4 0  9992
#TLE: 2 43010  98.9935 340.2353 0002115 119.1573 240.9815 14.19693759422336

#Time	Az	El	Level	Level2	SNR	BER	BlckErr	Temp	State	Recorded	gain1	gain2
2026-01-09 10:41:26.07	108.71	7.12	-29.6	-32.4	5.3	7.84e-01	0	40	0	0	20	4968
2026-01-09 10:41:27.08	108.63	7.19	-29.6	-32.5	5.4	7.84e-01	0	40	104	0	20	5005
2026-01-09 10:41:28.08	108.55	7.25	-29.7	-32.7	9.5	1.01e-02	0	40	0	0	20	5086
2026-01-09 10:41:29.09	108.46	7.32	-29.9	-33.2	9.2	1.89e-02	0	40	0	5242880	20	5261
2026-01-09 10:41:30.09	108.38	7.39	-29.6	-32.3	9.8	1.03e-02	0	40	0	11534336	20	4922
2026-01-09 10:41:31.10	108.30	7.46	-29.4	-31.7	10.2	6.03e-03	0	41	0	16777216	20	4722
2026-01-09 10:41:32.11	108.22	7.53	-29.3	-31.5	10.4	4.16e-03	0	40	0	22020096	20	4629
2026-01-09 10:41:33.11	108.14	7.60	-29.1	-31.5	10.8	2.45e-03	0	41	0	28311552	19	4741
2026-01-09 10:41:34.12	108.05	7.67	-29.4	-32.1	10.4	3.26e-03	0	40	0	33554432	19	4936
2026-01-09 10:41:35.12	107.97	7.74	-29.8	-33.3	9.6	9.83e-03	0	41	0	38797312	19	5405
2026-01-09 10:41:36.13	107.88	7.81	-29.3	-31.8	10.6	4.52e-03	0	41	0	45088768	19	4836
2026-01-09 10:41:37.14	107.80	7.88	-28.8	-31.1	11.5	6.08e-04	0	41	0	50331648	18	4679
2026-01-09 10:41:38.14	107.71	7.95	-28.4	-30.1	12.1	2.80e-04	0	41	0	56623104	18	4361
2026-01-09 10:41:39.14	107.63	8.01	-27.9	-29.3	12.9	6.29e-05	0	41	0	61865984	17	4248
2026-01-09 10:41:40.15	107.54	8.09	-27.5	-28.9	13.5	6.80e-06	0	41	0	67108864	16	4220
2026-01-09 10:41:41.15	107.46	8.15	-27.3	-28.6	13.7	1.10e-06	0	41	0	73400320	16	4143
2026-01-09 10:41:42.16	107.37	8.23	-27.0	-28.3	13.9	4.50e-06	0	41	0	78643200	15	4191
2026-01-09 10:41:43.16	107.28	8.30	-26.7	-28.2	14.3	1.10e-06	0	41	0	84934656	14	4256
2026-01-09 10:41:44.17	107.20	8.37	-26.8	-28.2	14.3	0.00e+00	0	41	0	90177536	14	4268
2026-01-09 10:41:45.18	107.11	8.44	-26.9	-28.6	14.1	2.20e-06	0	41	0	96468992	14	4364
2026-01-09 10:41:46.18	107.02	8.51	-26.7	-28.1	14.4	1.10e-06	0	41	0	101711872	14	4241
2026-01-09 10:41:47.19	106.93	8.58	-26.8	-28.3	14.3	0.00e+00	0	41	0	106954752	14	4282
2026-01-09 10:41:48.20	106.84	8.65	-27.1	-29.0	13.9	0.00e+00	0	41	0	113246208	14	4481
2026-01-09 10:41:49.20	106.75	8.72	-26.8	-28.3	14.3	1.10e-06	0	41	0	118489088	14	4284
2026-01-09 10:41:50.21	106.66	8.79	-26.9	-28.4	14.2	0.00e+00	0	41	0	123731968	14	4326
2026-01-09 10:41:51.21	106.57	8.86	-26.8	-28.3	14.3	1.10e-06	0	41	0	130023424	14	4294
2026-01-09 10:41:52.21	106.48	8.93	-27.0	-28.8	14.1	2.20e-06	0	41	0	135266304	14	4423
2026-01-09 10:41:53.21	106.39	9.01	-27.2	-29.3	13.8	1.10e-06	0	41	0	140509184	14	4561
2026-01-09 10:41:54.21	106.30	9.08	-27.0	-28.8	14.0	3.40e-06	0	41	0	146800640	14	4432
2026-01-09 10:41:55.22	106.21	9.15	-26.8	-28.3	14.3	0.00e+00	0	41	0	152043520	14	4286
2026-01-09 10:41:56.23	106.11	9.22	-26.9	-28.6	14.2	0.00e+00	0	41	0	158334976	14	4359
2026-01-09 10:41:57.23	106.02	9.29	-26.8	-28.3	14.4	1.10e-06	0	41	0	163577856	14	4286
2026-01-09 10:41:58.24	105.92	9.37	-27.0	-28.8	14.1	2.20e-06	0	41	0	169869312	14	4406
2026-01-09 10:41:59.24	105.83	9.44	-26.7	-28.1	14.5	1.10e-06	0	41	0	175112192	14	4237
2026-01-09 10:42:00.25	105.74	9.51	-26.6	-27.9	14.6	0.00e+00	0	41	0	180355072	14	4177
2026-01-09 10:42:01.26	105.64	9.58	-26.6	-27.8	14.7	0.00e+00	0	41	0	186646528	14	4148
2026-01-09 10:42:02.27	105.54	9.66	-26.6	-27.8	14.7	0.00e+00	0	41	0	191889408	14	4145
2026-01-09 10:42:03.27	105.45	9.73	-26.6	-27.9	14.6	1.10e-06	0	41	0	198180864	14	4172
2026-01-09 10:42:04.28	105.35	9.80	-26.6	-27.9	14.6	0.00e+00	0	41	0	203423744	14	4176
2026-01-09 10:42:05.29	105.25	9.88	-26.6	-27.7	14.7	0.00e+00	0	41	0	208666624	14	4122
2026-01-09 10:42:06.30	105.15	9.95	-26.5	-27.7	14.8	1.10e-06	0	41	0	214958080	14	4106
2026-01-09 10:42:07.30	105.06	10.02	-26.6	-27.9	14.6	0.00e+00	0	41	0	220200960	14	4167
2026-01-09 10:42:08.31	104.96	10.10	-26.6	-27.8	14.7	0.00e+00	0	41	0	225443840	14	4132
2026-01-09 10:42:09.31	104.86	10.17	-26.6	-28.0	14.6	0.00e+00	0	42	0	231735296	14	4183
2026-01-09 10:42:10.31	104.76	10.24	-26.5	-27.7	14.8	0.00e+00	0	42	0	236978176	14	4108
2026-01-09 10:42:11.32	104.66	10.32	-26.6	-27.9	14.7	0.00e+00	0	41	0	243269632	14	4176
2026-01-09 10:42:12.33	104.56	10.39	-26.4	-27.5	14.9	2.20e-06	0	41	0	248512512	14	4058
2026-01-09 10:42:13.34	104.46	10.47	-26.4	-27.5	14.9	0.00e+00	0	41	0	254803968	14	4060
2026-01-09 10:42:14.34	104.35	10.54	-26.4	-27.5	14.9	0.00e+00	0	42	0	260046848	14	4060
2026-01-09 10:42:15.35	104.25	10.62	-26.4	-27.5	14.9	0.00e+00	0	42	0	265289728	14	4054
2026-01-09 10:42:16.36	104.15	10.69	-26.5	-27.6	14.8	0.00e+00	0	42	0	271581184	14	4087
2026-01-09 10:42:17.36	104.04	10.77	-26.4	-27.3	15.0	0.00e+00	0	42	0	276824064	14	4019
2026-01-09 10:42:18.37	103.94	10.84	-26.3	-27.3	15.0	1.10e-06	0	42	0	282066944	14	4000
2026-01-09 10:42:19.37	103.84	10.92	-26.3	-27.2	15.1	0.00e+00	0	42	0	288358400	14	3992
2026-01-09 10:42:20.38	103.73	10.99	-26.4	-27.3	15.0	0.00e+00	0	42	0	293601280	14	4023
2026-01-09 10:42:21.38	103.63	11.07	-26.3	-27.2	15.1	0.00e+00	0	42	0	299892736	14	3986
2026-01-09 10:42:22.39	103.52	11.14	-26.4	-27.4	14.9	0.00e+00	0	42	0	305135616	14	4047
2026-01-09 10:42:23.40	103.41	11.22	-26.6	-27.8	14.8	0.00e+00	0	42	0	310378496	14	4139
2026-01-09 10:42:24.40	103.30	11.29	-26.6	-27.8	14.7	1.10e-06	0	42	0	316669952	14	4150
2026-01-09 10:42:25.41	103.20	11.37	-26.5	-27.6	14.8	0.00e+00	0	42	0	321912832	14	4099
2026-01-09 10:42:26.41	103.09	11.45	-26.6	-28.0	14.7	0.00e+00	0	42	0	328204288	14	4190
2026-01-09 10:42:27.41	102.98	11.52	-26.7	-28.0	14.6	1.10e-06	0	42	0	333447168	14	4205
2026-01-09 10:42:28.42	102.87	11.60	-26.5	-27.5	14.9	0.00e+00	0	42	0	338690048	14	4070
2026-01-09 10:42:29.42	102.76	11.68	-26.4	-27.3	15.0	0.00e+00	0	42	0	344981504	14	4022
2026-01-09 10:42:30.43	102.65	11.75	-26.3	-27.2	15.1	0.00e+00	0	42	0	350224384	14	3987
2026-01-09 10:42:31.44	102.54	11.83	-26.4	-27.3	15.1	0.00e+00	0	42	0	356515840	14	3997
2026-01-09 10:42:32.45	102.42	11.91	-26.5	-27.5	15.0	0.00e+00	0	42	0	361758720	14	4069
2026-01-09 10:42:33.45	102.31	11.98	-26.4	-27.5	15.0	0.00e+00	0	42	0	367001600	14	4055
2026-01-09 10:42:34.46	102.20	12.06	-26.1	-27.2	15.3	0.00e+00	0	42	0	373293056	13	4106
2026-01-09 10:42:35.46	102.08	12.14	-26.1	-27.2	15.4	0.00e+00	0	42	0	378535936	13	4095
2026-01-09 10:42:36.46	101.97	12.22	-26.2	-27.5	15.2	0.00e+00	0	42	0	383778816	13	4180
2026-01-09 10:42:37.46	101.86	12.29	-26.2	-27.4	15.3	0.00e+00	0	42	0	390070272	13	4130
2026-01-09 10:42:38.46	101.74	12.37	-26.4	-27.9	15.0	0.00e+00	0	42	0	395313152	13	4270
2026-01-09 10:42:39.47	101.62	12.45	-26.4	-27.8	15.1	0.00e+00	0	42	0	401604608	13	4258
2026-01-09 10:42:40.48	101.51	12.53	-26.4	-27.9	15.0	0.00e+00	0	42	0	406847488	13	4272
2026-01-09 10:42:41.48	101.39	12.60	-26.5	-28.1	14.9	0.00e+00	0	42	0	413138944	13	4325
2026-01-09 10:42:42.49	101.27	12.68	-26.4	-27.9	15.0	0.00e+00	0	42	0	418381824	13	4285
2026-01-09 10:42:43.50	101.15	12.76	-26.3	-27.6	15.2	0.00e+00	0	42	0	423624704	13	4193
2026-01-09 10:42:44.50	101.03	12.84	-26.3	-27.6	15.2	0.00e+00	0	42	0	429916160	13	4192
2026-01-09 10:42:45.51	100.91	12.92	-26.2	-27.5	15.2	0.00e+00	0	42	0	435159040	13	4170
2026-01-09 10:42:46.51	100.79	13.00	-26.3	-27.7	15.2	0.00e+00	0	42	0	440401920	13	4223
2026-01-09 10:42:47.52	100.67	13.08	-26.2	-27.4	15.3	0.00e+00	0	42	0	446693376	13	4146
2026-01-09 10:42:48.52	100.55	13.15	-26.0	-26.9	15.6	0.00e+00	0	42	0	451936256	13	4010
2026-01-09 10:42:49.53	100.42	13.23	-25.7	-26.8	15.9	0.00e+00	0	42	0	458227712	12	4096
2026-01-09 10:42:50.53	100.30	13.31	-25.8	-27.0	15.8	0.00e+00	0	42	0	463470592	12	4132
2026-01-09 10:42:51.53	100.18	13.39	-25.7	-26.9	15.9	0.00e+00	0	42	0	468713472	12	4125
2026-01-09 10:42:52.54	100.05	13.47	-25.6	-26.6	16.0	0.00e+00	0	42	0	475004928	12	4047
2026-01-09 10:42:53.55	99.93	13.55	-25.6	-26.5	16.1	0.00e+00	0	42	0	480247808	12	4022
2026-01-09 10:42:54.55	99.80	13.63	-25.6	-26.5	16.1	0.00e+00	0	42	0	486539264	12	4025
2026-01-09 10:42:55.56	99.67	13.71	-25.6	-26.6	16.1	0.00e+00	0	42	0	491782144	12	4037
2026-01-09 10:42:56.56	99.54	13.79	-25.5	-26.4	16.2	0.00e+00	0	42	0	497025024	12	3995
2026-01-09 10:42:57.57	99.42	13.87	-25.6	-26.5	16.1	0.00e+00	0	42	0	503316480	12	4015
2026-01-09 10:42:58.58	99.29	13.95	-25.6	-26.6	16.1	0.00e+00	0	42	0	508559360	12	4028
2026-01-09 10:42:59.58	99.16	14.03	-25.6	-26.7	16.1	0.00e+00	0	42	0	514850816	12	4049
2026-01-09 10:43:00.59	99.03	14.11	-25.5	-26.4	16.2	0.00e+00	0	42	0	520093696	12	3993
2026-01-09 10:43:01.60	98.89	14.19	-25.6	-26.5	16.1	0.00e+00	0	42	0	525336576	12	4015
2026-01-09 10:43:02.61	98.76	14.27	-25.6	-26.6	16.1	0.00e+00	0	42	0	531628032	12	4040
2026-01-09 10:43:03.61	98.63	14.36	-25.6	-26.5	16.2	0.00e+00	0	42	0	536870912	12	4012
2026-01-09 10:43:04.61	98.50	14.44	-25.6	-26.5	16.2	0.00e+00	0	42	0	542113792	12	4020
2026-01-09 10:43:05.62	98.36	14.52	-25.5	-26.4	16.2	0.00e+00	0	42	0	548405248	12	3998
2026-01-09 10:43:06.62	98.23	14.60	-25.5	-26.4	16.2	0.00e+00	0	42	0	553648128	12	3996
2026-01-09 10:43:07.63	98.09	14.68	-25.4	-26.2	16.4	0.00e+00	0	42	0	559939584	12	3925
2026-01-09 10:43:08.64	97.95	14.76	-25.4	-26.2	16.4	0.00e+00	0	42	0	565182464	12	3937
2026-01-09 10:43:09.64	97.82	14.84	-25.4	-26.1	16.5	0.00e+00	0	42	0	571473920	12	3904
2026-01-09 10:43:10.65	97.68	14.92	-25.3	-25.9	16.6	0.00e+00	0	42	0	576716800	12	3865
2026-01-09 10:43:11.66	97.54	15.01	-25.3	-26.0	16.5	0.00e+00	0	42	0	581959680	12	3893
2026-01-09 10:43:12.67	97.40	15.09	-25.3	-26.4	16.6	0.00e+00	0	42	0	588251136	11	4099
2026-01-09 10:43:13.67	97.26	15.17	-25.4	-26.6	16.5	0.00e+00	0	42	0	593494016	11	4150
2026-01-09 10:43:14.68	97.12	15.25	-25.3	-26.4	16.7	0.00e+00	0	42	0	599785472	11	4096
2026-01-09 10:43:15.69	96.98	15.33	-25.3	-26.5	16.6	0.00e+00	0	42	0	605028352	11	4113
2026-01-09 10:43:16.70	96.83	15.42	-25.4	-26.7	16.5	0.00e+00	0	42	0	610271232	11	4165
2026-01-09 10:43:17.70	96.69	15.50	-25.4	-26.7	16.5	0.00e+00	0	42	0	616562688	11	4161
2026-01-09 10:43:18.71	96.54	15.58	-25.4	-26.6	16.5	0.00e+00	0	42	0	621805568	11	4150
2026-01-09 10:43:19.72	96.40	15.66	-25.4	-26.6	16.6	0.00e+00	0	42	0	627048448	11	4132
2026-01-09 10:43:20.73	96.25	15.75	-25.4	-26.7	16.5	0.00e+00	0	42	0	633339904	11	4167
2026-01-09 10:43:21.73	96.11	15.83	-25.4	-26.6	16.6	9.10e-06	0	42	0	638582784	11	4138
2026-01-09 10:43:22.74	95.96	15.91	-25.3	-26.5	16.7	0.00e+00	0	42	0	644874240	11	4106
2026-01-09 10:43:23.74	95.81	16.00	-25.5	-26.8	16.5	0.00e+00	0	42	0	650117120	11	4187
2026-01-09 10:43:24.75	95.66	16.08	-25.4	-26.7	16.5	0.00e+00	0	42	0	656408576	11	4171
2026-01-09 10:43:25.76	95.51	16.16	-25.3	-26.4	16.7	0.00e+00	0	42	0	661651456	11	4096
2026-01-09 10:43:26.77	95.36	16.25	-25.4	-26.5	16.6	0.00e+00	0	42	0	666894336	11	4124
2026-01-09 10:43:27.78	95.21	16.33	-25.2	-26.1	16.8	0.00e+00	0	42	0	673185792	11	4011
2026-01-09 10:43:28.79	95.05	16.41	-25.1	-26.0	17.0	0.00e+00	0	42	0	678428672	11	3985
2026-01-09 10:43:29.80	94.90	16.50	-25.2	-26.1	16.9	0.00e+00	0	42	0	684720128	11	4007
2026-01-09 10:43:30.80	94.74	16.58	-25.0	-25.7	17.1	0.00e+00	0	42	0	689963008	11	3914
2026-01-09 10:43:31.81	94.59	16.66	-24.9	-25.6	17.2	0.00e+00	0	42	0	695205888	11	3885
2026-01-09 10:43:32.82	94.43	16.75	-25.0	-25.7	17.1	0.00e+00	0	42	0	701497344	11	3898
2026-01-09 10:43:33.83	94.27	16.83	-24.9	-25.6	17.2	0.00e+00	0	42	0	706740224	11	3892
2026-01-09 10:43:34.84	94.12	16.92	-25.0	-25.8	17.1	0.00e+00	0	42	0	713031680	11	3936
2026-01-09 10:43:35.84	93.96	17.00	-25.0	-25.7	17.1	0.00e+00	0	42	0	718274560	11	3910
2026-01-09 10:43:36.84	93.80	17.08	-25.0	-25.8	17.1	0.00e+00	0	42	0	723517440	11	3942
2026-01-09 10:43:37.84	93.64	17.17	-25.2	-26.1	16.9	0.00e+00	0	42	0	729808896	11	4020
2026-01-09 10:43:38.85	93.48	17.25	-25.1	-25.9	17.0	0.00e+00	0	42	0	735051776	11	3973
2026-01-09 10:43:39.86	93.31	17.33	-24.9	-25.5	17.2	0.00e+00	0	42	0	741343232	11	3865
2026-01-09 10:43:40.86	93.15	17.42	-25.0	-25.7	17.2	0.00e+00	0	42	0	746586112	11	3921
2026-01-09 10:43:41.87	92.99	17.50	-24.9	-25.6	17.2	0.00e+00	0	42	0	751828992	11	3886
2026-01-09 10:43:42.88	92.82	17.59	-24.8	-25.4	17.3	0.00e+00	0	42	0	758120448	11	3845
2026-01-09 10:43:43.88	92.66	17.67	-24.8	-25.4	17.3	0.00e+00	0	42	0	763363328	11	3831
2026-01-09 10:43:44.90	92.49	17.76	-24.7	-25.5	17.5	0.00e+00	0	42	0	769654784	10	3981
2026-01-09 10:43:45.90	92.32	17.84	-24.8	-25.7	17.4	0.00e+00	0	42	0	774897664	10	4023
2026-01-09 10:43:46.91	92.15	17.92	-24.7	-25.7	17.5	0.00e+00	0	42	0	780140544	10	4012
2026-01-09 10:43:47.92	91.98	18.01	-24.7	-25.6	17.5	0.00e+00	0	42	0	786432000	10	3988
2026-01-09 10:43:48.92	91.81	18.09	-24.9	-26.0	17.3	0.00e+00	0	42	0	791674880	10	4081
2026-01-09 10:43:49.93	91.64	18.18	-25.0	-26.3	17.1	0.00e+00	0	42	0	797966336	10	4168
2026-01-09 10:43:50.93	91.46	18.26	-25.0	-26.2	17.2	0.00e+00	0	42	0	803209216	10	4157
2026-01-09 10:43:51.94	91.29	18.35	-25.1	-26.4	17.1	0.00e+00	0	42	0	808452096	10	4196
2026-01-09 10:43:52.95	91.11	18.43	-25.0	-26.3	17.1	0.00e+00	0	42	0	814743552	10	4175
2026-01-09 10:43:53.95	90.94	18.51	-25.0	-26.3	17.2	0.00e+00	0	42	0	819986432	10	4157
2026-01-09 10:43:54.96	90.76	18.60	-25.1	-26.4	17.1	0.00e+00	0	42	0	826277888	10	4196
2026-01-09 10:43:55.97	90.58	18.68	-24.9	-26.1	17.3	0.00e+00	0	42	0	831520768	10	4112
2026-01-09 10:43:56.98	90.40	18.77	-25.2	-26.6	17.0	0.00e+00	0	42	0	837812224	10	4249
2026-01-09 10:43:57.98	90.23	18.85	-25.0	-26.2	17.2	0.00e+00	0	42	0	843055104	10	4133
2026-01-09 10:43:58.99	90.04	18.94	-24.8	-25.8	17.4	0.00e+00	0	42	0	848297984	10	4030
2026-01-09 10:43:59.99	89.86	19.02	-24.7	-25.5	17.6	0.00e+00	0	42	0	854589440	10	3970
2026-01-09 10:44:01.00	89.68	19.11	-24.8	-25.7	17.5	0.00e+00	0	42	0	859832320	10	4014
2026-01-09 10:44:02.01	89.49	19.19	-24.6	-25.4	17.6	0.00e+00	0	42	0	865075200	10	3936
2026-01-09 10:44:03.01	89.31	19.27	-24.6	-25.4	17.6	0.00e+00	0	42	0	871366656	10	3955
2026-01-09 10:44:04.01	89.13	19.36	-24.7	-25.7	17.5	0.00e+00	0	42	0	876609536	10	4015
2026-01-09 10:44:05.01	88.94	19.44	-24.5	-25.2	17.7	0.00e+00	0	42	0	881852416	10	3898
2026-01-09 10:44:06.02	88.75	19.53	-24.4	-25.1	17.8	0.00e+00	0	42	0	888143872	10	3862
2026-01-09 10:44:07.02	88.56	19.61	-24.5	-25.1	17.8	0.00e+00	0	42	0	893386752	10	3875
2026-01-09 10:44:08.03	88.37	19.69	-24.4	-25.1	17.8	0.00e+00	0	42	0	899678208	10	3861
2026-01-09 10:44:09.04	88.18	19.78	-24.5	-25.1	17.8	0.00e+00	0	42	0	904921088	10	3878
2026-01-09 10:44:10.04	87.99	19.86	-24.6	-25.4	17.7	0.00e+00	0	42	0	911212544	10	3936
2026-01-09 10:44:11.05	87.80	19.95	-24.5	-25.2	17.7	0.00e+00	0	42	0	916455424	10	3900
2026-01-09 10:44:12.06	87.60	20.03	-24.7	-25.5	17.6	0.00e+00	0	42	0	921698304	10	3969
2026-01-09 10:44:13.07	87.40	20.12	-24.4	-25.1	17.8	0.00e+00	0	42	0	927989760	10	3865
2026-01-09 10:44:14.07	87.21	20.20	-24.3	-24.8	18.0	0.00e+00	0	42	0	933232640	10	3803
2026-01-09 10:44:15.08	87.01	20.28	-24.5	-25.1	17.9	0.00e+00	0	42	0	939524096	10	3868
2026-01-09 10:44:16.08	86.81	20.37	-24.2	-25.0	18.1	0.00e+00	0	43	0	944766976	9	3967
2026-01-09 10:44:17.09	86.61	20.45	-24.2	-25.0	18.1	0.00e+00	0	42	0	950009856	9	3960
2026-01-09 10:44:18.10	86.41	20.53	-24.2	-24.9	18.2	0.00e+00	0	42	0	956301312	9	3934
2026-01-09 10:44:19.11	86.21	20.62	-24.2	-25.1	18.1	0.00e+00	0	42	0	961544192	9	3976
2026-01-09 10:44:20.11	86.01	20.70	-24.1	-24.9	18.2	0.00e+00	0	42	0	966787072	9	3922
2026-01-09 10:44:21.12	85.80	20.78	-24.2	-25.0	18.1	0.00e+00	0	42	0	973078528	9	3957
2026-01-09 10:44:22.13	85.59	20.87	-24.1	-24.7	18.3	0.00e+00	0	42	0	978321408	9	3883
2026-01-09 10:44:23.13	85.39	20.95	-24.1	-24.9	18.2	0.00e+00	0	42	0	984612864	9	3919
2026-01-09 10:44:24.14	85.18	21.03	-24.2	-24.9	18.2	0.00e+00	0	43	0	989855744	9	3936
2026-01-09 10:44:25.15	84.97	21.12	-24.2	-25.1	18.1	0.00e+00	0	42	0	996147200	9	3982
2026-01-09 10:44:26.16	84.76	21.20	-24.3	-25.1	18.1	0.00e+00	0	42	0	1001390080	9	3985
2026-01-09 10:44:27.16	84.55	21.28	-24.1	-24.8	18.3	0.00e+00	0	42	0	1006632960	9	3895
2026-01-09 10:44:28.17	84.34	21.36	-24.1	-24.7	18.3	0.00e+00	0	43	0	1012924416	9	3885
2026-01-09 10:44:29.18	84.12	21.44	-24.1	-24.8	18.2	0.00e+00	0	43	0	1018167296	9	3917
2026-01-09 10:44:30.18	83.91	21.53	-24.2	-25.1	18.1	0.00e+00	0	42	0	1024458752	9	3982
2026-01-09 10:44:31.19	83.69	21.61	-24.1	-24.9	18.2	0.00e+00	0	43	0	1029701632	9	3930
2026-01-09 10:44:32.20	83.48	21.69	-24.2	-24.9	18.1	1.10e-06	0	42	0	1034944512	9	3938
2026-01-09 10:44:33.21	83.26	21.77	-24.3	-25.2	18.0	0.00e+00	0	42	0	1041235968	9	4014
2026-01-09 10:44:34.21	83.04	21.85	-24.1	-24.7	18.3	0.00e+00	0	42	0	1046478848	9	3891
2026-01-09 10:44:35.22	82.82	21.93	-24.0	-24.6	18.4	0.00e+00	0	42	0	1051721728	9	3853
2026-01-09 10:44:36.22	82.60	22.01	-24.0	-24.6	18.4	0.00e+00	0	42	0	1058013184	9	3846
2026-01-09 10:44:37.23	82.38	22.10	-24.0	-24.7	18.3	0.00e+00	0	43	0	1063256064	9	3878
2026-01-09 10:44:38.24	82.15	22.18	-23.9	-24.4	18.5	0.00e+00	0	42	0	1069547520	9	3817
2026-01-09 10:44:39.24	81.93	22.26	-23.9	-24.3	18.5	0.00e+00	0	42	0	1074790400	9	3795
2026-01-09 10:44:40.25	81.70	22.34	-24.0	-24.5	18.4	0.00e+00	0	43	0	1081081856	9	3837
2026-01-09 10:44:41.25	81.48	22.42	-24.1	-24.9	18.2	0.00e+00	0	42	0	1086324736	9	3920
2026-01-09 10:44:42.26	81.25	22.49	-23.9	-24.4	18.5	0.00e+00	0	42	0	1091567616	9	3812
2026-01-09 10:44:43.27	81.02	22.57	-24.0	-24.5	18.4	0.00e+00	0	43	0	1097859072	9	3841
2026-01-09 10:44:44.27	80.79	22.65	-24.0	-24.5	18.4	0.00e+00	0	43	0	1103101952	9	3840
2026-01-09 10:44:45.28	80.55	22.73	-23.8	-24.3	18.5	0.00e+00	0	42	0	1109393408	9	3783
2026-01-09 10:44:46.28	80.32	22.81	-23.8	-24.7	18.6	0.00e+00	0	42	0	1114636288	8	3984
2026-01-09 10:44:47.29	80.09	22.89	-23.8	-24.7	18.6	0.00e+00	0	43	0	1119879168	8	3987
2026-01-09 10:44:48.30	79.85	22.97	-23.9	-24.9	18.5	0.00e+00	0	42	0	1126170624	8	4034
2026-01-09 10:44:49.31	79.61	23.04	-24.0	-25.1	18.4	0.00e+00	0	43	0	1131413504	8	4083
2026-01-09 10:44:50.31	79.38	23.12	-24.0	-25.0	18.4	0.00e+00	0	43	0	1136656384	8	4066
2026-01-09 10:44:51.32	79.14	23.20	-23.9	-24.8	18.5	0.00e+00	0	42	0	1142947840	8	4019
2026-01-09 10:44:52.33	78.90	23.28	-23.8	-24.7	18.6	0.00e+00	0	42	0	1148190720	8	3993
2026-01-09 10:44:53.33	78.66	23.35	-23.8	-24.8	18.6	0.00e+00	0	42	0	1154482176	8	4005
2026-01-09 10:44:54.34	78.41	23.43	-24.0	-25.0	18.4	0.00e+00	0	42	0	1159725056	8	4074
2026-01-09 10:44:55.34	78.17	23.50	-23.9	-24.8	18.5	0.00e+00	0	43	0	1166016512	8	4023
2026-01-09 10:44:56.34	77.93	23.58	-23.9	-24.8	18.5	0.00e+00	0	42	0	1171259392	8	4018
2026-01-09 10:44:57.35	77.68	23.65	-23.8	-24.8	18.5	0.00e+00	0	43	0	1176502272	8	4006
2026-01-09 10:44:58.35	77.43	23.73	-23.7	-24.4	18.7	0.00e+00	0	42	0	1182793728	8	3928
2026-01-09 10:44:59.36	77.18	23.80	-23.7	-24.4	18.8	0.00e+00	0	43	0	1188036608	8	3919
2026-01-09 10:45:00.37	76.93	23.88	-23.7	-24.5	18.7	0.00e+00	0	42	0	1193279488	8	3928
2026-01-09 10:45:01.38	76.68	23.95	-23.7	-24.5	18.7	0.00e+00	0	42	0	1199570944	8	3929
2026-01-09 10:45:02.38	76.43	24.02	-23.8	-24.7	18.6	1.10e-06	0	43	0	1204813824	8	3989
2026-01-09 10:45:03.39	76.18	24.10	-23.9	-24.9	18.5	0.00e+00	0	42	0	1211105280	8	4038
2026-01-09 10:45:04.40	75.92	24.17	-23.8	-24.7	18.6	0.00e+00	0	43	0	1216348160	8	3995
2026-01-09 10:45:05.40	75.67	24.24	-23.8	-24.6	18.6	0.00e+00	0	42	0	1221591040	8	3969
2026-01-09 10:45:06.40	75.41	24.31	-23.8	-24.6	18.7	0.00e+00	0	42	0	1227882496	8	3953
2026-01-09 10:45:07.41	75.15	24.38	-23.6	-24.3	18.8	0.00e+00	0	42	0	1233125376	8	3900
2026-01-09 10:45:08.42	74.89	24.45	-23.6	-24.2	18.9	0.00e+00	0	42	0	1239416832	8	3872
2026-01-09 10:45:09.42	74.63	24.52	-23.5	-24.1	18.9	0.00e+00	0	42	0	1244659712	8	3836
2026-01-09 10:45:10.42	74.37	24.59	-23.3	-23.7	19.1	0.00e+00	0	43	0	1250951168	8	3752
2026-01-09 10:45:11.43	74.11	24.66	-23.3	-23.7	19.1	0.00e+00	0	43	0	1256194048	8	3759
2026-01-09 10:45:12.44	73.85	24.73	-23.4	-23.8	19.1	0.00e+00	0	42	0	1261436928	8	3764
2026-01-09 10:45:13.45	73.58	24.80	-23.2	-24.0	19.2	0.00e+00	0	42	0	1267728384	7	3923
2026-01-09 10:45:14.45	73.32	24.87	-23.3	-24.1	19.1	0.00e+00	0	42	0	1272971264	7	3945
2026-01-09 10:45:15.45	73.05	24.93	-23.3	-24.2	19.1	0.00e+00	0	43	0	1278214144	7	3979
2026-01-09 10:45:16.45	72.78	25.00	-23.3	-24.2	19.1	0.00e+00	0	42	0	1284505600	7	3983
2026-01-09 10:45:17.46	72.51	25.07	-23.4	-24.3	19.0	0.00e+00	0	43	0	1289748480	7	4012
2026-01-09 10:45:18.46	72.24	25.13	-23.5	-24.5	19.0	0.00e+00	0	43	0	1294991360	7	4041
2026-01-09 10:45:19.46	71.97	25.20	-23.5	-24.6	18.9	0.00e+00	0	43	0	1301282816	7	4071
2026-01-09 10:45:20.47	71.70	25.26	-23.6	-24.8	18.8	0.00e+00	0	43	0	1306525696	7	4127
2026-01-09 10:45:21.47	71.43	25.33	-23.6	-24.8	18.8	0.00e+00	0	42	0	1312817152	7	4114
2026-01-09 10:45:22.48	71.15	25.39	-23.6	-24.8	18.8	0.00e+00	0	42	0	1318060032	7	4114
2026-01-09 10:45:23.49	70.88	25.45	-23.4	-24.4	19.0	0.00e+00	0	42	0	1324351488	7	4027
2026-01-09 10:45:24.49	70.60	25.52	-23.4	-24.4	19.0	0.00e+00	0	43	0	1329594368	7	4018
2026-01-09 10:45:25.50	70.32	25.58	-23.4	-24.3	19.1	0.00e+00	0	42	0	1334837248	7	4006
2026-01-09 10:45:26.50	70.04	25.64	-23.3	-24.1	19.1	0.00e+00	0	43	0	1341128704	7	3964
2026-01-09 10:45:27.50	69.76	25.70	-23.5	-24.5	19.0	0.00e+00	0	42	0	1346371584	7	4043
2026-01-09 10:45:28.51	69.48	25.76	-23.5	-24.5	19.0	0.00e+00	0	42	0	1351614464	7	4049
2026-01-09 10:45:29.51	69.20	25.82	-23.3	-24.2	19.1	0.00e+00	0	43	0	1357905920	7	3968
2026-01-09 10:45:30.52	68.92	25.88	-23.2	-23.8	19.5	0.00e+00	0	42	0	1363148800	7	3865
2026-01-09 10:45:31.53	68.63	25.93	-23.2	-23.7	19.6	0.00e+00	0	43	0	1369440256	7	3852
2026-01-09 10:45:32.54	68.34	25.99	-23.4	-24.2	19.3	0.00e+00	0	43	0	1374683136	7	3951
2026-01-09 10:45:33.54	68.06	26.05	-23.6	-24.7	19.1	0.00e+00	0	42	0	1379926016	7	4074
2026-01-09 10:45:34.54	67.77	26.10	-23.6	-24.6	19.1	0.00e+00	0	43	0	1386217472	7	4061
2026-01-09 10:45:35.54	67.48	26.16	-23.6	-24.7	19.1	0.00e+00	0	43	0	1391460352	7	4090
2026-01-09 10:45:36.55	67.19	26.21	-23.5	-24.5	19.2	0.00e+00	0	43	0	1397751808	7	4035
2026-01-09 10:45:37.56	66.90	26.27	-23.5	-24.4	19.2	0.00e+00	0	43	0	1402994688	7	4018
2026-01-09 10:45:38.57	66.61	26.32	-23.5	-24.4	19.2	0.00e+00	0	43	0	1408237568	7	4017
2026-01-09 10:45:39.57	66.32	26.37	-23.4	-24.3	19.3	0.00e+00	0	43	0	1414529024	7	3972
2026-01-09 10:45:40.58	66.02	26.43	-23.4	-24.2	19.3	0.00e+00	0	43	0	1419771904	7	3955
2026-01-09 10:45:41.59	65.73	26.48	-23.2	-23.9	19.5	0.00e+00	0	43	0	1426063360	7	3882
2026-01-09 10:45:42.60	65.43	26.53	-23.3	-24.0	19.4	0.00e+00	0	43	0	1431306240	7	3909
2026-01-09 10:45:43.61	65.13	26.58	-23.2	-23.9	19.5	0.00e+00	0	43	0	1436549120	7	3892
2026-01-09 10:45:44.61	64.84	26.63	-23.2	-23.9	19.5	0.00e+00	0	43	0	1442840576	7	3893
2026-01-09 10:45:45.62	64.54	26.67	-23.2	-23.9	19.4	0.00e+00	0	42	0	1448083456	7	3896
2026-01-09 10:45:46.62	64.24	26.72	-23.3	-24.0	19.4	0.00e+00	0	43	0	1453326336	7	3908
2026-01-09 10:45:47.63	63.94	26.77	-23.2	-23.8	19.5	0.00e+00	0	43	0	1459617792	7	3875
2026-01-09 10:45:48.64	63.64	26.81	-23.2	-23.8	19.6	0.00e+00	0	43	0	1464860672	7	3853
2026-01-09 10:45:49.64	63.34	26.86	-23.0	-23.5	19.7	0.00e+00	0	43	0	1471152128	7	3790
2026-01-09 10:45:50.65	63.03	26.90	-22.9	-23.3	19.8	0.00e+00	0	43	0	1476395008	7	3745
2026-01-09 10:45:51.66	62.73	26.95	-23.1	-23.6	19.6	0.00e+00	0	42	0	1482686464	7	3813
2026-01-09 10:45:52.66	62.42	26.99	-23.2	-23.8	19.6	0.00e+00	0	43	0	1487929344	7	3858
2026-01-09 10:45:53.66	62.12	27.03	-23.2	-23.8	19.5	0.00e+00	0	43	0	1493172224	7	3868
2026-01-09 10:45:54.67	61.81	27.07	-23.4	-24.3	19.3	0.00e+00	0	43	0	1499463680	7	3988
2026-01-09 10:45:55.67	61.51	27.11	-23.4	-24.3	19.2	0.00e+00	0	43	0	1504706560	7	3993
2026-01-09 10:45:56.68	61.20	27.15	-23.3	-24.1	19.4	0.00e+00	0	43	0	1510998016	7	3935
2026-01-09 10:45:57.69	60.89	27.19	-23.2	-23.9	19.5	0.00e+00	0	43	0	1516240896	7	3888
2026-01-09 10:45:58.69	60.58	27.22	-23.3	-24.1	19.4	0.00e+00	0	43	0	1521483776	7	3939
2026-01-09 10:45:59.70	60.27	27.26	-23.3	-24.0	19.4	0.00e+00	0	43	0	1527775232	7	3917
2026-01-09 10:46:00.70	59.96	27.30	-23.5	-24.4	19.2	0.00e+00	0	43	0	1533018112	7	3997
2026-01-09 10:46:01.71	59.65	27.33	-23.4	-24.2	19.3	0.00e+00	0	43	0	1538260992	7	3954
2026-01-09 10:46:02.72	59.34	27.37	-23.3	-24.0	19.4	0.00e+00	0	43	0	1544552448	7	3903
2026-01-09 10:46:03.72	59.03	27.40	-23.1	-23.7	19.6	0.00e+00	0	43	0	1549795328	7	3832
2026-01-09 10:46:04.72	58.72	27.43	-23.2	-23.8	19.5	0.00e+00	0	43	0	1556086784	7	3857
2026-01-09 10:46:05.73	58.40	27.46	-23.1	-23.7	19.6	0.00e+00	0	43	0	1561329664	7	3844
2026-01-09 10:46:06.74	58.09	27.49	-23.1	-23.6	19.6	0.00e+00	0	42	0	1567621120	7	3831
2026-01-09 10:46:07.75	57.77	27.52	-23.2	-23.8	19.5	0.00e+00	0	43	0	1572864000	7	3854
2026-01-09 10:46:08.75	57.46	27.55	-22.9	-23.2	19.8	0.00e+00	0	43	0	1578106880	7	3735
2026-01-09 10:46:09.76	57.14	27.58	-22.8	-23.1	19.9	0.00e+00	0	42	0	1584398336	7	3702
2026-01-09 10:46:10.76	56.82	27.60	-22.9	-23.2	19.8	0.00e+00	0	43	0	1589641216	7	3734
2026-01-09 10:46:11.77	56.51	27.63	-23.0	-23.4	19.7	0.00e+00	0	43	0	1594884096	7	3778
2026-01-09 10:46:12.78	56.19	27.65	-23.0	-23.4	19.7	0.00e+00	0	43	0	1601175552	7	3771
2026-01-09 10:46:13.77	55.87	27.68	-22.9	-23.1	19.9	0.00e+00	0	43	0	1606418432	7	3714
2026-01-09 10:46:14.78	55.55	27.70	-22.8	-23.0	19.9	0.00e+00	0	43	0	1612709888	7	3690
2026-01-09 10:46:15.79	55.23	27.72	-22.9	-23.1	19.9	0.00e+00	0	43	0	1617952768	7	3709
2026-01-09 10:46:16.79	54.92	27.74	-22.6	-23.1	20.1	0.00e+00	0	43	0	1623195648	6	3808
2026-01-09 10:46:17.80	54.60	27.76	-22.7	-23.2	20.1	0.00e+00	0	43	0	1629487104	6	3830
2026-01-09 10:46:18.81	54.27	27.78	-22.8	-23.5	19.9	0.00e+00	0	43	0	1634729984	6	3894
2026-01-09 10:46:19.82	53.95	27.80	-23.0	-23.9	19.7	0.00e+00	0	43	0	1641021440	6	4005
2026-01-09 10:46:20.82	53.63	27.81	-23.0	-23.9	19.7	0.00e+00	0	43	0	1646264320	6	3993
2026-01-09 10:46:21.83	53.31	27.83	-22.9	-23.8	19.8	0.00e+00	0	43	0	1652555776	6	3960
2026-01-09 10:46:22.83	52.99	27.85	-23.0	-24.0	19.7	0.00e+00	0	43	0	1657798656	6	4008
2026-01-09 10:46:23.83	52.67	27.86	-22.9	-23.7	19.8	0.00e+00	0	43	0	1663041536	6	3938
2026-01-09 10:46:24.84	52.35	27.87	-22.8	-23.5	19.9	0.00e+00	0	43	0	1669332992	6	3910
2026-01-09 10:46:25.84	52.03	27.88	-22.9	-23.7	19.8	0.00e+00	0	43	0	1674575872	6	3958
2026-01-09 10:46:26.85	51.71	27.89	-22.8	-23.6	19.9	0.00e+00	0	43	0	1679818752	6	3913
2026-01-09 10:46:27.86	51.38	27.90	-22.9	-23.8	19.8	0.00e+00	0	43	0	1686110208	6	3968
2026-01-09 10:46:28.87	51.06	27.91	-22.9	-23.8	19.8	0.00e+00	0	43	0	1691353088	6	3966
2026-01-09 10:46:29.87	50.74	27.92	-23.1	-24.2	19.6	0.00e+00	0	43	0	1697644544	6	4058
2026-01-09 10:46:30.88	50.41	27.93	-23.0	-24.0	19.7	0.00e+00	0	43	0	1702887424	6	4018
2026-01-09 10:46:31.89	50.09	27.93	-23.0	-24.0	19.7	0.00e+00	0	43	0	1709178880	6	4022
2026-01-09 10:46:32.89	49.77	27.94	-23.0	-24.0	19.7	0.00e+00	0	43	0	1714421760	6	4022
2026-01-09 10:46:33.89	49.44	27.94	-22.9	-23.8	19.8	0.00e+00	0	43	0	1719664640	6	3960
2026-01-09 10:46:34.90	49.12	27.94	-23.0	-24.0	19.7	0.00e+00	0	43	0	1725956096	6	4014
2026-01-09 10:46:35.91	48.79	27.95	-22.9	-23.7	19.8	0.00e+00	0	43	0	1731198976	6	3944
2026-01-09 10:46:36.92	48.47	27.95	-22.9	-23.7	19.8	0.00e+00	0	43	0	1736441856	6	3952
2026-01-09 10:46:37.92	48.15	27.95	-22.8	-23.5	19.9	0.00e+00	0	43	0	1742733312	6	3904
2026-01-09 10:46:38.93	47.82	27.95	-22.8	-23.5	19.9	0.00e+00	0	43	0	1747976192	6	3905
2026-01-09 10:46:39.94	47.50	27.94	-22.9	-23.8	19.8	0.00e+00	0	43	0	1754267648	6	3974
2026-01-09 10:46:40.94	47.18	27.94	-23.1	-24.1	19.6	0.00e+00	0	43	0	1759510528	6	4035
2026-01-09 10:46:41.94	46.86	27.94	-22.9	-23.8	19.8	0.00e+00	0	43	0	1764753408	6	3969
2026-01-09 10:46:42.95	46.53	27.93	-23.0	-23.9	19.7	0.00e+00	0	43	0	1771044864	6	4002
2026-01-09 10:46:43.95	46.21	27.92	-23.0	-24.0	19.7	0.00e+00	0	43	0	1776287744	6	4007
2026-01-09 10:46:44.96	45.89	27.92	-23.0	-24.0	19.7	0.00e+00	0	43	0	1782579200	6	4020
2026-01-09 10:46:45.97	45.56	27.91	-23.0	-24.0	19.7	0.00e+00	0	43	0	1787822080	6	4021
2026-01-09 10:46:46.97	45.24	27.90	-23.1	-24.1	19.6	0.00e+00	0	43	0	1793064960	6	4053
2026-01-09 10:46:47.98	44.92	27.89	-23.1	-24.1	19.6	0.00e+00	0	43	0	1799356416	6	4038
2026-01-09 10:46:48.98	44.60	27.88	-23.0	-23.9	19.7	0.00e+00	0	43	0	1804599296	6	3998
2026-01-09 10:46:49.99	44.27	27.86	-23.0	-23.9	19.7	0.00e+00	0	43	0	1810890752	6	4003
2026-01-09 10:46:51.00	43.95	27.85	-23.0	-23.9	19.7	0.00e+00	0	43	0	1816133632	6	3994
2026-01-09 10:46:52.01	43.63	27.84	-23.2	-24.3	19.5	0.00e+00	0	43	0	1821376512	6	4096
2026-01-09 10:46:53.01	43.31	27.82	-23.1	-24.1	19.6	0.00e+00	0	43	0	1827667968	6	4040
2026-01-09 10:46:54.02	42.99	27.80	-23.3	-24.5	19.4	0.00e+00	0	43	0	1832910848	6	4143
2026-01-09 10:46:55.03	42.67	27.79	-23.0	-24.0	19.7	0.00e+00	0	43	0	1839202304	6	4011
2026-01-09 10:46:56.04	42.34	27.77	-22.9	-23.8	19.8	0.00e+00	0	43	0	1844445184	6	3969
2026-01-09 10:46:57.04	42.03	27.75	-22.9	-23.7	19.8	0.00e+00	0	43	0	1849688064	6	3961
2026-01-09 10:46:58.05	41.71	27.73	-22.8	-23.4	19.9	0.00e+00	0	43	0	1855979520	6	3881
2026-01-09 10:46:59.06	41.39	27.71	-22.8	-23.6	19.9	0.00e+00	0	43	0	1861222400	6	3919
2026-01-09 10:47:00.07	41.07	27.69	-22.8	-23.5	19.9	0.00e+00	0	43	0	1867513856	6	3901
2026-01-09 10:47:01.07	40.75	27.66	-22.8	-23.5	19.9	0.00e+00	0	43	0	1872756736	6	3894
2026-01-09 10:47:02.08	40.43	27.64	-22.8	-23.5	19.9	0.00e+00	0	43	0	1879048192	6	3895
2026-01-09 10:47:03.09	40.11	27.61	-22.9	-23.8	19.8	0.00e+00	0	43	0	1884291072	6	3968
2026-01-09 10:47:04.09	39.80	27.59	-22.7	-23.4	20.0	0.00e+00	0	43	0	1889533952	6	3874
2026-01-09 10:47:05.10	39.48	27.56	-22.7	-23.2	20.0	0.00e+00	0	43	0	1895825408	6	3835
2026-01-09 10:47:06.11	39.17	27.53	-22.8	-23.4	19.9	0.00e+00	0	43	0	1901068288	6	3889
2026-01-09 10:47:07.12	38.85	27.50	-22.7	-23.2	20.0	0.00e+00	0	43	0	1906311168	6	3835
2026-01-09 10:47:08.12	38.54	27.47	-22.8	-23.4	19.9	0.00e+00	0	43	0	1912602624	6	3885
2026-01-09 10:47:09.12	38.23	27.44	-23.0	-24.0	19.6	0.00e+00	0	43	0	1917845504	6	4016
2026-01-09 10:47:10.13	37.91	27.41	-22.8	-23.5	19.9	0.00e+00	0	43	0	1924136960	6	3912
2026-01-09 10:47:11.13	37.60	27.38	-22.7	-23.3	20.0	0.00e+00	0	43	0	1929379840	6	3848
2026-01-09 10:47:12.14	37.29	27.34	-22.8	-23.5	19.9	0.00e+00	0	43	0	1934622720	6	3901
2026-01-09 10:47:13.14	36.98	27.31	-22.8	-23.6	19.8	0.00e+00	0	43	0	1940914176	6	3927
2026-01-09 10:47:14.14	36.67	27.28	-22.8	-23.5	19.9	0.00e+00	0	43	0	1946157056	6	3896
2026-01-09 10:47:15.15	36.36	27.24	-22.7	-23.4	19.9	0.00e+00	0	43	0	1952448512	6	3881
2026-01-09 10:47:16.15	36.05	27.20	-22.8	-23.6	19.9	0.00e+00	0	43	0	1957691392	6	3927
2026-01-09 10:47:17.16	35.74	27.16	-23.0	-23.9	19.7	0.00e+00	0	43	0	1962934272	6	3990
2026-01-09 10:47:18.16	35.44	27.13	-22.8	-23.5	19.9	0.00e+00	0	43	0	1969225728	6	3898
2026-01-09 10:47:19.17	35.13	27.09	-22.9	-23.7	19.7	0.00e+00	0	43	0	1974468608	6	3961
2026-01-09 10:47:20.18	34.82	27.05	-22.7	-23.4	19.9	0.00e+00	0	43	0	1980760064	6	3883
2026-01-09 10:47:21.19	34.52	27.00	-23.1	-24.1	19.6	0.00e+00	0	43	0	1986002944	6	4038
2026-01-09 10:47:22.20	34.21	26.96	-22.8	-23.5	19.8	0.00e+00	0	43	0	1991245824	6	3904
2026-01-09 10:47:23.20	33.91	26.92	-22.7	-23.4	19.9	0.00e+00	0	43	0	1997537280	6	3868
2026-01-09 10:47:24.21	33.61	26.88	-22.9	-23.7	19.7	0.00e+00	0	43	0	2002780160	6	3962
2026-01-09 10:47:25.22	33.30	26.83	-22.9	-23.8	19.7	0.00e+00	0	43	0	2008023040	6	3974
2026-01-09 10:47:26.23	33.00	26.79	-23.2	-24.4	19.4	0.00e+00	0	43	0	2014314496	6	4127
2026-01-09 10:47:27.24	32.70	26.74	-23.4	-24.7	19.2	0.00e+00	0	43	0	2019557376	6	4196
2026-01-09 10:47:28.24	32.40	26.69	-23.0	-23.8	19.7	0.00e+00	0	43	0	2025848832	6	3982
2026-01-09 10:47:29.25	32.10	26.64	-22.9	-23.7	19.7	0.00e+00	0	43	0	2031091712	6	3950
2026-01-09 10:47:30.26	31.80	26.60	-23.0	-24.0	19.6	0.00e+00	0	43	0	2037383168	6	4007
2026-01-09 10:47:31.27	31.51	26.55	-23.2	-24.3	19.5	0.00e+00	0	43	0	2042626048	6	4103
2026-01-09 10:47:32.27	31.21	26.50	-23.1	-23.7	19.5	0.00e+00	0	43	0	2047868928	7	3846
2026-01-09 10:47:33.28	30.92	26.45	-22.9	-23.3	19.7	0.00e+00	0	43	0	2054160384	7	3747
2026-01-09 10:47:34.29	30.62	26.39	-22.9	-23.3	19.7	0.00e+00	0	43	0	2059403264	7	3746
2026-01-09 10:47:35.29	30.33	26.34	-22.9	-23.1	19.8	0.00e+00	0	43	0	2065694720	7	3706
2026-01-09 10:47:36.30	30.04	26.29	-22.9	-23.2	19.7	0.00e+00	0	43	0	2070937600	7	3736
2026-01-09 10:47:37.31	29.75	26.24	-23.1	-23.5	19.6	0.00e+00	0	43	0	2076180480	7	3804
2026-01-09 10:47:38.32	29.46	26.18	-23.3	-24.1	19.3	0.00e+00	0	43	0	2082471936	7	3924
2026-01-09 10:47:39.32	29.17	26.13	-23.1	-23.7	19.5	0.00e+00	0	43	0	2087714816	7	3844
2026-01-09 10:47:40.33	28.88	26.07	-23.9	-25.2	18.7	0.00e+00	0	43	0	2094006272	7	4216
2026-01-09 10:47:41.33	28.60	26.01	-23.3	-24.0	19.3	0.00e+00	0	43	0	2099249152	7	3914
2026-01-09 10:47:42.34	28.31	25.96	-23.0	-23.5	19.6	0.00e+00	0	43	0	2104492032	7	3789
2026-01-09 10:47:43.34	28.03	25.90	-22.9	-23.2	19.7	0.00e+00	0	43	0	2110783488	7	3739
2026-01-09 10:47:44.35	27.74	25.84	-23.0	-23.4	19.6	0.00e+00	0	43	0	2116026368	7	3780
2026-01-09 10:47:45.36	27.46	25.78	-23.2	-24.3	19.5	0.00e+00	0	43	0	2122317824	6	4085
2026-01-09 10:47:46.37	27.18	25.72	-22.9	-23.7	19.7	0.00e+00	0	43	0	2127560704	6	3951
2026-01-09 10:47:47.37	26.90	25.66	-22.8	-23.6	19.8	0.00e+00	0	43	0	2132803584	6	3929
2026-01-09 10:47:48.38	26.62	25.60	-22.9	-23.6	19.7	0.00e+00	0	43	0	2139095040	6	3932
2026-01-09 10:47:49.39	26.34	25.54	-22.9	-23.7	19.7	0.00e+00	0	43	0	2144337920	6	3956
2026-01-09 10:47:50.40	26.06	25.48	-23.0	-24.0	19.6	0.00e+00	0	43	0	2150629376	6	4017
2026-01-09 10:47:51.40	25.79	25.42	-23.0	-24.0	19.5	0.00e+00	0	43	0	2155872256	6	4024
2026-01-09 10:47:52.39	25.52	25.35	-23.0	-23.9	19.6	0.00e+00	0	43	0	2161115136	6	4001
2026-01-09 10:47:53.39	25.24	25.29	-23.0	-23.9	19.6	0.00e+00	0	43	0	2167406592	6	4009
2026-01-09 10:47:54.40	24.97	25.23	-23.2	-24.4	19.3	0.00e+00	0	43	0	2172649472	6	4131
2026-01-09 10:47:55.41	24.70	25.16	-23.1	-24.2	19.5	0.00e+00	0	43	0	2177892352	6	4060
2026-01-09 10:47:56.41	24.43	25.09	-23.0	-23.9	19.6	0.00e+00	0	43	0	2184183808	6	3994
2026-01-09 10:47:57.41	24.16	25.03	-22.9	-23.8	19.6	0.00e+00	0	43	0	2189426688	6	3970
2026-01-09 10:47:58.42	23.89	24.96	-22.9	-23.7	19.6	0.00e+00	0	43	0	2195718144	6	3959
2026-01-09 10:47:59.42	23.63	24.90	-23.0	-23.9	19.6	0.00e+00	0	43	0	2200961024	6	3999
2026-01-09 10:48:00.43	23.36	24.83	-23.0	-23.8	19.6	0.00e+00	0	43	0	2207252480	6	3980
2026-01-09 10:48:01.44	23.10	24.76	-23.0	-24.0	19.5	0.00e+00	0	43	0	2212495360	6	4012
2026-01-09 10:48:02.45	22.83	24.69	-23.1	-24.0	19.5	0.00e+00	0	43	0	2217738240	6	4026
2026-01-09 10:48:03.45	22.57	24.62	-22.9	-23.7	19.6	0.00e+00	0	43	0	2224029696	6	3950
2026-01-09 10:48:04.46	22.31	24.55	-22.9	-23.7	19.6	0.00e+00	0	43	0	2229272576	6	3960
2026-01-09 10:48:05.46	22.05	24.48	-23.0	-24.0	19.5	0.00e+00	0	43	0	2234515456	6	4028
2026-01-09 10:48:06.47	21.79	24.41	-23.1	-24.2	19.3	0.00e+00	0	43	0	2240806912	6	4083
2026-01-09 10:48:07.48	21.53	24.34	-23.1	-23.7	19.4	0.00e+00	0	43	0	2246049792	7	3837
2026-01-09 10:48:08.48	21.28	24.27	-23.0	-23.4	19.6	0.00e+00	0	43	0	2252341248	7	3770
2026-01-09 10:48:09.48	21.02	24.20	-22.8	-23.0	19.8	0.00e+00	0	43	0	2257584128	7	3693
2026-01-09 10:48:10.49	20.77	24.13	-22.9	-23.3	19.7	0.00e+00	0	43	0	2262827008	7	3742
2026-01-09 10:48:11.49	20.52	24.06	-22.8	-23.0	19.8	0.00e+00	0	43	0	2269118464	7	3691
2026-01-09 10:48:12.50	20.27	23.98	-22.9	-23.7	19.7	0.00e+00	0	43	0	2274361344	6	3952
2026-01-09 10:48:13.50	20.02	23.91	-22.9	-23.7	19.7	0.00e+00	0	43	0	2280652800	6	3941
2026-01-09 10:48:14.50	19.77	23.84	-22.8	-23.5	19.7	0.00e+00	0	43	0	2285895680	6	3915
2026-01-09 10:48:15.51	19.52	23.76	-23.0	-23.9	19.5	0.00e+00	0	43	0	2291138560	6	4004
2026-01-09 10:48:16.51	19.27	23.69	-23.2	-24.4	19.3	0.00e+00	0	43	0	2297430016	6	4122
2026-01-09 10:48:17.52	19.03	23.61	-23.1	-24.2	19.3	0.00e+00	0	43	0	2302672896	6	4083
2026-01-09 10:48:18.53	18.78	23.54	-23.1	-24.1	19.4	0.00e+00	0	43	0	2308964352	6	4052
2026-01-09 10:48:19.54	18.54	23.46	-23.0	-23.9	19.5	0.00e+00	0	43	0	2314207232	6	4006
2026-01-09 10:48:20.54	18.30	23.39	-23.1	-24.1	19.4	0.00e+00	0	43	0	2319450112	6	4043
2026-01-09 10:48:21.55	18.05	23.31	-23.1	-24.2	19.4	0.00e+00	0	43	0	2325741568	6	4075
2026-01-09 10:48:22.55	17.82	23.24	-23.3	-24.5	19.2	0.00e+00	0	43	0	2330984448	6	4145
2026-01-09 10:48:23.56	17.58	23.16	-23.3	-24.7	19.1	0.00e+00	0	43	0	2336227328	6	4190
2026-01-09 10:48:24.57	17.34	23.08	-23.4	-24.8	19.1	0.00e+00	0	43	0	2342518784	6	4214
2026-01-09 10:48:25.57	17.10	23.00	-23.4	-24.2	19.1	0.00e+00	0	43	0	2347761664	7	3969
2026-01-09 10:48:26.58	16.87	22.93	-23.2	-24.0	19.3	0.00e+00	0	43	0	2354053120	7	3904
2026-01-09 10:48:27.59	16.63	22.85	-23.3	-24.0	19.2	0.00e+00	0	43	0	2359296000	7	3918
2026-01-09 10:48:28.60	16.40	22.77	-23.4	-24.2	19.1	0.00e+00	0	43	0	2365587456	7	3963
2026-01-09 10:48:29.60	16.17	22.69	-23.4	-24.3	19.0	0.00e+00	0	43	0	2370830336	7	3987
2026-01-09 10:48:30.61	15.94	22.61	-23.4	-24.2	19.1	0.00e+00	0	43	0	2376073216	7	3969
2026-01-09 10:48:31.62	15.71	22.53	-23.2	-23.8	19.3	0.00e+00	0	43	0	2382364672	7	3871
2026-01-09 10:48:32.63	15.48	22.45	-23.3	-24.0	19.2	0.00e+00	0	43	0	2387607552	7	3907
2026-01-09 10:48:33.64	15.25	22.37	-23.3	-24.2	19.1	0.00e+00	0	43	0	2393899008	7	3949
2026-01-09 10:48:34.64	15.03	22.30	-23.5	-24.4	19.0	0.00e+00	0	43	0	2399141888	7	4012
2026-01-09 10:48:35.65	14.80	22.22	-23.6	-24.8	18.8	0.00e+00	0	43	0	2404384768	7	4103
2026-01-09 10:48:36.65	14.58	22.14	-23.7	-24.8	18.8	0.00e+00	0	43	0	2410676224	7	4122
2026-01-09 10:48:37.66	14.36	22.06	-23.7	-24.8	18.8	0.00e+00	0	43	0	2415919104	7	4114
2026-01-09 10:48:38.67	14.14	21.97	-23.6	-24.8	18.8	0.00e+00	0	43	0	2421161984	7	4102
2026-01-09 10:48:39.67	13.92	21.89	-23.7	-24.9	18.7	0.00e+00	0	43	0	2427453440	7	4127
2026-01-09 10:48:40.68	13.70	21.81	-23.7	-24.9	18.7	0.00e+00	0	43	0	2432696320	7	4130
2026-01-09 10:48:41.68	13.48	21.73	-23.7	-25.0	18.7	0.00e+00	0	43	0	2438987776	7	4151
2026-01-09 10:48:42.69	13.26	21.65	-23.7	-24.9	18.7	0.00e+00	0	43	0	2444230656	7	4131
2026-01-09 10:48:43.70	13.05	21.57	-23.7	-24.9	18.7	0.00e+00	0	43	0	2450522112	7	4120
2026-01-09 10:48:44.70	12.84	21.49	-23.7	-25.0	18.6	0.00e+00	0	43	0	2455764992	7	4154
2026-01-09 10:48:45.71	12.62	21.41	-23.7	-24.9	18.7	0.00e+00	0	43	0	2461007872	7	4147
2026-01-09 10:48:46.71	12.41	21.32	-23.7	-24.9	18.7	0.00e+00	0	43	0	2467299328	7	4121
2026-01-09 10:48:47.72	12.20	21.24	-23.8	-25.1	18.6	0.00e+00	0	43	0	2472542208	7	4179
2026-01-09 10:48:48.73	11.99	21.16	-23.8	-25.1	18.6	0.00e+00	0	43	0	2478833664	7	4178
2026-01-09 10:48:49.74	11.78	21.08	-23.8	-25.1	18.6	0.00e+00	0	43	0	2484076544	7	4176
2026-01-09 10:48:50.75	11.57	20.99	-23.7	-25.0	18.6	0.00e+00	0	43	0	2489319424	7	4152
2026-01-09 10:48:51.75	11.37	20.91	-23.9	-25.3	18.5	0.00e+00	0	43	0	2495610880	7	4225
2026-01-09 10:48:52.76	11.16	20.83	-23.8	-25.1	18.6	0.00e+00	0	43	0	2500853760	7	4178
2026-01-09 10:48:53.77	10.96	20.75	-23.8	-25.1	18.6	0.00e+00	0	43	0	2506096640	7	4189
2026-01-09 10:48:54.77	10.76	20.66	-23.8	-25.2	18.5	0.00e+00	0	43	0	2512388096	7	4217
2026-01-09 10:48:55.78	10.55	20.58	-24.0	-25.4	18.4	0.00e+00	0	43	0	2517630976	7	4269
2026-01-09 10:48:56.78	10.35	20.50	-24.0	-24.9	18.4	0.00e+00	0	43	0	2523922432	8	4034
2026-01-09 10:48:57.79	10.15	20.41	-24.0	-25.0	18.4	0.00e+00	0	43	0	2529165312	8	4036
2026-01-09 10:48:58.80	9.96	20.33	-24.0	-25.1	18.3	0.00e+00	0	43	0	2535456768	8	4071
2026-01-09 10:48:59.81	9.76	20.25	-24.0	-25.1	18.3	0.00e+00	0	43	0	2540699648	8	4075
2026-01-09 10:49:00.82	9.56	20.16	-24.2	-25.5	18.1	0.00e+00	0	43	0	2545942528	8	4173
2026-01-09 10:49:01.83	9.37	20.08	-24.1	-25.2	18.3	0.00e+00	0	43	0	2552233984	8	4103
2026-01-09 10:49:02.84	9.17	19.99	-24.2	-25.4	18.2	0.00e+00	0	43	0	2557476864	8	4142
2026-01-09 10:49:03.84	8.98	19.91	-23.9	-24.8	18.5	0.00e+00	0	43	0	2563768320	8	3994
2026-01-09 10:49:04.85	8.79	19.83	-23.8	-24.5	18.6	0.00e+00	0	42	0	2569011200	8	3927
2026-01-09 10:49:05.85	8.60	19.74	-23.6	-24.3	18.7	0.00e+00	0	43	0	2574254080	8	3866
2026-01-09 10:49:06.86	8.41	19.66	-23.8	-24.6	18.6	0.00e+00	0	43	0	2580545536	8	3959
2026-01-09 10:49:07.87	8.22	19.58	-23.8	-24.6	18.6	0.00e+00	0	43	0	2585788416	8	3955
2026-01-09 10:49:08.87	8.03	19.49	-24.0	-25.1	18.3	0.00e+00	0	43	0	2591031296	8	4070
2026-01-09 10:49:09.88	7.84	19.41	-24.0	-25.0	18.3	0.00e+00	0	42	0	2597322752	8	4054
2026-01-09 10:49:10.88	7.66	19.32	-24.0	-25.0	18.3	0.00e+00	0	43	0	2602565632	8	4058
2026-01-09 10:49:11.89	7.47	19.24	-24.1	-25.2	18.2	0.00e+00	0	43	0	2608857088	8	4105
2026-01-09 10:49:12.89	7.29	19.16	-24.1	-25.3	18.2	0.00e+00	0	43	0	2614099968	8	4125
2026-01-09 10:49:13.89	7.11	19.07	-24.2	-25.5	18.1	0.00e+00	0	43	0	2620391424	8	4164
2026-01-09 10:49:14.90	6.93	18.99	-24.3	-25.8	18.0	0.00e+00	0	43	0	2625634304	8	4246
2026-01-09 10:49:15.90	6.75	18.90	-24.3	-25.6	18.0	0.00e+00	0	43	0	2630877184	8	4192
2026-01-09 10:49:16.90	6.57	18.82	-24.2	-25.5	18.1	0.00e+00	0	43	0	2637168640	8	4166
2026-01-09 10:49:17.91	6.39	18.74	-24.4	-25.9	17.9	0.00e+00	0	43	0	2642411520	8	4281
2026-01-09 10:49:18.91	6.22	18.65	-24.4	-25.8	17.9	0.00e+00	0	43	0	2647654400	8	4250
2026-01-09 10:49:19.91	6.04	18.57	-24.4	-25.9	17.9	0.00e+00	0	43	0	2653945856	8	4277
2026-01-09 10:49:20.91	5.87	18.49	-24.4	-25.9	17.8	0.00e+00	0	43	0	2659188736	8	4286
2026-01-09 10:49:21.91	5.69	18.40	-24.7	-25.9	17.6	0.00e+00	0	43	0	2664431616	9	4176
2026-01-09 10:49:22.92	5.52	18.32	-24.9	-26.4	17.3	0.00e+00	0	43	0	2670723072	9	4308
2026-01-09 10:49:23.93	5.35	18.23	-24.8	-26.2	17.5	0.00e+00	0	43	0	2675965952	9	4233
2026-01-09 10:49:24.93	5.17	18.15	-24.6	-25.9	17.6	0.00e+00	0	43	0	2682257408	9	4155
2026-01-09 10:49:25.94	5.00	18.07	-24.5	-25.6	17.7	0.00e+00	0	43	0	2687500288	9	4081
2026-01-09 10:49:26.95	4.83	17.98	-24.5	-25.6	17.7	0.00e+00	0	43	0	2693791744	9	4082
2026-01-09 10:49:27.96	4.66	17.90	-24.4	-25.4	17.8	0.00e+00	0	43	0	2699034624	9	4041
2026-01-09 10:49:28.96	4.50	17.81	-24.6	-25.9	17.6	0.00e+00	0	43	0	2704277504	9	4159
2026-01-09 10:49:29.97	4.33	17.73	-24.6	-25.8	17.6	0.00e+00	0	43	0	2710568960	9	4129
2026-01-09 10:49:30.97	4.17	17.65	-24.6	-25.9	17.6	0.00e+00	0	43	0	2715811840	9	4154
2026-01-09 10:49:31.98	4.00	17.56	-24.9	-26.4	17.3	0.00e+00	0	43	0	2722103296	9	4307
2026-01-09 10:49:32.99	3.84	17.48	-24.7	-26.0	17.5	0.00e+00	0	43	0	2727346176	9	4189
2026-01-09 10:49:34.00	3.67	17.39	-24.6	-25.8	17.6	0.00e+00	0	43	0	2732589056	9	4138
2026-01-09 10:49:35.01	3.51	17.31	-24.6	-25.9	17.5	0.00e+00	0	43	0	2738880512	9	4174
2026-01-09 10:49:36.02	3.35	17.22	-24.6	-25.9	17.6	0.00e+00	0	43	0	2744123392	9	4170
2026-01-09 10:49:37.02	3.19	17.14	-24.9	-26.5	17.3	0.00e+00	0	43	0	2749366272	9	4314
2026-01-09 10:49:38.02	3.03	17.06	-24.8	-26.3	17.4	0.00e+00	0	43	0	2755657728	9	4273
2026-01-09 10:49:39.03	2.87	16.97	-24.9	-26.6	17.2	0.00e+00	0	43	0	2760900608	9	4349
2026-01-09 10:49:40.04	2.71	16.89	-24.8	-26.3	17.3	0.00e+00	0	43	0	2767192064	9	4273
2026-01-09 10:49:41.05	2.56	16.81	-24.8	-26.2	17.3	0.00e+00	0	43	0	2772434944	9	4253
2026-01-09 10:49:42.05	2.40	16.72	-24.9	-26.5	17.2	0.00e+00	0	43	0	2778726400	9	4327
2026-01-09 10:49:43.06	2.25	16.64	-24.9	-26.4	17.3	0.00e+00	0	43	0	2783969280	9	4301
2026-01-09 10:49:44.07	2.09	16.56	-25.0	-26.6	17.1	0.00e+00	0	43	0	2789212160	9	4360
2026-01-09 10:49:45.07	1.94	16.47	-25.0	-26.6	17.2	0.00e+00	0	43	0	2795503616	9	4346
2026-01-09 10:49:46.08	1.79	16.39	-25.0	-26.3	17.1	0.00e+00	0	43	0	2800746496	10	4150
2026-01-09 10:49:47.09	1.63	16.31	-25.3	-26.9	16.8	0.00e+00	0	43	0	2807037952	10	4312
2026-01-09 10:49:48.10	1.48	16.22	-25.6	-26.9	16.5	0.00e+00	0	43	0	2812280832	11	4201
2026-01-09 10:49:49.10	1.33	16.14	-25.3	-26.3	16.8	0.00e+00	0	43	0	2817523712	11	4044
2026-01-09 10:49:50.11	1.18	16.06	-25.0	-25.7	17.2	0.00e+00	0	43	0	2823815168	11	3887
2026-01-09 10:49:51.12	1.04	15.98	-25.1	-25.8	17.1	0.00e+00	0	43	0	2829058048	11	3929
2026-01-09 10:49:52.13	0.89	15.89	-25.1	-25.8	17.1	0.00e+00	0	43	0	2835349504	11	3921
2026-01-09 10:49:53.13	0.74	15.81	-25.1	-25.9	17.0	0.00e+00	0	43	0	2840592384	11	3941
2026-01-09 10:49:54.14	0.60	15.73	-25.2	-26.2	16.8	0.00e+00	0	43	0	2845835264	11	4026
2026-01-09 10:49:55.14	0.45	15.65	-25.2	-26.1	16.9	0.00e+00	0	43	0	2852126720	11	4008
2026-01-09 10:49:56.15	0.31	15.56	-25.4	-26.5	16.7	0.00e+00	0	43	0	2857369600	11	4094
2026-01-09 10:49:57.16	0.17	15.48	-25.3	-26.3	16.8	0.00e+00	0	43	0	2863661056	11	4049
2026-01-09 10:49:58.16	0.02	15.40	-25.4	-26.5	16.7	0.00e+00	0	43	0	2868903936	11	4106
2026-01-09 10:49:59.17	359.88	15.32	-25.2	-26.0	16.9	0.00e+00	0	43	0	2874146816	11	3977
2026-01-09 10:50:00.18	359.74	15.24	-25.2	-26.1	16.9	0.00e+00	0	43	0	2880438272	11	4011
2026-01-09 10:50:01.18	359.60	15.16	-25.3	-26.3	16.8	0.00e+00	0	43	0	2885681152	11	4043
2026-01-09 10:50:02.19	359.46	15.07	-25.1	-25.9	17.0	0.00e+00	0	43	0	2891972608	11	3950
2026-01-09 10:50:03.19	359.32	14.99	-25.1	-25.8	17.0	0.00e+00	0	43	0	2897215488	11	3922
2026-01-09 10:50:04.20	359.19	14.91	-25.3	-26.4	16.8	0.00e+00	0	43	0	2902458368	11	4067
2026-01-09 10:50:05.20	359.05	14.83	-25.5	-26.7	16.6	0.00e+00	0	43	0	2908749824	11	4157
2026-01-09 10:50:06.21	358.91	14.75	-25.2	-26.1	16.9	0.00e+00	0	43	0	2913992704	11	4002
2026-01-09 10:50:07.22	358.78	14.67	-25.3	-26.4	16.7	0.00e+00	0	43	0	2919235584	11	4085
2026-01-09 10:50:08.22	358.64	14.59	-25.4	-26.5	16.7	0.00e+00	0	43	0	2925527040	11	4110
2026-01-09 10:50:09.22	358.51	14.51	-25.4	-26.6	16.6	0.00e+00	0	43	0	2930769920	11	4123
2026-01-09 10:50:10.23	358.38	14.42	-25.4	-26.5	16.7	0.00e+00	0	43	0	2937061376	11	4109
2026-01-09 10:50:11.24	358.25	14.34	-25.5	-26.7	16.6	0.00e+00	0	43	0	2942304256	11	4147
2026-01-09 10:50:12.25	358.11	14.26	-25.3	-26.2	16.8	0.00e+00	0	43	0	2948595712	11	4027
2026-01-09 10:50:13.25	357.98	14.18	-25.2	-26.0	16.9	0.00e+00	0	43	0	2953838592	11	3972
2026-01-09 10:50:14.26	357.85	14.10	-25.4	-26.5	16.7	0.00e+00	0	43	0	2959081472	11	4086
2026-01-09 10:50:15.27	357.72	14.02	-25.4	-26.6	16.6	0.00e+00	0	43	0	2965372928	11	4120
2026-01-09 10:50:16.28	357.59	13.94	-25.5	-26.7	16.5	0.00e+00	0	43	0	2970615808	11	4158
2026-01-09 10:50:17.29	357.46	13.86	-25.6	-27.1	16.4	0.00e+00	0	43	0	2976907264	11	4243
2026-01-09 10:50:18.29	357.34	13.78	-25.6	-27.1	16.3	0.00e+00	0	43	0	2982150144	11	4252
2026-01-09 10:50:19.29	357.21	13.70	-25.8	-27.5	16.1	0.00e+00	0	43	0	2987393024	11	4366
2026-01-09 10:50:20.30	357.09	13.62	-25.9	-27.6	16.0	0.00e+00	0	43	0	2993684480	11	4394
2026-01-09 10:50:21.30	356.96	13.54	-25.9	-27.6	16.0	0.00e+00	0	43	0	2998927360	11	4401
2026-01-09 10:50:22.31	356.84	13.46	-25.9	-27.3	15.9	0.00e+00	0	43	0	3004170240	12	4190
2026-01-09 10:50:23.32	356.71	13.38	-26.1	-27.6	15.7	0.00e+00	0	43	0	3010461696	12	4280
2026-01-09 10:50:24.32	356.59	13.31	-26.2	-27.8	15.5	0.00e+00	0	43	0	3015704576	12	4324
2026-01-09 10:50:25.33	356.47	13.23	-26.2	-27.8	15.5	0.00e+00	0	43	0	3021996032	12	4327
2026-01-09 10:50:26.34	356.35	13.15	-26.2	-27.9	15.4	0.00e+00	0	43	0	3027238912	12	4372
2026-01-09 10:50:27.35	356.22	13.07	-26.0	-27.5	15.7	0.00e+00	0	43	0	3033530368	12	4256
2026-01-09 10:50:28.35	356.10	12.99	-26.1	-27.6	15.6	0.00e+00	0	43	0	3038773248	12	4272
2026-01-09 10:50:29.35	355.99	12.91	-26.1	-27.5	15.6	0.00e+00	0	43	0	3044016128	12	4266
2026-01-09 10:50:30.36	355.87	12.83	-26.0	-27.5	15.7	0.00e+00	0	43	0	3050307584	12	4257
2026-01-09 10:50:31.37	355.75	12.75	-26.2	-27.9	15.4	0.00e+00	0	43	0	3055550464	12	4370
2026-01-09 10:50:32.38	355.63	12.68	-26.2	-27.9	15.4	0.00e+00	0	43	0	3061841920	12	4366
2026-01-09 10:50:33.39	355.51	12.60	-26.1	-27.5	15.6	0.00e+00	0	43	0	3067084800	12	4261
2026-01-09 10:50:34.39	355.40	12.52	-25.9	-27.2	15.8	0.00e+00	0	43	0	3072327680	12	4169
2026-01-09 10:50:35.40	355.28	12.44	-25.8	-26.9	16.0	0.00e+00	0	43	0	3078619136	12	4100
2026-01-09 10:50:36.41	355.16	12.36	-25.7	-26.7	16.1	0.00e+00	0	43	0	3083862016	12	4055
2026-01-09 10:50:37.41	355.05	12.29	-25.7	-26.8	16.1	0.00e+00	0	43	0	3089104896	12	4066
2026-01-09 10:50:38.42	354.93	12.21	-25.9	-27.1	15.9	0.00e+00	0	43	0	3095396352	12	4139
2026-01-09 10:50:39.43	354.82	12.13	-25.9	-27.3	15.8	0.00e+00	0	43	0	3100639232	12	4194
2026-01-09 10:50:40.43	354.71	12.06	-25.9	-27.1	15.9	0.00e+00	0	43	0	3106930688	12	4143
2026-01-09 10:50:41.44	354.60	11.98	-25.8	-27.0	15.9	0.00e+00	0	43	0	3112173568	12	4135
2026-01-09 10:50:42.44	354.49	11.90	-25.8	-27.0	15.9	0.00e+00	0	43	0	3118465024	12	4133
2026-01-09 10:50:43.44	354.38	11.83	-25.9	-27.1	15.8	0.00e+00	0	43	0	3123707904	12	4162
2026-01-09 10:50:44.46	354.26	11.75	-26.1	-27.5	15.6	0.00e+00	0	43	0	3128950784	12	4275
2026-01-09 10:50:45.46	354.15	11.67	-26.3	-28.1	15.3	0.00e+00	0	43	0	3135242240	12	4423
2026-01-09 10:50:46.47	354.04	11.60	-26.3	-28.1	15.2	0.00e+00	0	43	0	3140485120	12	4436
2026-01-09 10:50:47.48	353.94	11.52	-26.2	-27.9	15.4	0.00e+00	0	43	0	3146776576	12	4358
2026-01-09 10:50:48.48	353.83	11.44	-26.2	-27.9	15.4	0.00e+00	0	43	0	3152019456	12	4360
2026-01-09 10:50:49.49	353.72	11.37	-26.2	-27.8	15.4	0.00e+00	0	43	0	3157262336	12	4355
2026-01-09 10:50:50.50	353.61	11.29	-26.6	-28.2	14.9	0.00e+00	0	43	0	3163553792	13	4333
2026-01-09 10:50:51.51	353.51	11.22	-26.1	-27.1	15.5	0.00e+00	0	43	0	3168796672	13	4048
2026-01-09 10:50:52.51	353.40	11.14	-26.1	-27.1	15.5	0.00e+00	0	43	0	3174039552	13	4052
2026-01-09 10:50:53.52	353.30	11.07	-26.2	-27.3	15.4	0.00e+00	0	43	0	3180331008	13	4090
2026-01-09 10:50:54.52	353.19	10.99	-26.1	-27.2	15.4	0.00e+00	0	43	0	3185573888	13	4087
2026-01-09 10:50:55.53	353.09	10.92	-26.2	-27.4	15.4	0.00e+00	0	43	0	3191865344	13	4113
2026-01-09 10:50:56.53	352.98	10.84	-26.4	-27.7	15.1	0.00e+00	0	43	0	3197108224	13	4208
2026-01-09 10:50:57.54	352.88	10.77	-26.5	-28.1	14.9	0.00e+00	0	43	0	3203399680	13	4313
2026-01-09 10:50:58.55	352.78	10.69	-26.5	-28.0	14.9	0.00e+00	0	43	0	3208642560	13	4294
2026-01-09 10:50:59.56	352.68	10.62	-26.4	-27.8	15.1	0.00e+00	0	43	0	3213885440	13	4222
2026-01-09 10:51:00.56	352.57	10.54	-26.2	-27.4	15.3	0.00e+00	0	43	0	3220176896	13	4140
2026-01-09 10:51:01.57	352.47	10.47	-26.3	-27.5	15.2	0.00e+00	0	43	0	3225419776	13	4156
2026-01-09 10:51:02.58	352.37	10.39	-26.4	-27.8	15.1	0.00e+00	0	43	0	3231711232	13	4224
2026-01-09 10:51:03.58	352.27	10.32	-26.3	-27.6	15.2	0.00e+00	0	43	0	3236954112	13	4173
2026-01-09 10:51:04.59	352.17	10.25	-26.3	-27.7	15.1	0.00e+00	0	43	0	3242196992	13	4208
2026-01-09 10:51:05.60	352.08	10.17	-26.2	-27.5	15.2	0.00e+00	0	43	0	3248488448	13	4158
2026-01-09 10:51:06.61	351.98	10.10	-26.5	-28.0	15.0	0.00e+00	0	43	0	3253731328	13	4291
2026-01-09 10:51:07.62	351.88	10.02	-26.4	-27.8	15.1	0.00e+00	0	43	0	3258974208	13	4224
2026-01-09 10:51:08.62	351.78	9.95	-26.2	-27.4	15.3	0.00e+00	0	43	0	3265265664	13	4126
2026-01-09 10:51:09.62	351.69	9.88	-26.2	-27.3	15.3	0.00e+00	0	43	0	3270508544	13	4096
2026-01-09 10:51:10.63	351.59	9.81	-26.2	-27.4	15.2	0.00e+00	0	43	0	3276800000	13	4131
2026-01-09 10:51:11.64	351.49	9.73	-26.4	-27.9	15.0	0.00e+00	0	43	0	3282042880	13	4252
2026-01-09 10:51:12.65	351.40	9.66	-26.4	-27.8	15.0	0.00e+00	0	43	0	3288334336	13	4228
2026-01-09 10:51:13.65	351.30	9.59	-26.3	-27.5	15.2	0.00e+00	0	43	0	3293577216	13	4159
2026-01-09 10:51:14.66	351.21	9.51	-26.2	-27.4	15.2	0.00e+00	0	43	0	3298820096	13	4125
2026-01-09 10:51:15.66	351.12	9.44	-26.5	-28.0	14.9	2.20e-06	0	43	0	3305111552	13	4303
2026-01-09 10:51:16.67	351.02	9.37	-26.5	-28.2	14.8	1.10e-06	0	43	0	3310354432	13	4335
2026-01-09 10:51:17.67	350.93	9.30	-26.7	-28.5	14.6	0.00e+00	0	43	0	3316645888	13	4422
2026-01-09 10:51:18.69	350.84	9.23	-26.7	-28.6	14.5	2.20e-06	0	43	0	3321888768	13	4455
2026-01-09 10:51:19.70	350.74	9.15	-26.9	-28.9	14.3	0.00e+00	0	43	0	3327131648	13	4555
2026-01-09 10:51:20.71	350.65	9.08	-26.9	-28.9	14.3	2.20e-06	0	43	0	3333423104	13	4550
2026-01-09 10:51:21.72	350.56	9.01	-26.7	-28.4	14.6	0.00e+00	0	43	0	3338665984	13	4414
2026-01-09 10:51:22.72	350.47	8.94	-26.8	-28.7	14.4	0.00e+00	0	43	0	3343908864	13	4500
2026-01-09 10:51:23.73	350.38	8.87	-26.8	-28.8	14.4	2.20e-06	0	43	0	3350200320	13	4524
2026-01-09 10:51:24.73	350.29	8.80	-26.7	-28.5	14.5	0.00e+00	0	43	0	3355443200	13	4445
2026-01-09 10:51:25.74	350.20	8.72	-26.5	-28.1	14.8	0.00e+00	0	43	0	3361734656	13	4315
2026-01-09 10:51:26.74	350.11	8.65	-26.5	-28.0	14.8	0.00e+00	0	43	0	3366977536	13	4306
2026-01-09 10:51:27.76	350.03	8.58	-26.7	-28.4	14.6	0.00e+00	0	43	0	3373268992	13	4412
2026-01-09 10:51:28.76	349.94	8.51	-26.6	-28.2	14.7	0.00e+00	0	43	0	3378511872	13	4346
2026-01-09 10:51:29.77	349.85	8.44	-26.6	-28.4	14.6	0.00e+00	0	43	0	3383754752	13	4400
2026-01-09 10:51:30.78	349.76	8.37	-26.6	-28.2	14.7	1.10e-06	0	43	0	3390046208	13	4357
2026-01-09 10:51:31.78	349.68	8.30	-26.7	-28.6	14.4	0.00e+00	0	43	0	3395289088	13	4463
2026-01-09 10:51:32.78	349.59	8.23	-26.7	-28.5	14.5	0.00e+00	0	43	0	3401580544	13	4427
2026-01-09 10:51:33.78	349.51	8.16	-26.6	-28.4	14.6	0.00e+00	0	43	0	3406823424	13	4398
2026-01-09 10:51:34.79	349.42	8.09	-26.9	-29.0	14.2	2.20e-06	0	43	0	3412066304	13	4577
2026-01-09 10:51:35.80	349.34	8.02	-26.7	-28.5	14.4	1.10e-06	0	43	0	3418357760	13	4445
2026-01-09 10:51:36.80	349.25	7.95	-26.7	-28.6	14.4	0.00e+00	0	43	0	3423600640	13	4475
2026-01-09 10:51:37.80	349.17	7.88	-26.9	-28.9	14.2	1.10e-06	0	43	0	3428843520	13	4568
2026-01-09 10:51:38.81	349.09	7.81	-26.9	-28.9	14.2	0.00e+00	0	43	0	3435134976	13	4551
2026-01-09 10:51:39.82	349.00	7.74	-26.8	-28.7	14.3	0.00e+00	0	43	0	3440377856	13	4502
2026-01-09 10:51:40.83	348.92	7.68	-26.9	-28.9	14.2	2.20e-06	0	43	0	3446669312	13	4564
2026-01-09 10:51:41.84	348.84	7.61	-26.8	-28.8	14.2	0.00e+00	0	43	0	3451912192	13	4532
2026-01-09 10:51:42.84	348.76	7.54	-26.9	-29.0	14.2	1.10e-06	0	43	0	3458203648	13	4581
2026-01-09 10:51:43.85	348.67	7.47	-26.9	-28.9	14.2	2.20e-06	0	43	0	3463446528	13	4567
2026-01-09 10:51:44.85	348.59	7.40	-27.0	-28.8	14.0	2.20e-06	0	43	0	3468689408	14	4426
2026-01-09 10:51:45.87	348.51	7.33	-27.2	-29.3	13.7	2.20e-06	0	43	0	3474980864	14	4556
2026-01-09 10:51:46.87	348.43	7.26	-27.3	-29.4	13.6	3.40e-06	0	43	0	3480223744	14	4589
2026-01-09 10:51:47.88	348.35	7.20	-27.3	-29.4	13.6	2.20e-06	0	43	0	3486515200	14	4587
2026-01-09 10:51:48.88	348.27	7.13	-27.4	-29.6	13.5	1.25e-05	0	43	0	3491758080	14	4666
2026-01-09 10:51:49.89	348.19	7.06	-32.5	-40.2	4.0	7.45e-01	0	43	104	3494903808	25	8741
2026-01-09 10:51:50.90	348.11	6.99	-33.2	-44.0	3.8	8.46e-01	0	43	104	3494903808	26	12522

#Closed at: 2026-01-09 10:51:51
#Recorded file [3494 MB]: D:/data/31010_260109_134127.dat