passes_logs/2026/01/09/R2M6_AANII_01/R2M6_AANII_01__20260109_005757_NOAA_21_JPSS-2_rec.log

#Pass ID: 20260109_005757_NOAA 21 (JPSS-2)
#Satellite: NOAA 21 (JPSS-2)
#Configuration: NOAA 21
#almurnet v.1.7.20240730
#Start time: 2026-01-09 00:58:00

#Version: 2.2.20231116
#Station: R2M6_AANII_01
#Location: 30.233357 lon 59.946436 lat
#TLE: 1 54234U 22150A   26008.45757862  .00000119  00000+0  77172-4 0  9996
#TLE: 2 54234  98.7494 309.4367 0000894 328.2777  31.8345 14.19533328163889

#Time	Az	El	Level	Level2	SNR	BER	BlckErr	Temp	State	Recorded	gain1	gain2
2026-01-09 00:58:00.73	15.05	7.23	-33.7	-44.9	3.8	8.46e-01	0	43	0	0	27	13094
2026-01-09 00:58:01.73	15.02	7.31	-33.9	-45.7	3.8	1.49e+00	0	43	104	0	28	13917
2026-01-09 00:58:02.72	14.99	7.39	-34.0	-45.8	3.8	1.49e+00	0	43	104	0	28	14001
2026-01-09 00:58:03.72	14.96	7.46	-34.0	-45.8	3.8	1.49e+00	0	43	104	0	28	14066
2026-01-09 00:58:04.73	14.93	7.54	-34.0	-45.8	3.8	1.49e+00	0	43	104	0	28	14052
2026-01-09 00:58:05.73	14.90	7.62	-34.0	-45.8	3.8	1.49e+00	0	43	104	0	28	14087
2026-01-09 00:58:07.01	14.86	7.72	-34.0	-45.9	3.8	1.49e+00	0	43	104	0	28	14107
2026-01-09 00:58:07.74	14.83	7.77	-34.0	-45.8	3.8	1.49e+00	0	43	104	0	28	14080
2026-01-09 00:58:09.02	14.79	7.87	-34.0	-45.8	3.8	1.49e+00	0	43	104	0	28	14056
2026-01-09 00:58:09.74	14.77	7.93	-34.0	-45.8	3.8	1.49e+00	0	43	104	0	28	14075
2026-01-09 00:58:11.03	14.73	8.03	-34.0	-45.8	3.8	1.49e+00	0	43	104	0	28	14064
2026-01-09 00:58:11.75	14.71	8.09	-34.0	-45.8	3.8	1.49e+00	0	43	104	0	28	14018
2026-01-09 00:58:13.05	14.67	8.19	-34.0	-45.8	3.8	1.49e+00	0	43	104	0	28	14015
2026-01-09 00:58:13.76	14.64	8.24	-34.0	-45.8	3.8	1.49e+00	0	43	104	0	28	14081
2026-01-09 00:58:15.06	14.60	8.35	-34.0	-45.8	3.8	1.49e+00	0	43	104	0	28	14028
2026-01-09 00:58:15.78	14.58	8.40	-34.0	-45.8	3.8	1.49e+00	0	43	104	0	28	14007
2026-01-09 00:58:17.07	14.53	8.51	-34.0	-45.8	3.8	1.49e+00	0	43	104	0	28	14011
2026-01-09 00:58:17.78	14.51	8.56	-34.0	-45.8	3.8	1.49e+00	0	43	104	0	28	14050
2026-01-09 00:58:19.08	14.47	8.67	-34.1	-46.0	3.8	1.49e+00	0	43	104	0	28	14188
2026-01-09 00:58:19.79	14.44	8.73	-34.1	-46.0	3.8	1.49e+00	0	43	104	0	28	14212
2026-01-09 00:58:21.08	14.40	8.83	-34.1	-46.0	3.8	1.49e+00	0	43	104	0	28	14239
2026-01-09 00:58:21.79	14.38	8.89	-34.0	-45.9	3.8	1.49e+00	0	43	104	0	28	14125
2026-01-09 00:58:23.08	14.33	8.99	-34.0	-45.9	3.8	1.49e+00	0	43	104	0	28	14107
2026-01-09 00:58:23.79	14.31	9.05	-34.0	-45.9	3.8	1.49e+00	0	43	104	0	28	14133
2026-01-09 00:58:25.08	14.26	9.15	-34.0	-45.9	3.8	1.49e+00	0	43	104	0	28	14110
2026-01-09 00:58:25.79	14.24	9.21	-34.0	-45.9	3.8	1.49e+00	0	43	104	0	28	14098
2026-01-09 00:58:27.09	14.19	9.32	-34.0	-45.8	3.8	1.49e+00	0	43	104	0	28	14069
2026-01-09 00:58:27.80	14.17	9.38	-34.0	-45.7	3.8	1.49e+00	0	43	104	0	28	13952
2026-01-09 00:58:29.09	14.12	9.49	-33.9	-45.7	3.8	1.49e+00	0	43	104	0	28	13905
2026-01-09 00:58:29.84	14.10	9.55	-34.0	-46.2	3.8	1.49e+00	0	43	104	0	27	14785
2026-01-09 00:58:31.14	14.05	9.66	-33.9	-46.1	3.8	1.49e+00	0	43	104	0	27	14681
2026-01-09 00:58:31.85	14.02	9.72	-33.8	-45.9	3.8	1.49e+00	0	43	104	0	27	14515
2026-01-09 00:58:33.14	13.98	9.82	-33.7	-45.6	3.8	1.49e+00	0	43	104	0	27	14303
2026-01-09 00:58:33.86	13.95	9.88	-33.5	-45.4	3.8	1.49e+00	0	43	104	0	27	14067
2026-01-09 00:58:35.15	13.90	9.99	-33.1	-43.7	3.8	1.49e+00	0	43	104	0	26	12184
2026-01-09 00:58:35.85	13.88	10.05	-33.0	-43.1	4.0	1.46e+00	0	43	104	0	25	11549
2026-01-09 00:58:37.16	13.83	10.16	-33.1	-43.6	3.8	1.49e+00	0	43	104	0	26	12048
2026-01-09 00:58:37.88	13.80	10.22	-33.1	-43.8	3.9	1.49e+00	0	43	104	0	26	12325
2026-01-09 00:58:39.16	13.75	10.33	-33.0	-43.2	3.8	1.49e+00	0	43	104	0	26	11693
2026-01-09 00:58:39.89	13.72	10.40	-32.8	-42.5	3.9	1.49e+00	0	43	104	0	25	10994
2026-01-09 00:58:41.17	13.68	10.51	-32.7	-40.9	4.4	1.41e+00	0	43	104	0	25	9301
2026-01-09 00:58:41.88	13.65	10.57	-32.5	-40.2	4.0	1.47e+00	0	43	104	0	25	8792
2026-01-09 00:58:43.18	13.60	10.68	-32.0	-37.9	6.1	4.47e-01	0	43	104	0	24	7044
2026-01-09 00:58:43.89	13.57	10.74	-31.8	-37.3	6.7	1.97e-01	0	43	0	1048576	23	6786
2026-01-09 00:58:45.18	13.52	10.86	-31.2	-35.7	8.2	5.32e-02	0	43	0	5242880	22	6027
2026-01-09 00:58:45.90	13.49	10.92	-30.9	-34.7	8.9	3.55e-02	0	43	0	7340032	22	5552
2026-01-09 00:58:47.19	13.44	11.03	-30.5	-34.0	9.7	1.23e-02	0	43	0	11534336	21	5384
2026-01-09 00:58:47.91	13.41	11.09	-30.5	-34.4	9.8	1.05e-02	0	43	0	13631488	20	5654
2026-01-09 00:58:49.20	13.36	11.21	-30.5	-33.9	9.8	1.41e-02	0	43	0	17825792	21	5330
2026-01-09 00:58:49.91	13.33	11.27	-30.4	-34.3	9.8	8.88e-03	0	43	0	19922944	20	5616
2026-01-09 00:58:51.20	13.28	11.39	-30.7	-34.7	9.1	2.66e-02	0	43	0	24117248	21	5678
2026-01-09 00:58:51.91	13.25	11.45	-30.6	-34.2	9.6	1.28e-02	0	43	0	26214400	21	5451
2026-01-09 00:58:53.21	13.19	11.57	-30.5	-34.1	9.7	1.01e-02	0	43	0	30408704	21	5420
2026-01-09 00:58:53.93	13.16	11.63	-30.6	-34.3	9.5	1.40e-02	0	43	0	32505856	21	5509
2026-01-09 00:58:55.21	13.11	11.75	-30.8	-34.9	9.1	2.18e-02	0	43	0	36700160	21	5766
2026-01-09 00:58:55.93	13.08	11.81	-30.8	-34.8	9.1	2.25e-02	0	43	0	38797312	21	5730
2026-01-09 00:58:57.21	13.02	11.93	-30.5	-34.0	9.7	8.64e-03	0	43	0	42991616	21	5360
2026-01-09 00:58:57.97	12.99	12.00	-30.7	-34.6	9.3	1.59e-02	0	43	0	45088768	21	5643
2026-01-09 00:58:59.25	12.94	12.12	-30.3	-33.5	10.1	7.13e-03	0	43	0	49283072	21	5153
2026-01-09 00:58:59.97	12.90	12.18	-30.4	-34.1	10.0	6.94e-03	0	43	0	51380224	20	5512
2026-01-09 00:59:01.26	12.85	12.30	-30.8	-34.7	9.2	1.55e-02	0	43	0	55574528	21	5688
2026-01-09 00:59:01.98	12.82	12.37	-30.3	-33.3	10.2	1.09e-02	0	43	0	57671680	21	5100
2026-01-09 00:59:03.26	12.76	12.49	-29.7	-32.3	11.3	1.63e-03	0	43	0	61865984	20	4824
2026-01-09 00:59:03.98	12.73	12.55	-29.3	-31.6	12.1	4.08e-04	0	43	0	63963136	19	4687
2026-01-09 00:59:05.26	12.67	12.67	-28.8	-30.9	12.9	5.26e-05	0	43	0	68157440	18	4557
2026-01-09 00:59:06.00	12.64	12.74	-28.6	-30.8	13.2	2.82e-05	0	43	0	70254592	17	4656
2026-01-09 00:59:07.29	12.58	12.86	-28.2	-30.2	13.9	7.60e-06	0	43	0	74448896	16	4578
2026-01-09 00:59:08.01	12.54	12.93	-27.9	-29.7	14.2	1.50e-06	0	43	0	76546048	16	4422
2026-01-09 00:59:09.30	12.48	13.05	-27.6	-29.5	14.4	0.00e+00	0	43	0	80740352	15	4470
2026-01-09 00:59:10.01	12.45	13.12	-27.6	-29.5	14.5	2.20e-06	0	43	0	82837504	15	4471
2026-01-09 00:59:11.30	12.39	13.25	-27.6	-29.4	14.5	1.50e-06	0	43	0	87031808	15	4453
2026-01-09 00:59:12.02	12.36	13.32	-27.6	-29.4	14.6	2.20e-06	0	43	0	89128960	15	4432
2026-01-09 00:59:13.31	12.30	13.44	-27.6	-29.4	14.4	7.00e-07	0	43	0	93323264	15	4431
2026-01-09 00:59:14.02	12.26	13.51	-27.7	-29.7	14.3	0.00e+00	0	43	0	95420416	15	4540
2026-01-09 00:59:15.31	12.20	13.63	-27.3	-29.4	14.9	0.00e+00	0	43	0	99614720	14	4544
2026-01-09 00:59:16.03	12.16	13.70	-27.2	-29.0	15.1	0.00e+00	0	43	0	101711872	14	4428
2026-01-09 00:59:17.31	12.10	13.83	-27.2	-29.1	15.1	2.94e-04	0	43	0	105906176	14	4463
2026-01-09 00:59:18.03	12.07	13.90	-27.3	-29.3	15.0	0.00e+00	0	43	0	108003328	14	4512
2026-01-09 00:59:19.32	12.00	14.03	-27.4	-29.4	14.9	0.00e+00	0	43	0	112197632	14	4542
2026-01-09 00:59:20.03	11.97	14.10	-27.4	-29.4	14.9	0.00e+00	0	43	0	114294784	14	4561
2026-01-09 00:59:21.33	11.90	14.23	-27.5	-29.6	14.8	0.00e+00	0	43	0	118489088	14	4615
2026-01-09 00:59:22.07	11.86	14.30	-27.5	-29.2	14.7	7.00e-07	0	43	0	120586240	15	4380
2026-01-09 00:59:23.35	11.80	14.43	-27.5	-29.2	14.7	2.49e-04	0	43	0	124780544	15	4387
2026-01-09 00:59:24.11	11.76	14.51	-27.3	-28.7	15.0	0.00e+00	0	43	0	126877696	15	4247
2026-01-09 00:59:25.40	11.69	14.64	-27.2	-29.1	15.1	0.00e+00	0	43	0	131072000	14	4475
2026-01-09 00:59:26.12	11.65	14.71	-27.3	-29.3	15.0	7.00e-07	0	43	0	133169152	14	4508
2026-01-09 00:59:27.42	11.58	14.84	-27.2	-29.1	15.1	3.99e-03	0	43	0	137363456	14	4467
2026-01-09 00:59:28.14	11.55	14.91	-27.2	-28.9	15.2	0.00e+00	0	43	0	139460608	14	4411
2026-01-09 00:59:29.43	11.48	15.05	-27.1	-28.9	15.2	6.96e-04	0	43	0	143654912	14	4401
2026-01-09 00:59:30.14	11.44	15.12	-27.2	-28.9	15.2	0.00e+00	0	43	0	145752064	14	4405
2026-01-09 00:59:31.43	11.37	15.25	-27.4	-29.4	14.9	1.55e-03	0	43	0	149946368	14	4559
2026-01-09 00:59:32.16	11.33	15.33	-27.2	-28.9	15.2	0.00e+00	0	43	0	152043520	14	4413
2026-01-09 00:59:33.44	11.26	15.46	-27.2	-29.1	15.2	3.57e-03	0	43	0	156237824	14	4450
2026-01-09 00:59:34.15	11.22	15.54	-27.3	-29.3	15.0	0.00e+00	0	43	0	158334976	14	4520
2026-01-09 00:59:35.45	11.15	15.67	-27.1	-28.9	15.2	7.41e-04	0	43	0	162529280	14	4404
2026-01-09 00:59:36.17	11.11	15.75	-27.3	-29.2	14.6	3.91e-03	0	43	0	164626432	14	4502
2026-01-09 00:59:37.45	11.03	15.88	-27.6	-29.5	14.6	3.76e-03	0	43	0	168820736	15	4471
2026-01-09 00:59:38.17	10.99	15.96	-28.3	-30.5	14.1	1.50e-06	0	43	0	170917888	16	4652
2026-01-09 00:59:39.45	10.92	16.10	-27.8	-29.9	14.4	4.27e-03	0	43	0	175112192	15	4570
2026-01-09 00:59:40.17	10.88	16.18	-27.8	-29.9	14.4	7.00e-07	0	43	0	177209344	15	4574
2026-01-09 00:59:41.46	10.80	16.31	-27.8	-29.9	14.4	2.97e-04	0	43	0	181403648	15	4594
2026-01-09 00:59:42.18	10.76	16.39	-27.9	-30.3	14.2	0.00e+00	0	43	0	183500800	15	4698
2026-01-09 00:59:43.47	10.68	16.53	-27.8	-29.9	14.3	4.22e-03	0	43	0	187695104	15	4601
2026-01-09 00:59:44.20	10.64	16.61	-27.8	-30.0	14.3	7.00e-07	0	43	0	189792256	15	4634
2026-01-09 00:59:45.48	10.56	16.75	-27.8	-29.9	14.5	4.70e-03	0	43	0	193986560	15	4591
2026-01-09 00:59:46.20	10.52	16.83	-27.8	-29.9	14.5	3.98e-03	0	43	0	196083712	15	4590
2026-01-09 00:59:47.49	10.44	16.97	-28.4	-30.7	14.0	6.71e-04	0	43	0	200278016	16	4704
2026-01-09 00:59:48.21	10.39	17.05	-28.4	-30.8	13.8	7.00e-07	0	43	0	202375168	16	4736
2026-01-09 00:59:49.50	10.31	17.20	-28.5	-30.9	13.8	3.66e-03	0	43	0	206569472	16	4760
2026-01-09 00:59:50.21	10.27	17.28	-28.8	-31.3	13.3	3.80e-06	0	43	0	208666624	17	4782
2026-01-09 00:59:51.50	10.19	17.42	-28.6	-30.1	13.6	3.50e-04	0	43	0	212860928	18	4310
2026-01-09 00:59:52.22	10.14	17.50	-28.5	-30.6	13.6	3.98e-03	0	43	0	214958080	17	4563
2026-01-09 00:59:53.50	10.06	17.65	-28.7	-31.0	13.4	6.10e-06	0	43	0	219152384	17	4693
2026-01-09 00:59:54.22	10.01	17.73	-28.5	-30.4	13.8	6.80e-06	0	43	0	221249536	17	4508
2026-01-09 00:59:55.50	9.93	17.88	-28.6	-30.7	13.7	3.86e-03	0	43	0	225443840	17	4584
2026-01-09 00:59:56.24	9.88	17.96	-28.8	-31.3	13.3	1.74e-04	0	43	0	227540992	17	4768
2026-01-09 00:59:57.54	9.79	18.11	-28.5	-30.5	13.7	6.80e-06	0	43	0	231735296	17	4536
2026-01-09 00:59:58.25	9.74	18.19	-28.6	-30.6	13.7	3.53e-03	0	43	0	233832448	17	4568
2026-01-09 00:59:59.54	9.66	18.34	-28.6	-30.7	13.6	1.22e-05	0	43	0	238026752	17	4592
2026-01-09 01:00:00.25	9.61	18.43	-28.6	-30.7	13.7	3.43e-05	0	43	0	240123904	17	4580
2026-01-09 01:00:01.58	9.52	18.58	-28.4	-30.8	14.0	1.50e-06	0	43	0	244318208	16	4717
2026-01-09 01:00:02.30	9.47	18.67	-28.3	-30.1	14.1	4.61e-04	0	43	0	246415360	17	4405
2026-01-09 01:00:03.58	9.38	18.82	-28.3	-30.4	14.1	7.00e-07	0	43	0	250609664	16	4600
2026-01-09 01:00:04.30	9.33	18.90	-27.6	-29.4	14.9	3.68e-03	0	43	0	252706816	15	4427
2026-01-09 01:00:05.59	9.24	19.06	-28.1	-29.9	14.4	1.50e-06	0	43	0	256901120	16	4463
2026-01-09 01:00:06.30	9.19	19.14	-27.6	-29.4	14.8	3.70e-03	0	43	0	258998272	15	4439
2026-01-09 01:00:07.58	9.09	19.30	-27.3	-29.2	15.3	0.00e+00	0	43	0	263192576	14	4478
2026-01-09 01:00:08.29	9.04	19.38	-27.5	-29.5	15.1	4.64e-04	0	43	0	265289728	14	4581
2026-01-09 01:00:09.58	8.95	19.54	-27.7	-29.6	14.7	0.00e+00	0	43	0	269484032	15	4495
2026-01-09 01:00:10.30	8.89	19.63	-27.6	-29.4	14.9	0.00e+00	0	43	0	271581184	15	4433
2026-01-09 01:00:11.58	8.80	19.78	-27.5	-29.1	15.1	0.00e+00	0	43	0	275775488	15	4343
2026-01-09 01:00:12.29	8.75	19.87	-27.4	-29.4	15.1	4.22e-03	0	43	0	277872640	14	4554
2026-01-09 01:00:13.59	8.65	20.03	-27.4	-29.4	15.1	0.00e+00	0	43	0	282066944	14	4549
2026-01-09 01:00:14.30	8.59	20.12	-27.4	-29.4	15.2	2.74e-04	0	43	0	284164096	14	4526
2026-01-09 01:00:15.59	8.49	20.28	-27.4	-29.3	15.2	0.00e+00	0	43	0	288358400	14	4522
2026-01-09 01:00:16.31	8.44	20.37	-27.6	-29.3	14.9	0.00e+00	0	43	0	290455552	15	4414
2026-01-09 01:00:17.60	8.34	20.53	-27.4	-28.8	15.3	0.00e+00	0	43	0	294649856	15	4257
2026-01-09 01:00:18.31	8.28	20.62	-27.2	-29.0	15.4	3.67e-03	0	43	0	296747008	14	4437
2026-01-09 01:00:19.60	8.18	20.79	-27.2	-29.0	15.4	0.00e+00	0	43	0	300941312	14	4421
2026-01-09 01:00:20.33	8.12	20.88	-27.2	-28.9	15.5	3.08e-04	0	43	0	303038464	14	4391
2026-01-09 01:00:21.62	8.01	21.05	-27.3	-29.1	15.4	7.00e-07	0	43	0	307232768	14	4451
2026-01-09 01:00:22.34	7.95	21.14	-27.2	-29.0	15.5	7.00e-07	0	43	0	309329920	14	4411
2026-01-09 01:00:23.62	7.85	21.31	-26.9	-28.4	15.8	0.00e+00	0	43	0	313524224	14	4244
2026-01-09 01:00:24.34	7.79	21.40	-26.9	-28.3	15.8	1.77e-03	0	43	0	315621376	14	4228
2026-01-09 01:00:25.63	7.68	21.57	-26.9	-28.9	15.7	0.00e+00	0	43	0	319815680	13	4509
2026-01-09 01:00:26.34	7.62	21.66	-26.8	-28.5	15.9	0.00e+00	0	43	0	321912832	13	4400
2026-01-09 01:00:27.63	7.51	21.83	-26.9	-28.8	15.8	0.00e+00	0	43	0	326107136	13	4473
2026-01-09 01:00:28.34	7.45	21.93	-26.8	-28.6	15.9	3.82e-03	0	43	0	328204288	13	4412
2026-01-09 01:00:29.62	7.34	22.10	-26.5	-27.9	16.3	0.00e+00	0	43	0	332398592	13	4218
2026-01-09 01:00:30.34	7.27	22.19	-26.4	-27.6	16.4	0.00e+00	0	43	0	334495744	13	4138
2026-01-09 01:00:31.62	7.16	22.36	-26.3	-28.0	16.5	0.00e+00	0	43	0	338690048	12	4377
2026-01-09 01:00:32.34	7.09	22.46	-26.4	-28.2	16.3	0.00e+00	0	43	0	340787200	12	4424
2026-01-09 01:00:33.63	6.98	22.64	-26.3	-28.0	16.5	7.00e-07	0	43	0	344981504	12	4356
2026-01-09 01:00:34.35	6.91	22.73	-26.3	-27.9	16.6	0.00e+00	0	43	0	347078656	12	4329
2026-01-09 01:00:35.64	6.79	22.91	-26.3	-27.9	16.6	0.00e+00	0	43	0	350224384	12	4337
2026-01-09 01:00:36.37	6.73	23.01	-26.3	-28.0	16.5	0.00e+00	0	43	0	353370112	12	4377
2026-01-09 01:00:37.65	6.61	23.19	-26.3	-28.0	16.6	0.00e+00	0	43	0	356515840	12	4349
2026-01-09 01:00:38.39	6.54	23.29	-26.1	-27.6	16.7	0.00e+00	0	43	0	359661568	12	4253
2026-01-09 01:00:39.67	6.41	23.47	-26.1	-27.5	16.8	0.00e+00	0	43	0	363855872	12	4235
2026-01-09 01:00:40.39	6.34	23.57	-26.2	-27.8	16.7	0.00e+00	0	43	0	365953024	12	4305
2026-01-09 01:00:41.68	6.22	23.75	-26.5	-27.9	16.4	0.00e+00	0	43	0	370147328	13	4221
2026-01-09 01:00:42.40	6.15	23.86	-26.6	-28.1	16.2	0.00e+00	0	43	0	372244480	13	4279
2026-01-09 01:00:43.68	6.02	24.04	-26.5	-28.0	16.3	0.00e+00	0	43	0	375390208	13	4249
2026-01-09 01:00:44.40	5.95	24.14	-26.5	-27.8	16.4	0.00e+00	0	43	0	378535936	13	4208
2026-01-09 01:00:45.69	5.82	24.33	-26.6	-28.2	16.2	0.00e+00	0	43	0	381681664	13	4295
2026-01-09 01:00:46.40	5.75	24.43	-26.7	-28.2	16.1	0.00e+00	0	43	0	384827392	13	4321
2026-01-09 01:00:47.69	5.61	24.62	-26.8	-28.6	16.0	0.00e+00	0	43	0	387973120	13	4430
2026-01-09 01:00:48.40	5.54	24.72	-26.7	-27.9	16.1	0.00e+00	0	43	0	390070272	14	4120
2026-01-09 01:00:49.71	5.40	24.91	-26.5	-28.0	16.1	0.00e+00	0	43	0	395313152	13	4286
2026-01-09 01:00:50.43	5.32	25.02	-26.5	-27.9	16.3	0.00e+00	0	43	0	397410304	13	4234
2026-01-09 01:00:51.73	5.19	25.21	-26.6	-28.1	16.2	0.00e+00	0	43	0	400556032	13	4283
2026-01-09 01:00:52.44	5.11	25.32	-26.9	-28.7	15.9	0.00e+00	0	43	0	403701760	13	4464
2026-01-09 01:00:53.73	4.97	25.51	-27.3	-29.1	15.4	0.00e+00	0	43	0	406847488	14	4445
2026-01-09 01:00:54.44	4.89	25.61	-27.0	-28.5	15.7	0.00e+00	0	43	0	409993216	14	4292
2026-01-09 01:00:55.73	4.75	25.81	-27.1	-28.7	15.6	0.00e+00	0	43	0	413138944	14	4343
2026-01-09 01:00:56.45	4.67	25.92	-27.5	-29.6	15.1	0.00e+00	0	43	0	415236096	14	4600
2026-01-09 01:00:57.74	4.52	26.12	-27.9	-30.0	14.6	3.87e-03	0	43	0	419430400	15	4590
2026-01-09 01:00:58.45	4.44	26.22	-27.2	-28.5	15.5	0.00e+00	0	43	0	421527552	15	4177
2026-01-09 01:00:59.73	4.29	26.42	-27.1	-28.8	15.6	0.00e+00	0	43	0	425721856	14	4357
2026-01-09 01:01:00.45	4.20	26.53	-27.1	-28.6	15.7	0.00e+00	0	43	0	427819008	14	4321
2026-01-09 01:01:01.74	4.05	26.73	-27.1	-28.8	15.6	0.00e+00	0	43	0	432013312	14	4364
2026-01-09 01:01:02.46	3.97	26.85	-27.1	-28.8	15.6	0.00e+00	0	43	0	435159040	14	4363
2026-01-09 01:01:03.75	3.81	27.05	-27.3	-29.2	15.4	3.88e-03	0	43	0	438304768	14	4491
2026-01-09 01:01:04.47	3.72	27.16	-27.3	-29.3	15.4	0.00e+00	0	43	0	440401920	14	4489
2026-01-09 01:01:05.76	3.56	27.37	-27.0	-28.9	15.8	0.00e+00	0	43	0	444596224	13	4509
2026-01-09 01:01:06.48	3.47	27.48	-27.0	-28.6	15.8	0.00e+00	0	43	0	446693376	14	4291
2026-01-09 01:01:07.77	3.31	27.69	-27.4	-29.3	15.3	9.99e-05	0	43	0	450887680	14	4509
2026-01-09 01:01:08.48	3.22	27.80	-27.3	-29.2	15.4	0.00e+00	0	43	0	452984832	14	4474
2026-01-09 01:01:09.77	3.06	28.01	-27.4	-29.3	15.4	3.44e-03	0	43	0	457179136	14	4493
2026-01-09 01:01:10.50	2.96	28.13	-27.4	-29.4	15.3	0.00e+00	0	43	0	459276288	14	4527
2026-01-09 01:01:11.78	2.79	28.34	-27.6	-29.3	15.1	3.50e-03	0	43	0	463470592	15	4375
2026-01-09 01:01:12.50	2.70	28.45	-27.6	-29.2	15.1	0.00e+00	0	43	0	465567744	15	4375
2026-01-09 01:01:13.79	2.53	28.67	-27.3	-28.7	15.4	0.00e+00	0	43	0	469762048	15	4208
2026-01-09 01:01:14.51	2.43	28.79	-27.2	-28.4	15.5	0.00e+00	0	43	0	471859200	15	4139
2026-01-09 01:01:15.79	2.25	29.00	-27.1	-28.8	15.6	0.00e+00	0	43	0	476053504	14	4345
2026-01-09 01:01:16.52	2.15	29.12	-27.3	-29.1	15.4	0.00e+00	0	43	0	478150656	14	4447
2026-01-09 01:01:17.80	1.97	29.34	-27.3	-29.1	15.5	3.76e-03	0	43	0	482344960	14	4433
2026-01-09 01:01:18.52	1.87	29.46	-27.2	-28.8	14.1	0.00e+00	0	43	0	484442112	14	4374
2026-01-09 01:01:19.80	1.69	29.67	-27.2	-28.9	15.6	0.00e+00	0	43	0	488636416	14	4398
2026-01-09 01:01:20.55	1.58	29.80	-27.1	-28.8	15.0	0.00e+00	0	43	0	490733568	14	4346
2026-01-09 01:01:21.84	1.39	30.02	-27.1	-28.7	15.7	0.00e+00	0	43	0	494927872	14	4338
2026-01-09 01:01:22.56	1.29	30.15	-27.2	-29.0	15.6	0.00e+00	0	43	0	497025024	14	4397
2026-01-09 01:01:23.85	1.10	30.37	-27.0	-28.4	15.9	3.88e-03	0	43	0	501219328	14	4237
2026-01-09 01:01:24.57	0.99	30.50	-26.9	-28.7	16.0	0.00e+00	0	43	0	503316480	13	4445
2026-01-09 01:01:25.85	0.79	30.72	-26.9	-28.9	15.9	0.00e+00	0	43	0	507510784	13	4484
2026-01-09 01:01:26.58	0.68	30.85	-27.0	-28.9	15.9	3.74e-03	0	43	0	509607936	13	4503
2026-01-09 01:01:27.86	0.48	31.07	-27.3	-29.2	15.5	0.00e+00	0	43	0	513802240	14	4472
2026-01-09 01:01:28.58	0.37	31.20	-27.3	-29.1	15.5	0.00e+00	0	43	0	515899392	14	4444
2026-01-09 01:01:29.85	0.16	31.43	-27.6	-29.4	15.1	3.38e-03	0	43	0	520093696	15	4415
2026-01-09 01:01:30.57	0.05	31.55	-27.6	-29.3	15.1	3.86e-03	0	43	0	522190848	15	4399
2026-01-09 01:01:31.85	359.84	31.78	-27.9	-30.1	14.7	7.00e-07	0	43	0	526385152	15	4612
2026-01-09 01:01:32.56	359.72	31.91	-27.5	-29.2	15.2	3.88e-03	0	43	0	528482304	15	4361
2026-01-09 01:01:33.86	359.51	32.15	-27.5	-29.1	15.2	0.00e+00	0	43	0	532676608	15	4324
2026-01-09 01:01:34.58	359.38	32.28	-27.3	-28.7	15.4	7.00e-07	0	43	0	534773760	15	4220
2026-01-09 01:01:35.86	359.17	32.51	-27.3	-29.1	15.5	0.00e+00	0	43	0	538968064	14	4432
2026-01-09 01:01:36.59	359.04	32.65	-27.1	-28.7	15.7	3.42e-03	0	43	0	541065216	14	4325
2026-01-09 01:01:37.88	358.81	32.88	-27.1	-28.6	15.8	0.00e+00	0	43	0	545259520	14	4310
2026-01-09 01:01:38.60	358.69	33.02	-27.2	-28.9	15.6	0.00e+00	0	43	0	547356672	14	4384
2026-01-09 01:01:39.87	358.46	33.25	-27.1	-28.8	15.7	3.89e-03	0	43	0	551550976	14	4343
2026-01-09 01:01:40.59	358.33	33.39	-27.2	-29.0	15.6	1.22e-05	0	43	0	553648128	14	4409
2026-01-09 01:01:41.88	358.09	33.63	-27.4	-29.4	15.4	0.00e+00	0	43	0	557842432	14	4517
2026-01-09 01:01:42.59	357.96	33.76	-27.5	-29.2	15.2	3.66e-03	0	43	0	559939584	15	4353
2026-01-09 01:01:43.89	357.72	34.01	-27.7	-29.6	14.9	0.00e+00	0	43	0	564133888	15	4486
2026-01-09 01:01:44.60	357.58	34.15	-27.8	-29.8	14.8	4.95e-05	0	43	0	566231040	15	4536
2026-01-09 01:01:45.89	357.34	34.39	-27.8	-29.9	14.8	7.00e-07	0	43	0	570425344	15	4552
2026-01-09 01:01:46.62	357.20	34.53	-28.0	-30.2	14.6	8.69e-05	0	43	0	572522496	15	4660
2026-01-09 01:01:47.92	356.94	34.78	-28.0	-29.7	14.8	7.00e-07	0	43	0	576716800	16	4375
2026-01-09 01:01:48.64	356.80	34.92	-27.9	-29.6	14.9	3.21e-03	0	43	0	578813952	16	4342
2026-01-09 01:01:49.92	356.54	35.17	-28.0	-29.6	14.9	0.00e+00	0	43	0	583008256	16	4353
2026-01-09 01:01:50.64	356.39	35.31	-27.8	-29.7	14.9	2.75e-03	0	43	0	585105408	15	4513
2026-01-09 01:01:51.93	356.13	35.56	-27.7	-29.5	15.0	0.00e+00	0	43	0	589299712	15	4440
2026-01-09 01:01:52.65	355.98	35.70	-27.7	-29.6	15.0	7.62e-05	0	43	0	591396864	15	4478
2026-01-09 01:01:53.94	355.70	35.96	-27.9	-29.9	14.9	0.00e+00	0	43	0	595591168	15	4556
2026-01-09 01:01:54.65	355.55	36.10	-27.9	-30.0	14.8	0.00e+00	0	43	0	597688320	15	4599
2026-01-09 01:01:55.94	355.27	36.36	-28.2	-30.1	14.6	0.00e+00	0	43	0	601882624	16	4486
2026-01-09 01:01:56.66	355.11	36.50	-28.1	-30.0	14.6	1.50e-06	0	43	0	603979776	16	4462
2026-01-09 01:01:57.95	354.83	36.76	-28.3	-30.4	14.5	0.00e+00	0	43	0	608174080	16	4579
2026-01-09 01:01:58.66	354.67	36.90	-28.3	-30.3	14.5	7.00e-07	0	43	0	610271232	16	4545
2026-01-09 01:01:59.96	354.37	37.16	-28.1	-29.9	14.7	0.00e+00	0	43	0	614465536	16	4448
2026-01-09 01:02:00.68	354.20	37.31	-28.2	-30.1	14.6	0.00e+00	0	43	0	616562688	16	4480
2026-01-09 01:02:01.97	353.90	37.57	-28.1	-29.9	14.7	0.00e+00	0	43	0	620756992	16	4432
2026-01-09 01:02:02.69	353.73	37.72	-27.9	-30.0	14.7	1.73e-03	0	43	0	622854144	15	4572
2026-01-09 01:02:03.98	353.42	37.98	-28.3	-30.3	14.4	7.00e-07	0	43	0	627048448	16	4561
2026-01-09 01:02:04.70	353.25	38.13	-28.4	-30.5	14.3	1.50e-06	0	43	0	629145600	16	4626
2026-01-09 01:02:05.99	352.93	38.40	-28.5	-30.4	14.1	1.50e-06	0	43	0	633339904	17	4476
2026-01-09 01:02:06.72	352.75	38.55	-28.6	-30.7	13.9	3.80e-06	0	43	0	635437056	17	4554
2026-01-09 01:02:08.01	352.42	38.81	-28.6	-30.6	14.0	3.00e-06	0	43	0	639631360	17	4535
2026-01-09 01:02:08.72	352.24	38.96	-28.6	-30.6	14.0	1.73e-03	0	43	0	641728512	17	4524
2026-01-09 01:02:10.03	351.90	39.23	-28.6	-30.6	14.0	4.50e-06	0	43	0	645922816	17	4542
2026-01-09 01:02:10.74	351.72	39.38	-28.6	-30.7	13.9	3.80e-06	0	43	0	648019968	17	4552
2026-01-09 01:02:12.04	351.37	39.66	-28.7	-30.8	13.8	4.50e-06	0	43	0	652214272	17	4584
2026-01-09 01:02:12.75	351.18	39.80	-28.8	-31.0	13.7	3.80e-06	0	43	0	654311424	17	4661
2026-01-09 01:02:14.04	350.83	40.08	-28.7	-30.8	13.9	2.20e-06	0	43	0	658505728	17	4589
2026-01-09 01:02:14.76	350.63	40.23	-28.7	-30.8	13.8	3.80e-06	0	43	0	660602880	17	4578
2026-01-09 01:02:16.06	350.26	40.50	-28.7	-30.7	13.9	6.10e-06	0	43	0	664797184	17	4582
2026-01-09 01:02:16.78	350.06	40.66	-28.7	-30.7	13.9	3.00e-06	0	43	0	666894336	17	4581
2026-01-09 01:02:18.08	349.68	40.93	-28.9	-31.2	13.6	9.90e-06	0	43	0	671088640	17	4729
2026-01-09 01:02:18.79	349.48	41.08	-28.8	-31.1	13.6	7.60e-06	0	43	0	673185792	17	4686
2026-01-09 01:02:20.13	349.08	41.37	-29.1	-31.3	13.2	1.14e-05	0	43	0	677380096	18	4639
2026-01-09 01:02:20.85	348.86	41.52	-29.3	-31.8	13.0	3.35e-05	0	43	0	679477248	18	4799
2026-01-09 01:02:22.15	348.47	41.80	-29.2	-31.5	13.2	2.59e-05	0	43	0	683671552	18	4702
2026-01-09 01:02:22.86	348.25	41.95	-29.2	-31.5	13.2	2.05e-05	0	43	0	685768704	18	4706
2026-01-09 01:02:24.15	347.85	42.23	-29.4	-32.0	12.7	4.34e-05	0	43	0	689963008	18	4863
2026-01-09 01:02:24.87	347.62	42.39	-29.2	-31.7	13.1	4.27e-05	0	43	0	692060160	18	4770
2026-01-09 01:02:26.15	347.21	42.66	-29.3	-31.9	12.8	4.04e-05	0	43	0	696254464	18	4823
2026-01-09 01:02:26.87	346.97	42.82	-29.3	-31.9	13.0	4.11e-05	0	43	0	698351616	18	4819
2026-01-09 01:02:28.17	346.54	43.10	-29.7	-32.3	12.4	1.18e-04	0	43	0	702545920	19	4840
2026-01-09 01:02:28.88	346.31	43.25	-29.8	-32.6	12.2	1.61e-04	0	43	0	704643072	19	4950
2026-01-09 01:02:30.17	345.87	43.53	-29.5	-31.9	12.7	1.08e-04	0	43	0	708837376	19	4713
2026-01-09 01:02:30.89	345.62	43.69	-29.6	-32.1	12.6	1.14e-04	0	43	0	710934528	19	4782
2026-01-09 01:02:32.16	345.18	43.96	-29.9	-32.8	12.1	2.37e-04	0	43	0	715128832	19	5014
2026-01-09 01:02:32.90	344.92	44.12	-29.7	-32.3	12.4	1.81e-04	0	43	0	717225984	19	4865
2026-01-09 01:02:34.19	344.45	44.40	-29.4	-31.6	12.9	4.80e-05	0	43	0	721420288	19	4615
2026-01-09 01:02:34.90	344.20	44.55	-29.4	-31.4	12.9	4.88e-05	0	43	0	723517440	19	4577
2026-01-09 01:02:36.18	343.73	44.83	-29.5	-31.9	12.6	4.88e-05	0	43	0	727711744	19	4717
2026-01-09 01:02:36.94	343.44	44.99	-29.7	-32.2	12.4	1.46e-04	0	43	0	729808896	19	4827
2026-01-09 01:02:38.22	342.96	45.27	-30.0	-32.7	11.7	4.48e-03	0	43	0	734003200	20	4887
2026-01-09 01:02:38.94	342.68	45.42	-29.7	-32.0	12.2	2.44e-04	0	43	0	736100352	20	4649
2026-01-09 01:02:40.22	342.18	45.70	-29.4	-31.6	12.8	6.63e-05	0	43	0	740294656	19	4620
2026-01-09 01:02:40.93	341.90	45.85	-29.3	-31.3	13.0	4.88e-05	0	43	0	742391808	19	4518
2026-01-09 01:02:42.22	341.39	46.13	-29.5	-31.7	12.8	2.59e-03	0	43	0	746586112	19	4649
2026-01-09 01:02:42.96	341.09	46.28	-29.6	-32.0	12.7	8.69e-05	0	43	0	748683264	19	4738
2026-01-09 01:02:44.25	340.56	46.56	-29.6	-32.1	12.5	2.70e-03	0	43	0	752877568	19	4797
2026-01-09 01:02:44.96	340.26	46.71	-29.6	-32.0	12.6	8.69e-05	0	43	0	754974720	19	4748
2026-01-09 01:02:46.24	339.72	46.98	-29.6	-31.9	12.7	9.68e-05	0	43	0	759169024	19	4736
2026-01-09 01:02:46.98	339.40	47.14	-29.4	-31.6	12.9	6.86e-05	0	43	0	761266176	19	4635
2026-01-09 01:02:48.25	338.85	47.41	-29.4	-31.6	12.9	2.16e-03	0	43	0	765460480	19	4615
2026-01-09 01:02:48.98	338.53	47.56	-29.2	-31.1	13.2	2.37e-04	0	43	0	767557632	19	4473
2026-01-09 01:02:50.26	337.96	47.83	-29.2	-31.6	13.2	1.45e-03	0	43	0	771751936	18	4738
2026-01-09 01:02:50.98	337.63	47.98	-29.2	-31.5	13.2	2.36e-05	0	43	0	773849088	18	4688
2026-01-09 01:02:52.28	337.04	48.25	-29.2	-31.5	13.3	2.51e-05	0	43	0	778043392	18	4690
2026-01-09 01:02:52.99	336.71	48.39	-28.9	-31.2	13.7	8.30e-06	0	43	0	780140544	17	4723
2026-01-09 01:02:54.28	336.10	48.66	-28.8	-31.1	13.9	1.69e-03	0	43	0	784334848	17	4672
2026-01-09 01:02:55.00	335.76	48.80	-29.1	-31.2	13.5	1.06e-05	0	43	0	786432000	18	4598
2026-01-09 01:02:56.29	335.13	49.06	-29.0	-31.1	13.6	1.70e-03	0	43	0	790626304	18	4559
2026-01-09 01:02:57.01	334.78	49.21	-28.9	-31.4	13.7	1.67e-03	0	43	0	792723456	17	4760
2026-01-09 01:02:58.30	334.14	49.47	-29.0	-31.0	13.6	9.10e-06	0	43	0	796917760	18	4530
2026-01-09 01:02:59.02	333.77	49.61	-28.7	-30.8	13.9	4.50e-06	0	43	0	799014912	17	4595
2026-01-09 01:03:00.31	333.12	49.86	-28.7	-30.7	14.0	9.91e-04	0	43	0	803209216	17	4568
2026-01-09 01:03:01.03	332.74	50.00	-28.8	-31.2	13.7	3.00e-06	0	43	0	805306368	17	4707
2026-01-09 01:03:02.33	332.06	50.26	-28.9	-31.3	13.7	6.80e-06	0	43	0	809500672	17	4746
2026-01-09 01:03:03.05	331.68	50.39	-28.7	-30.9	13.9	7.91e-04	0	43	0	811597824	17	4621
2026-01-09 01:03:04.34	330.99	50.64	-28.8	-31.1	13.8	6.10e-06	0	43	0	815792128	17	4670
2026-01-09 01:03:05.06	330.60	50.77	-28.8	-31.0	13.8	1.29e-05	0	43	0	817889280	17	4661
2026-01-09 01:03:06.36	329.88	51.01	-28.9	-31.3	13.6	3.80e-06	0	43	0	822083584	17	4753
2026-01-09 01:03:07.07	329.48	51.15	-28.9	-31.4	13.6	7.60e-06	0	43	0	824180736	17	4776
2026-01-09 01:03:08.37	328.75	51.38	-28.6	-30.5	14.2	3.00e-06	0	43	0	828375040	17	4493
2026-01-09 01:03:09.09	328.34	51.51	-28.4	-30.1	14.3	1.80e-03	0	43	0	830472192	17	4384
2026-01-09 01:03:10.39	327.59	51.74	-28.6	-30.6	14.1	2.20e-06	0	43	0	834666496	17	4539
2026-01-09 01:03:11.11	327.16	51.87	-28.7	-30.8	13.9	2.13e-03	0	43	0	836763648	17	4606
2026-01-09 01:03:12.40	326.40	52.09	-28.4	-30.2	14.3	7.00e-07	0	43	0	840957952	17	4408
2026-01-09 01:03:13.12	325.97	52.21	-28.2	-29.6	14.6	2.20e-06	0	43	0	843055104	17	4234
2026-01-09 01:03:14.41	325.19	52.42	-27.9	-29.5	15.0	0.00e+00	0	43	0	847249408	16	4314
2026-01-09 01:03:15.13	324.74	52.54	-27.7	-29.6	15.1	2.44e-03	0	43	0	849346560	15	4471
2026-01-09 01:03:16.43	323.94	52.75	-27.6	-29.4	15.2	0.00e+00	0	43	0	853540864	15	4410
2026-01-09 01:03:17.14	323.49	52.86	-27.6	-29.4	15.2	1.63e-03	0	43	0	855638016	15	4423
2026-01-09 01:03:18.44	322.67	53.06	-27.6	-29.3	15.2	0.00e+00	0	43	0	859832320	15	4389
2026-01-09 01:03:19.16	322.21	53.17	-27.7	-29.6	15.0	0.00e+00	0	43	0	861929472	15	4468
2026-01-09 01:03:20.45	321.37	53.36	-28.3	-30.5	14.4	0.00e+00	0	43	0	866123776	16	4612
2026-01-09 01:03:21.17	320.90	53.47	-28.6	-30.6	14.1	1.50e-06	0	43	0	868220928	17	4527
2026-01-09 01:03:22.47	320.04	53.65	-28.0	-29.1	15.0	7.00e-07	0	43	0	872415232	17	4100
2026-01-09 01:03:23.18	319.57	53.75	-27.8	-29.1	15.2	2.82e-04	0	43	0	874512384	16	4216
2026-01-09 01:03:24.48	318.69	53.92	-27.9	-29.3	15.1	0.00e+00	0	43	0	878706688	16	4271
2026-01-09 01:03:25.20	318.20	54.02	-28.0	-29.7	14.9	0.00e+00	0	43	0	880803840	16	4377
2026-01-09 01:03:26.49	317.32	54.18	-27.9	-29.3	15.1	0.00e+00	0	43	0	884998144	16	4275
2026-01-09 01:03:27.21	316.82	54.27	-27.5	-29.1	15.3	0.00e+00	0	43	0	887095296	15	4311
2026-01-09 01:03:28.51	315.91	54.42	-27.4	-28.8	15.5	0.00e+00	0	43	0	891289600	15	4229
2026-01-09 01:03:29.22	315.41	54.51	-27.5	-29.2	15.3	0.00e+00	0	43	0	893386752	15	4340
2026-01-09 01:03:30.52	314.49	54.65	-27.8	-29.7	15.0	0.00e+00	0	43	0	897581056	15	4500
2026-01-09 01:03:31.24	313.97	54.73	-28.2	-30.1	14.7	0.00e+00	0	43	0	899678208	16	4488
2026-01-09 01:03:32.53	313.05	54.86	-28.5	-30.4	14.2	7.00e-07	0	43	0	903872512	17	4477
2026-01-09 01:03:33.25	312.52	54.93	-28.6	-30.6	14.1	7.00e-07	0	43	0	905969664	17	4538
2026-01-09 01:03:34.55	311.57	55.05	-28.6	-30.7	14.0	2.20e-06	0	43	0	910163968	17	4563
2026-01-09 01:03:35.26	311.05	55.11	-28.4	-30.0	14.4	7.00e-07	0	43	0	912261120	17	4360
2026-01-09 01:03:36.56	310.09	55.22	-28.3	-30.3	14.6	7.00e-07	0	43	0	916455424	16	4544
2026-01-09 01:03:37.28	309.55	55.28	-28.0	-29.8	14.9	0.00e+00	0	43	0	918552576	16	4396
2026-01-09 01:03:38.58	308.58	55.37	-27.8	-29.2	15.2	0.00e+00	0	43	0	922746880	16	4245
2026-01-09 01:03:39.30	308.04	55.42	-27.6	-29.3	15.2	0.00e+00	0	43	0	924844032	15	4380
2026-01-09 01:03:40.59	307.07	55.51	-27.1	-28.2	15.9	1.51e-04	0	43	0	929038336	15	4076
2026-01-09 01:03:41.31	306.52	55.55	-27.1	-28.2	15.9	0.00e+00	0	43	0	931135488	15	4066
2026-01-09 01:03:42.60	305.54	55.62	-27.3	-29.0	15.7	0.00e+00	0	43	0	935329792	14	4422
2026-01-09 01:03:43.32	304.98	55.66	-27.3	-29.1	15.6	0.00e+00	0	43	0	937426944	14	4446
2026-01-09 01:03:44.61	303.99	55.72	-27.4	-29.3	14.1	0.00e+00	0	43	0	941621248	14	4478
2026-01-09 01:03:45.33	303.44	55.75	-27.2	-28.9	15.7	0.00e+00	0	43	0	943718400	14	4387
2026-01-09 01:03:46.62	302.44	55.79	-27.1	-28.7	15.8	0.00e+00	0	43	0	947912704	14	4335
2026-01-09 01:03:47.33	301.89	55.81	-27.2	-28.9	15.7	0.00e+00	0	43	0	950009856	14	4397
2026-01-09 01:03:48.63	300.89	55.84	-27.4	-29.3	15.5	0.00e+00	0	43	0	954204160	14	4493
2026-01-09 01:03:49.34	300.33	55.86	-27.6	-29.4	15.2	0.00e+00	0	43	0	956301312	15	4413
2026-01-09 01:03:50.63	299.33	55.88	-27.8	-29.7	15.0	0.00e+00	0	43	0	960495616	15	4510
2026-01-09 01:03:51.35	298.77	55.88	-27.6	-29.4	15.1	0.00e+00	0	43	0	962592768	15	4401
2026-01-09 01:03:52.65	297.76	55.89	-27.2	-28.3	15.7	0.00e+00	0	43	0	966787072	15	4113
2026-01-09 01:03:53.37	297.20	55.89	-27.4	-28.9	15.5	0.00e+00	0	43	0	968884224	15	4265
2026-01-09 01:03:54.67	296.18	55.88	-27.8	-29.7	14.9	0.00e+00	0	43	0	973078528	15	4492
2026-01-09 01:03:55.39	295.62	55.87	-27.6	-29.3	15.2	0.00e+00	0	43	0	975175680	15	4383
2026-01-09 01:03:56.68	294.62	55.85	-27.8	-29.8	14.9	0.00e+00	0	43	0	979369984	15	4546
2026-01-09 01:03:57.40	294.06	55.83	-27.9	-29.9	14.9	4.40e-04	0	43	0	981467136	15	4565
2026-01-09 01:03:58.70	293.05	55.79	-27.8	-29.7	15.0	8.84e-04	0	43	0	985661440	15	4500
2026-01-09 01:03:59.42	292.50	55.77	-27.8	-29.9	14.8	0.00e+00	0	43	0	987758592	15	4547
2026-01-09 01:04:00.71	291.50	55.72	-27.6	-29.3	15.2	0.00e+00	0	43	0	991952896	15	4385
2026-01-09 01:04:01.44	290.94	55.69	-27.4	-28.8	15.5	0.00e+00	0	43	0	994050048	15	4254
2026-01-09 01:04:02.73	289.95	55.63	-27.5	-29.1	15.2	2.59e-03	0	43	0	998244352	15	4336
2026-01-09 01:04:03.45	289.40	55.59	-28.3	-30.4	14.4	5.34e-04	0	43	0	1000341504	16	4579
2026-01-09 01:04:04.74	288.42	55.52	-28.5	-30.5	14.1	6.31e-04	0	43	0	1004535808	17	4501
2026-01-09 01:04:05.47	287.87	55.47	-28.1	-29.5	14.6	0.00e+00	0	43	0	1006632960	17	4217
2026-01-09 01:04:06.76	286.89	55.38	-28.1	-30.0	14.6	0.00e+00	0	43	0	1010827264	16	4468
2026-01-09 01:04:07.48	286.35	55.33	-28.2	-30.1	13.7	2.59e-04	0	43	0	1012924416	16	4507
2026-01-09 01:04:08.78	285.38	55.23	-28.4	-30.6	14.3	1.96e-03	0	43	0	1017118720	16	4664
2026-01-09 01:04:09.50	284.85	55.17	-28.4	-30.7	14.3	1.50e-06	0	43	0	1019215872	16	4682
2026-01-09 01:04:10.79	283.90	55.06	-28.2	-30.1	14.6	2.63e-03	0	43	0	1023410176	16	4509
2026-01-09 01:04:11.50	283.38	54.99	-28.0	-30.2	14.6	0.00e+00	0	43	0	1025507328	15	4650
2026-01-09 01:04:12.80	282.43	54.87	-28.0	-29.8	14.7	1.50e-06	0	43	0	1029701632	16	4412
2026-01-09 01:04:13.52	281.91	54.80	-28.3	-30.5	14.4	2.85e-03	0	43	0	1031798784	16	4605
2026-01-09 01:04:14.82	280.98	54.66	-28.1	-29.9	14.7	7.00e-07	0	43	0	1035993088	16	4431
2026-01-09 01:04:15.54	280.46	54.58	-28.0	-29.7	14.8	7.00e-07	0	43	0	1038090240	16	4368
2026-01-09 01:04:16.83	279.55	54.44	-28.1	-30.1	14.6	3.84e-03	0	43	0	1042284544	16	4490
2026-01-09 01:04:17.54	279.05	54.35	-28.0	-29.7	14.8	3.35e-03	0	43	0	1044381696	16	4389
2026-01-09 01:04:18.84	278.15	54.19	-28.2	-30.2	14.5	7.00e-07	0	43	0	1048576000	16	4521
2026-01-09 01:04:19.56	277.65	54.10	-28.4	-30.2	14.3	9.90e-06	0	43	0	1050673152	17	4413
2026-01-09 01:04:20.86	276.77	53.94	-28.2	-29.7	14.5	4.09e-04	0	43	0	1054867456	17	4272
2026-01-09 01:04:21.58	276.28	53.84	-28.5	-30.5	14.0	0.00e+00	0	43	0	1056964608	17	4512
2026-01-09 01:04:22.87	275.41	53.66	-29.3	-31.9	12.9	3.12e-05	0	43	0	1061158912	18	4847
2026-01-09 01:04:23.59	274.93	53.56	-29.2	-31.7	13.1	3.59e-03	0	43	0	1063256064	18	4772
2026-01-09 01:04:24.89	274.08	53.38	-28.6	-30.0	14.1	3.80e-06	0	43	0	1067450368	18	4261
2026-01-09 01:04:25.61	273.61	53.27	-28.4	-30.0	14.4	2.98e-03	0	43	0	1069547520	17	4369
2026-01-09 01:04:26.91	272.77	53.08	-28.0	-29.6	14.8	2.30e-03	0	43	0	1073741824	16	4350
2026-01-09 01:04:27.62	272.32	52.97	-27.6	-28.9	15.2	0.00e+00	0	43	0	1075838976	16	4149
2026-01-09 01:04:28.91	271.51	52.76	-27.7	-29.6	15.0	0.00e+00	0	43	0	1080033280	15	4466
2026-01-09 01:04:29.63	271.06	52.65	-28.7	-30.8	13.9	2.91e-03	0	43	0	1082130432	17	4614
2026-01-09 01:04:30.92	270.26	52.44	-28.6	-30.7	13.9	5.30e-06	0	43	0	1086324736	17	4565
2026-01-09 01:04:31.64	269.82	52.32	-28.0	-29.8	14.8	0.00e+00	0	43	0	1088421888	16	4404
2026-01-09 01:04:32.93	269.04	52.10	-27.1	-28.2	15.8	0.00e+00	0	43	0	1092616192	15	4087
2026-01-09 01:04:33.65	268.61	51.98	-27.2	-28.3	15.7	0.00e+00	0	43	0	1094713344	15	4107
2026-01-09 01:04:34.93	267.86	51.76	-27.9	-30.1	14.7	0.00e+00	0	43	0	1098907648	15	4629
2026-01-09 01:04:35.65	267.44	51.63	-28.6	-30.5	14.1	2.41e-03	0	43	0	1101004800	17	4503
2026-01-09 01:04:36.95	266.69	51.40	-28.7	-30.8	13.8	2.20e-06	0	43	0	1105199104	17	4610
2026-01-09 01:04:37.67	266.28	51.27	-28.4	-30.1	14.3	7.00e-07	0	43	0	1107296256	17	4377
2026-01-09 01:04:38.95	265.56	51.03	-27.9	-29.5	14.6	0.00e+00	0	43	0	1111490560	16	4323
2026-01-09 01:04:39.67	265.16	50.90	-28.0	-29.7	14.7	0.00e+00	0	43	0	1113587712	16	4393
2026-01-09 01:04:40.97	264.45	50.65	-27.8	-29.8	14.8	7.00e-07	0	43	0	1117782016	15	4536
2026-01-09 01:04:41.70	264.05	50.52	-28.2	-30.1	14.6	0.00e+00	0	43	0	1119879168	16	4510
2026-01-09 01:04:42.98	263.37	50.27	-29.2	-31.6	13.1	1.67e-05	0	43	0	1124073472	18	4737
2026-01-09 01:04:43.70	262.99	50.13	-29.4	-32.2	12.7	6.63e-05	0	43	0	1126170624	18	4943
2026-01-09 01:04:44.99	262.32	49.88	-29.0	-31.0	13.5	2.55e-03	0	43	0	1130364928	18	4538
2026-01-09 01:04:45.71	261.95	49.74	-29.0	-31.1	13.4	6.10e-06	0	43	0	1132462080	18	4571
2026-01-09 01:04:47.01	261.29	49.48	-29.1	-31.4	13.2	2.21e-05	0	43	0	1136656384	18	4681
2026-01-09 01:04:47.73	260.93	49.34	-29.0	-31.5	13.4	1.52e-05	0	43	0	1138753536	17	4808
2026-01-09 01:04:49.02	260.29	49.08	-29.2	-31.5	13.2	5.05e-04	0	43	0	1142947840	18	4704
2026-01-09 01:04:49.74	259.94	48.93	-29.8	-32.5	12.3	9.07e-05	0	43	0	1145044992	19	4916
2026-01-09 01:04:51.03	259.32	48.67	-30.2	-33.2	11.4	1.06e-03	0	43	0	1149239296	20	5079
2026-01-09 01:04:51.75	258.98	48.52	-30.5	-33.5	10.8	1.66e-03	0	43	0	1151336448	21	5108
2026-01-09 01:04:53.04	258.37	48.25	-30.3	-33.4	11.1	2.42e-03	0	43	0	1155530752	20	5157
2026-01-09 01:04:53.76	258.04	48.11	-29.6	-31.7	12.3	5.42e-04	0	43	0	1157627904	20	4548
2026-01-09 01:04:55.06	257.45	47.83	-28.7	-30.3	13.9	9.10e-06	0	43	0	1161822208	18	4333
2026-01-09 01:04:55.78	257.12	47.68	-28.4	-30.2	14.1	1.50e-06	0	43	0	1163919360	17	4425
2026-01-09 01:04:57.07	256.55	47.41	-28.3	-30.5	14.2	1.90e-04	0	43	0	1168113664	16	4603
2026-01-09 01:04:57.79	256.24	47.26	-28.8	-31.1	13.6	6.10e-06	0	43	0	1170210816	17	4681
2026-01-09 01:04:59.09	255.68	46.99	-29.8	-32.6	12.0	2.55e-04	0	43	0	1174405120	19	4991
2026-01-09 01:04:59.81	255.37	46.83	-30.1	-32.9	11.4	4.93e-04	0	43	0	1176502272	20	4973
2026-01-09 01:05:01.10	254.83	46.56	-30.0	-32.9	11.5	1.20e-03	0	43	0	1180696576	20	4972
2026-01-09 01:05:01.82	254.53	46.40	-30.0	-32.8	11.5	8.75e-04	0	43	0	1182793728	20	4949
2026-01-09 01:05:03.11	254.00	46.13	-29.5	-31.9	12.4	1.84e-04	0	43	0	1186988032	19	4720
2026-01-09 01:05:03.83	253.71	45.97	-29.4	-32.1	12.7	5.34e-05	0	43	0	1189085184	18	4917
2026-01-09 01:05:05.13	253.20	45.69	-29.5	-32.3	12.6	1.37e-05	0	43	0	1193279488	18	4977
2026-01-09 01:05:05.85	252.91	45.54	-30.6	-33.8	10.6	2.59e-03	0	43	0	1195376640	21	5205
2026-01-09 01:05:07.14	252.41	45.26	-30.9	-34.7	9.8	6.22e-03	0	43	0	1199570944	21	5553
2026-01-09 01:05:07.86	252.14	45.10	-31.3	-35.5	9.1	1.70e-02	0	43	0	1201668096	22	5814
2026-01-09 01:05:09.16	251.65	44.82	-31.8	-36.5	8.0	6.91e-02	0	43	0	1205862400	23	6191
2026-01-09 01:05:09.87	251.39	44.67	-31.5	-35.5	8.7	3.83e-02	0	43	0	1207959552	23	5714
2026-01-09 01:05:11.16	250.92	44.39	-30.7	-34.2	10.3	6.94e-03	0	43	0	1212153856	21	5374
2026-01-09 01:05:11.88	250.66	44.23	-30.6	-33.7	10.6	4.12e-03	0	43	0	1214251008	21	5165
2026-01-09 01:05:13.17	250.20	43.95	-31.2	-35.0	9.4	1.22e-02	0	43	0	1218445312	22	5601
2026-01-09 01:05:13.90	249.94	43.80	-30.5	-33.0	10.7	5.09e-03	0	43	0	1220542464	22	4805
2026-01-09 01:05:15.19	249.49	43.52	-29.2	-31.1	13.0	3.42e-04	0	43	0	1224736768	19	4459
2026-01-09 01:05:15.91	249.25	43.36	-28.9	-30.8	13.4	2.62e-04	0	43	0	1226833920	18	4495
2026-01-09 01:05:17.20	248.81	43.08	-29.4	-32.2	12.6	2.97e-05	0	43	0	1231028224	18	4945
2026-01-09 01:05:17.92	248.57	42.92	-30.2	-33.2	11.3	8.21e-04	0	43	0	1233125376	20	5075
2026-01-09 01:05:19.22	248.15	42.64	-30.9	-34.6	9.9	6.65e-03	0	43	0	1237319680	21	5525
2026-01-09 01:05:19.94	247.91	42.49	-30.9	-34.6	9.9	8.95e-03	0	43	0	1239416832	21	5520
2026-01-09 01:05:21.23	247.50	42.21	-29.5	-31.3	12.4	3.85e-04	0	43	0	1243611136	20	4442
2026-01-09 01:05:21.95	247.28	42.05	-28.8	-30.1	13.5	2.53e-04	0	43	0	1245708288	19	4184
2026-01-09 01:05:23.25	246.87	41.77	-28.9	-31.3	13.5	4.50e-06	0	43	0	1249902592	17	4760
2026-01-09 01:05:23.96	246.65	41.62	-29.8	-32.7	12.0	3.42e-04	0	43	0	1251999744	19	5001
2026-01-09 01:05:25.25	246.26	41.34	-29.9	-32.5	11.7	4.74e-03	0	43	0	1256194048	20	4843
2026-01-09 01:05:25.98	246.05	41.19	-30.0	-32.7	11.6	6.27e-04	0	43	0	1258291200	20	4932
2026-01-09 01:05:27.27	245.67	40.91	-29.8	-32.1	12.0	3.93e-04	0	43	0	1262485504	20	4709
2026-01-09 01:05:27.99	245.46	40.76	-29.8	-32.7	12.0	3.20e-04	0	43	0	1264582656	19	5004
2026-01-09 01:05:29.29	245.09	40.48	-30.2	-33.4	11.1	4.81e-03	0	43	0	1268776960	20	5172
2026-01-09 01:05:30.00	244.88	40.33	-30.3	-33.6	11.0	2.28e-03	0	43	0	1270874112	20	5232
2026-01-09 01:05:31.29	244.52	40.06	-29.6	-32.2	12.3	3.97e-03	0	43	0	1275068416	19	4832
2026-01-09 01:05:32.01	244.33	39.90	-29.0	-31.0	12.9	4.19e-05	0	43	0	1277165568	18	4567
2026-01-09 01:05:33.30	243.98	39.63	-27.8	-29.3	14.8	5.42e-04	0	43	0	1281359872	16	4272
2026-01-09 01:05:34.02	243.78	39.48	-27.3	-28.6	15.4	6.69e-04	0	43	0	1283457024	15	4197
2026-01-09 01:05:35.31	243.44	39.21	-26.9	-28.2	15.8	3.78e-03	0	43	0	1287651328	14	4199
2026-01-09 01:05:36.03	243.25	39.06	-27.0	-28.4	15.7	0.00e+00	0	43	0	1289748480	14	4248
2026-01-09 01:05:37.32	242.92	38.79	-27.8	-29.8	14.7	3.83e-03	0	43	0	1293942784	15	4538
2026-01-09 01:05:38.04	242.74	38.64	-28.6	-30.7	13.8	3.80e-06	0	43	0	1296039936	17	4586
2026-01-09 01:05:39.32	242.42	38.37	-29.2	-31.8	12.8	5.03e-05	0	43	0	1300234240	18	4815
2026-01-09 01:05:40.04	242.24	38.22	-29.3	-31.8	12.8	2.49e-03	0	43	0	1302331392	18	4832
2026-01-09 01:05:41.34	241.92	37.95	-28.9	-30.8	13.4	2.22e-03	0	43	0	1306525696	18	4496
2026-01-09 01:05:42.06	241.74	37.81	-28.7	-31.0	13.6	1.22e-05	0	43	0	1308622848	17	4664
2026-01-09 01:05:43.35	241.44	37.54	-28.7	-31.0	13.6	1.39e-03	0	43	0	1312817152	17	4670
2026-01-09 01:05:44.07	241.27	37.39	-28.8	-31.2	13.5	1.27e-03	0	43	0	1314914304	17	4736
2026-01-09 01:05:45.37	240.96	37.13	-29.0	-31.1	13.3	4.19e-05	0	43	0	1319108608	18	4584
2026-01-09 01:05:46.09	240.80	36.98	-28.9	-31.4	13.3	1.06e-03	0	43	0	1321205760	17	4798
2026-01-09 01:05:47.38	240.51	36.72	-28.8	-30.6	13.5	1.06e-05	0	43	0	1325400064	18	4449
2026-01-09 01:05:48.10	240.35	36.58	-28.6	-30.3	13.7	8.30e-06	0	43	0	1327497216	18	4347
2026-01-09 01:05:49.39	240.06	36.32	-28.4	-30.2	14.0	7.00e-07	0	43	0	1331691520	17	4428
2026-01-09 01:05:50.11	239.90	36.18	-28.5	-30.4	13.9	1.81e-03	0	43	0	1333788672	17	4487
2026-01-09 01:05:51.41	239.62	35.92	-28.5	-30.5	13.9	2.20e-06	0	43	0	1336934400	17	4520
2026-01-09 01:05:52.13	239.47	35.77	-28.6	-30.8	13.7	2.82e-03	0	43	0	1340080128	17	4603
2026-01-09 01:05:53.42	239.20	35.52	-28.8	-31.3	13.3	1.37e-05	0	43	0	1344274432	17	4777
2026-01-09 01:05:54.15	239.05	35.37	-28.9	-31.4	13.3	1.44e-05	0	43	0	1346371584	17	4808
2026-01-09 01:05:55.43	238.78	35.12	-28.6	-30.8	13.6	1.37e-05	0	43	0	1350565888	17	4615
2026-01-09 01:05:56.15	238.64	34.98	-28.5	-30.4	13.9	1.46e-03	0	43	0	1352663040	17	4482
2026-01-09 01:05:57.44	238.38	34.73	-28.1	-29.5	14.4	0.00e+00	0	43	0	1356857344	17	4238
2026-01-09 01:05:58.17	238.23	34.59	-28.0	-29.3	14.5	5.65e-04	0	43	0	1358954496	17	4162
2026-01-09 01:05:59.46	237.98	34.34	-28.0	-29.6	14.6	0.00e+00	0	43	0	1363148800	16	4374
2026-01-09 01:06:00.18	237.84	34.20	-28.0	-29.7	14.6	7.00e-07	0	43	0	1365245952	16	4394
2026-01-09 01:06:01.48	237.59	33.96	-28.2	-30.3	14.3	1.50e-06	0	43	0	1369440256	16	4563
2026-01-09 01:06:02.20	237.46	33.82	-28.1	-30.1	14.4	2.67e-04	0	43	0	1371537408	16	4501
2026-01-09 01:06:03.49	237.22	33.57	-28.2	-30.2	14.4	7.00e-07	0	43	0	1375731712	16	4536
2026-01-09 01:06:04.20	237.09	33.44	-28.3	-30.4	14.2	7.00e-07	0	43	0	1377828864	16	4604
2026-01-09 01:06:05.50	236.85	33.20	-28.1	-29.9	14.5	0.00e+00	0	43	0	1382023168	16	4464
2026-01-09 01:06:06.21	236.72	33.06	-28.2	-30.1	14.4	1.50e-06	0	43	0	1384120320	16	4518
2026-01-09 01:06:07.50	236.49	32.82	-28.0	-29.8	14.6	1.50e-06	0	43	0	1387266048	16	4423
2026-01-09 01:06:08.23	236.36	32.69	-27.9	-29.5	14.8	0.00e+00	0	43	0	1390411776	16	4349
2026-01-09 01:06:09.52	236.14	32.45	-27.5	-28.7	15.3	0.00e+00	0	43	0	1394606080	16	4104
2026-01-09 01:06:10.24	236.01	32.32	-27.4	-28.8	15.2	0.00e+00	0	43	0	1396703232	15	4266
2026-01-09 01:06:11.54	235.79	32.08	-27.5	-29.1	15.1	0.00e+00	0	43	0	1400897536	15	4330
2026-01-09 01:06:12.25	235.67	31.95	-27.4	-28.9	15.2	0.00e+00	0	43	0	1402994688	15	4274
2026-01-09 01:06:13.55	235.46	31.71	-27.4	-29.0	15.1	0.00e+00	0	43	0	1407188992	15	4303
2026-01-09 01:06:14.27	235.34	31.58	-27.5	-29.2	15.0	0.00e+00	0	43	0	1409286144	15	4357
2026-01-09 01:06:15.57	235.13	31.35	-27.6	-29.4	14.9	6.80e-06	0	43	0	1413480448	15	4411
2026-01-09 01:06:16.28	235.02	31.22	-27.6	-29.3	14.9	0.00e+00	0	43	0	1415577600	15	4392
2026-01-09 01:06:17.57	234.81	30.99	-27.8	-29.8	14.6	0.00e+00	0	43	0	1419771904	15	4553
2026-01-09 01:06:18.29	234.70	30.87	-27.9	-30.0	14.5	7.00e-07	0	43	0	1421869056	15	4609
2026-01-09 01:06:19.59	234.50	30.64	-28.4	-30.6	14.1	7.00e-07	0	43	0	1426063360	16	4677
2026-01-09 01:06:20.30	234.39	30.51	-28.3	-30.5	14.1	1.50e-06	0	43	0	1428160512	16	4641
2026-01-09 01:06:21.59	234.19	30.29	-28.2	-30.4	14.2	7.60e-06	0	43	0	1431306240	16	4595
2026-01-09 01:06:22.32	234.08	30.16	-28.0	-29.8	14.5	0.00e+00	0	43	0	1434451968	16	4430
2026-01-09 01:06:23.61	233.89	29.94	-27.7	-29.7	14.7	0.00e+00	0	43	0	1438646272	15	4506
2026-01-09 01:06:24.33	233.78	29.81	-27.5	-29.2	15.0	6.80e-06	0	43	0	1440743424	15	4369
2026-01-09 01:06:25.62	233.60	29.59	-27.1	-28.3	15.4	0.00e+00	0	43	0	1444937728	15	4125
2026-01-09 01:06:26.34	233.49	29.47	-27.1	-28.2	15.5	9.90e-06	0	43	0	1447034880	15	4083
2026-01-09 01:06:27.64	233.31	29.25	-27.0	-28.1	15.6	5.30e-06	0	43	0	1451229184	15	4065
2026-01-09 01:06:28.36	233.21	29.13	-27.0	-28.0	15.6	0.00e+00	0	43	0	1453326336	15	4040
2026-01-09 01:06:29.66	233.03	28.91	-27.1	-28.2	15.5	0.00e+00	0	43	0	1457520640	15	4095
2026-01-09 01:06:30.37	232.93	28.79	-27.0	-28.1	15.5	1.21e-04	0	43	0	1459617792	15	4083
2026-01-09 01:06:31.67	232.75	28.57	-27.0	-28.6	15.5	1.20e-03	0	43	0	1463812096	14	4321
2026-01-09 01:06:32.39	232.65	28.46	-27.1	-28.7	15.5	2.05e-05	0	43	0	1465909248	14	4328
2026-01-09 01:06:33.68	232.48	28.24	-26.9	-28.9	15.6	2.20e-06	0	43	0	1470103552	13	4504
2026-01-09 01:06:34.40	232.39	28.13	-27.0	-28.5	15.6	0.00e+00	0	43	0	1472200704	14	4285
2026-01-09 01:06:35.70	232.22	27.91	-27.1	-28.7	15.5	0.00e+00	0	43	0	1476395008	14	4349
2026-01-09 01:06:36.42	232.12	27.80	-27.0	-28.5	15.6	6.80e-06	0	43	0	1478492160	14	4299
2026-01-09 01:06:37.70	231.96	27.59	-27.0	-28.6	15.5	0.00e+00	0	43	0	1481637888	14	4321
2026-01-09 01:06:38.43	231.87	27.47	-27.0	-28.6	15.5	9.41e-04	0	43	0	1484783616	14	4323
2026-01-09 01:06:39.73	231.71	27.26	-26.9	-28.9	15.6	0.00e+00	0	43	0	1488977920	13	4527
2026-01-09 01:06:40.44	231.62	27.15	-26.9	-28.9	15.6	0.00e+00	0	43	0	1491075072	13	4526
2026-01-09 01:06:41.74	231.46	26.95	-26.8	-28.7	15.6	0.00e+00	0	43	0	1495269376	13	4467
2026-01-09 01:06:42.46	231.37	26.83	-26.8	-28.7	15.6	6.10e-06	0	43	0	1497366528	13	4479
2026-01-09 01:06:43.75	231.21	26.63	-27.1	-28.9	15.3	2.94e-03	0	43	0	1501560832	14	4400
2026-01-09 01:06:44.48	231.13	26.52	-27.2	-29.1	15.2	1.41e-03	0	43	0	1503657984	14	4474
2026-01-09 01:06:45.77	230.98	26.31	-27.0	-28.7	15.4	0.00e+00	0	43	0	1507852288	14	4345
2026-01-09 01:06:46.48	230.89	26.21	-27.1	-28.8	15.3	0.00e+00	0	43	0	1509949440	14	4388
2026-01-09 01:06:47.77	230.74	26.01	-27.2	-28.5	15.2	0.00e+00	0	43	0	1514143744	15	4192
2026-01-09 01:06:48.49	230.66	25.90	-27.1	-28.7	15.4	0.00e+00	0	43	0	1516240896	14	4363
2026-01-09 01:06:49.79	230.51	25.70	-27.0	-28.5	15.5	2.45e-03	0	43	0	1520435200	14	4289
2026-01-09 01:06:50.51	230.43	25.59	-27.1	-28.9	15.3	0.00e+00	0	43	0	1522532352	14	4394
2026-01-09 01:06:51.80	230.29	25.39	-27.5	-29.2	14.9	3.26e-03	0	43	0	1525678080	15	4372
2026-01-09 01:06:52.52	230.21	25.29	-27.5	-29.2	14.8	0.00e+00	0	43	0	1528823808	15	4391
2026-01-09 01:06:53.81	230.07	25.09	-26.9	-28.4	15.5	0.00e+00	0	43	0	1533018112	14	4264
2026-01-09 01:06:54.53	229.99	24.99	-26.7	-28.4	15.8	0.00e+00	0	43	0	1535115264	13	4391
2026-01-09 01:06:55.83	229.85	24.79	-26.5	-27.9	16.0	2.28e-03	0	43	0	1539309568	13	4251
2026-01-09 01:06:56.55	229.78	24.69	-26.5	-28.0	16.0	0.00e+00	0	43	0	1541406720	13	4259
2026-01-09 01:06:57.85	229.64	24.50	-26.7	-28.4	15.8	3.01e-03	0	43	0	1545601024	13	4363
2026-01-09 01:06:58.56	229.57	24.39	-26.6	-28.1	15.9	0.00e+00	0	43	0	1547698176	13	4293
2026-01-09 01:06:59.86	229.43	24.21	-26.4	-27.8	16.1	0.00e+00	0	43	0	1551892480	13	4214
2026-01-09 01:07:00.58	229.36	24.10	-26.6	-28.2	15.9	0.00e+00	0	43	0	1553989632	13	4328
2026-01-09 01:07:01.87	229.23	23.92	-26.6	-28.1	15.9	0.00e+00	0	43	0	1558183936	13	4295
2026-01-09 01:07:02.61	229.16	23.81	-26.6	-28.2	15.9	0.00e+00	0	43	0	1560281088	13	4324
2026-01-09 01:07:03.90	229.03	23.63	-26.9	-28.9	15.4	2.35e-03	0	43	0	1564475392	13	4528
2026-01-09 01:07:04.62	228.96	23.53	-26.7	-28.5	15.7	0.00e+00	0	43	0	1566572544	13	4398
2026-01-09 01:07:05.91	228.83	23.34	-26.6	-28.2	15.8	0.00e+00	0	43	0	1570766848	13	4333
2026-01-09 01:07:06.63	228.76	23.24	-26.7	-28.5	15.7	1.02e-04	0	43	0	1572864000	13	4399
2026-01-09 01:07:07.93	228.64	23.06	-26.9	-28.8	15.5	3.33e-04	0	43	0	1577058304	13	4512
2026-01-09 01:07:08.65	228.57	22.96	-27.0	-28.7	15.3	0.00e+00	0	43	0	1579155456	14	4356
2026-01-09 01:07:09.94	228.45	22.78	-27.2	-29.1	15.1	1.72e-03	0	43	0	1583349760	14	4489
2026-01-09 01:07:10.66	228.38	22.68	-27.2	-29.0	15.1	2.72e-03	0	43	0	1585446912	14	4440
2026-01-09 01:07:11.96	228.26	22.51	-27.2	-29.0	15.1	0.00e+00	0	43	0	1589641216	14	4441
2026-01-09 01:07:12.68	228.20	22.41	-27.2	-29.0	15.1	3.91e-03	0	43	0	1591738368	14	4450
2026-01-09 01:07:13.97	228.08	22.23	-27.2	-29.1	15.0	0.00e+00	0	43	0	1595932672	14	4484
2026-01-09 01:07:14.69	228.02	22.14	-27.2	-29.1	15.0	3.46e-04	0	43	0	1598029824	14	4492
2026-01-09 01:07:15.99	227.90	21.96	-27.3	-29.4	14.9	0.00e+00	0	43	0	1602224128	14	4559
2026-01-09 01:07:16.71	227.84	21.86	-27.3	-29.2	15.0	3.89e-03	0	43	0	1604321280	14	4509
2026-01-09 01:07:18.00	227.73	21.69	-27.3	-29.4	14.9	0.00e+00	0	43	0	1608515584	14	4552
2026-01-09 01:07:18.72	227.66	21.60	-27.2	-29.1	15.0	3.98e-03	0	43	0	1610612736	14	4465
2026-01-09 01:07:20.01	227.55	21.43	-27.2	-29.1	15.0	6.80e-06	0	43	0	1614807040	14	4473
2026-01-09 01:07:20.73	227.49	21.33	-27.0	-28.7	15.2	0.00e+00	0	43	0	1616904192	14	4353
2026-01-09 01:07:22.02	227.38	21.16	-26.8	-28.7	15.4	0.00e+00	0	43	0	1621098496	13	4474
2026-01-09 01:07:22.75	227.32	21.07	-26.8	-28.5	15.5	4.09e-03	0	43	0	1623195648	13	4422
2026-01-09 01:07:24.04	227.22	20.90	-26.7	-28.5	15.6	4.19e-05	0	43	0	1627389952	13	4424
2026-01-09 01:07:24.76	227.16	20.81	-26.7	-28.5	15.6	4.29e-03	0	43	0	1629487104	13	4411
2026-01-09 01:07:26.05	227.05	20.64	-26.7	-28.4	15.6	7.24e-05	0	43	0	1633681408	13	4372
2026-01-09 01:07:26.77	227.00	20.55	-26.7	-28.3	15.7	1.53e-04	0	43	0	1635778560	13	4365
2026-01-09 01:07:28.07	226.89	20.39	-26.6	-28.3	15.7	0.00e+00	0	43	0	1639972864	13	4346
2026-01-09 01:07:28.79	226.83	20.30	-26.5	-27.9	15.9	4.32e-03	0	43	0	1642070016	13	4234
2026-01-09 01:07:30.08	226.73	20.13	-26.6	-28.1	15.7	2.20e-04	0	43	0	1646264320	13	4305
2026-01-09 01:07:30.80	226.68	20.04	-26.6	-28.2	15.7	0.00e+00	0	43	0	1648361472	13	4314
2026-01-09 01:07:32.10	226.58	19.88	-26.3	-27.6	16.1	0.00e+00	0	43	0	1652555776	13	4163
2026-01-09 01:07:32.82	226.52	19.79	-26.1	-27.7	16.3	5.27e-04	0	43	0	1654652928	12	4297
2026-01-09 01:07:34.10	226.42	19.63	-26.3	-28.0	16.1	0.00e+00	0	43	0	1658847232	12	4391
2026-01-09 01:07:34.82	226.37	19.55	-26.5	-28.0	15.8	0.00e+00	0	43	0	1660944384	13	4272
2026-01-09 01:07:36.12	226.27	19.39	-26.4	-27.7	16.0	5.77e-04	0	43	0	1665138688	13	4188
2026-01-09 01:07:36.84	226.22	19.30	-26.3	-28.1	16.0	0.00e+00	0	43	0	1667235840	12	4409
2026-01-09 01:07:38.14	226.12	19.14	-26.4	-28.3	15.9	0.00e+00	0	43	0	1671430144	12	4469
2026-01-09 01:07:38.86	226.07	19.05	-26.4	-28.3	15.9	5.35e-04	0	43	0	1673527296	12	4460
2026-01-09 01:07:40.15	225.98	18.90	-26.7	-28.5	15.5	0.00e+00	0	43	0	1677721600	13	4426
2026-01-09 01:07:40.86	225.93	18.81	-26.9	-28.8	15.3	0.00e+00	0	43	0	1679818752	13	4510
2026-01-09 01:07:42.17	225.84	18.66	-26.8	-28.7	15.4	0.00e+00	0	43	0	1684013056	13	4476
2026-01-09 01:07:42.89	225.78	18.57	-26.8	-28.6	15.5	0.00e+00	0	43	0	1686110208	13	4430
2026-01-09 01:07:44.18	225.69	18.42	-26.8	-28.8	15.4	0.00e+00	0	43	0	1690304512	13	4500
2026-01-09 01:07:44.89	225.65	18.34	-26.9	-28.9	15.3	3.09e-04	0	43	0	1692401664	13	4520
2026-01-09 01:07:46.18	225.56	18.19	-26.8	-28.7	15.4	0.00e+00	0	43	0	1696595968	13	4480
2026-01-09 01:07:46.90	225.51	18.10	-27.0	-29.1	15.2	2.52e-04	0	43	0	1698693120	13	4588
2026-01-09 01:07:48.20	225.42	17.95	-27.0	-28.5	15.2	0.00e+00	0	43	0	1702887424	14	4321
2026-01-09 01:07:48.92	225.37	17.87	-27.0	-28.7	15.1	0.00e+00	0	43	0	1704984576	14	4363
2026-01-09 01:07:50.21	225.29	17.72	-27.1	-28.9	14.7	0.00e+00	0	43	0	1709178880	14	4432
2026-01-09 01:07:50.93	225.24	17.64	-27.3	-29.2	14.8	0.00e+00	0	43	0	1711276032	14	4520
2026-01-09 01:07:52.22	225.15	17.49	-27.4	-29.5	14.7	0.00e+00	0	43	0	1715470336	14	4587
2026-01-09 01:07:52.94	225.11	17.41	-27.3	-29.4	14.7	1.86e-04	0	43	0	1717567488	14	4576
2026-01-09 01:07:54.24	225.02	17.26	-27.5	-29.7	14.6	7.00e-07	0	43	0	1721761792	14	4658
2026-01-09 01:07:54.96	224.98	17.18	-27.5	-29.7	14.5	0.00e+00	0	43	0	1723858944	14	4675
2026-01-09 01:07:56.25	224.89	17.04	-27.5	-29.3	14.5	0.00e+00	0	43	0	1728053248	15	4425
2026-01-09 01:07:56.97	224.85	16.95	-27.4	-29.1	14.6	7.00e-07	0	43	0	1730150400	15	4383
2026-01-09 01:07:58.27	224.77	16.81	-27.6	-29.5	14.4	1.22e-03	0	43	0	1734344704	15	4479
2026-01-09 01:07:58.99	224.72	16.73	-27.7	-29.8	14.1	0.00e+00	0	43	0	1736441856	15	4587
2026-01-09 01:08:00.28	224.64	16.59	-28.2	-30.3	13.7	5.21e-04	0	43	0	1740636160	16	4620
2026-01-09 01:08:01.00	224.60	16.51	-28.0	-29.9	14.0	4.50e-06	0	43	0	1742733312	16	4500
2026-01-09 01:08:02.29	224.52	16.37	-27.8	-29.4	14.3	0.00e+00	0	43	0	1746927616	16	4350
2026-01-09 01:08:03.01	224.48	16.29	-27.8	-29.4	14.3	0.00e+00	0	43	0	1749024768	16	4348
2026-01-09 01:08:04.31	224.40	16.15	-27.5	-29.4	14.4	6.55e-04	0	43	0	1753219072	15	4472
2026-01-09 01:08:05.03	224.36	16.07	-27.5	-29.4	14.4	1.50e-06	0	43	0	1755316224	15	4468
2026-01-09 01:08:06.33	224.28	15.93	-28.3	-30.6	13.5	8.70e-04	0	43	0	1759510528	16	4715
2026-01-09 01:08:07.04	224.24	15.86	-28.1	-30.2	13.8	9.90e-06	0	43	0	1761607680	16	4576
2026-01-09 01:08:08.34	224.16	15.72	-27.7	-29.8	14.1	1.92e-04	0	43	0	1765801984	15	4590
2026-01-09 01:08:09.06	224.12	15.64	-27.5	-29.2	14.5	3.00e-06	0	43	0	1767899136	15	4411
2026-01-09 01:08:10.34	224.05	15.51	-28.0	-30.4	13.7	8.90e-04	0	43	0	1772093440	15	4773
2026-01-09 01:08:11.06	224.01	15.43	-27.8	-30.0	14.0	2.20e-06	0	43	0	1774190592	15	4635
2026-01-09 01:08:12.36	223.94	15.29	-27.9	-30.2	13.8	8.30e-06	0	43	0	1778384896	15	4706
2026-01-09 01:08:13.08	223.90	15.22	-27.1	-29.5	13.8	4.50e-06	0	43	0	1780482048	15	4711
2026-01-09 01:08:14.37	223.82	15.08	-27.5	-29.4	14.4	4.73e-05	0	43	0	1784676352	15	4446
2026-01-09 01:08:15.09	223.79	15.01	-27.5	-29.7	13.2	7.00e-07	0	43	0	1786773504	14	4682
2026-01-09 01:08:16.39	223.71	14.87	-27.3	-29.4	14.6	2.11e-03	0	43	0	1790967808	14	4581
2026-01-09 01:08:17.10	223.68	14.80	-27.2	-29.2	14.7	7.00e-07	0	43	0	1793064960	14	4512
2026-01-09 01:08:18.39	223.61	14.67	-27.3	-29.3	14.6	7.00e-07	0	43	0	1797259264	14	4539
2026-01-09 01:08:19.11	223.57	14.60	-27.1	-29.0	14.8	0.00e+00	0	43	0	1799356416	14	4444
2026-01-09 01:08:20.41	223.50	14.46	-27.2	-29.2	14.7	1.37e-05	0	43	0	1803550720	14	4517
2026-01-09 01:08:21.13	223.46	14.39	-27.4	-29.5	14.5	7.00e-07	0	43	0	1805647872	14	4608
2026-01-09 01:08:22.43	223.39	14.26	-27.2	-29.1	14.7	4.03e-04	0	43	0	1809842176	14	4485
2026-01-09 01:08:23.14	223.36	14.19	-27.1	-29.0	14.8	4.80e-05	0	43	0	1811939328	14	4447
2026-01-09 01:08:24.44	223.29	14.06	-27.1	-29.0	14.8	7.00e-07	0	43	0	1816133632	14	4463
2026-01-09 01:08:25.16	223.25	13.99	-27.2	-29.2	14.6	7.00e-07	0	43	0	1818230784	14	4520
2026-01-09 01:08:26.46	223.19	13.86	-27.2	-29.1	14.7	5.03e-05	0	43	0	1822425088	14	4488
2026-01-09 01:08:27.18	223.15	13.79	-27.3	-29.5	14.5	1.18e-03	0	43	0	1824522240	14	4596
2026-01-09 01:08:28.47	223.09	13.66	-27.7	-29.8	14.0	5.83e-04	0	43	0	1828716544	15	4602
2026-01-09 01:08:29.19	223.05	13.59	-27.8	-30.0	13.9	3.50e-05	0	43	0	1830813696	15	4636
2026-01-09 01:08:30.48	222.99	13.46	-28.0	-30.5	13.6	6.80e-06	0	43	0	1835008000	15	4796
2026-01-09 01:08:31.20	222.95	13.39	-27.7	-29.3	14.1	6.80e-06	0	43	0	1837105152	16	4331
2026-01-09 01:08:32.49	222.89	13.27	-27.4	-29.2	14.3	3.23e-04	0	43	0	1841299456	15	4413
2026-01-09 01:08:33.20	222.85	13.20	-27.2	-29.1	14.7	6.45e-04	0	43	0	1843396608	14	4479
2026-01-09 01:08:34.49	222.79	13.07	-27.3	-28.8	14.5	2.51e-04	0	43	0	1847590912	15	4300
2026-01-09 01:08:35.21	222.76	13.01	-27.3	-28.9	14.4	6.80e-06	0	43	0	1849688064	15	4314
2026-01-09 01:08:36.50	222.70	12.88	-27.3	-29.5	14.4	7.00e-07	0	43	0	1853882368	14	4601
2026-01-09 01:08:37.22	222.66	12.81	-27.3	-29.4	14.5	9.72e-04	0	43	0	1855979520	14	4572
2026-01-09 01:08:38.51	222.60	12.69	-27.3	-29.4	14.4	1.52e-04	0	43	0	1859125248	14	4583
2026-01-09 01:08:39.23	222.57	12.62	-27.5	-29.3	14.2	1.48e-03	0	43	0	1862270976	15	4437
2026-01-09 01:08:40.52	222.51	12.50	-27.5	-29.5	14.1	2.19e-04	0	43	0	1866465280	15	4500
2026-01-09 01:08:41.24	222.48	12.43	-27.5	-29.5	14.1	2.84e-04	0	43	0	1868562432	15	4498
2026-01-09 01:08:42.54	222.42	12.31	-27.7	-29.8	13.9	3.80e-06	0	43	0	1872756736	15	4607
2026-01-09 01:08:43.26	222.38	12.25	-27.8	-30.0	13.8	1.87e-03	0	43	0	1874853888	15	4661
2026-01-09 01:08:44.55	222.33	12.13	-27.6	-29.6	14.0	4.00e-04	0	43	0	1879048192	15	4551
2026-01-09 01:08:45.27	222.29	12.06	-27.6	-29.7	14.0	1.65e-03	0	43	0	1881145344	15	4551
2026-01-09 01:08:46.56	222.24	11.94	-27.6	-29.7	14.0	3.00e-06	0	43	0	1885339648	15	4557
2026-01-09 01:08:47.28	222.20	11.87	-27.8	-30.0	13.8	3.20e-04	0	43	0	1887436800	15	4659
2026-01-09 01:08:48.58	222.15	11.76	-27.7	-29.8	13.9	4.50e-06	0	43	0	1891631104	15	4605
2026-01-09 01:08:49.31	222.12	11.69	-27.7	-30.0	13.8	1.30e-03	0	43	0	1893728256	15	4647
2026-01-09 01:08:50.60	222.06	11.57	-27.8	-30.1	13.7	9.90e-06	0	43	0	1897922560	15	4698
2026-01-09 01:08:51.31	222.03	11.51	-27.7	-29.9	13.8	6.80e-06	0	43	0	1900019712	15	4620
2026-01-09 01:08:52.61	221.97	11.39	-28.2	-30.5	13.3	7.60e-06	0	43	0	1904214016	16	4688
2026-01-09 01:08:53.33	221.94	11.33	-28.3	-30.7	13.2	3.83e-04	0	43	0	1906311168	16	4751
2026-01-09 01:08:54.62	221.89	11.21	-28.0	-30.0	13.6	6.10e-06	0	43	0	1910505472	16	4539
2026-01-09 01:08:55.34	221.86	11.15	-27.8	-30.1	13.7	3.80e-06	0	43	0	1912602624	15	4683
2026-01-09 01:08:56.64	221.81	11.03	-27.8	-30.1	13.6	2.20e-06	0	43	0	1916796928	15	4691
2026-01-09 01:08:57.35	221.78	10.97	-27.8	-30.2	13.6	6.10e-06	0	43	0	1918894080	15	4716
2026-01-09 01:08:58.65	221.72	10.85	-27.8	-30.1	13.6	6.10e-06	0	43	0	1923088384	15	4697
2026-01-09 01:08:59.37	221.69	10.79	-27.9	-30.3	13.5	6.80e-06	0	43	0	1925185536	15	4752
2026-01-09 01:09:00.66	221.64	10.68	-27.8	-30.1	13.6	9.90e-06	0	43	0	1929379840	15	4699
2026-01-09 01:09:01.38	221.61	10.61	-27.7	-29.9	13.7	1.06e-05	0	43	0	1931476992	15	4647
2026-01-09 01:09:02.68	221.56	10.50	-27.8	-30.2	13.5	8.30e-06	0	43	0	1935671296	15	4745
2026-01-09 01:09:03.41	221.53	10.44	-27.9	-30.3	13.5	6.80e-06	0	43	0	1937768448	15	4757
2026-01-09 01:09:04.70	221.48	10.33	-27.9	-30.3	13.5	1.14e-05	0	43	0	1941962752	15	4759
2026-01-09 01:09:05.42	221.45	10.26	-27.8	-30.1	13.6	9.90e-06	0	43	0	1944059904	15	4702
2026-01-09 01:09:06.72	221.40	10.15	-27.7	-29.9	13.7	9.90e-06	0	43	0	1948254208	15	4645
2026-01-09 01:09:07.44	221.38	10.09	-27.8	-30.1	13.6	9.10e-06	0	43	0	1950351360	15	4697
2026-01-09 01:09:08.73	221.33	9.98	-27.8	-30.1	13.6	9.90e-06	0	43	0	1954545664	15	4692
2026-01-09 01:09:09.46	221.30	9.92	-27.8	-30.1	13.6	7.60e-06	0	43	0	1956642816	15	4697
2026-01-09 01:09:10.75	221.25	9.81	-27.8	-30.2	13.5	8.30e-06	0	43	0	1960837120	15	4734
2026-01-09 01:09:11.47	221.22	9.75	-27.8	-30.2	13.4	2.05e-05	0	43	0	1962934272	15	4748
2026-01-09 01:09:12.76	221.17	9.64	-27.9	-30.4	13.3	1.75e-05	0	43	0	1967128576	15	4802
2026-01-09 01:09:13.48	221.15	9.58	-27.9	-30.5	13.3	1.52e-05	0	43	0	1969225728	15	4822
2026-01-09 01:09:14.77	221.10	9.47	-27.9	-30.5	13.3	1.67e-03	0	43	0	1973420032	15	4837
2026-01-09 01:09:15.48	221.07	9.41	-28.1	-30.4	13.2	1.98e-05	0	43	0	1975517184	16	4665
2026-01-09 01:09:16.78	221.03	9.30	-28.2	-30.5	13.1	2.05e-05	0	43	0	1979711488	16	4719
2026-01-09 01:09:17.50	221.00	9.24	-28.1	-30.5	13.2	2.67e-05	0	43	0	1981808640	16	4697
2026-01-09 01:09:18.78	220.95	9.14	-28.2	-30.7	13.0	3.81e-05	0	43	0	1986002944	16	4761
2026-01-09 01:09:19.50	220.93	9.08	-28.2	-30.6	13.0	3.12e-05	0	43	0	1988100096	16	4754
2026-01-09 01:09:20.79	220.88	8.97	-28.3	-30.8	12.9	1.04e-03	0	43	0	1992294400	16	4807
2026-01-09 01:09:21.51	220.86	8.91	-28.3	-30.9	12.9	6.40e-05	0	43	0	1994391552	16	4853
2026-01-09 01:09:22.81	220.81	8.81	-28.2	-30.6	13.0	3.12e-05	0	43	0	1998585856	16	4760
2026-01-09 01:09:23.52	220.79	8.75	-28.3	-30.8	12.9	3.50e-05	0	43	0	2000683008	16	4821
2026-01-09 01:09:24.82	220.74	8.64	-28.3	-30.8	12.9	8.63e-04	0	43	0	2004877312	16	4812
2026-01-09 01:09:25.54	220.71	8.59	-28.4	-31.0	12.7	6.79e-05	0	43	0	2006974464	16	4895
2026-01-09 01:09:26.83	220.67	8.48	-28.3	-30.9	12.8	1.04e-03	0	43	0	2011168768	16	4855
2026-01-09 01:09:27.55	220.65	8.42	-28.3	-30.9	12.8	8.01e-05	0	43	0	2013265920	16	4847
2026-01-09 01:09:28.85	220.60	8.32	-28.3	-31.0	12.7	6.79e-05	0	43	0	2017460224	16	4869
2026-01-09 01:09:29.57	220.58	8.26	-28.3	-30.9	12.8	7.24e-05	0	43	0	2019557376	16	4856
2026-01-09 01:09:30.87	220.53	8.16	-28.4	-31.1	12.6	2.00e-03	0	43	0	2023751680	16	4929
2026-01-09 01:09:31.59	220.51	8.10	-28.4	-31.1	12.6	9.00e-05	0	43	0	2025848832	16	4920
