passes_logs/2026/01/09/R2M6_AANII_01/R2M6_AANII_01__20260109_094013_SUOMI_NPP_rec.log

#Pass ID: 20260109_094013_SUOMI NPP
#Satellite: SUOMI NPP
#Configuration: NPP
#almurnet v.1.7.20240730
#Start time: 2026-01-09 09:40:14

#Version: 2.2.20231116
#Station: R2M6_AANII_01
#Location: 30.233357 lon 59.946436 lat
#TLE: 1 37849U 11061A   26008.05542337  .00000108  00000+0  71976-4 0  9997
#TLE: 2 37849  98.7805 310.1641 0002540  75.6410 284.5048 14.19523335735721

#Time	Az	El	Level	Level2	SNR	BER	BlckErr	Temp	State	Recorded	gain1	gain2
2026-01-09 09:40:14.17	137.87	7.04	-30.2	-32.3	5.5	1.19e+00	0	40	0	0	21	4614
2026-01-09 09:40:15.17	137.84	7.12	-30.5	-33.3	5.4	1.22e+00	0	40	104	0	21	4981
2026-01-09 09:40:16.18	137.80	7.19	-30.4	-32.9	10.7	3.70e-03	0	40	0	0	21	4835
2026-01-09 09:40:17.18	137.77	7.27	-30.6	-33.8	10.0	6.66e-03	0	40	0	1048576	21	5213
2026-01-09 09:40:18.19	137.73	7.35	-30.6	-33.8	10.1	6.11e-03	0	40	0	3145728	21	5194
2026-01-09 09:40:19.20	137.70	7.42	-30.9	-34.8	9.3	1.16e-02	0	40	0	5242880	21	5635
2026-01-09 09:40:20.20	137.66	7.50	-30.8	-34.6	9.4	1.46e-02	0	41	0	7340032	21	5564
2026-01-09 09:40:21.21	137.63	7.58	-30.8	-34.4	9.6	1.23e-02	0	40	0	9437184	21	5492
2026-01-09 09:40:22.22	137.59	7.66	-31.0	-34.9	8.8	2.41e-02	0	40	0	10485760	22	5631
2026-01-09 09:40:23.23	137.56	7.74	-30.9	-34.4	9.3	2.08e-02	0	41	0	12582912	22	5395
2026-01-09 09:40:24.23	137.52	7.81	-30.8	-33.9	9.7	1.07e-02	0	40	0	14680064	22	5143
2026-01-09 09:40:25.23	137.48	7.89	-30.6	-33.3	10.1	1.04e-02	0	41	0	16777216	22	4891
2026-01-09 09:40:26.24	137.45	7.97	-30.3	-32.3	10.8	4.52e-03	0	41	0	18874368	22	4525
2026-01-09 09:40:27.25	137.41	8.05	-30.2	-32.3	11.2	1.23e-03	0	41	0	19922944	21	4608
2026-01-09 09:40:28.25	137.37	8.13	-30.1	-32.1	11.4	1.09e-03	0	41	0	22020096	21	4531
2026-01-09 09:40:29.26	137.33	8.21	-29.8	-31.1	12.2	4.65e-04	0	41	0	24117248	21	4178
2026-01-09 09:40:30.27	137.30	8.29	-29.7	-31.2	12.5	2.40e-04	0	41	0	26214400	20	4284
2026-01-09 09:40:31.27	137.26	8.37	-29.7	-31.2	12.5	8.08e-05	0	41	0	28311552	20	4270
2026-01-09 09:40:32.27	137.22	8.45	-29.7	-31.2	12.6	7.55e-05	0	41	0	29360128	20	4268
2026-01-09 09:40:33.27	137.18	8.53	-29.7	-31.1	12.6	6.94e-05	0	41	0	31457280	20	4249
2026-01-09 09:40:34.28	137.14	8.61	-29.7	-31.3	12.5	1.01e-04	0	41	0	33554432	20	4305
2026-01-09 09:40:35.28	137.10	8.69	-29.9	-31.9	12.1	2.43e-04	0	41	0	35651584	20	4519
2026-01-09 09:40:36.29	137.07	8.77	-30.1	-32.3	11.8	3.17e-04	0	41	0	37748736	20	4669
2026-01-09 09:40:37.30	137.03	8.86	-30.1	-32.6	11.7	5.08e-04	0	41	0	38797312	20	4757
2026-01-09 09:40:38.30	136.99	8.94	-30.4	-33.4	11.0	1.61e-03	0	41	0	40894464	20	5091
2026-01-09 09:40:39.30	136.95	9.02	-30.3	-33.1	11.3	1.60e-03	0	41	0	42991616	20	4975
2026-01-09 09:40:40.29	136.91	9.10	-30.3	-33.0	11.3	1.07e-03	0	41	0	45088768	20	4916
2026-01-09 09:40:41.30	136.87	9.18	-30.3	-32.9	11.4	9.51e-04	0	41	0	46137344	20	4888
2026-01-09 09:40:42.31	136.83	9.27	-30.2	-32.6	11.7	9.47e-04	0	41	0	48234496	20	4747
2026-01-09 09:40:43.31	136.79	9.35	-30.1	-32.2	11.9	4.87e-04	0	41	0	50331648	20	4614
2026-01-09 09:40:44.32	136.75	9.43	-30.1	-32.4	11.9	3.13e-04	0	41	0	52428800	20	4660
2026-01-09 09:40:45.32	136.70	9.51	-30.1	-32.2	12.0	3.66e-04	0	41	0	54525952	20	4593
2026-01-09 09:40:46.33	136.66	9.60	-29.8	-31.4	12.5	1.16e-04	0	41	0	56623104	20	4344
2026-01-09 09:40:47.34	136.62	9.68	-29.7	-31.2	12.7	6.86e-05	0	41	0	57671680	20	4268
2026-01-09 09:40:48.34	136.58	9.77	-29.7	-31.1	12.8	6.94e-05	0	41	0	59768832	20	4232
2026-01-09 09:40:49.35	136.54	9.85	-29.8	-31.4	12.6	9.46e-05	0	41	0	61865984	20	4322
2026-01-09 09:40:50.35	136.49	9.94	-29.8	-31.3	12.6	7.93e-05	0	41	0	63963136	20	4307
2026-01-09 09:40:51.36	136.45	10.02	-29.9	-31.7	12.4	1.37e-04	0	41	0	65011712	20	4421
2026-01-09 09:40:52.37	136.41	10.11	-29.9	-31.8	12.4	1.89e-04	0	41	0	67108864	20	4446
2026-01-09 09:40:53.38	136.36	10.20	-30.1	-32.3	12.0	2.35e-04	0	41	0	69206016	20	4631
2026-01-09 09:40:54.38	136.32	10.28	-30.1	-32.2	12.1	2.53e-04	0	41	0	71303168	20	4584
2026-01-09 09:40:55.38	136.28	10.37	-30.1	-32.2	12.1	3.17e-04	0	41	0	73400320	20	4600
2026-01-09 09:40:56.39	136.23	10.45	-29.8	-31.4	12.7	1.62e-04	0	41	0	74448896	20	4318
2026-01-09 09:40:57.40	136.19	10.54	-29.8	-31.5	12.6	8.16e-05	0	41	0	76546048	20	4337
2026-01-09 09:40:58.41	136.14	10.63	-29.8	-31.3	12.7	5.87e-05	0	41	0	78643200	20	4294
2026-01-09 09:40:59.41	136.10	10.72	-29.7	-31.0	13.0	6.25e-05	0	41	0	80740352	20	4183
2026-01-09 09:41:00.42	136.05	10.80	-29.4	-30.2	13.5	2.67e-05	0	41	0	82837504	20	3962
2026-01-09 09:41:01.42	136.01	10.89	-29.3	-30.1	13.6	8.30e-06	0	41	0	83886080	20	3913
2026-01-09 09:41:02.43	135.96	10.98	-29.3	-30.4	13.8	8.30e-06	0	41	0	85983232	19	4072
2026-01-09 09:41:03.43	135.92	11.07	-29.4	-30.8	13.6	1.06e-05	0	41	0	88080384	19	4200
2026-01-09 09:41:04.43	135.87	11.16	-29.6	-31.3	13.2	2.89e-05	0	42	0	90177536	19	4377
2026-01-09 09:41:05.44	135.82	11.25	-29.7	-31.4	13.1	2.51e-05	0	42	0	92274688	19	4410
2026-01-09 09:41:06.44	135.78	11.34	-29.8	-32.0	12.7	7.01e-05	0	42	0	93323264	19	4592
2026-01-09 09:41:07.45	135.73	11.43	-29.9	-31.8	12.4	9.15e-05	0	42	0	95420416	20	4457
2026-01-09 09:41:08.45	135.68	11.52	-30.1	-32.3	12.1	2.20e-04	0	42	0	97517568	20	4612
2026-01-09 09:41:09.46	135.63	11.61	-30.2	-32.4	12.0	2.65e-04	0	42	0	99614720	20	4672
2026-01-09 09:41:10.45	135.59	11.70	-30.3	-32.8	11.8	4.65e-04	0	42	0	101711872	20	4789
2026-01-09 09:41:11.46	135.54	11.79	-30.3	-32.8	11.8	4.52e-04	0	42	0	102760448	20	4814
2026-01-09 09:41:12.46	135.49	11.88	-30.3	-32.7	11.9	4.81e-04	0	42	0	104857600	20	4758
2026-01-09 09:41:13.47	135.44	11.97	-30.2	-32.4	12.1	3.33e-04	0	42	0	106954752	20	4638
2026-01-09 09:41:14.47	135.39	12.06	-30.4	-33.0	11.6	4.13e-04	0	42	0	109051904	20	4878
2026-01-09 09:41:15.47	135.34	12.16	-30.2	-32.4	12.1	5.34e-04	0	42	0	111149056	20	4644
2026-01-09 09:41:16.47	135.29	12.25	-30.0	-32.0	12.4	1.62e-04	0	42	0	112197632	20	4508
2026-01-09 09:41:17.48	135.24	12.34	-30.2	-32.3	12.2	3.08e-04	0	42	0	114294784	20	4607
2026-01-09 09:41:18.49	135.19	12.44	-30.1	-32.2	12.3	1.71e-04	0	42	0	116391936	20	4574
2026-01-09 09:41:19.49	135.14	12.53	-30.2	-32.3	12.1	3.39e-04	0	42	0	118489088	20	4621
2026-01-09 09:41:20.50	135.09	12.62	-30.3	-32.7	11.9	3.14e-04	0	42	0	120586240	20	4751
2026-01-09 09:41:21.50	135.03	12.72	-30.4	-33.0	11.7	6.48e-04	0	42	0	121634816	20	4871
2026-01-09 09:41:22.51	134.98	12.81	-30.6	-33.2	11.3	5.20e-04	0	42	0	123731968	21	4832
2026-01-09 09:41:23.52	134.93	12.91	-30.7	-33.5	11.0	1.26e-03	0	42	0	125829120	21	4974
2026-01-09 09:41:24.53	134.88	13.00	-30.7	-33.4	11.0	2.98e-03	0	42	0	127926272	21	4949
2026-01-09 09:41:25.53	134.82	13.10	-30.4	-32.6	11.6	1.37e-03	0	42	0	130023424	21	4621
2026-01-09 09:41:26.54	134.77	13.20	-30.1	-31.5	12.4	3.62e-04	0	42	0	131072000	21	4252
2026-01-09 09:41:27.55	134.71	13.29	-29.8	-30.8	12.9	6.86e-05	0	42	0	133169152	21	4040
2026-01-09 09:41:28.55	134.66	13.39	-29.7	-31.1	13.1	3.20e-05	0	42	0	135266304	20	4198
2026-01-09 09:41:29.56	134.61	13.49	-29.6	-30.7	13.3	2.97e-05	0	42	0	137363456	20	4088
2026-01-09 09:41:30.56	134.55	13.59	-29.7	-31.0	13.2	2.28e-05	0	42	0	139460608	20	4163
2026-01-09 09:41:31.57	134.50	13.68	-29.5	-30.6	13.4	2.05e-05	0	42	0	140509184	20	4048
2026-01-09 09:41:32.58	134.44	13.78	-29.6	-30.6	13.4	1.29e-05	0	42	0	142606336	20	4047
2026-01-09 09:41:33.59	134.38	13.88	-29.6	-30.8	13.3	2.05e-05	0	42	0	144703488	20	4107
2026-01-09 09:41:34.59	134.33	13.98	-29.7	-30.9	13.2	1.98e-05	0	42	0	146800640	20	4156
2026-01-09 09:41:35.60	134.27	14.08	-29.7	-31.1	13.2	2.28e-05	0	42	0	148897792	20	4206
2026-01-09 09:41:36.60	134.21	14.18	-29.8	-31.2	13.0	4.65e-05	0	42	0	149946368	20	4246
2026-01-09 09:41:37.61	134.15	14.28	-29.7	-30.9	13.3	1.98e-05	0	42	0	152043520	20	4145
2026-01-09 09:41:38.61	134.09	14.38	-29.8	-31.3	13.0	2.44e-05	0	42	0	154140672	20	4268
2026-01-09 09:41:39.62	134.04	14.48	-29.6	-30.6	13.4	1.22e-05	0	42	0	156237824	20	4065
2026-01-09 09:41:40.62	133.98	14.58	-29.4	-30.1	13.8	7.60e-06	0	42	0	158334976	20	3919
2026-01-09 09:41:41.63	133.92	14.69	-29.4	-30.0	13.8	3.00e-06	0	42	0	159383552	20	3887
2026-01-09 09:41:42.63	133.86	14.79	-29.4	-30.0	13.8	1.06e-05	0	42	0	161480704	20	3890
2026-01-09 09:41:43.64	133.80	14.89	-29.4	-30.5	14.0	4.50e-06	0	42	0	163577856	19	4104
2026-01-09 09:41:44.65	133.74	14.99	-29.3	-30.4	14.0	4.50e-06	0	42	0	165675008	19	4068
2026-01-09 09:41:45.66	133.67	15.10	-29.5	-30.8	13.8	3.00e-06	0	42	0	167772160	19	4177
2026-01-09 09:41:46.66	133.61	15.20	-29.7	-31.4	13.4	4.50e-06	0	42	0	168820736	19	4365
2026-01-09 09:41:47.67	133.55	15.31	-29.7	-31.3	13.5	6.10e-06	0	42	0	170917888	19	4335
2026-01-09 09:41:48.68	133.49	15.41	-29.8	-31.4	13.4	2.13e-05	0	42	0	173015040	19	4371
2026-01-09 09:41:49.68	133.42	15.52	-29.9	-31.9	13.2	2.74e-05	0	42	0	175112192	19	4503
2026-01-09 09:41:50.69	133.36	15.62	-29.8	-31.4	13.5	1.29e-05	0	42	0	177209344	19	4339
2026-01-09 09:41:51.70	133.30	15.73	-29.8	-31.6	13.4	6.80e-06	0	42	0	178257920	19	4423
2026-01-09 09:41:52.71	133.23	15.84	-29.8	-31.4	13.5	8.30e-06	0	42	0	180355072	19	4354
2026-01-09 09:41:53.71	133.17	15.94	-29.7	-31.1	13.7	6.10e-06	0	42	0	182452224	19	4259
2026-01-09 09:41:54.71	133.10	16.05	-29.7	-31.2	13.6	7.60e-06	0	42	0	184549376	19	4293
2026-01-09 09:41:55.72	133.03	16.16	-30.0	-32.0	13.1	1.37e-05	0	42	0	186646528	19	4548
2026-01-09 09:41:56.72	132.97	16.26	-29.9	-31.2	13.2	3.50e-05	0	42	0	187695104	20	4205
2026-01-09 09:41:57.73	132.90	16.37	-29.7	-30.8	13.5	1.06e-05	0	42	0	189792256	20	4073
2026-01-09 09:41:58.73	132.83	16.48	-29.8	-31.1	13.3	1.67e-05	0	42	0	191889408	20	4170
2026-01-09 09:41:59.73	132.77	16.59	-30.0	-31.6	13.0	2.05e-05	0	42	0	193986560	20	4343
2026-01-09 09:42:00.73	132.70	16.70	-29.9	-31.3	13.2	2.44e-05	0	42	0	196083712	20	4229
2026-01-09 09:42:01.74	132.63	16.81	-30.0	-31.7	13.0	2.67e-05	0	42	0	197132288	20	4353
2026-01-09 09:42:02.75	132.56	16.92	-29.9	-31.3	13.3	3.35e-05	0	42	0	199229440	20	4221
2026-01-09 09:42:03.75	132.49	17.03	-29.8	-31.1	13.4	3.05e-05	0	42	0	201326592	20	4152
2026-01-09 09:42:04.76	132.42	17.15	-29.9	-31.3	13.3	1.22e-05	0	42	0	203423744	20	4227
2026-01-09 09:42:05.76	132.35	17.26	-29.9	-31.3	13.3	1.22e-05	0	42	0	204472320	20	4207
2026-01-09 09:42:06.78	132.27	17.37	-29.8	-31.0	13.5	1.52e-05	0	42	0	206569472	20	4129
2026-01-09 09:42:07.78	132.20	17.48	-30.0	-31.4	13.2	1.75e-05	0	42	0	208666624	20	4257
2026-01-09 09:42:08.78	132.13	17.60	-29.9	-31.1	13.4	1.83e-05	0	42	0	210763776	20	4169
2026-01-09 09:42:09.79	132.05	17.71	-29.9	-31.1	13.5	6.80e-06	0	42	0	212860928	20	4155
2026-01-09 09:42:10.80	131.98	17.83	-29.7	-30.8	13.6	5.30e-06	0	42	0	214958080	20	4062
2026-01-09 09:42:11.81	131.91	17.94	-29.8	-31.0	13.5	9.10e-06	0	42	0	216006656	20	4134
2026-01-09 09:42:12.81	131.83	18.06	-29.8	-31.1	13.5	7.60e-06	0	42	0	218103808	20	4149
2026-01-09 09:42:13.82	131.75	18.17	-29.9	-31.2	13.4	6.10e-06	0	42	0	220200960	20	4191
2026-01-09 09:42:14.83	131.68	18.29	-29.6	-30.5	13.9	9.90e-06	0	42	0	222298112	20	3968
2026-01-09 09:42:15.83	131.60	18.41	-29.6	-30.3	14.0	5.30e-06	0	42	0	224395264	20	3933
2026-01-09 09:42:16.84	131.52	18.53	-29.5	-30.2	14.1	2.20e-06	0	42	0	225443840	20	3881
2026-01-09 09:42:17.84	131.44	18.64	-29.6	-30.5	13.9	3.00e-06	0	42	0	227540992	20	3987
2026-01-09 09:42:18.85	131.37	18.76	-29.5	-30.3	14.1	2.20e-06	0	42	0	229638144	20	3910
2026-01-09 09:42:19.86	131.29	18.88	-29.6	-30.5	13.9	3.80e-06	0	42	0	231735296	20	3979
2026-01-09 09:42:20.86	131.21	19.00	-29.7	-30.6	13.8	6.80e-06	0	42	0	232783872	20	4008
2026-01-09 09:42:21.86	131.13	19.12	-29.8	-30.9	13.7	6.10e-06	0	42	0	234881024	20	4079
2026-01-09 09:42:22.87	131.04	19.24	-29.8	-30.8	13.7	5.30e-06	0	43	0	236978176	20	4078
2026-01-09 09:42:23.88	130.96	19.36	-30.0	-31.4	13.4	1.44e-05	0	42	0	239075328	20	4235
2026-01-09 09:42:24.88	130.88	19.48	-29.8	-30.9	13.7	1.06e-05	0	42	0	241172480	20	4108
2026-01-09 09:42:25.89	130.79	19.61	-30.0	-31.5	13.4	7.60e-06	0	42	0	243269632	20	4258
2026-01-09 09:42:26.89	130.71	19.73	-30.1	-31.6	13.3	1.06e-05	0	42	0	244318208	20	4312
2026-01-09 09:42:27.88	130.63	19.85	-30.0	-31.5	13.3	1.29e-05	0	43	0	246415360	20	4278
2026-01-09 09:42:28.89	130.54	19.98	-30.0	-31.5	13.4	1.67e-05	0	42	0	248512512	20	4263
2026-01-09 09:42:29.90	130.45	20.10	-30.2	-32.1	13.0	1.60e-05	0	42	0	250609664	20	4451
2026-01-09 09:42:30.91	130.37	20.23	-30.2	-32.1	13.0	3.43e-05	0	42	0	251658240	20	4451
2026-01-09 09:42:31.91	130.28	20.35	-30.2	-31.9	13.2	2.82e-05	0	43	0	253755392	20	4376
2026-01-09 09:42:32.92	130.19	20.48	-30.2	-32.0	13.1	2.44e-05	0	42	0	255852544	20	4416
2026-01-09 09:42:33.93	130.10	20.60	-30.1	-31.7	13.2	2.44e-05	0	43	0	257949696	20	4313
2026-01-09 09:42:34.94	130.01	20.73	-30.2	-31.8	13.2	9.10e-06	0	42	0	260046848	20	4359
2026-01-09 09:42:35.94	129.92	20.86	-30.0	-31.5	13.4	1.06e-05	0	42	0	261095424	20	4262
2026-01-09 09:42:36.95	129.83	20.99	-30.0	-31.4	13.4	1.90e-05	0	42	0	263192576	20	4233
2026-01-09 09:42:37.96	129.73	21.12	-29.9	-31.2	13.6	1.37e-05	0	42	0	265289728	20	4171
2026-01-09 09:42:38.96	129.64	21.25	-30.1	-31.5	13.5	2.05e-05	0	42	0	267386880	20	4263
2026-01-09 09:42:39.97	129.55	21.38	-30.2	-31.8	13.2	1.98e-05	0	42	0	269484032	20	4361
2026-01-09 09:42:40.98	129.45	21.51	-30.3	-32.0	13.1	2.89e-05	0	42	0	271581184	20	4423
2026-01-09 09:42:41.98	129.36	21.64	-30.3	-32.2	13.0	3.58e-05	0	42	0	272629760	20	4464
2026-01-09 09:42:42.99	129.26	21.77	-30.3	-32.1	13.0	1.90e-05	0	43	0	274726912	20	4452
2026-01-09 09:42:43.99	129.16	21.90	-30.2	-32.0	13.1	3.50e-05	0	42	0	276824064	20	4421
2026-01-09 09:42:45.00	129.06	22.04	-30.1	-31.5	13.5	1.90e-05	0	42	0	278921216	20	4256
2026-01-09 09:42:46.00	128.96	22.17	-30.1	-31.7	13.3	1.29e-05	0	42	0	279969792	20	4334
2026-01-09 09:42:47.01	128.86	22.31	-30.1	-31.6	13.4	6.80e-06	0	42	0	282066944	20	4275
2026-01-09 09:42:48.01	128.76	22.44	-30.2	-32.0	13.2	1.67e-05	0	42	0	284164096	20	4404
2026-01-09 09:42:49.02	128.66	22.58	-30.2	-31.9	13.2	3.28e-05	0	42	0	286261248	20	4378
2026-01-09 09:42:50.02	128.56	22.71	-30.4	-32.6	12.8	3.73e-05	0	42	0	288358400	20	4600
2026-01-09 09:42:51.02	128.46	22.85	-30.3	-32.3	13.0	3.96e-05	0	42	0	289406976	20	4510
2026-01-09 09:42:52.03	128.35	22.99	-30.3	-32.2	13.0	3.28e-05	0	43	0	291504128	20	4491
2026-01-09 09:42:53.03	128.25	23.12	-30.3	-32.1	13.1	3.05e-05	0	43	0	293601280	20	4434
2026-01-09 09:42:54.04	128.14	23.26	-30.4	-32.4	12.9	3.89e-05	0	43	0	295698432	20	4526
2026-01-09 09:42:55.04	128.03	23.40	-30.6	-32.4	12.6	5.26e-05	0	42	0	297795584	21	4455
2026-01-09 09:42:56.05	127.92	23.54	-30.7	-32.8	12.3	9.84e-05	0	42	0	298844160	21	4579
2026-01-09 09:42:57.05	127.81	23.68	-30.5	-32.2	12.7	8.31e-05	0	42	0	300941312	21	4379
2026-01-09 09:42:58.06	127.70	23.82	-30.6	-32.5	12.6	1.07e-04	0	42	0	303038464	21	4469
2026-01-09 09:42:59.07	127.59	23.96	-30.9	-33.3	12.0	1.69e-04	0	42	0	305135616	21	4756
2026-01-09 09:43:00.08	127.48	24.11	-30.8	-32.9	12.3	1.94e-04	0	42	0	307232768	21	4615
2026-01-09 09:43:01.08	127.37	24.25	-30.9	-33.4	12.0	3.21e-04	0	42	0	308281344	21	4791
2026-01-09 09:43:02.08	127.25	24.39	-30.7	-32.6	12.5	2.79e-04	0	42	0	310378496	21	4503
2026-01-09 09:43:03.09	127.13	24.54	-30.4	-31.8	13.0	1.05e-04	0	42	0	312475648	21	4253
2026-01-09 09:43:04.09	127.02	24.68	-30.3	-31.5	13.3	1.60e-05	0	42	0	314572800	21	4161
2026-01-09 09:43:05.09	126.90	24.83	-30.3	-31.5	13.3	1.67e-05	0	43	0	316669952	21	4162
2026-01-09 09:43:06.10	126.78	24.98	-30.3	-31.5	13.2	2.59e-05	0	43	0	317718528	21	4161
2026-01-09 09:43:07.11	126.66	25.12	-30.4	-31.9	13.0	1.90e-05	0	42	0	319815680	21	4276
2026-01-09 09:43:08.12	126.54	25.27	-30.5	-32.2	12.9	6.02e-05	0	42	0	321912832	21	4373
2026-01-09 09:43:09.12	126.42	25.42	-30.6	-32.4	12.8	8.85e-05	0	43	0	324009984	21	4430
2026-01-09 09:43:10.12	126.29	25.57	-30.7	-32.8	12.4	1.40e-04	0	42	0	326107136	21	4589
2026-01-09 09:43:11.13	126.17	25.72	-30.8	-33.0	12.3	1.97e-04	0	43	0	327155712	21	4627
2026-01-09 09:43:12.12	126.04	25.87	-30.8	-33.1	12.3	1.27e-04	0	43	0	329252864	21	4689
2026-01-09 09:43:13.12	125.92	26.02	-30.9	-33.4	12.1	1.43e-04	0	42	0	331350016	21	4766
2026-01-09 09:43:14.13	125.79	26.17	-30.9	-33.3	12.2	1.72e-04	0	42	0	333447168	21	4741
2026-01-09 09:43:15.13	125.66	26.32	-30.8	-32.9	12.4	1.47e-04	0	42	0	335544320	21	4579
2026-01-09 09:43:16.14	125.53	26.48	-31.1	-33.2	11.9	1.94e-04	0	42	0	336592896	22	4606
2026-01-09 09:43:17.15	125.39	26.63	-30.8	-32.4	12.4	3.48e-04	0	42	0	338690048	22	4340
2026-01-09 09:43:18.16	125.26	26.79	-30.7	-32.1	12.7	1.23e-04	0	43	0	340787200	22	4237
2026-01-09 09:43:19.16	125.13	26.94	-30.6	-31.8	12.9	5.87e-05	0	42	0	342884352	22	4147
2026-01-09 09:43:20.17	124.99	27.10	-30.3	-31.4	13.4	2.82e-05	0	42	0	344981504	21	4110
2026-01-09 09:43:21.17	124.85	27.25	-30.2	-31.3	13.5	1.14e-05	0	43	0	346030080	21	4066
2026-01-09 09:43:22.18	124.71	27.41	-30.3	-31.5	13.3	1.22e-05	0	42	0	348127232	21	4126
2026-01-09 09:43:23.18	124.57	27.57	-30.2	-31.2	13.6	4.50e-06	0	43	0	350224384	21	4041
2026-01-09 09:43:24.19	124.43	27.73	-30.0	-30.7	13.9	4.50e-06	0	42	0	352321536	21	3911
2026-01-09 09:43:25.20	124.29	27.89	-30.1	-30.9	13.8	6.80e-06	0	43	0	354418688	21	3962
2026-01-09 09:43:26.20	124.14	28.05	-30.4	-31.6	13.3	1.90e-05	0	43	0	355467264	21	4173
2026-01-09 09:43:27.20	124.00	28.21	-30.4	-31.9	13.2	1.83e-05	0	42	0	357564416	21	4243
2026-01-09 09:43:28.21	123.85	28.37	-30.5	-32.1	13.0	1.22e-05	0	42	0	359661568	21	4316
2026-01-09 09:43:29.22	123.70	28.54	-30.3	-31.6	13.4	3.12e-05	0	43	0	361758720	21	4146
2026-01-09 09:43:30.22	123.55	28.70	-30.3	-31.4	13.4	1.67e-05	0	43	0	363855872	21	4100
2026-01-09 09:43:31.23	123.39	28.87	-30.4	-31.8	13.3	1.60e-05	0	43	0	364904448	21	4226
2026-01-09 09:43:32.24	123.24	29.03	-30.4	-31.8	13.3	1.90e-05	0	42	0	367001600	21	4213
2026-01-09 09:43:33.25	123.08	29.20	-30.3	-31.3	13.6	2.59e-05	0	42	0	369098752	21	4083
2026-01-09 09:43:34.26	122.92	29.36	-30.4	-31.9	13.2	2.05e-05	0	43	0	371195904	21	4256
2026-01-09 09:43:35.27	122.76	29.53	-30.5	-32.1	13.0	3.58e-05	0	43	0	373293056	21	4320
2026-01-09 09:43:36.27	122.60	29.70	-30.5	-32.0	13.1	1.67e-05	0	43	0	374341632	21	4283
2026-01-09 09:43:37.27	122.44	29.87	-30.6	-32.4	12.9	2.21e-05	0	42	0	376438784	21	4409
2026-01-09 09:43:38.28	122.28	30.04	-30.6	-32.4	12.8	7.93e-05	0	43	0	378535936	21	4423
2026-01-09 09:43:39.29	122.11	30.21	-31.1	-33.1	12.1	1.46e-04	0	43	0	380633088	22	4564
2026-01-09 09:43:40.30	121.94	30.38	-31.1	-33.1	12.1	1.67e-04	0	43	0	382730240	22	4552
2026-01-09 09:43:41.30	121.77	30.55	-31.1	-33.2	12.0	2.72e-04	0	42	0	383778816	22	4601
2026-01-09 09:43:42.31	121.60	30.72	-31.0	-33.0	12.2	3.36e-04	0	43	0	385875968	22	4526
2026-01-09 09:43:43.31	121.43	30.90	-31.0	-32.8	12.3	1.69e-04	0	42	0	387973120	22	4449
2026-01-09 09:43:44.32	121.25	31.07	-31.0	-33.3	11.9	2.38e-04	0	43	0	390070272	22	4664
2026-01-09 09:43:45.32	121.08	31.24	-31.1	-33.5	11.7	5.00e-04	0	43	0	391118848	22	4710
2026-01-09 09:43:46.33	120.90	31.42	-31.2	-33.8	11.6	6.38e-04	0	43	0	393216000	22	4827
2026-01-09 09:43:47.34	120.71	31.60	-31.4	-34.4	11.2	1.45e-03	0	43	0	395313152	22	5071
2026-01-09 09:43:48.34	120.53	31.77	-31.7	-34.8	10.6	2.19e-03	0	43	0	397410304	23	5123
2026-01-09 09:43:49.34	120.35	31.95	-31.8	-35.0	10.4	3.76e-03	0	43	0	399507456	23	5223
2026-01-09 09:43:50.35	120.16	32.13	-31.8	-35.1	10.2	5.39e-03	0	42	0	401604608	23	5286
2026-01-09 09:43:51.36	119.97	32.31	-31.6	-34.5	10.7	4.86e-03	0	43	0	402653184	23	5013
2026-01-09 09:43:52.36	119.78	32.49	-31.6	-34.6	10.5	3.96e-03	0	43	0	404750336	23	5081
2026-01-09 09:43:53.36	119.59	32.67	-31.7	-34.8	10.5	4.72e-03	0	43	0	406847488	23	5122
2026-01-09 09:43:54.36	119.39	32.85	-31.5	-34.2	11.0	2.46e-03	0	43	0	408944640	23	4889
2026-01-09 09:43:55.37	119.19	33.03	-31.5	-34.1	11.0	2.18e-03	0	43	0	409993216	23	4871
2026-01-09 09:43:56.38	118.99	33.21	-31.7	-34.8	10.5	2.98e-03	0	43	0	412090368	23	5134
2026-01-09 09:43:57.38	118.79	33.39	-31.7	-34.7	10.6	4.43e-03	0	43	0	414187520	23	5088
2026-01-09 09:43:58.39	118.58	33.58	-31.5	-34.1	11.0	2.99e-03	0	43	0	416284672	23	4872
2026-01-09 09:43:59.40	118.38	33.76	-31.5	-34.3	10.9	2.56e-03	0	43	0	418381824	23	4934
2026-01-09 09:44:00.41	118.17	33.95	-31.7	-34.7	10.5	2.30e-03	0	43	0	419430400	23	5101
2026-01-09 09:44:01.41	117.96	34.13	-31.6	-34.5	10.6	4.24e-03	0	43	0	421527552	23	5015
2026-01-09 09:44:02.41	117.74	34.32	-31.4	-33.9	11.1	2.10e-03	0	43	0	423624704	23	4805
2026-01-09 09:44:03.42	117.52	34.51	-31.2	-33.2	11.6	1.38e-03	0	43	0	425721856	23	4562
2026-01-09 09:44:04.43	117.30	34.70	-31.0	-32.8	11.8	5.43e-04	0	43	0	427819008	23	4406
2026-01-09 09:44:05.43	117.08	34.88	-30.8	-32.6	12.3	3.91e-04	0	43	0	429916160	22	4433
2026-01-09 09:44:06.44	116.86	35.07	-30.9	-32.8	12.2	1.89e-04	0	43	0	430964736	22	4512
2026-01-09 09:44:07.44	116.63	35.26	-30.8	-32.6	12.2	2.23e-04	0	43	0	433061888	22	4455
2026-01-09 09:44:08.45	116.40	35.45	-31.1	-33.6	11.7	4.13e-04	0	43	0	435159040	22	4782
2026-01-09 09:44:09.45	116.17	35.64	-31.0	-33.4	11.7	4.48e-04	0	43	0	437256192	22	4729
2026-01-09 09:44:10.45	115.93	35.83	-31.6	-34.8	10.4	7.48e-04	0	43	0	438304768	23	5173
2026-01-09 09:44:11.46	115.69	36.03	-31.3	-33.7	11.3	1.24e-03	0	43	0	440401920	23	4740
2026-01-09 09:44:12.46	115.45	36.22	-31.2	-33.2	11.6	7.18e-04	0	43	0	442499072	23	4554
2026-01-09 09:44:13.46	115.21	36.41	-31.0	-32.6	12.0	8.61e-04	0	43	0	444596224	23	4350
2026-01-09 09:44:14.47	114.96	36.60	-31.2	-33.1	11.6	5.53e-04	0	43	0	446693376	23	4510
2026-01-09 09:44:15.48	114.71	36.80	-31.2	-33.3	11.5	8.36e-04	0	43	0	447741952	23	4560
2026-01-09 09:44:16.49	114.46	36.99	-31.3	-33.6	11.3	1.17e-03	0	43	0	449839104	23	4689
2026-01-09 09:44:17.49	114.20	37.19	-31.4	-34.0	11.0	1.80e-03	0	43	0	451936256	23	4837
2026-01-09 09:44:18.50	113.94	37.39	-31.6	-34.5	10.6	3.35e-03	0	43	0	454033408	23	5032
2026-01-09 09:44:19.51	113.68	37.58	-31.5	-34.4	10.7	2.39e-03	0	43	0	456130560	23	5005
2026-01-09 09:44:20.51	113.42	37.78	-31.5	-34.4	10.7	4.29e-03	0	43	0	457179136	23	5014
2026-01-09 09:44:21.52	113.15	37.98	-31.4	-33.8	11.1	2.23e-03	0	42	0	459276288	23	4778
2026-01-09 09:44:22.53	112.87	38.17	-31.5	-34.0	11.1	1.41e-03	0	43	0	461373440	23	4840
2026-01-09 09:44:23.53	112.60	38.37	-31.6	-34.5	10.8	1.63e-03	0	42	0	463470592	23	5030
2026-01-09 09:44:24.54	112.32	38.57	-31.8	-35.3	10.2	5.06e-03	0	43	0	465567744	23	5369
2026-01-09 09:44:25.54	112.04	38.77	-32.0	-35.9	9.7	4.92e-03	0	43	0	466616320	23	5643
2026-01-09 09:44:26.55	111.75	38.97	-31.9	-35.3	9.7	1.29e-02	0	42	0	468713472	24	5317
2026-01-09 09:44:27.55	111.46	39.17	-31.5	-34.0	10.6	7.41e-03	0	43	0	470810624	24	4773
2026-01-09 09:44:28.56	111.17	39.37	-31.3	-33.3	11.1	2.14e-03	0	42	0	472907776	24	4506
2026-01-09 09:44:29.56	110.87	39.57	-31.1	-33.1	11.6	5.84e-04	0	43	0	475004928	23	4542
2026-01-09 09:44:30.57	110.57	39.77	-30.8	-32.3	12.3	3.06e-04	0	43	0	476053504	23	4257
2026-01-09 09:44:31.58	110.27	39.97	-30.9	-32.9	12.1	1.52e-04	0	43	0	478150656	22	4544
2026-01-09 09:44:32.59	109.96	40.17	-30.9	-32.9	12.1	1.41e-04	0	43	0	480247808	22	4540
2026-01-09 09:44:33.59	109.65	40.37	-30.6	-32.1	12.8	8.85e-05	0	43	0	482344960	22	4263
2026-01-09 09:44:34.59	109.33	40.57	-30.4	-31.3	13.3	2.74e-05	0	43	0	484442112	22	4016
2026-01-09 09:44:35.60	109.01	40.77	-30.6	-32.2	12.7	3.05e-05	0	43	0	485490688	22	4303
2026-01-09 09:44:36.61	108.69	40.97	-30.8	-32.7	12.3	9.15e-05	0	43	0	487587840	22	4488
2026-01-09 09:44:37.61	108.36	41.17	-31.1	-33.5	11.8	3.33e-04	0	43	0	489684992	22	4766
2026-01-09 09:44:38.62	108.03	41.38	-31.4	-34.5	11.1	8.82e-04	0	43	0	491782144	22	5158
2026-01-09 09:44:39.62	107.69	41.58	-31.5	-34.4	10.8	1.56e-03	0	43	0	493879296	23	5029
2026-01-09 09:44:40.63	107.35	41.78	-31.6	-34.8	10.5	3.99e-03	0	43	0	494927872	23	5173
2026-01-09 09:44:41.64	107.00	41.98	-31.5	-34.5	10.7	3.71e-03	0	43	0	497025024	23	5053
2026-01-09 09:44:42.64	106.66	42.18	-31.2	-33.3	11.5	9.09e-04	0	43	0	499122176	23	4604
2026-01-09 09:44:43.64	106.31	42.38	-30.9	-32.5	12.1	4.14e-04	0	43	0	501219328	23	4318
2026-01-09 09:44:44.65	105.95	42.58	-31.0	-32.7	12.0	2.79e-04	0	43	0	503316480	23	4387
2026-01-09 09:44:45.65	105.59	42.78	-31.3	-33.8	11.2	9.44e-04	0	43	0	504365056	23	4793
2026-01-09 09:44:46.66	105.22	42.98	-31.5	-34.6	10.7	1.05e-03	0	43	0	506462208	23	5108
2026-01-09 09:44:47.67	104.84	43.18	-31.6	-34.7	10.4	3.46e-03	0	43	0	508559360	23	5167
2026-01-09 09:44:48.67	104.47	43.38	-31.9	-35.9	9.6	8.72e-03	0	43	0	510656512	23	5715
2026-01-09 09:44:49.68	104.09	43.58	-32.0	-35.8	9.4	1.73e-02	0	43	0	512753664	24	5547
2026-01-09 09:44:50.68	103.70	43.78	-32.2	-36.3	9.0	1.94e-02	0	43	0	513802240	24	5788
2026-01-09 09:44:51.69	103.31	43.98	-32.1	-35.9	9.3	2.15e-02	0	43	0	515899392	24	5576
2026-01-09 09:44:52.70	102.91	44.18	-31.9	-35.3	9.8	9.87e-03	0	43	0	517996544	24	5299
2026-01-09 09:44:53.69	102.52	44.37	-32.1	-35.7	9.4	1.12e-02	0	43	0	520093696	24	5502
2026-01-09 09:44:54.70	102.11	44.57	-32.1	-36.0	9.2	1.68e-02	0	43	0	522190848	24	5609
2026-01-09 09:44:55.71	101.70	44.77	-32.1	-35.8	9.3	2.03e-02	0	43	0	523239424	24	5557
2026-01-09 09:44:56.71	101.29	44.96	-32.0	-35.7	9.4	2.04e-02	0	43	0	525336576	24	5494
2026-01-09 09:44:57.71	100.87	45.16	-31.9	-35.3	9.8	8.88e-03	0	43	0	527433728	24	5323
2026-01-09 09:44:58.73	100.44	45.35	-32.1	-35.9	9.2	1.21e-02	0	43	0	529530880	24	5543
2026-01-09 09:44:59.73	100.01	45.55	-32.2	-36.4	8.9	2.99e-02	0	43	0	531628032	24	5808
2026-01-09 09:45:00.73	99.57	45.74	-31.7	-34.6	10.2	1.14e-02	0	43	0	532676608	24	4990
2026-01-09 09:45:01.74	99.13	45.93	-31.2	-33.3	11.6	1.19e-03	0	43	0	534773760	23	4605
2026-01-09 09:45:02.75	98.68	46.12	-30.6	-32.0	12.9	1.73e-04	0	43	0	536870912	22	4233
2026-01-09 09:45:03.75	98.23	46.31	-30.3	-31.5	13.4	1.14e-05	0	43	0	538968064	21	4172
2026-01-09 09:45:04.76	97.77	46.50	-30.3	-31.7	13.4	9.10e-06	0	43	0	541065216	21	4231
2026-01-09 09:45:05.76	97.31	46.68	-30.0	-30.8	13.9	9.10e-06	0	43	0	542113792	21	3964
2026-01-09 09:45:06.77	96.84	46.87	-30.2	-31.2	13.7	3.80e-06	0	43	0	544210944	21	4083
2026-01-09 09:45:07.78	96.36	47.05	-31.1	-33.5	11.9	1.05e-04	0	43	0	546308096	22	4731
2026-01-09 09:45:08.78	95.88	47.24	-31.3	-34.2	11.4	7.67e-04	0	43	0	548405248	22	4984
2026-01-09 09:45:09.79	95.39	47.42	-31.2	-33.8	11.6	9.86e-04	0	43	0	550502400	22	4833
2026-01-09 09:45:10.80	94.90	47.60	-30.7	-32.3	12.7	1.47e-04	0	43	0	551550976	22	4310
2026-01-09 09:45:11.80	94.40	47.78	-31.3	-33.9	11.7	1.74e-04	0	43	0	553648128	22	4831
2026-01-09 09:45:12.80	93.90	47.95	-30.9	-32.8	12.4	2.25e-04	0	43	0	555745280	22	4475
2026-01-09 09:45:13.81	93.39	48.13	-31.0	-33.1	12.2	1.48e-04	0	43	0	557842432	22	4572
2026-01-09 09:45:14.82	92.88	48.30	-31.1	-33.4	12.0	3.26e-04	0	43	0	559939584	22	4672
2026-01-09 09:45:15.82	92.36	48.47	-31.3	-33.9	11.6	5.87e-04	0	43	0	560988160	22	4891
2026-01-09 09:45:16.83	91.83	48.64	-31.3	-33.9	11.6	7.84e-04	0	43	0	563085312	22	4857
2026-01-09 09:45:17.83	91.30	48.81	-30.9	-32.8	12.4	8.23e-05	0	43	0	565182464	22	4483
2026-01-09 09:45:18.84	90.76	48.97	-30.7	-32.1	12.9	3.43e-05	0	43	0	567279616	22	4246
2026-01-09 09:45:19.85	90.21	49.14	-30.9	-32.6	12.5	3.66e-05	0	43	0	569376768	22	4409
2026-01-09 09:45:20.86	89.66	49.30	-31.1	-33.3	12.0	2.74e-04	0	43	0	570425344	22	4679
2026-01-09 09:45:21.87	89.10	49.46	-31.3	-34.2	11.4	6.10e-04	0	43	0	572522496	22	5004
2026-01-09 09:45:22.87	88.54	49.61	-30.9	-32.9	12.2	9.85e-04	0	43	0	574619648	22	4551
2026-01-09 09:45:23.88	87.97	49.77	-30.4	-31.6	13.1	2.21e-05	0	43	0	576716800	22	4111
2026-01-09 09:45:24.89	87.40	49.92	-30.1	-31.3	13.7	6.10e-06	0	43	0	578813952	21	4103
2026-01-09 09:45:25.89	86.82	50.07	-30.1	-31.3	13.6	1.50e-06	0	43	0	579862528	21	4123
2026-01-09 09:45:26.90	86.24	50.21	-30.4	-32.1	13.1	3.00e-06	0	43	0	581959680	21	4363
2026-01-09 09:45:27.90	85.65	50.36	-30.6	-32.8	12.6	7.55e-05	0	43	0	584056832	21	4620
2026-01-09 09:45:28.91	85.05	50.50	-30.8	-33.4	12.1	1.99e-04	0	43	0	586153984	21	4864
2026-01-09 09:45:29.91	84.46	50.64	-31.4	-34.9	10.9	5.38e-04	0	43	0	588251136	22	5370
2026-01-09 09:45:30.92	83.85	50.77	-32.2	-37.0	8.4	1.99e-02	0	43	0	589299712	24	6296
2026-01-09 09:45:31.92	83.24	50.90	-31.9	-35.8	9.1	4.21e-02	0	43	0	591396864	24	5660
2026-01-09 09:45:32.91	82.63	51.03	-31.3	-34.1	10.8	1.09e-02	0	43	0	593494016	23	4957
2026-01-09 09:45:33.92	82.01	51.15	-31.0	-32.9	11.8	1.79e-03	0	43	0	595591168	23	4485
2026-01-09 09:45:34.92	81.38	51.27	-31.3	-33.8	11.2	9.51e-04	0	43	0	596639744	23	4802
2026-01-09 09:45:35.93	80.75	51.39	-30.9	-32.5	12.0	8.21e-04	0	43	0	598736896	23	4352
2026-01-09 09:45:36.94	80.11	51.51	-30.9	-32.9	12.2	2.22e-04	0	43	0	600834048	22	4563
2026-01-09 09:45:37.94	79.47	51.62	-30.7	-32.4	12.5	2.70e-04	0	43	0	602931200	22	4401
2026-01-09 09:45:38.95	78.82	51.73	-30.5	-32.0	12.7	1.97e-04	0	43	0	605028352	22	4293
2026-01-09 09:45:39.96	78.16	51.83	-30.6	-32.5	12.4	1.09e-04	0	43	0	607125504	22	4455
2026-01-09 09:45:40.96	77.51	51.93	-30.9	-33.2	11.8	2.53e-04	0	43	0	608174080	22	4685
2026-01-09 09:45:41.96	76.85	52.03	-30.7	-32.7	12.2	3.55e-04	0	43	0	610271232	22	4494
2026-01-09 09:45:42.97	76.19	52.13	-30.1	-31.2	13.6	6.94e-05	0	43	0	612368384	21	4119
2026-01-09 09:45:43.97	75.52	52.21	-29.6	-30.4	14.4	7.00e-07	0	43	0	614465536	20	3980
2026-01-09 09:45:44.98	74.85	52.30	-29.2	-30.1	15.0	0.00e+00	0	43	0	616562688	19	3969
2026-01-09 09:45:45.97	74.18	52.38	-28.8	-29.5	15.7	0.00e+00	0	43	0	617611264	18	3887
2026-01-09 09:45:46.98	73.50	52.46	-28.7	-29.2	15.9	0.00e+00	0	43	0	619708416	18	3802
2026-01-09 09:45:47.98	72.82	52.53	-28.4	-28.4	16.3	0.00e+00	0	43	0	621805568	18	3607
2026-01-09 09:45:48.99	72.13	52.60	-28.4	-29.1	16.2	0.00e+00	0	43	0	623902720	17	3868
2026-01-09 09:45:49.99	71.44	52.67	-28.5	-29.3	15.9	0.00e+00	0	43	0	624951296	17	3950
2026-01-09 09:45:51.00	70.74	52.73	-28.7	-29.8	15.8	0.00e+00	0	43	0	627048448	17	4065
2026-01-09 09:45:52.01	70.05	52.78	-28.8	-29.8	15.9	0.00e+00	0	43	0	629145600	17	4081
2026-01-09 09:45:53.01	69.35	52.84	-28.2	-28.5	16.4	0.00e+00	0	43	0	631242752	17	3724
2026-01-09 09:45:54.02	68.65	52.89	-28.3	-28.7	16.3	0.00e+00	0	43	0	633339904	17	3771
2026-01-09 09:45:55.03	67.94	52.93	-28.5	-29.2	16.1	0.00e+00	0	43	0	635437056	17	3922
2026-01-09 09:45:56.03	67.24	52.97	-28.3	-28.8	16.2	0.00e+00	0	43	0	636485632	17	3811
2026-01-09 09:45:57.04	66.53	53.00	-27.9	-27.9	16.8	0.00e+00	0	43	0	638582784	17	3576
2026-01-09 09:45:58.05	65.82	53.03	-27.8	-28.0	17.0	0.00e+00	0	43	0	640679936	16	3696
2026-01-09 09:45:59.05	65.11	53.06	-28.3	-29.2	16.3	0.00e+00	0	43	0	642777088	16	4000
2026-01-09 09:46:00.06	64.40	53.08	-28.7	-29.9	15.6	0.00e+00	0	43	0	643825664	17	4094
2026-01-09 09:46:01.07	63.68	53.10	-29.6	-31.0	14.5	0.00e+00	0	43	0	645922816	19	4249
2026-01-09 09:46:02.07	62.97	53.11	-29.2	-30.1	15.0	0.00e+00	0	43	0	648019968	19	3962
2026-01-09 09:46:03.08	62.26	53.12	-29.2	-30.0	15.0	0.00e+00	0	43	0	650117120	19	3942
2026-01-09 09:46:04.09	61.54	53.12	-29.2	-29.9	15.1	0.00e+00	0	43	0	652214272	19	3893
2026-01-09 09:46:05.09	60.83	53.12	-29.5	-30.6	14.6	7.00e-07	0	43	0	653262848	19	4108
2026-01-09 09:46:06.10	60.11	53.11	-29.4	-30.3	14.9	0.00e+00	0	43	0	655360000	19	4026
2026-01-09 09:46:07.11	59.40	53.10	-29.3	-30.2	15.0	0.00e+00	0	43	0	657457152	19	3971
2026-01-09 09:46:08.11	58.69	53.09	-29.7	-31.3	14.3	7.00e-07	0	43	0	659554304	19	4289
2026-01-09 09:46:09.12	57.98	53.07	-29.9	-31.4	13.9	2.20e-06	0	43	0	661651456	20	4268
2026-01-09 09:46:10.11	57.28	53.05	-30.2	-32.2	13.3	2.82e-05	0	42	0	662700032	20	4509
2026-01-09 09:46:11.12	56.57	53.02	-29.4	-30.0	14.6	1.50e-06	0	43	0	664797184	20	3845
2026-01-09 09:46:12.12	55.86	52.98	-29.1	-29.8	15.1	0.00e+00	0	43	0	666894336	19	3901
2026-01-09 09:46:13.12	55.16	52.95	-29.6	-31.1	14.3	0.00e+00	0	43	0	668991488	19	4275
2026-01-09 09:46:14.13	54.45	52.91	-29.6	-31.0	14.4	0.00e+00	0	43	0	671088640	19	4248
2026-01-09 09:46:15.13	53.76	52.86	-29.3	-30.3	14.8	0.00e+00	0	43	0	672137216	19	4042
2026-01-09 09:46:16.14	53.05	52.81	-28.8	-29.4	15.7	0.00e+00	0	43	0	674234368	18	3878
2026-01-09 09:46:17.14	52.36	52.75	-28.3	-28.3	16.3	0.00e+00	0	43	0	676331520	18	3587
2026-01-09 09:46:18.15	51.66	52.70	-27.4	-27.1	17.5	0.00e+00	0	43	0	678428672	16	3473
2026-01-09 09:46:19.16	50.97	52.63	-27.8	-28.0	17.1	0.00e+00	0	43	0	680525824	16	3685
2026-01-09 09:46:20.16	50.28	52.56	-28.4	-29.4	16.3	0.00e+00	0	43	0	681574400	16	4035
2026-01-09 09:46:21.17	49.60	52.49	-27.8	-28.0	17.0	0.00e+00	0	43	0	683671552	16	3674
2026-01-09 09:46:22.17	48.92	52.42	-28.0	-28.5	16.8	0.00e+00	0	43	0	685768704	16	3792
2026-01-09 09:46:23.18	48.24	52.34	-28.3	-29.2	16.4	0.00e+00	0	43	0	687865856	16	3989
2026-01-09 09:46:24.19	47.56	52.25	-28.5	-29.2	16.1	0.00e+00	0	43	0	689963008	17	3900
2026-01-09 09:46:25.19	46.90	52.17	-28.5	-29.1	16.2	0.00e+00	0	43	0	691011584	17	3854
2026-01-09 09:46:26.20	46.23	52.07	-29.1	-30.1	15.3	0.00e+00	0	43	0	693108736	18	4021
2026-01-09 09:46:27.21	45.56	51.98	-29.5	-31.0	14.8	0.00e+00	0	43	0	695205888	18	4288
2026-01-09 09:46:28.20	44.92	51.88	-29.5	-30.5	14.8	7.00e-07	0	43	0	697303040	19	4040
2026-01-09 09:46:29.21	44.26	51.78	-28.7	-29.0	16.0	0.00e+00	0	43	0	699400192	18	3732
2026-01-09 09:46:30.21	43.61	51.67	-28.7	-29.0	16.1	0.00e+00	0	43	0	700448768	18	3726
2026-01-09 09:46:31.22	42.97	51.56	-29.0	-29.7	15.6	0.00e+00	0	43	0	702545920	18	3917
2026-01-09 09:46:32.23	42.33	51.45	-29.4	-30.3	14.9	0.00e+00	0	43	0	704643072	19	3979
2026-01-09 09:46:33.24	41.69	51.33	-30.0	-31.3	14.0	0.00e+00	0	43	0	706740224	20	4179
2026-01-09 09:46:34.24	41.07	51.21	-30.5	-32.2	13.0	3.28e-05	0	43	0	708837376	21	4382
2026-01-09 09:46:35.25	40.44	51.09	-31.1	-33.6	11.9	2.54e-04	0	43	0	709885952	22	4751
2026-01-09 09:46:36.25	39.82	50.96	-30.7	-32.1	12.8	2.94e-04	0	43	0	711983104	22	4256
2026-01-09 09:46:37.26	39.21	50.83	-30.1	-31.2	13.7	2.13e-05	0	43	0	714080256	21	4055
2026-01-09 09:46:38.26	38.60	50.70	-29.6	-30.3	14.6	1.50e-06	0	43	0	716177408	20	3892
2026-01-09 09:46:39.27	38.00	50.56	-29.9	-31.1	14.0	3.00e-06	0	43	0	718274560	20	4138
2026-01-09 09:46:40.28	37.40	50.42	-30.4	-32.4	13.2	1.06e-05	0	43	0	719323136	20	4552
2026-01-09 09:46:41.28	36.81	50.28	-30.3	-31.8	13.3	2.36e-05	0	43	0	721420288	21	4279
2026-01-09 09:46:42.29	36.22	50.14	-30.6	-32.5	12.8	1.29e-05	0	43	0	723517440	21	4498
2026-01-09 09:46:43.29	35.65	49.99	-30.5	-32.5	12.7	5.41e-05	0	43	0	725614592	21	4488
2026-01-09 09:46:44.30	35.07	49.84	-30.5	-32.2	13.0	5.64e-05	0	43	0	727711744	21	4400
2026-01-09 09:46:45.30	34.51	49.69	-30.2	-31.5	13.4	2.89e-05	0	43	0	728760320	21	4168
2026-01-09 09:46:46.31	33.94	49.53	-30.2	-31.5	13.5	1.29e-05	0	43	0	730857472	21	4174
2026-01-09 09:46:47.31	33.39	49.38	-30.3	-31.8	13.3	8.30e-06	0	43	0	732954624	21	4263
2026-01-09 09:46:48.32	32.83	49.22	-30.6	-32.6	12.7	8.16e-05	0	43	0	735051776	21	4524
2026-01-09 09:46:49.32	32.29	49.05	-30.8	-33.1	12.4	8.62e-05	0	43	0	737148928	21	4680
2026-01-09 09:46:50.33	31.75	48.89	-30.6	-32.0	12.8	1.72e-04	0	43	0	738197504	22	4222
2026-01-09 09:46:51.34	31.21	48.72	-30.4	-31.9	13.3	3.28e-05	0	43	0	740294656	21	4283
2026-01-09 09:46:52.35	30.68	48.55	-30.2	-31.5	13.5	5.30e-06	0	43	0	742391808	21	4169
2026-01-09 09:46:53.35	30.16	48.39	-30.3	-31.7	13.3	6.10e-06	0	43	0	744488960	21	4232
2026-01-09 09:46:54.36	29.64	48.21	-30.3	-31.6	13.4	1.83e-05	0	43	0	746586112	21	4200
2026-01-09 09:46:55.36	29.14	48.04	-30.0	-30.8	13.9	9.10e-06	0	43	0	747634688	21	3959
2026-01-09 09:46:56.36	28.63	47.87	-30.1	-31.3	13.6	1.22e-05	0	43	0	749731840	21	4098
2026-01-09 09:46:57.37	28.13	47.69	-31.0	-33.3	11.9	6.17e-05	0	43	0	751828992	22	4689
2026-01-09 09:46:58.38	27.64	47.51	-31.2	-33.6	11.7	9.71e-04	0	42	0	753926144	22	4767
2026-01-09 09:46:59.38	27.15	47.33	-30.6	-32.1	12.8	4.54e-04	0	43	0	756023296	22	4233
2026-01-09 09:47:00.39	26.67	47.15	-30.4	-31.4	13.2	4.19e-05	0	43	0	757071872	22	4013
2026-01-09 09:47:01.39	26.19	46.96	-30.5	-31.6	13.0	4.65e-05	0	43	0	759169024	22	4095
2026-01-09 09:47:02.40	25.72	46.78	-30.2	-31.2	13.7	8.30e-06	0	43	0	761266176	21	4041
2026-01-09 09:47:03.40	25.26	46.59	-30.4	-31.8	13.2	1.37e-05	0	43	0	763363328	21	4246
2026-01-09 09:47:04.40	24.80	46.41	-30.7	-32.7	12.7	1.98e-05	0	43	0	765460480	21	4531
2026-01-09 09:47:05.40	24.35	46.22	-31.8	-35.3	10.0	1.83e-03	0	43	0	766509056	23	5371
2026-01-09 09:47:06.41	23.90	46.03	-32.4	-36.5	8.2	1.96e-02	0	43	0	768606208	25	5786
2026-01-09 09:47:07.42	23.45	45.84	-31.9	-34.7	9.8	3.88e-02	0	43	0	770703360	25	4927
2026-01-09 09:47:08.42	23.02	45.65	-31.9	-34.6	9.8	6.43e-03	0	43	0	772800512	25	4901
2026-01-09 09:47:09.43	22.58	45.46	-32.3	-36.2	8.7	9.93e-03	0	43	0	774897664	25	5602
2026-01-09 09:47:10.43	22.16	45.27	-32.5	-36.9	8.0	3.56e-02	0	43	0	775946240	25	5963
2026-01-09 09:47:11.44	21.73	45.07	-32.2	-35.8	8.9	2.78e-02	0	43	0	778043392	25	5432
2026-01-09 09:47:12.45	21.32	44.88	-31.7	-34.4	10.4	4.33e-03	0	43	0	780140544	24	4883
2026-01-09 09:47:13.45	20.91	44.68	-31.6	-33.8	10.9	2.68e-03	0	43	0	782237696	24	4648
2026-01-09 09:47:14.46	20.50	44.48	-31.6	-34.0	10.8	2.63e-03	0	43	0	783286272	24	4720
2026-01-09 09:47:15.46	20.10	44.29	-31.5	-33.6	11.0	1.72e-03	0	43	0	785383424	24	4577
2026-01-09 09:47:16.47	19.70	44.09	-31.5	-33.7	10.8	1.52e-03	0	43	0	787480576	24	4639
2026-01-09 09:47:17.48	19.31	43.89	-30.7	-32.2	12.6	4.98e-04	0	43	0	789577728	22	4281
2026-01-09 09:47:18.48	18.92	43.70	-30.1	-31.2	13.5	5.34e-05	0	43	0	791674880	21	4056
2026-01-09 09:47:19.49	18.54	43.50	-29.7	-30.6	14.2	4.50e-06	0	43	0	793772032	20	3966
2026-01-09 09:47:20.50	18.16	43.30	-30.0	-31.4	13.7	3.00e-06	0	43	0	794820608	20	4213
2026-01-09 09:47:21.51	17.78	43.10	-30.8	-33.1	12.3	7.40e-05	0	43	0	796917760	21	4683
2026-01-09 09:47:22.52	17.41	42.90	-31.4	-34.2	11.2	5.96e-04	0	43	0	799014912	22	5012
2026-01-09 09:47:23.51	17.06	42.70	-31.2	-33.8	11.4	1.56e-03	0	43	0	801112064	22	4850
2026-01-09 09:47:24.51	16.70	42.50	-31.4	-34.3	11.1	1.75e-03	0	43	0	802160640	22	5027
2026-01-09 09:47:25.51	16.35	42.30	-31.4	-34.0	11.1	3.14e-03	0	43	0	804257792	23	4841
2026-01-09 09:47:26.52	15.99	42.10	-31.6	-34.6	10.5	4.14e-03	0	43	0	806354944	23	5105
2026-01-09 09:47:27.53	15.65	41.90	-31.7	-34.8	10.2	5.26e-03	0	43	0	808452096	23	5176
2026-01-09 09:47:28.54	15.30	41.70	-31.8	-35.4	9.8	1.15e-02	0	43	0	810549248	23	5449
2026-01-09 09:47:29.54	14.97	41.50	-31.7	-35.1	10.1	5.46e-03	0	43	0	811597824	23	5304
2026-01-09 09:47:30.55	14.64	41.30	-31.7	-35.1	10.2	9.64e-03	0	43	0	813694976	23	5332
2026-01-09 09:47:31.56	14.31	41.10	-31.7	-34.7	9.9	1.98e-02	0	43	0	815792128	24	5051
2026-01-09 09:47:32.56	13.98	40.90	-31.5	-33.8	10.6	6.65e-03	0	43	0	817889280	24	4710
2026-01-09 09:47:33.57	13.66	40.69	-31.3	-33.8	10.9	2.29e-03	0	43	0	819986432	23	4791
2026-01-09 09:47:34.58	13.34	40.49	-31.6	-34.8	10.3	4.14e-03	0	43	0	822083584	23	5169
2026-01-09 09:47:35.58	13.03	40.29	-31.8	-35.5	9.6	6.82e-03	0	43	0	823132160	23	5513
2026-01-09 09:47:36.59	12.72	40.09	-31.9	-35.3	9.4	1.09e-02	0	43	0	825229312	24	5358
2026-01-09 09:47:37.59	12.42	39.89	-31.6	-34.3	10.2	1.17e-02	0	43	0	827326464	24	4887
2026-01-09 09:47:38.59	12.12	39.70	-31.4	-33.9	10.9	4.18e-03	0	43	0	829423616	23	4846
2026-01-09 09:47:39.60	11.82	39.50	-31.4	-34.0	10.8	3.25e-03	0	43	0	830472192	23	4854
2026-01-09 09:47:40.61	11.52	39.30	-31.3	-33.9	10.9	2.24e-03	0	43	0	832569344	23	4815
2026-01-09 09:47:41.62	11.23	39.10	-31.3	-33.9	10.9	2.95e-03	0	43	0	834666496	23	4831
2026-01-09 09:47:42.62	10.95	38.90	-31.0	-33.0	11.6	1.11e-03	0	43	0	836763648	23	4493
2026-01-09 09:47:43.63	10.66	38.70	-31.1	-33.1	11.5	7.12e-04	0	43	0	838860800	23	4512
2026-01-09 09:47:44.63	10.39	38.50	-31.1	-33.1	11.5	6.47e-04	0	43	0	839909376	23	4540
2026-01-09 09:47:45.63	10.11	38.31	-30.9	-32.4	12.0	6.84e-04	0	43	0	842006528	23	4299
2026-01-09 09:47:46.64	9.84	38.11	-30.5	-31.9	12.7	1.79e-04	0	43	0	844103680	22	4203
2026-01-09 09:47:47.64	9.57	37.91	-30.4	-31.5	13.0	3.73e-05	0	43	0	846200832	22	4070
2026-01-09 09:47:48.64	9.30	37.72	-30.7	-32.3	12.4	5.49e-05	0	43	0	848297984	22	4338
2026-01-09 09:47:49.65	9.04	37.52	-31.1	-33.6	11.5	5.80e-04	0	43	0	849346560	22	4781
2026-01-09 09:47:50.66	8.78	37.33	-31.5	-34.8	10.6	1.08e-03	0	43	0	851443712	22	5296
2026-01-09 09:47:51.67	8.52	37.13	-31.6	-34.6	10.4	3.57e-03	0	43	0	853540864	23	5087
2026-01-09 09:47:52.67	8.27	36.94	-31.5	-34.4	10.6	2.44e-03	0	43	0	855638016	23	5006
2026-01-09 09:47:53.67	8.02	36.75	-31.4	-34.1	10.7	3.19e-03	0	43	0	857735168	23	4910
2026-01-09 09:47:54.67	7.77	36.55	-31.3	-33.8	10.9	1.25e-03	0	43	0	858783744	23	4797
2026-01-09 09:47:55.68	7.53	36.36	-31.4	-34.1	10.8	2.19e-03	0	43	0	860880896	23	4894
2026-01-09 09:47:56.68	7.29	36.17	-31.3	-33.6	11.1	2.48e-03	0	43	0	862978048	23	4714
2026-01-09 09:47:57.69	7.05	35.98	-31.2	-33.2	11.4	1.04e-03	0	43	0	865075200	23	4564
2026-01-09 09:47:58.70	6.81	35.78	-30.8	-32.7	12.1	2.00e-04	0	43	0	867172352	22	4471
2026-01-09 09:47:59.71	6.58	35.59	-31.0	-33.1	11.8	1.56e-04	0	43	0	868220928	22	4626
2026-01-09 09:48:00.71	6.35	35.40	-30.9	-32.9	12.0	3.03e-04	0	43	0	870318080	22	4535
2026-01-09 09:48:01.72	6.12	35.21	-31.0	-33.2	11.8	2.78e-04	0	43	0	872415232	22	4652
2026-01-09 09:48:02.73	5.89	35.03	-31.0	-33.3	11.8	7.40e-04	0	43	0	874512384	22	4663
2026-01-09 09:48:03.74	5.67	34.84	-31.4	-34.4	10.9	9.01e-04	0	43	0	876609536	22	5108
2026-01-09 09:48:04.74	5.45	34.65	-31.4	-34.5	10.8	1.76e-03	0	43	0	877658112	22	5128
2026-01-09 09:48:05.74	5.23	34.46	-31.3	-33.5	11.2	1.59e-03	0	43	0	879755264	23	4660
2026-01-09 09:48:06.75	5.02	34.28	-30.7	-32.2	12.5	3.03e-04	0	43	0	881852416	22	4284
2026-01-09 09:48:07.76	4.80	34.09	-30.3	-31.1	13.3	3.50e-05	0	43	0	883949568	22	3933
2026-01-09 09:48:08.76	4.59	33.91	-30.0	-30.9	13.7	1.67e-05	0	43	0	886046720	21	3972
2026-01-09 09:48:09.77	4.39	33.72	-30.2	-31.4	13.4	1.60e-05	0	43	0	887095296	21	4113
2026-01-09 09:48:10.77	4.18	33.54	-30.2	-31.4	13.4	2.05e-05	0	43	0	889192448	21	4115
2026-01-09 09:48:11.78	3.98	33.36	-30.4	-32.0	12.9	3.50e-05	0	43	0	891289600	21	4319
2026-01-09 09:48:12.79	3.78	33.17	-30.7	-32.8	12.5	7.17e-05	0	43	0	893386752	21	4560
2026-01-09 09:48:13.79	3.58	32.99	-30.5	-32.2	12.8	5.26e-05	0	43	0	895483904	21	4389
2026-01-09 09:48:14.80	3.38	32.81	-30.6	-32.4	12.7	5.87e-05	0	43	0	896532480	21	4458
2026-01-09 09:48:15.80	3.19	32.63	-30.8	-32.5	12.2	2.42e-04	0	43	0	898629632	22	4395
2026-01-09 09:48:16.80	3.00	32.46	-31.1	-33.4	11.7	4.45e-04	0	43	0	900726784	22	4683
2026-01-09 09:48:17.81	2.81	32.28	-31.4	-34.3	11.1	1.14e-03	0	43	0	902823936	22	5048
2026-01-09 09:48:18.82	2.62	32.10	-31.3	-33.7	11.1	2.29e-03	0	43	0	904921088	23	4736
2026-01-09 09:48:19.82	2.44	31.92	-31.0	-32.6	11.8	6.21e-04	0	43	0	905969664	23	4328
2026-01-09 09:48:20.83	2.25	31.74	-30.2	-31.7	12.0	3.93e-04	0	43	0	908066816	22	4260
2026-01-09 09:48:21.83	2.07	31.57	-31.1	-33.5	11.6	4.17e-04	0	43	0	910163968	22	4763
2026-01-09 09:48:22.83	1.89	31.40	-31.3	-34.0	11.2	1.54e-03	0	43	0	912261120	22	4962
2026-01-09 09:48:23.83	1.72	31.22	-31.2	-33.9	11.1	1.95e-03	0	43	0	914358272	22	4927
2026-01-09 09:48:24.84	1.54	31.05	-31.3	-34.0	11.2	2.29e-03	0	43	0	915406848	22	4957
2026-01-09 09:48:25.84	1.37	30.88	-31.3	-34.2	11.0	1.55e-03	0	43	0	917504000	22	5000
2026-01-09 09:48:26.85	1.19	30.70	-31.1	-33.5	11.6	1.55e-03	0	43	0	919601152	22	4735
2026-01-09 09:48:27.86	1.02	30.53	-30.6	-32.1	12.5	1.52e-04	0	43	0	921698304	22	4267
2026-01-09 09:48:28.87	0.86	30.36	-30.6	-31.9	12.6	7.17e-05	0	43	0	923795456	22	4190
2026-01-09 09:48:29.88	0.69	30.19	-30.4	-31.6	12.8	1.14e-04	0	43	0	924844032	22	4098
2026-01-09 09:48:30.88	0.53	30.02	-30.6	-32.0	12.6	8.01e-05	0	43	0	926941184	22	4231
2026-01-09 09:48:31.88	0.36	29.85	-30.4	-31.5	12.9	6.48e-05	0	43	0	929038336	22	4068
2026-01-09 09:48:32.89	0.20	29.69	-30.4	-31.5	12.9	2.51e-05	0	43	0	931135488	22	4092
2026-01-09 09:48:33.89	0.04	29.52	-30.5	-31.8	12.7	5.95e-05	0	42	0	933232640	22	4182
2026-01-09 09:48:34.89	359.89	29.35	-30.4	-31.4	13.0	5.03e-05	0	43	0	934281216	22	4043
2026-01-09 09:48:35.90	359.73	29.19	-30.7	-32.3	12.3	1.25e-04	0	43	0	936378368	22	4342
2026-01-09 09:48:36.91	359.57	29.02	-30.8	-32.7	12.1	2.77e-04	0	43	0	938475520	22	4479
2026-01-09 09:48:37.91	359.42	28.86	-31.1	-33.6	11.5	7.22e-04	0	43	0	940572672	22	4774
2026-01-09 09:48:38.91	359.27	28.70	-31.1	-33.5	11.6	8.11e-04	0	43	0	941621248	22	4735
2026-01-09 09:48:39.92	359.12	28.53	-30.9	-32.7	12.1	4.13e-04	0	43	0	943718400	22	4476
2026-01-09 09:48:40.92	358.98	28.37	-30.5	-31.6	12.8	6.56e-05	0	43	0	945815552	22	4114
2026-01-09 09:48:41.93	358.83	28.21	-30.3	-31.1	13.2	3.20e-05	0	43	0	947912704	22	3956
2026-01-09 09:48:42.94	358.68	28.05	-30.4	-31.3	13.1	3.81e-05	0	43	0	950009856	22	4003
2026-01-09 09:48:43.94	358.54	27.89	-29.9	-30.6	13.8	2.59e-05	0	43	0	952107008	21	3889
2026-01-09 09:48:44.95	358.40	27.73	-29.9	-30.7	13.8	5.30e-06	0	43	0	953155584	21	3922
2026-01-09 09:48:45.96	358.26	27.57	-30.1	-31.1	13.4	3.80e-06	0	43	0	955252736	21	4053
2026-01-09 09:48:46.97	358.12	27.42	-30.3	-31.8	13.0	2.13e-05	0	43	0	957349888	21	4253
2026-01-09 09:48:47.97	357.98	27.26	-30.4	-31.9	12.9	3.35e-05	0	43	0	959447040	21	4294
2026-01-09 09:48:48.97	357.84	27.10	-30.5	-32.2	12.7	3.89e-05	0	43	0	961544192	21	4377
2026-01-09 09:48:49.98	357.71	26.95	-30.7	-32.7	12.4	8.62e-05	0	43	0	962592768	21	4567
2026-01-09 09:48:50.99	357.57	26.79	-30.8	-33.1	12.0	2.65e-04	0	43	0	964689920	21	4706
2026-01-09 09:48:52.00	357.44	26.64	-31.2	-33.9	11.2	4.71e-04	0	43	0	966787072	22	4888
2026-01-09 09:48:53.00	357.31	26.49	-31.2	-33.8	11.2	1.04e-03	0	43	0	968884224	22	4882
2026-01-09 09:48:54.01	357.18	26.33	-31.6	-34.7	10.2	2.60e-03	0	43	0	969932800	23	5152
2026-01-09 09:48:55.01	357.05	26.18	-31.4	-34.1	10.7	3.51e-03	0	43	0	972029952	23	4904
2026-01-09 09:48:56.02	356.92	26.03	-31.2	-33.2	11.3	1.56e-03	0	43	0	974127104	23	4571
2026-01-09 09:48:57.01	356.80	25.88	-30.6	-32.2	12.4	3.14e-04	0	43	0	976224256	22	4284
2026-01-09 09:48:58.02	356.67	25.73	-30.2	-31.4	13.2	3.66e-05	0	43	0	978321408	21	4128
2026-01-09 09:48:59.02	356.55	25.58	-29.8	-30.4	13.9	6.10e-06	0	43	0	980418560	21	3845
2026-01-09 09:49:00.03	356.43	25.43	-29.6	-30.4	14.2	3.80e-06	0	43	0	981467136	20	3935
2026-01-09 09:49:01.04	356.31	25.29	-29.5	-30.0	14.5	0.00e+00	0	43	0	983564288	20	3817
2026-01-09 09:49:02.04	356.19	25.14	-29.7	-30.5	14.2	2.20e-06	0	43	0	985661440	20	3950
2026-01-09 09:49:03.05	356.07	24.99	-29.7	-30.7	14.0	1.50e-06	0	43	0	987758592	20	4012
2026-01-09 09:49:04.05	355.95	24.85	-30.1	-31.8	13.4	4.50e-06	0	43	0	988807168	20	4336
2026-01-09 09:49:05.06	355.83	24.70	-30.3	-32.3	13.0	4.11e-05	0	43	0	990904320	20	4515
2026-01-09 09:49:06.06	355.72	24.56	-30.5	-32.3	12.6	6.56e-05	0	43	0	993001472	21	4424
2026-01-09 09:49:07.06	355.60	24.42	-30.5	-32.4	12.5	1.09e-04	0	43	0	995098624	21	4442
2026-01-09 09:49:08.07	355.49	24.27	-30.7	-32.9	12.2	1.85e-04	0	43	0	997195776	21	4628
2026-01-09 09:49:09.08	355.38	24.13	-30.5	-32.2	12.7	8.85e-05	0	43	0	998244352	21	4397
2026-01-09 09:49:10.08	355.27	23.99	-30.4	-32.0	12.8	7.01e-05	0	43	0	1000341504	21	4318
2026-01-09 09:49:11.09	355.16	23.85	-30.4	-32.2	12.6	1.04e-04	0	43	0	1002438656	21	4390
2026-01-09 09:49:12.10	355.05	23.71	-30.6	-32.7	12.2	1.58e-04	0	43	0	1004535808	21	4580
2026-01-09 09:49:13.11	354.94	23.57	-30.7	-32.9	12.1	1.59e-04	0	43	0	1006632960	21	4629
2026-01-09 09:49:14.11	354.83	23.43	-30.9	-33.5	11.7	3.55e-04	0	43	0	1007681536	21	4852
2026-01-09 09:49:15.12	354.72	23.29	-31.1	-33.6	11.4	7.43e-04	0	43	0	1009778688	22	4791
2026-01-09 09:49:16.12	354.62	23.15	-31.1	-33.7	11.3	1.11e-03	0	43	0	1011875840	22	4822
2026-01-09 09:49:17.13	354.51	23.01	-31.1	-33.5	11.4	9.28e-04	0	43	0	1013972992	22	4747
2026-01-09 09:49:18.14	354.41	22.88	-30.9	-33.1	11.7	8.37e-04	0	43	0	1016070144	22	4614
2026-01-09 09:49:19.14	354.31	22.74	-30.7	-32.4	12.2	3.23e-04	0	43	0	1017118720	22	4366
2026-01-09 09:49:20.15	354.21	22.60	-30.5	-31.9	12.5	1.59e-04	0	43	0	1019215872	22	4217
2026-01-09 09:49:21.15	354.11	22.47	-30.2	-31.6	13.0	3.96e-05	0	43	0	1021313024	21	4201
2026-01-09 09:49:22.16	354.01	22.34	-30.4	-31.9	12.9	5.11e-05	0	43	0	1023410176	21	4310
2026-01-09 09:49:23.16	353.91	22.20	-30.3	-31.6	13.0	5.56e-05	0	43	0	1025507328	21	4203
2026-01-09 09:49:24.16	353.81	22.07	-30.4	-32.1	12.7	5.18e-05	0	43	0	1026555904	21	4377
2026-01-09 09:49:25.16	353.71	21.94	-30.5	-32.3	12.5	8.69e-05	0	43	0	1028653056	21	4437
2026-01-09 09:49:26.17	353.62	21.81	-30.7	-33.0	12.1	1.69e-04	0	43	0	1030750208	21	4683
2026-01-09 09:49:27.18	353.52	21.67	-30.6	-32.7	12.2	2.23e-04	0	43	0	1032847360	21	4571
2026-01-09 09:49:28.18	353.43	21.55	-30.8	-33.3	11.8	2.45e-04	0	43	0	1034944512	21	4778
2026-01-09 09:49:29.18	353.33	21.42	-30.8	-33.2	12.0	5.19e-04	0	43	0	1035993088	21	4719
2026-01-09 09:49:30.19	353.24	21.29	-30.6	-32.5	12.4	1.31e-04	0	43	0	1038090240	21	4508
2026-01-09 09:49:31.20	353.15	21.16	-30.3	-31.6	13.0	4.27e-05	0	42	0	1040187392	21	4195
2026-01-09 09:49:32.20	353.06	21.03	-30.1	-31.1	13.3	1.67e-05	0	43	0	1042284544	21	4046
2026-01-09 09:49:33.21	352.96	20.90	-30.2	-31.3	13.2	1.75e-05	0	43	0	1044381696	21	4115
2026-01-09 09:49:34.21	352.88	20.77	-29.8	-30.3	13.8	1.44e-05	0	43	0	1045430272	21	3830
2026-01-09 09:49:35.22	352.79	20.65	-29.5	-30.2	14.2	1.50e-06	0	43	0	1047527424	20	3872
2026-01-09 09:49:36.23	352.70	20.52	-29.6	-30.4	14.1	1.50e-06	0	43	0	1049624576	20	3948
2026-01-09 09:49:37.23	352.61	20.40	-29.8	-30.8	13.8	3.00e-06	0	43	0	1051721728	20	4059
2026-01-09 09:49:38.24	352.52	20.27	-30.0	-31.4	13.4	7.60e-06	0	43	0	1053818880	20	4240
2026-01-09 09:49:39.24	352.44	20.15	-29.9	-31.1	13.6	6.80e-06	0	43	0	1054867456	20	4145
2026-01-09 09:49:40.25	352.35	20.02	-30.0	-31.6	13.4	8.30e-06	0	43	0	1056964608	20	4288
2026-01-09 09:49:41.26	352.27	19.90	-30.4	-32.6	12.6	5.34e-05	0	43	0	1059061760	20	4626
2026-01-09 09:49:42.27	352.18	19.78	-30.5	-32.4	12.4	7.47e-05	0	43	0	1061158912	21	4479
2026-01-09 09:49:43.27	352.10	19.65	-30.8	-33.4	11.7	2.63e-04	0	43	0	1063256064	21	4823
2026-01-09 09:49:44.28	352.02	19.53	-31.1	-33.7	11.2	1.04e-03	0	43	0	1064304640	22	4838
2026-01-09 09:49:45.28	351.93	19.41	-31.1	-33.8	11.1	1.50e-03	0	43	0	1066401792	22	4878
2026-01-09 09:49:46.29	351.85	19.29	-31.1	-33.7	11.2	1.66e-03	0	43	0	1068498944	22	4833
2026-01-09 09:49:47.29	351.77	19.17	-31.2	-34.1	10.9	1.49e-03	0	43	0	1070596096	22	5011
2026-01-09 09:49:48.29	351.69	19.05	-31.3	-34.3	10.7	3.05e-03	0	43	0	1072693248	22	5079
2026-01-09 09:49:49.30	351.61	18.93	-31.1	-33.8	11.1	1.86e-03	0	43	0	1073741824	22	4898
2026-01-09 09:49:50.31	351.54	18.81	-31.0	-33.3	11.4	1.12e-03	0	43	0	1075838976	22	4721
2026-01-09 09:49:51.31	351.46	18.70	-30.9	-33.2	11.5	9.62e-04	0	42	0	1077936128	22	4680
2026-01-09 09:49:52.32	351.38	18.58	-31.1	-33.5	11.4	7.70e-04	0	43	0	1080033280	22	4788
2026-01-09 09:49:53.33	351.30	18.46	-30.9	-33.1	11.6	9.90e-04	0	43	0	1082130432	22	4635
2026-01-09 09:49:54.33	351.23	18.35	-31.0	-33.3	11.4	5.03e-04	0	43	0	1083179008	22	4685
2026-01-09 09:49:55.34	351.15	18.23	-30.8	-32.6	11.9	5.48e-04	0	43	0	1085276160	22	4454
2026-01-09 09:49:56.34	351.08	18.11	-30.4	-31.6	12.6	2.04e-04	0	43	0	1087373312	22	4117
2026-01-09 09:49:57.35	351.00	18.00	-30.3	-31.3	12.8	9.46e-05	0	43	0	1089470464	22	4035
2026-01-09 09:49:58.35	350.93	17.88	-30.3	-31.8	12.8	7.85e-05	0	43	0	1091567616	21	4292
2026-01-09 09:49:59.35	350.86	17.77	-30.3	-31.7	12.8	6.56e-05	0	43	0	1092616192	21	4250
2026-01-09 09:50:00.36	350.78	17.66	-30.3	-31.9	12.7	1.16e-04	0	43	0	1094713344	21	4322
2026-01-09 09:50:01.36	350.71	17.54	-30.5	-32.4	12.3	1.28e-04	0	43	0	1096810496	21	4503
2026-01-09 09:50:02.37	350.64	17.43	-30.7	-33.0	12.0	5.00e-04	0	43	0	1098907648	21	4681
2026-01-09 09:50:03.37	350.57	17.32	-30.5	-32.3	12.3	2.91e-04	0	43	0	1101004800	21	4458
2026-01-09 09:50:04.37	350.50	17.21	-30.2	-31.7	12.7	1.53e-04	0	43	0	1102053376	21	4270
2026-01-09 09:50:05.38	350.43	17.10	-30.3	-31.9	12.6	7.24e-05	0	43	0	1104150528	21	4314
2026-01-09 09:50:06.38	350.36	16.99	-30.4	-32.1	12.4	9.46e-05	0	43	0	1106247680	21	4409
2026-01-09 09:50:07.38	350.29	16.88	-30.4	-32.3	12.4	1.33e-04	0	43	0	1108344832	21	4444
2026-01-09 09:50:08.39	350.22	16.77	-30.3	-32.0	12.5	1.15e-04	0	43	0	1110441984	21	4376
2026-01-09 09:50:09.38	350.16	16.66	-30.5	-32.6	12.2	2.56e-04	0	42	0	1111490560	21	4546
2026-01-09 09:50:10.39	350.09	16.55	-30.4	-32.2	12.3	2.53e-04	0	43	0	1113587712	21	4442
2026-01-09 09:50:11.39	350.02	16.44	-30.6	-32.8	11.9	3.53e-04	0	43	0	1115684864	21	4657
2026-01-09 09:50:12.40	349.96	16.33	-30.8	-33.4	11.5	1.03e-03	0	43	0	1117782016	21	4874
2026-01-09 09:50:13.40	349.89	16.23	-30.6	-33.0	11.8	7.05e-04	0	43	0	1118830592	21	4697
2026-01-09 09:50:14.40	349.83	16.12	-30.8	-33.3	11.6	6.03e-04	0	43	0	1120927744	21	4815
2026-01-09 09:50:15.41	349.76	16.01	-30.6	-32.9	11.8	4.97e-04	0	43	0	1123024896	21	4672
2026-01-09 09:50:16.41	349.70	15.91	-30.5	-32.6	12.0	3.85e-04	0	43	0	1125122048	21	4576
2026-01-09 09:50:17.42	349.63	15.80	-30.4	-32.3	12.2	2.15e-04	0	42	0	1127219200	21	4466
2026-01-09 09:50:18.42	349.57	15.70	-30.5	-32.5	12.1	2.97e-04	0	43	0	1128267776	21	4532
2026-01-09 09:50:19.42	349.51	15.59	-30.5	-32.4	12.1	2.33e-04	0	43	0	1130364928	21	4505
2026-01-09 09:50:20.42	349.45	15.49	-30.3	-32.0	12.4	2.01e-04	0	43	0	1132462080	21	4382
2026-01-09 09:50:21.43	349.39	15.38	-30.4	-32.2	12.2	1.65e-04	0	43	0	1134559232	21	4429
2026-01-09 09:50:22.44	349.32	15.28	-30.4	-32.3	12.1	2.91e-04	0	43	0	1136656384	21	4490
2026-01-09 09:50:23.44	349.26	15.18	-30.4	-32.2	12.2	3.66e-04	0	43	0	1137704960	21	4444
2026-01-09 09:50:24.45	349.20	15.07	-30.3	-32.0	12.3	2.67e-04	0	43	0	1139802112	21	4393
2026-01-09 09:50:25.45	349.14	14.97	-30.2	-31.6	12.5	9.76e-05	0	43	0	1141899264	21	4266
2026-01-09 09:50:26.46	349.08	14.87	-30.3	-31.9	12.3	1.26e-04	0	43	0	1143996416	21	4363
2026-01-09 09:50:27.47	349.02	14.76	-30.3	-32.1	12.2	2.17e-04	0	43	0	1146093568	21	4434
2026-01-09 09:50:28.48	348.97	14.66	-30.3	-32.1	12.2	1.72e-04	0	43	0	1147142144	21	4418
2026-01-09 09:50:29.47	348.91	14.56	-30.5	-32.6	11.8	2.59e-04	0	43	0	1149239296	21	4590
2026-01-09 09:50:30.48	348.85	14.46	-30.5	-32.8	11.8	3.55e-04	0	43	0	1151336448	21	4653
2026-01-09 09:50:31.49	348.79	14.36	-30.6	-32.9	11.6	6.42e-04	0	43	0	1153433600	21	4709
2026-01-09 09:50:32.49	348.74	14.26	-30.6	-33.0	11.6	7.76e-04	0	43	0	1155530752	21	4736
2026-01-09 09:50:33.49	348.68	14.16	-30.7	-33.4	11.3	1.18e-03	0	43	0	1156579328	21	4901
2026-01-09 09:50:34.50	348.62	14.06	-30.9	-33.8	11.0	1.91e-03	0	43	0	1158676480	21	5057
2026-01-09 09:50:35.51	348.57	13.96	-30.9	-33.8	11.0	2.09e-03	0	43	0	1160773632	21	5059
2026-01-09 09:50:36.51	348.51	13.87	-31.1	-34.1	10.4	4.12e-03	0	43	0	1162870784	22	5076
2026-01-09 09:50:37.52	348.46	13.77	-30.9	-33.5	10.8	3.37e-03	0	43	0	1164967936	22	4856
2026-01-09 09:50:38.52	348.40	13.67	-31.0	-33.6	10.7	2.74e-03	0	43	0	1166016512	22	4887
2026-01-09 09:50:39.53	348.35	13.57	-30.9	-33.5	10.9	2.62e-03	0	43	0	1168113664	22	4840
2026-01-09 09:50:40.54	348.29	13.48	-31.1	-34.3	10.4	4.55e-03	0	43	0	1170210816	22	5147
2026-01-09 09:50:41.53	348.24	13.38	-30.9	-33.3	11.0	2.64e-03	0	43	0	1172307968	22	4758
2026-01-09 09:50:42.53	348.19	13.29	-30.8	-33.2	11.0	1.39e-03	0	43	0	1174405120	22	4721
2026-01-09 09:50:43.54	348.13	13.19	-30.8	-33.0	11.2	1.70e-03	0	43	0	1175453696	22	4664
2026-01-09 09:50:44.54	348.08	13.09	-30.8	-33.2	11.0	2.42e-03	0	43	0	1177550848	22	4717
2026-01-09 09:50:45.54	348.03	13.00	-30.5	-32.2	11.7	8.48e-04	0	43	0	1179648000	22	4373
2026-01-09 09:50:46.54	347.98	12.90	-30.4	-32.0	11.9	5.31e-04	0	43	0	1181745152	22	4317
2026-01-09 09:50:47.55	347.93	12.81	-30.5	-32.1	11.7	4.30e-04	0	43	0	1183842304	22	4355
2026-01-09 09:50:48.56	347.88	12.72	-30.3	-31.7	12.1	2.66e-04	0	43	0	1184890880	22	4212
2026-01-09 09:50:49.57	347.83	12.62	-30.3	-32.2	12.0	2.34e-04	0	43	0	1186988032	21	4465
2026-01-09 09:50:50.57	347.78	12.53	-30.3	-32.2	12.1	3.91e-04	0	43	0	1189085184	21	4456
2026-01-09 09:50:51.58	347.73	12.43	-30.1	-31.6	12.4	2.17e-04	0	43	0	1191182336	21	4255
2026-01-09 09:50:52.59	347.68	12.34	-30.1	-31.4	12.6	1.26e-04	0	43	0	1193279488	21	4203
2026-01-09 09:50:53.59	347.63	12.25	-30.2	-31.9	12.2	1.66e-04	0	43	0	1194328064	21	4370
2026-01-09 09:50:54.59	347.58	12.16	-30.2	-31.7	12.4	1.41e-04	0	43	0	1196425216	21	4280
2026-01-09 09:50:55.60	347.53	12.07	-30.2	-31.8	12.2	1.36e-04	0	43	0	1198522368	21	4348
2026-01-09 09:50:56.60	347.48	11.97	-30.2	-31.8	12.2	1.62e-04	0	43	0	1200619520	21	4341
2026-01-09 09:50:57.61	347.43	11.88	-30.1	-31.7	12.3	2.71e-04	0	43	0	1201668096	21	4295
2026-01-09 09:50:58.61	347.39	11.79	-30.1	-31.7	12.3	2.30e-04	0	43	0	1203765248	21	4294
2026-01-09 09:50:59.61	347.34	11.70	-30.3	-32.1	12.0	1.95e-04	0	43	0	1205862400	21	4426
2026-01-09 09:51:00.62	347.29	11.61	-30.3	-32.1	12.1	3.49e-04	0	43	0	1207959552	21	4425
2026-01-09 09:51:01.62	347.25	11.52	-30.3	-32.1	12.1	2.72e-04	0	43	0	1210056704	21	4437
2026-01-09 09:51:02.63	347.20	11.43	-30.3	-32.3	12.0	2.97e-04	0	43	0	1212153856	21	4500
2026-01-09 09:51:03.64	347.15	11.34	-30.5	-32.6	11.6	5.12e-04	0	43	0	1213202432	21	4623
2026-01-09 09:51:04.64	347.11	11.25	-30.5	-32.9	11.5	7.43e-04	0	43	0	1215299584	21	4714
2026-01-09 09:51:05.65	347.06	11.17	-30.5	-32.8	11.6	6.80e-04	0	43	0	1217396736	21	4681
2026-01-09 09:51:06.66	347.02	11.08	-30.6	-33.1	11.4	8.92e-04	0	43	0	1219493888	21	4781
2026-01-09 09:51:07.66	346.97	10.99	-30.6	-33.2	11.3	8.33e-04	0	43	0	1220542464	21	4834
2026-01-09 09:51:08.66	346.93	10.90	-30.8	-33.6	11.0	1.83e-03	0	43	0	1222639616	21	4983
2026-01-09 09:51:09.67	346.88	10.81	-30.6	-33.0	11.4	9.93e-04	0	43	0	1224736768	21	4770
2026-01-09 09:51:10.68	346.84	10.73	-30.6	-33.2	11.3	1.05e-03	0	43	0	1226833920	21	4819
2026-01-09 09:51:11.68	346.80	10.64	-30.6	-33.1	11.3	1.26e-03	0	43	0	1228931072	21	4791
2026-01-09 09:51:12.69	346.75	10.55	-30.6	-33.2	11.2	1.25e-03	0	43	0	1229979648	21	4844
2026-01-09 09:51:13.70	346.71	10.47	-30.6	-33.2	11.2	1.45e-03	0	43	0	1232076800	21	4845
2026-01-09 09:51:14.71	346.67	10.38	-30.5	-32.9	11.4	9.96e-04	0	43	0	1234173952	21	4730
2026-01-09 09:51:15.70	346.62	10.29	-30.7	-33.6	10.9	1.70e-03	0	43	0	1236271104	21	4987
2026-01-09 09:51:16.71	346.58	10.21	-30.6	-33.2	11.2	1.90e-03	0	43	0	1238368256	21	4860
2026-01-09 09:51:17.72	346.54	10.12	-30.5	-32.9	11.4	1.12e-03	0	43	0	1239416832	21	4746
2026-01-09 09:51:18.72	346.50	10.04	-30.7	-33.4	11.1	1.52e-03	0	43	0	1241513984	21	4905
2026-01-09 09:51:19.72	346.46	9.95	-30.6	-33.1	11.2	1.32e-03	0	43	0	1243611136	21	4815
2026-01-09 09:51:20.73	346.41	9.87	-30.5	-33.0	11.3	7.97e-04	0	43	0	1245708288	21	4770
2026-01-09 09:51:21.74	346.37	9.79	-30.7	-33.4	11.0	1.68e-03	0	43	0	1247805440	21	4946
2026-01-09 09:51:22.74	346.33	9.70	-30.6	-33.2	11.1	1.78e-03	0	43	0	1248854016	21	4848
2026-01-09 09:51:23.75	346.29	9.62	-30.7	-33.6	10.9	2.02e-03	0	43	0	1250951168	21	5006
2026-01-09 09:51:24.75	346.25	9.54	-30.8	-33.7	10.8	2.54e-03	0	43	0	1253048320	21	5049
2026-01-09 09:51:25.76	346.21	9.45	-30.7	-33.7	10.8	2.23e-03	0	43	0	1255145472	21	5042
2026-01-09 09:51:26.76	346.17	9.37	-30.7	-33.5	10.9	3.06e-03	0	43	0	1257242624	21	4961
2026-01-09 09:51:27.77	346.13	9.29	-30.7	-33.7	10.7	2.17e-03	0	43	0	1258291200	21	5050
2026-01-09 09:51:28.78	346.09	9.20	-30.8	-33.8	10.6	3.51e-03	0	43	0	1260388352	21	5104
2026-01-09 09:51:29.78	346.05	9.12	-30.7	-33.5	10.8	2.72e-03	0	43	0	1262485504	21	4971
2026-01-09 09:51:30.79	346.02	9.04	-30.6	-33.3	10.9	3.30e-03	0	43	0	1264582656	21	4915
2026-01-09 09:51:31.79	345.98	8.96	-30.7	-33.4	10.9	2.82e-03	0	43	0	1266679808	21	4962
2026-01-09 09:51:32.80	345.94	8.88	-30.7	-33.7	10.7	2.36e-03	0	43	0	1267728384	21	5048
2026-01-09 09:51:33.80	345.90	8.80	-30.8	-33.8	10.6	3.32e-03	0	43	0	1269825536	21	5117
2026-01-09 09:51:34.80	345.86	8.72	-30.8	-34.1	10.2	4.44e-03	0	43	0	1271922688	21	5253
2026-01-09 09:51:35.82	345.83	8.63	-30.8	-34.1	10.3	4.81e-03	0	43	0	1274019840	21	5246
2026-01-09 09:51:36.83	345.79	8.55	-30.8	-33.9	10.4	4.90e-03	0	43	0	1276116992	21	5160
2026-01-09 09:51:37.83	345.75	8.47	-30.9	-34.4	10.1	4.29e-03	0	43	0	1277165568	21	5374
2026-01-09 09:51:38.84	345.71	8.39	-31.1	-34.4	9.7	9.74e-03	0	43	0	1279262720	22	5262
2026-01-09 09:51:39.85	345.68	8.31	-30.9	-33.8	10.2	7.26e-03	0	43	0	1281359872	22	5021
2026-01-09 09:51:40.86	345.64	8.24	-31.1	-34.6	9.7	8.79e-03	0	43	0	1283457024	22	5379
2026-01-09 09:51:41.86	345.60	8.16	-31.1	-34.4	9.6	1.51e-02	0	43	0	1285554176	22	5296
2026-01-09 09:51:42.87	345.57	8.08	-31.1	-34.5	9.7	1.05e-02	0	43	0	1286602752	22	5319
2026-01-09 09:51:43.87	345.53	8.00	-31.2	-35.1	9.1	1.59e-02	0	43	0	1288699904	22	5607
