passes_logs/2026/01/09/R2M6_AANII_01/R2M6_AANII_01__20260109_041336_FENGYUN_3E_rec.log

#Pass ID: 20260109_041336_FENGYUN 3E
#Satellite: FENGYUN 3E
#Configuration: FENGYUN 3E
#almurnet v.1.7.20240730
#Start time: 2026-01-09 04:18:35

#Version: 2.2.20231116
#Station: R2M6_AANII_01
#Location: 30.233357 lon 59.946436 lat
#TLE: 1 49008U 21062A   26008.52265380 -.00000112  00000+0 -32190-4 0  9993
#TLE: 2 49008  98.7483  13.7266 0001697 149.3310 210.7966 14.19883994233927

#Time	Az	El	Level	Level2	SNR	BER	BlckErr	Temp	State	Recorded	gain1	gain2
2026-01-09 04:18:35.80	51.79	54.19	-33.1	-44.3	3.8	8.46e-01	0	43	0	0	26	13068
2026-01-09 04:18:36.80	52.24	54.48	-34.0	-43.8	3.8	8.47e-01	0	43	104	0	27	11170
2026-01-09 04:18:37.79	52.70	54.77	-34.0	-43.9	3.8	8.45e-01	0	43	104	0	27	11178
2026-01-09 04:18:38.80	53.18	55.07	-34.0	-43.9	3.8	8.46e-01	0	43	104	0	27	11194
2026-01-09 04:18:39.79	53.66	55.35	-34.1	-44.0	3.8	8.46e-01	0	43	104	0	27	11288
2026-01-09 04:18:40.80	54.16	55.65	-34.1	-44.0	3.8	8.45e-01	0	43	104	0	27	11286
2026-01-09 04:18:41.79	54.66	55.93	-34.1	-44.0	3.8	8.47e-01	0	43	104	0	27	11263
2026-01-09 04:18:42.80	55.18	56.22	-34.1	-44.0	3.8	8.47e-01	0	43	104	0	27	11252
2026-01-09 04:18:43.81	55.71	56.51	-34.1	-43.9	3.8	8.46e-01	0	43	104	0	27	11223
2026-01-09 04:18:44.81	56.25	56.80	-34.0	-43.9	3.8	8.46e-01	0	43	104	0	27	11254
2026-01-09 04:18:45.82	56.80	57.09	-34.0	-43.9	3.8	8.46e-01	0	43	104	0	27	11216
2026-01-09 04:18:46.82	57.36	57.37	-34.0	-43.9	3.8	8.46e-01	0	43	104	0	27	11186
2026-01-09 04:18:47.82	57.93	57.66	-34.0	-43.9	3.8	8.45e-01	0	43	104	0	27	11192
2026-01-09 04:18:48.82	58.52	57.94	-34.0	-43.9	3.8	8.46e-01	0	43	104	0	27	11196
2026-01-09 04:18:49.83	59.12	58.22	-34.0	-43.8	3.8	8.46e-01	0	43	104	0	27	11120
2026-01-09 04:18:50.83	59.73	58.50	-34.0	-43.9	3.8	8.46e-01	0	43	104	0	27	11206
2026-01-09 04:18:51.82	60.34	58.78	-34.0	-43.8	3.8	8.46e-01	0	43	104	0	27	11170
2026-01-09 04:18:52.82	60.98	59.05	-34.0	-43.9	3.8	8.46e-01	0	43	104	0	27	11260
2026-01-09 04:18:53.83	61.63	59.33	-34.0	-43.9	3.8	8.46e-01	0	43	104	0	27	11240
2026-01-09 04:18:54.82	62.29	59.60	-34.0	-43.9	3.8	8.45e-01	0	43	104	0	27	11245
2026-01-09 04:18:55.82	62.96	59.87	-34.0	-43.9	3.8	8.46e-01	0	43	104	0	27	11206
2026-01-09 04:18:56.82	63.65	60.14	-33.9	-43.7	3.8	8.46e-01	0	43	104	0	27	11069
2026-01-09 04:18:57.81	64.35	60.40	-33.9	-43.7	3.8	8.45e-01	0	43	104	0	27	11050
2026-01-09 04:18:58.81	65.06	60.66	-33.9	-43.6	3.8	8.46e-01	0	43	104	0	27	11047
2026-01-09 04:18:59.81	65.80	60.92	-33.9	-43.6	3.8	8.46e-01	0	43	104	0	27	10983
2026-01-09 04:19:00.81	66.54	61.17	-33.9	-43.6	3.8	8.45e-01	0	43	104	0	27	11008
2026-01-09 04:19:01.81	67.31	61.43	-33.9	-43.5	3.8	8.46e-01	0	43	104	0	27	10965
2026-01-09 04:19:02.81	68.09	61.68	-33.9	-43.5	3.8	8.45e-01	0	43	104	0	27	10937
2026-01-09 04:19:03.81	68.88	61.92	-33.9	-43.6	3.8	8.47e-01	0	43	104	0	27	10998
2026-01-09 04:19:04.80	69.68	62.16	-33.9	-43.5	3.8	8.46e-01	0	43	104	0	27	10921
2026-01-09 04:19:05.81	70.52	62.40	-33.8	-43.4	3.8	8.46e-01	0	43	104	0	27	10826
2026-01-09 04:19:06.81	71.36	62.63	-33.8	-43.4	3.8	8.46e-01	0	43	104	0	27	10797
2026-01-09 04:19:07.82	72.23	62.86	-33.8	-43.5	3.8	8.46e-01	0	43	104	0	27	10932
2026-01-09 04:19:08.81	73.09	63.08	-33.8	-43.5	3.8	8.45e-01	0	43	104	0	27	10907
2026-01-09 04:19:09.81	73.98	63.30	-33.8	-43.3	3.8	8.46e-01	0	43	104	0	27	10750
2026-01-09 04:19:10.81	74.89	63.52	-33.8	-43.0	3.8	8.45e-01	0	43	104	0	27	10415
2026-01-09 04:19:11.81	75.82	63.73	-33.8	-43.0	3.8	8.46e-01	0	43	104	0	27	10378
2026-01-09 04:19:12.81	76.76	63.93	-33.8	-43.2	3.8	8.45e-01	0	43	104	0	27	10662
2026-01-09 04:19:13.81	77.71	64.13	-33.8	-43.5	3.8	8.45e-01	0	43	104	0	27	10991
2026-01-09 04:19:14.81	78.69	64.32	-33.8	-43.2	3.8	8.46e-01	0	43	104	0	27	10675
2026-01-09 04:19:15.82	79.68	64.50	-33.8	-43.1	3.8	8.46e-01	0	43	104	0	27	10480
2026-01-09 04:19:16.82	80.69	64.68	-33.8	-43.2	3.8	8.45e-01	0	43	104	0	27	10618
2026-01-09 04:19:17.82	81.71	64.85	-33.8	-43.3	3.8	8.46e-01	0	43	104	0	27	10707
2026-01-09 04:19:18.82	82.75	65.02	-33.8	-43.4	3.8	8.46e-01	0	43	104	0	27	10904
2026-01-09 04:19:19.83	83.81	65.18	-33.8	-42.9	3.8	8.46e-01	0	43	104	0	27	10284
2026-01-09 04:19:20.82	84.86	65.33	-33.7	-42.6	3.8	8.46e-01	0	43	104	0	27	9974
2026-01-09 04:19:21.82	85.94	65.47	-33.8	-43.1	3.8	8.46e-01	0	43	104	0	27	10474
2026-01-09 04:19:22.82	87.03	65.61	-33.8	-43.1	3.8	8.46e-01	0	43	104	0	27	10514
2026-01-09 04:19:23.82	88.14	65.74	-33.7	-42.8	3.8	8.46e-01	0	43	104	0	27	10193
2026-01-09 04:19:24.82	89.26	65.86	-33.8	-43.4	3.8	8.45e-01	0	43	104	0	27	10843
2026-01-09 04:19:25.82	90.39	65.97	-33.7	-42.3	3.8	8.46e-01	0	43	104	0	27	9733
2026-01-09 04:19:26.82	91.53	66.07	-32.6	-37.1	4.3	8.45e-01	0	43	104	0	26	6019
2026-01-09 04:19:27.81	92.67	66.16	-26.9	-27.0	14.2	2.17e-01	0	43	104	0	15	3648
2026-01-09 04:19:28.80	93.82	66.25	-23.6	-23.4	18.2	0.00e+00	0	43	0	2097152	8	3532
2026-01-09 04:19:29.81	95.01	66.33	-24.3	-24.9	17.2	0.00e+00	0	43	0	8388608	8	3863
2026-01-09 04:19:30.81	96.19	66.40	-25.3	-26.1	16.3	0.00e+00	0	43	0	15728640	10	3926
2026-01-09 04:19:31.81	97.37	66.46	-24.5	-24.3	17.2	0.00e+00	0	43	0	23068672	10	3519
2026-01-09 04:19:32.80	98.55	66.51	-24.8	-25.4	16.9	0.00e+00	0	43	0	30408704	9	3871
2026-01-09 04:19:33.81	99.76	66.55	-24.5	-24.9	17.2	0.00e+00	0	43	0	37748736	9	3743
2026-01-09 04:19:34.81	100.96	66.58	-24.1	-24.4	17.7	0.00e+00	0	43	0	45088768	8	3735
2026-01-09 04:19:35.81	102.17	66.60	-23.6	-23.3	18.3	0.00e+00	0	43	0	52428800	8	3503
2026-01-09 04:19:36.80	103.36	66.62	-23.3	-23.2	18.6	0.00e+00	0	43	0	59768832	7	3578
2026-01-09 04:19:37.79	104.56	66.62	-23.4	-23.9	18.4	0.00e+00	0	43	0	66060288	6	3849
2026-01-09 04:19:38.78	105.75	66.62	-23.8	-24.3	17.9	0.00e+00	0	43	0	73400320	7	3843
2026-01-09 04:19:39.78	106.96	66.60	-23.8	-24.3	18.0	0.00e+00	0	43	0	80740352	7	3827
2026-01-09 04:19:40.78	108.16	66.58	-24.0	-24.8	17.8	0.00e+00	0	43	0	88080384	7	3933
2026-01-09 04:19:41.77	109.35	66.54	-23.7	-23.6	18.1	0.00e+00	0	43	0	95420416	8	3574
2026-01-09 04:19:42.77	110.55	66.50	-23.4	-23.6	18.4	0.00e+00	0	43	0	102760448	7	3664
2026-01-09 04:19:43.76	111.73	66.45	-23.3	-23.2	18.5	0.00e+00	0	43	0	109051904	7	3589
2026-01-09 04:19:44.77	112.93	66.39	-23.4	-24.1	18.3	1.33e-04	0	43	0	116391936	6	3895
2026-01-09 04:19:45.77	114.11	66.32	-23.5	-24.2	18.2	0.00e+00	0	43	0	123731968	6	3914
2026-01-09 04:19:46.78	115.29	66.24	-23.6	-24.0	18.1	0.00e+00	0	43	0	131072000	7	3749
2026-01-09 04:19:47.76	116.43	66.16	-24.1	-24.4	17.7	4.50e-06	0	43	0	138412032	8	3747
2026-01-09 04:19:48.77	117.59	66.06	-24.0	-24.2	17.8	0.00e+00	0	43	0	145752064	8	3712
2026-01-09 04:19:49.77	118.73	65.95	-23.6	-23.4	18.2	8.23e-05	0	43	0	153092096	8	3536
2026-01-09 04:19:50.77	119.86	65.84	-23.4	-23.4	18.4	0.00e+00	0	43	0	160432128	7	3634
2026-01-09 04:19:51.78	120.99	65.72	-23.6	-24.0	18.1	0.00e+00	0	43	0	167772160	7	3768
2026-01-09 04:19:52.78	122.10	65.59	-24.0	-24.9	17.6	1.10e-06	0	43	0	174063616	7	3963
2026-01-09 04:19:53.78	123.19	65.45	-23.8	-24.3	17.9	0.00e+00	0	43	0	181403648	7	3832
2026-01-09 04:19:54.78	124.27	65.31	-23.5	-23.8	18.2	0.00e+00	0	43	0	188743680	7	3718
2026-01-09 04:19:55.77	125.32	65.16	-23.2	-23.1	18.6	0.00e+00	0	43	0	196083712	7	3566
2026-01-09 04:19:56.77	126.37	65.00	-23.2	-23.1	18.6	0.00e+00	0	43	0	203423744	7	3549
2026-01-09 04:19:57.77	127.41	64.83	-22.9	-23.4	16.1	0.00e+00	0	43	0	210763776	6	3841
2026-01-09 04:19:58.77	128.43	64.66	-24.0	-24.7	17.7	0.00e+00	0	43	0	218103808	7	3931
2026-01-09 04:19:59.78	129.44	64.48	-23.9	-24.0	17.7	0.00e+00	0	43	0	225443840	8	3660
2026-01-09 04:20:00.77	130.42	64.29	-23.4	-23.4	18.4	0.00e+00	0	43	0	232783872	7	3633
2026-01-09 04:20:01.77	131.39	64.10	-23.1	-22.9	18.6	0.00e+00	0	43	0	239075328	7	3521
2026-01-09 04:20:02.77	132.35	63.90	-23.3	-23.7	18.5	0.00e+00	0	43	0	246415360	6	3797
2026-01-09 04:20:03.77	133.29	63.70	-23.4	-24.0	18.3	0.00e+00	0	43	0	253755392	6	3868
2026-01-09 04:20:04.77	134.21	63.49	-23.8	-24.3	17.9	0.00e+00	0	43	0	261095424	7	3829
2026-01-09 04:20:05.77	135.12	63.27	-23.8	-24.3	17.9	0.00e+00	0	43	0	268435456	7	3827
2026-01-09 04:20:06.77	136.01	63.05	-23.7	-24.2	18.0	0.00e+00	0	43	0	275775488	7	3804
2026-01-09 04:20:07.76	136.87	62.83	-23.7	-24.1	18.0	0.00e+00	0	43	0	283115520	7	3785
2026-01-09 04:20:08.75	137.72	62.60	-23.6	-24.0	18.1	0.00e+00	0	43	0	290455552	7	3752
2026-01-09 04:20:09.74	138.56	62.37	-23.5	-23.8	17.9	0.00e+00	0	43	0	296747008	7	3704
2026-01-09 04:20:10.74	139.38	62.13	-23.8	-24.4	17.9	0.00e+00	0	43	0	304087040	7	3849
2026-01-09 04:20:11.75	140.20	61.89	-24.2	-24.8	17.5	0.00e+00	0	43	0	311427072	8	3840
2026-01-09 04:20:12.75	141.00	61.64	-24.1	-24.5	17.6	8.93e-04	0	43	0	318767104	8	3767
2026-01-09 04:20:13.75	141.77	61.39	-24.1	-24.5	17.6	0.00e+00	0	43	0	326107136	8	3759
2026-01-09 04:20:14.76	142.54	61.14	-24.2	-24.8	17.5	9.82e-04	0	43	0	333447168	8	3829
2026-01-09 04:20:15.75	143.28	60.88	-24.2	-24.6	17.5	0.00e+00	0	43	0	340787200	8	3789
2026-01-09 04:20:16.75	144.02	60.62	-24.5	-25.3	17.2	0.00e+00	0	43	0	348127232	8	3956
2026-01-09 04:20:17.74	144.73	60.36	-24.8	-25.5	16.8	9.27e-04	0	43	0	354418688	9	3896
2026-01-09 04:20:18.74	145.43	60.10	-24.7	-25.3	16.9	0.00e+00	0	43	0	361758720	9	3839
2026-01-09 04:20:19.74	146.12	59.83	-24.6	-25.1	17.0	0.00e+00	0	43	0	369098752	9	3798
2026-01-09 04:20:20.75	146.80	59.56	-24.7	-25.2	16.9	5.27e-04	0	43	0	376438784	9	3824
2026-01-09 04:20:21.74	147.45	59.29	-24.8	-25.4	16.9	0.00e+00	0	43	0	383778816	9	3866
2026-01-09 04:20:22.74	148.10	59.01	-24.9	-25.7	16.7	1.46e-04	0	43	0	391118848	9	3939
2026-01-09 04:20:23.74	148.74	58.73	-24.9	-25.7	16.6	1.37e-04	0	43	0	398458880	9	3941
2026-01-09 04:20:24.74	149.36	58.46	-24.8	-25.6	16.7	3.48e-04	0	43	0	404750336	9	3918
2026-01-09 04:20:25.74	149.96	58.18	-24.8	-25.5	16.8	9.38e-05	0	43	0	412090368	9	3885
2026-01-09 04:20:26.74	150.56	57.89	-25.0	-25.9	16.5	3.40e-06	0	43	0	419430400	9	4012
2026-01-09 04:20:27.74	151.14	57.61	-25.0	-25.5	16.4	3.80e-04	0	43	0	426770432	10	3814
2026-01-09 04:20:28.73	151.71	57.33	-24.7	-24.7	16.9	0.00e+00	0	43	0	434110464	10	3617
2026-01-09 04:20:29.73	152.27	57.04	-24.3	-24.4	16.9	3.65e-04	0	43	0	441450496	9	3628
2026-01-09 04:20:30.72	152.81	56.76	-24.4	-24.7	17.2	3.40e-04	0	43	0	448790528	9	3719
2026-01-09 04:20:31.73	153.35	56.47	-24.5	-24.7	17.1	0.00e+00	0	43	0	456130560	9	3710
2026-01-09 04:20:32.73	153.88	56.18	-24.6	-25.0	17.0	1.43e-04	0	43	0	462422016	9	3764
2026-01-09 04:20:33.74	154.40	55.89	-24.6	-25.0	17.0	6.17e-05	0	43	0	469762048	9	3778
2026-01-09 04:20:34.73	154.90	55.60	-24.4	-24.7	17.1	0.00e+00	0	43	0	477102080	9	3716
2026-01-09 04:20:35.74	155.40	55.30	-24.6	-25.0	17.1	1.33e-04	0	43	0	484442112	9	3777
2026-01-09 04:20:36.75	155.89	55.01	-24.8	-25.4	16.8	5.14e-05	0	44	0	491782144	9	3868
2026-01-09 04:20:37.74	156.36	54.72	-24.8	-25.5	16.7	0.00e+00	0	43	0	499122176	9	3901
2026-01-09 04:20:38.75	156.83	54.43	-25.0	-25.9	16.5	2.01e-04	0	43	0	506462208	9	3987
2026-01-09 04:20:39.75	157.28	54.13	-24.9	-25.2	16.7	2.21e-04	0	43	0	513802240	10	3723
2026-01-09 04:20:40.75	157.73	53.84	-24.5	-24.4	17.1	0.00e+00	0	43	0	521142272	10	3546
2026-01-09 04:20:41.75	158.17	53.55	-24.6	-24.6	16.9	0.00e+00	0	43	0	528482304	10	3584
2026-01-09 04:20:42.74	158.59	53.26	-24.6	-24.5	17.0	2.20e-06	0	43	0	534773760	10	3581
2026-01-09 04:20:43.74	159.01	52.97	-24.5	-24.4	16.9	1.10e-06	0	43	0	542113792	10	3548
2026-01-09 04:20:44.74	159.42	52.68	-24.5	-24.8	17.1	8.35e-05	0	43	0	549453824	9	3738
2026-01-09 04:20:45.74	159.83	52.39	-24.4	-24.7	17.1	6.75e-05	0	43	0	556793856	9	3714
2026-01-09 04:20:46.74	160.23	52.10	-24.4	-24.6	17.2	0.00e+00	0	43	0	564133888	9	3689
2026-01-09 04:20:47.74	160.61	51.80	-24.5	-24.8	17.1	1.46e-04	0	43	0	571473920	9	3738
2026-01-09 04:20:48.73	160.99	51.52	-24.3	-24.4	16.9	1.49e-04	0	43	0	578813952	9	3644
2026-01-09 04:20:49.74	161.37	51.22	-24.6	-25.1	16.9	0.00e+00	0	43	0	586153984	9	3802
2026-01-09 04:20:50.74	161.74	50.93	-24.9	-25.8	16.5	2.10e-04	0	43	0	592445440	9	3967
2026-01-09 04:20:51.74	162.10	50.65	-24.9	-25.8	16.5	2.78e-04	0	43	0	599785472	9	3974
2026-01-09 04:20:52.73	162.45	50.36	-25.1	-25.6	16.4	0.00e+00	0	43	0	607125504	10	3826
2026-01-09 04:20:53.73	162.80	50.07	-25.3	-26.0	16.2	2.91e-04	0	43	0	614465536	10	3911
2026-01-09 04:20:54.73	163.14	49.79	-25.1	-25.6	16.4	0.00e+00	0	43	0	621805568	10	3815
2026-01-09 04:20:55.73	163.47	49.50	-24.8	-24.9	16.7	0.00e+00	0	43	0	629145600	10	3669
2026-01-09 04:20:56.73	163.80	49.22	-24.6	-24.6	16.8	0.00e+00	0	43	0	636485632	10	3589
2026-01-09 04:20:57.74	164.13	48.93	-24.5	-24.9	17.0	3.39e-04	0	43	0	643825664	9	3754
2026-01-09 04:20:58.73	164.44	48.65	-24.7	-25.2	16.8	0.00e+00	0	43	0	650117120	9	3822
2026-01-09 04:20:59.73	164.75	48.37	-24.7	-25.2	16.7	0.00e+00	0	43	0	657457152	9	3833
2026-01-09 04:21:00.73	165.05	48.08	-24.6	-25.1	16.9	1.61e-04	0	43	0	664797184	9	3814
2026-01-09 04:21:01.73	165.35	47.80	-24.7	-25.3	16.8	0.00e+00	0	43	0	672137216	9	3848
2026-01-09 04:21:02.73	165.65	47.52	-24.7	-25.4	16.7	0.00e+00	0	43	0	679477248	9	3872
2026-01-09 04:21:03.74	165.94	47.24	-24.9	-25.6	16.6	2.33e-04	0	43	0	686817280	9	3938
2026-01-09 04:21:04.74	166.23	46.97	-24.5	-24.8	16.8	0.00e+00	0	43	0	694157312	9	3739
2026-01-09 04:21:05.74	166.51	46.69	-23.9	-23.6	17.6	2.85e-04	0	43	0	701497344	9	3477
2026-01-09 04:21:06.73	166.78	46.42	-23.7	-23.6	17.8	0.00e+00	0	43	0	708837376	8	3576
2026-01-09 04:21:07.73	167.05	46.14	-23.6	-23.4	17.9	0.00e+00	0	43	0	715128832	8	3541
2026-01-09 04:21:08.72	167.31	45.87	-23.6	-23.4	18.0	5.26e-05	0	43	0	722468864	8	3534
2026-01-09 04:21:09.72	167.57	45.60	-23.5	-23.7	17.4	0.00e+00	0	44	0	729808896	7	3700
2026-01-09 04:21:10.72	167.83	45.33	-23.3	-23.4	18.2	0.00e+00	0	43	0	737148928	7	3618
2026-01-09 04:21:11.73	168.08	45.06	-23.2	-23.1	18.3	6.80e-06	0	43	0	744488960	7	3573
2026-01-09 04:21:12.72	168.33	44.79	-23.3	-23.3	18.2	0.00e+00	0	44	0	751828992	7	3601
2026-01-09 04:21:13.72	168.57	44.53	-23.5	-23.7	18.0	0.00e+00	0	43	0	759169024	7	3687
2026-01-09 04:21:14.72	168.81	44.26	-23.4	-23.5	18.1	8.00e-06	0	43	0	766509056	7	3647
2026-01-09 04:21:15.72	169.05	44.00	-23.1	-23.0	18.4	0.00e+00	0	43	0	772800512	7	3531
2026-01-09 04:21:16.72	169.28	43.73	-23.1	-22.9	18.4	0.00e+00	0	43	0	780140544	7	3517
2026-01-09 04:21:17.71	169.51	43.47	-23.2	-23.1	18.3	1.10e-06	0	43	0	787480576	7	3557
2026-01-09 04:21:18.71	169.73	43.21	-23.0	-22.7	18.5	1.60e-05	0	43	0	794820608	7	3488
2026-01-09 04:21:19.71	169.96	42.96	-22.9	-22.5	18.5	0.00e+00	0	43	0	802160640	7	3427
2026-01-09 04:21:20.71	170.17	42.70	-23.3	-23.2	18.2	2.20e-06	0	43	0	809500672	7	3591
2026-01-09 04:21:21.71	170.39	42.44	-23.1	-23.0	18.3	0.00e+00	0	43	0	816840704	7	3536
2026-01-09 04:21:22.71	170.60	42.19	-23.1	-22.9	18.3	0.00e+00	0	43	0	824180736	7	3526
2026-01-09 04:21:23.72	170.81	41.93	-23.1	-22.9	18.4	4.57e-05	0	43	0	831520768	7	3528
2026-01-09 04:21:24.72	171.02	41.68	-23.2	-23.2	18.2	0.00e+00	0	44	0	837812224	7	3577
2026-01-09 04:21:25.73	171.22	41.42	-23.3	-23.4	17.9	0.00e+00	0	43	0	845152256	7	3634
2026-01-09 04:21:26.72	171.42	41.18	-23.3	-23.3	18.2	0.00e+00	0	43	0	852492288	7	3598
2026-01-09 04:21:27.72	171.61	40.93	-23.2	-23.1	18.2	0.00e+00	0	43	0	859832320	7	3572
2026-01-09 04:21:28.72	171.81	40.68	-23.2	-23.1	18.3	0.00e+00	0	43	0	867172352	7	3557
2026-01-09 04:21:29.72	172.00	40.43	-23.2	-23.2	18.2	2.20e-06	0	43	0	874512384	7	3585
2026-01-09 04:21:30.72	172.18	40.19	-23.3	-23.3	17.8	0.00e+00	0	43	0	881852416	7	3601
2026-01-09 04:21:31.73	172.37	39.94	-23.5	-23.7	17.9	0.00e+00	0	43	0	889192448	7	3697
2026-01-09 04:21:32.73	172.55	39.70	-23.4	-23.5	18.0	2.20e-06	0	43	0	896532480	7	3640
2026-01-09 04:21:33.73	172.73	39.46	-23.1	-23.0	18.3	0.00e+00	0	43	0	902823936	7	3548
2026-01-09 04:21:34.72	172.91	39.23	-23.2	-23.1	18.3	0.00e+00	0	44	0	910163968	7	3559
2026-01-09 04:21:35.72	173.08	38.99	-23.2	-23.2	18.3	0.00e+00	0	43	0	917504000	7	3578
2026-01-09 04:21:36.72	173.25	38.75	-23.2	-23.2	18.2	0.00e+00	0	43	0	924844032	7	3580
2026-01-09 04:21:37.73	173.42	38.51	-23.3	-23.4	18.1	0.00e+00	0	43	0	932184064	7	3618
2026-01-09 04:21:38.73	173.59	38.28	-23.4	-23.6	17.9	0.00e+00	0	43	0	939524096	7	3676
2026-01-09 04:21:39.73	173.75	38.05	-23.3	-23.4	18.1	0.00e+00	0	43	0	946864128	7	3629
2026-01-09 04:21:40.73	173.92	37.82	-23.3	-23.4	18.1	0.00e+00	0	43	0	954204160	7	3622
2026-01-09 04:21:41.73	174.08	37.59	-23.2	-23.2	18.2	0.00e+00	0	43	0	960495616	7	3583
2026-01-09 04:21:42.74	174.24	37.36	-23.3	-23.2	18.1	0.00e+00	0	43	0	967835648	7	3596
2026-01-09 04:21:43.75	174.39	37.13	-23.2	-23.0	18.3	0.00e+00	0	43	0	975175680	7	3552
2026-01-09 04:21:44.75	174.55	36.90	-23.4	-23.5	18.0	0.00e+00	0	43	0	982515712	7	3654
2026-01-09 04:21:45.76	174.70	36.68	-23.3	-23.3	18.1	0.00e+00	0	43	0	989855744	7	3600
2026-01-09 04:21:46.76	174.85	36.45	-23.0	-22.8	18.4	0.00e+00	0	43	0	997195776	7	3493
2026-01-09 04:21:47.77	175.00	36.23	-22.9	-23.0	18.5	0.00e+00	0	43	0	1004535808	6	3646
2026-01-09 04:21:48.77	175.15	36.01	-23.1	-23.5	18.3	0.00e+00	0	43	0	1011875840	6	3759
2026-01-09 04:21:49.76	175.29	35.79	-23.1	-23.5	18.2	0.00e+00	0	43	0	1019215872	6	3745
2026-01-09 04:21:50.77	175.43	35.57	-23.2	-23.6	18.2	0.00e+00	0	43	0	1026555904	6	3771
2026-01-09 04:21:51.76	175.57	35.36	-23.1	-23.5	18.3	0.00e+00	0	43	0	1033895936	6	3750
2026-01-09 04:21:52.76	175.71	35.14	-23.1	-23.4	18.3	0.00e+00	0	43	0	1041235968	6	3725
2026-01-09 04:21:53.76	175.85	34.93	-22.9	-23.1	18.4	0.00e+00	0	44	0	1047527424	6	3667
2026-01-09 04:21:54.76	175.98	34.72	-22.9	-23.1	18.4	0.00e+00	0	43	0	1054867456	6	3663
2026-01-09 04:21:55.76	176.11	34.51	-23.0	-23.2	18.4	0.00e+00	0	43	0	1062207488	6	3700
2026-01-09 04:21:56.77	176.25	34.29	-23.1	-23.5	18.2	0.00e+00	0	43	0	1069547520	6	3746
2026-01-09 04:21:57.76	176.38	34.09	-22.9	-23.1	18.5	0.00e+00	0	43	0	1076887552	6	3656
2026-01-09 04:21:58.76	176.50	33.88	-22.9	-22.9	18.5	0.00e+00	0	43	0	1084227584	6	3628
2026-01-09 04:21:59.77	176.63	33.67	-22.9	-22.9	18.5	0.00e+00	0	44	0	1091567616	6	3626
2026-01-09 04:22:00.78	176.76	33.46	-23.2	-23.6	18.2	0.00e+00	0	43	0	1098907648	6	3766
2026-01-09 04:22:01.78	176.88	33.26	-23.0	-23.2	18.4	0.00e+00	0	43	0	1106247680	6	3696
2026-01-09 04:22:02.78	177.00	33.06	-22.8	-22.8	18.5	0.00e+00	0	43	0	1112539136	6	3609
2026-01-09 04:22:03.79	177.13	32.85	-22.7	-22.6	18.7	0.00e+00	0	43	0	1119879168	6	3559
2026-01-09 04:22:04.79	177.25	32.65	-22.7	-23.1	18.6	0.00e+00	0	43	0	1127219200	5	3773
2026-01-09 04:22:05.79	177.36	32.46	-22.6	-22.9	18.8	0.00e+00	0	43	0	1134559232	5	3721
2026-01-09 04:22:06.79	177.48	32.26	-22.7	-23.1	18.6	0.00e+00	0	43	0	1141899264	5	3756
2026-01-09 04:22:07.79	177.60	32.06	-22.5	-22.7	18.8	0.00e+00	0	43	0	1149239296	5	3681
2026-01-09 04:22:08.78	177.71	31.87	-22.5	-22.8	18.8	0.00e+00	0	43	0	1156579328	5	3693
2026-01-09 04:22:09.78	177.82	31.67	-22.5	-22.7	18.9	0.00e+00	0	43	0	1163919360	5	3670
2026-01-09 04:22:10.78	177.93	31.48	-22.7	-23.0	18.7	0.00e+00	0	43	0	1170210816	5	3742
2026-01-09 04:22:11.79	178.04	31.29	-22.5	-22.8	18.7	0.00e+00	0	43	0	1177550848	5	3689
2026-01-09 04:22:12.79	178.15	31.10	-22.6	-22.8	18.8	0.00e+00	0	43	0	1184890880	5	3707
2026-01-09 04:22:13.79	178.26	30.91	-22.5	-22.8	18.8	0.00e+00	0	43	0	1192230912	5	3696
2026-01-09 04:22:14.80	178.37	30.72	-22.6	-23.4	18.7	0.00e+00	0	43	0	1199570944	4	3937
2026-01-09 04:22:15.80	178.47	30.53	-22.8	-23.2	18.5	0.00e+00	0	43	0	1206910976	5	3800
2026-01-09 04:22:16.80	178.58	30.34	-22.7	-23.1	18.6	0.00e+00	0	43	0	1214251008	5	3774
2026-01-09 04:22:17.80	178.68	30.16	-22.7	-23.1	18.6	0.00e+00	0	43	0	1221591040	5	3760
2026-01-09 04:22:18.80	178.78	29.97	-22.9	-23.5	18.4	0.00e+00	0	43	0	1228931072	5	3857
2026-01-09 04:22:19.80	178.88	29.79	-23.1	-23.9	18.2	2.87e-04	0	43	0	1236271104	5	3960
2026-01-09 04:22:20.81	178.98	29.61	-22.9	-23.1	18.4	0.00e+00	0	43	0	1243611136	6	3667
2026-01-09 04:22:21.81	179.08	29.42	-22.9	-23.1	18.4	0.00e+00	0	44	0	1250951168	6	3673
2026-01-09 04:22:22.80	179.18	29.25	-23.1	-23.3	18.2	1.70e-04	0	43	0	1257242624	6	3723
2026-01-09 04:22:23.80	179.27	29.07	-23.1	-23.5	18.1	0.00e+00	0	43	0	1264582656	6	3756
2026-01-09 04:22:24.80	179.37	28.89	-23.1	-23.5	18.1	1.18e-04	0	43	0	1271922688	6	3767
2026-01-09 04:22:25.81	179.46	28.71	-23.4	-24.1	17.8	0.00e+00	0	43	0	1279262720	6	3891
2026-01-09 04:22:26.80	179.55	28.54	-23.4	-24.0	17.9	0.00e+00	0	43	0	1286602752	6	3880
2026-01-09 04:22:27.80	179.65	28.36	-23.3	-23.9	18.0	8.81e-05	0	43	0	1292894208	6	3841
2026-01-09 04:22:28.80	179.74	28.19	-23.3	-23.9	17.9	0.00e+00	0	43	0	1301282816	6	3858
2026-01-09 04:22:29.81	179.83	28.02	-23.3	-23.8	18.0	0.00e+00	0	43	0	1308622848	6	3834
2026-01-09 04:22:30.80	179.92	27.85	-23.4	-24.0	17.9	1.04e-04	0	43	0	1314914304	6	3862
2026-01-09 04:22:31.80	180.01	27.67	-23.4	-24.1	17.8	1.18e-04	0	44	0	1322254336	6	3889
2026-01-09 04:22:32.80	180.09	27.51	-23.3	-23.9	17.8	0.00e+00	0	43	0	1329594368	6	3862
2026-01-09 04:22:33.80	180.18	27.34	-23.4	-24.1	17.8	0.00e+00	0	43	0	1336934400	6	3906
2026-01-09 04:22:34.81	180.27	27.17	-23.4	-24.1	17.8	1.65e-04	0	43	0	1344274432	6	3903
2026-01-09 04:22:35.82	180.35	27.00	-23.5	-24.3	17.7	0.00e+00	0	43	0	1351614464	6	3949
2026-01-09 04:22:36.82	180.44	26.83	-23.5	-24.2	17.8	1.83e-04	0	43	0	1358954496	6	3923
2026-01-09 04:22:37.81	180.52	26.67	-23.5	-24.3	17.7	1.67e-04	0	44	0	1366294528	6	3952
2026-01-09 04:22:38.81	180.60	26.51	-23.6	-24.5	17.6	0.00e+00	0	43	0	1373634560	6	3986
2026-01-09 04:22:39.81	180.69	26.34	-23.5	-23.8	17.7	2.04e-04	0	43	0	1379926016	7	3731
2026-01-09 04:22:40.81	180.77	26.18	-23.4	-23.6	17.8	1.86e-04	0	43	0	1387266048	7	3680
2026-01-09 04:22:41.81	180.85	26.02	-23.5	-24.3	17.7	0.00e+00	0	43	0	1394606080	6	3936
2026-01-09 04:22:42.81	180.93	25.86	-23.4	-24.1	17.8	1.53e-04	0	43	0	1401946112	6	3910
2026-01-09 04:22:43.81	181.00	25.70	-23.4	-24.0	17.8	1.75e-04	0	43	0	1409286144	6	3873
2026-01-09 04:22:44.82	181.08	25.54	-23.3	-24.0	17.9	0.00e+00	0	44	0	1416626176	6	3866
2026-01-09 04:22:45.82	181.16	25.38	-23.5	-24.3	17.7	2.00e-04	0	43	0	1423966208	6	3938
2026-01-09 04:22:46.82	181.24	25.23	-23.3	-23.8	17.9	0.00e+00	0	43	0	1431306240	6	3837
2026-01-09 04:22:47.83	181.31	25.07	-23.3	-23.9	17.9	0.00e+00	0	43	0	1438646272	6	3850
2026-01-09 04:22:48.82	181.39	24.92	-23.5	-24.2	17.6	1.88e-04	0	44	0	1444937728	6	3925
2026-01-09 04:22:49.82	181.46	24.76	-23.3	-23.8	16.3	1.74e-04	0	43	0	1452277760	6	3825
2026-01-09 04:22:50.82	181.54	24.61	-23.1	-23.4	18.1	0.00e+00	0	43	0	1459617792	6	3737
2026-01-09 04:22:51.83	181.61	24.46	-23.1	-23.3	18.2	0.00e+00	0	43	0	1466957824	6	3721
2026-01-09 04:22:52.82	181.68	24.31	-23.2	-23.5	18.1	2.78e-04	0	43	0	1474297856	6	3767
2026-01-09 04:22:53.82	181.75	24.15	-23.1	-23.4	18.1	0.00e+00	0	43	0	1481637888	6	3724
2026-01-09 04:22:54.82	181.82	24.01	-23.0	-23.8	18.2	0.00e+00	0	43	0	1488977920	5	3922
2026-01-09 04:22:55.82	181.89	23.86	-23.0	-23.7	18.1	3.03e-04	0	43	0	1496317952	5	3914
2026-01-09 04:22:56.83	181.96	23.71	-23.0	-23.8	18.2	8.48e-04	0	43	0	1502609408	5	3928
2026-01-09 04:22:57.83	182.03	23.56	-23.1	-23.9	18.1	2.75e-04	0	43	0	1509949440	5	3955
2026-01-09 04:22:58.82	182.10	23.41	-23.3	-23.8	17.9	2.86e-04	0	43	0	1517289472	6	3824
2026-01-09 04:22:59.82	182.17	23.27	-23.2	-23.7	17.9	0.00e+00	0	44	0	1524629504	6	3806
2026-01-09 04:23:00.81	182.24	23.12	-23.4	-24.1	17.8	2.80e-04	0	43	0	1531969536	6	3891
2026-01-09 04:23:01.81	182.30	22.98	-23.6	-24.4	17.6	9.28e-04	0	43	0	1539309568	6	3973
2026-01-09 04:23:02.82	182.37	22.84	-23.6	-23.9	17.6	0.00e+00	0	43	0	1546649600	7	3750
2026-01-09 04:23:03.82	182.43	22.69	-23.6	-24.0	17.6	0.00e+00	0	43	0	1553989632	7	3768
2026-01-09 04:23:04.83	182.50	22.55	-23.7	-24.1	17.4	9.10e-04	0	43	0	1561329664	7	3794
2026-01-09 04:23:05.83	182.56	22.41	-23.7	-24.2	17.4	0.00e+00	0	43	0	1567621120	7	3809
2026-01-09 04:23:06.83	182.63	22.27	-23.8	-24.4	17.3	0.00e+00	0	43	0	1574961152	7	3855
2026-01-09 04:23:07.83	182.69	22.13	-23.7	-24.2	17.4	3.40e-06	0	43	0	1582301184	7	3807
2026-01-09 04:23:08.82	182.75	21.99	-23.7	-24.1	17.5	9.52e-04	0	43	0	1589641216	7	3799
2026-01-09 04:23:09.82	182.82	21.85	-23.6	-24.0	17.5	0.00e+00	0	43	0	1596981248	7	3773
2026-01-09 04:23:10.82	182.88	21.71	-23.7	-24.3	17.3	1.33e-04	0	43	0	1604321280	7	3838
2026-01-09 04:23:11.83	182.94	21.58	-23.6	-23.9	17.5	9.41e-04	0	43	0	1611661312	7	3755
2026-01-09 04:23:12.84	183.00	21.44	-23.6	-24.1	17.5	0.00e+00	0	43	0	1619001344	7	3789
2026-01-09 04:23:13.84	183.06	21.30	-23.6	-24.0	17.5	9.05e-04	0	43	0	1626341376	7	3764
2026-01-09 04:23:14.85	183.12	21.17	-23.8	-24.4	17.3	8.75e-04	0	43	0	1632632832	7	3857
2026-01-09 04:23:15.85	183.18	21.03	-23.6	-24.0	17.4	0.00e+00	0	43	0	1641021440	7	3783
2026-01-09 04:23:16.85	183.24	20.90	-23.6	-24.0	17.5	9.13e-04	0	43	0	1647312896	7	3773
2026-01-09 04:23:17.85	183.30	20.77	-23.7	-24.2	17.4	1.01e-03	0	43	0	1654652928	7	3808
2026-01-09 04:23:18.85	183.36	20.64	-23.6	-24.1	17.4	0.00e+00	0	43	0	1661992960	7	3793
2026-01-09 04:23:19.85	183.41	20.50	-23.7	-24.2	17.4	9.93e-04	0	43	0	1669332992	7	3819
2026-01-09 04:23:20.86	183.47	20.37	-23.7	-24.2	17.3	9.75e-04	0	43	0	1676673024	7	3827
2026-01-09 04:23:21.86	183.53	20.24	-23.8	-24.4	17.2	5.70e-06	0	43	0	1684013056	7	3874
2026-01-09 04:23:22.86	183.58	20.11	-23.7	-24.3	17.3	1.00e-03	0	43	0	1691353088	7	3840
2026-01-09 04:23:23.85	183.64	19.99	-23.7	-24.3	17.3	9.59e-04	0	43	0	1698693120	7	3838
2026-01-09 04:23:24.85	183.69	19.86	-23.7	-24.3	17.3	0.00e+00	0	43	0	1706033152	7	3841
2026-01-09 04:23:25.85	183.75	19.73	-23.8	-24.5	17.2	0.00e+00	0	43	0	1712324608	7	3887
2026-01-09 04:23:26.85	183.80	19.60	-23.8	-24.4	17.2	9.50e-04	0	43	0	1719664640	7	3873
2026-01-09 04:23:27.85	183.86	19.48	-24.0	-24.8	17.0	3.40e-06	0	43	0	1727004672	7	3965
2026-01-09 04:23:28.85	183.91	19.35	-23.9	-24.6	17.1	1.01e-03	0	43	0	1734344704	7	3904
2026-01-09 04:23:29.85	183.96	19.23	-23.7	-24.3	17.3	9.49e-04	0	43	0	1741684736	7	3835
2026-01-09 04:23:30.86	184.02	19.10	-23.7	-24.3	17.3	0.00e+00	0	43	0	1749024768	7	3835
2026-01-09 04:23:31.86	184.07	18.98	-23.8	-24.4	17.2	9.53e-04	0	43	0	1756364800	7	3863
2026-01-09 04:23:32.87	184.12	18.85	-23.8	-24.5	17.2	0.00e+00	0	43	0	1763704832	7	3890
2026-01-09 04:23:33.88	184.17	18.73	-24.0	-24.8	17.0	0.00e+00	0	43	0	1771044864	7	3967
2026-01-09 04:23:34.89	184.22	18.61	-23.9	-24.7	17.1	8.69e-04	0	43	0	1777336320	7	3923
2026-01-09 04:23:35.89	184.28	18.48	-24.1	-25.0	16.9	0.00e+00	0	43	0	1784676352	7	4014
2026-01-09 04:23:36.90	184.33	18.36	-24.2	-24.7	16.8	0.00e+00	0	43	0	1793064960	8	3826
2026-01-09 04:23:37.91	184.38	18.24	-24.1	-24.7	16.8	0.00e+00	0	43	0	1799356416	8	3821
2026-01-09 04:23:38.91	184.43	18.12	-24.2	-24.8	16.7	0.00e+00	0	43	0	1806696448	8	3860
2026-01-09 04:23:39.91	184.48	18.00	-24.2	-24.8	16.7	0.00e+00	0	43	0	1814036480	8	3856
2026-01-09 04:23:40.93	184.53	17.88	-24.4	-25.1	16.6	0.00e+00	0	43	0	1821376512	8	3929
2026-01-09 04:23:41.93	184.57	17.76	-24.3	-25.0	16.6	8.90e-04	0	43	0	1828716544	8	3899
2026-01-09 04:23:42.94	184.62	17.64	-24.4	-25.2	16.5	0.00e+00	0	43	0	1836056576	8	3945
2026-01-09 04:23:43.94	184.67	17.53	-24.4	-25.1	16.6	0.00e+00	0	43	0	1843396608	8	3933
2026-01-09 04:23:44.95	184.72	17.41	-24.5	-25.4	16.4	0.00e+00	0	43	0	1850736640	8	4004
2026-01-09 04:23:45.96	184.77	17.29	-24.6	-25.1	16.3	0.00e+00	0	44	0	1858076672	9	3820
2026-01-09 04:23:46.96	184.81	17.18	-24.9	-25.7	16.0	0.00e+00	0	43	0	1865416704	9	3962
2026-01-09 04:23:47.97	184.86	17.06	-24.8	-25.5	16.1	0.00e+00	0	43	0	1872756736	9	3924
2026-01-09 04:23:48.98	184.91	16.95	-25.0	-25.9	15.9	0.00e+00	0	43	0	1879048192	9	4011
2026-01-09 04:23:49.98	184.95	16.83	-24.8	-25.7	16.0	0.00e+00	0	44	0	1886388224	9	3952
2026-01-09 04:23:50.98	185.00	16.72	-24.6	-25.2	16.3	0.00e+00	0	43	0	1893728256	9	3840
2026-01-09 04:23:51.99	185.04	16.61	-24.5	-25.0	16.4	0.00e+00	0	43	0	1901068288	9	3792
2026-01-09 04:23:52.99	185.09	16.49	-24.5	-24.8	16.4	0.00e+00	0	43	0	1908408320	9	3753
2026-01-09 04:23:53.99	185.13	16.38	-24.6	-25.1	16.3	0.00e+00	0	43	0	1915748352	9	3818
2026-01-09 04:23:55.00	185.18	16.27	-24.6	-25.1	16.3	0.00e+00	0	43	0	1923088384	9	3809
2026-01-09 04:23:56.00	185.22	16.16	-24.6	-25.2	16.3	0.00e+00	0	44	0	1930428416	9	3835
2026-01-09 04:23:57.02	185.27	16.05	-24.7	-25.4	16.1	0.00e+00	0	43	0	1937768448	9	3896
2026-01-09 04:23:58.02	185.31	15.94	-24.7	-25.3	16.2	0.00e+00	0	43	0	1945108480	9	3866
2026-01-09 04:23:59.03	185.35	15.83	-24.9	-25.7	16.0	0.00e+00	0	43	0	1952448512	9	3967
2026-01-09 04:24:00.03	185.40	15.72	-24.7	-25.3	16.2	0.00e+00	0	43	0	1959788544	9	3876
2026-01-09 04:24:01.03	185.44	15.61	-24.7	-25.3	16.2	0.00e+00	0	43	0	1966080000	9	3866
2026-01-09 04:24:02.04	185.48	15.50	-24.8	-25.5	16.1	0.00e+00	0	43	0	1973420032	9	3916
2026-01-09 04:24:03.04	185.52	15.39	-24.7	-25.4	16.1	0.00e+00	0	43	0	1980760064	9	3883
2026-01-09 04:24:04.04	185.56	15.29	-24.7	-25.3	16.1	0.00e+00	0	43	0	1988100096	9	3876
2026-01-09 04:24:05.05	185.61	15.18	-24.7	-25.4	16.1	0.00e+00	0	43	0	1995440128	9	3888
2026-01-09 04:24:06.05	185.65	15.07	-24.9	-25.7	15.9	0.00e+00	0	43	0	2002780160	9	3977
2026-01-09 04:24:07.06	185.69	14.97	-24.7	-25.4	16.1	0.00e+00	0	43	0	2010120192	9	3893
2026-01-09 04:24:08.07	185.73	14.86	-24.9	-25.7	15.9	0.00e+00	0	43	0	2017460224	9	3970
2026-01-09 04:24:09.07	185.77	14.76	-25.3	-26.2	15.4	0.00e+00	0	43	0	2024800256	10	3986
2026-01-09 04:24:10.08	185.81	14.65	-25.3	-26.2	15.4	0.00e+00	0	44	0	2032140288	10	3990
2026-01-09 04:24:11.09	185.85	14.55	-25.3	-26.2	15.4	0.00e+00	0	43	0	2039480320	10	3981
2026-01-09 04:24:12.09	185.89	14.44	-25.3	-26.2	14.6	0.00e+00	0	43	0	2046820352	10	3978
2026-01-09 04:24:13.10	185.93	14.34	-25.3	-26.1	15.4	0.00e+00	0	44	0	2054160384	10	3970
2026-01-09 04:24:14.10	185.97	14.24	-25.5	-26.6	15.1	0.00e+00	0	44	0	2061500416	10	4097
2026-01-09 04:24:15.11	186.01	14.13	-25.4	-26.3	15.3	2.48e-04	0	43	0	2067791872	10	4017
2026-01-09 04:24:16.12	186.05	14.03	-25.7	-26.6	14.9	0.00e+00	0	43	0	2075131904	11	3967
2026-01-09 04:24:17.13	186.08	13.93	-26.1	-27.3	14.4	1.10e-06	0	43	0	2082471936	11	4171
2026-01-09 04:24:18.14	186.12	13.83	-25.8	-26.8	14.7	2.35e-04	0	43	0	2089811968	11	4032
2026-01-09 04:24:19.14	186.16	13.73	-25.4	-26.0	15.2	0.00e+00	0	43	0	2097152000	11	3826
2026-01-09 04:24:20.15	186.20	13.63	-25.2	-25.5	15.5	0.00e+00	0	43	0	2104492032	11	3703
2026-01-09 04:24:21.15	186.24	13.53	-25.0	-25.6	15.7	0.00e+00	0	43	0	2111832064	10	3835
2026-01-09 04:24:22.16	186.27	13.43	-24.9	-25.4	15.8	1.46e-04	0	43	0	2119172096	10	3790
2026-01-09 04:24:23.17	186.31	13.33	-25.0	-25.6	15.7	0.00e+00	0	44	0	2126512128	10	3826
2026-01-09 04:24:24.18	186.35	13.23	-25.0	-25.5	15.7	1.22e-04	0	44	0	2133852160	10	3826
2026-01-09 04:24:25.19	186.38	13.13	-25.2	-25.9	15.5	1.28e-04	0	43	0	2141192192	10	3918
2026-01-09 04:24:26.19	186.42	13.03	-25.2	-26.0	15.4	0.00e+00	0	43	0	2148532224	10	3926
2026-01-09 04:24:27.20	186.46	12.93	-25.3	-26.2	15.3	1.32e-04	0	43	0	2155872256	10	3974
2026-01-09 04:24:28.20	186.49	12.83	-25.5	-26.5	15.1	1.22e-04	0	43	0	2163212288	10	4073
2026-01-09 04:24:29.21	186.53	12.74	-25.4	-26.3	15.2	0.00e+00	0	44	0	2170552320	10	4021
2026-01-09 04:24:30.21	186.56	12.64	-25.5	-26.7	15.0	1.14e-04	0	43	0	2176843776	10	4114
2026-01-09 04:24:31.22	186.60	12.54	-25.4	-26.4	15.2	0.00e+00	0	43	0	2184183808	10	4043
2026-01-09 04:24:32.22	186.63	12.45	-25.4	-26.3	15.2	0.00e+00	0	43	0	2191523840	10	4009
2026-01-09 04:24:33.23	186.67	12.35	-25.4	-26.5	15.1	1.36e-04	0	44	0	2198863872	10	4057
2026-01-09 04:24:34.24	186.70	12.26	-25.7	-26.5	14.8	1.43e-04	0	43	0	2206203904	11	3952
2026-01-09 04:24:35.25	186.74	12.16	-24.9	-25.4	15.0	0.00e+00	0	44	0	2213543936	11	3825
2026-01-09 04:24:36.26	186.77	12.07	-25.4	-26.4	15.1	0.00e+00	0	43	0	2220883968	10	4025
2026-01-09 04:24:37.27	186.81	11.97	-25.5	-26.5	13.7	1.82e-04	0	43	0	2228224000	10	4072
2026-01-09 04:24:38.28	186.84	11.88	-25.6	-26.3	14.8	0.00e+00	0	44	0	2235564032	11	3911
2026-01-09 04:24:39.28	186.88	11.79	-25.4	-26.5	15.1	1.10e-06	0	43	0	2242904064	10	4052
2026-01-09 04:24:40.29	186.91	11.69	-25.5	-26.6	15.0	2.10e-04	0	44	0	2250244096	10	4093
2026-01-09 04:24:41.29	186.94	11.60	-25.6	-26.4	14.9	1.10e-06	0	43	0	2257584128	11	3936
2026-01-09 04:24:42.30	186.98	11.51	-25.8	-26.7	14.7	2.13e-04	0	43	0	2263875584	11	4006
2026-01-09 04:24:43.31	187.01	11.42	-25.9	-27.1	14.5	9.83e-04	0	43	0	2272264192	11	4099
2026-01-09 04:24:44.31	187.04	11.32	-26.0	-27.3	14.4	1.10e-06	0	43	0	2279604224	11	4153
2026-01-09 04:24:45.32	187.07	11.23	-26.3	-27.5	13.9	3.40e-06	0	43	0	2285895680	12	4112
2026-01-09 04:24:46.33	187.11	11.14	-26.3	-27.5	13.9	1.02e-05	0	43	0	2293235712	12	4108
2026-01-09 04:24:47.33	187.14	11.05	-26.0	-27.2	14.4	1.15e-03	0	43	0	2300575744	11	4124
2026-01-09 04:24:48.33	187.17	10.96	-26.0	-27.1	14.5	0.00e+00	0	43	0	2307915776	11	4107
2026-01-09 04:24:49.33	187.20	10.87	-26.0	-26.8	14.2	3.40e-06	0	44	0	2315255808	12	3938
2026-01-09 04:24:50.33	187.23	10.78	-26.1	-27.0	14.1	1.18e-03	0	44	0	2322595840	12	3997
2026-01-09 04:24:51.33	187.27	10.69	-26.2	-27.2	14.0	4.50e-06	0	44	0	2329935872	12	4027
2026-01-09 04:24:52.34	187.30	10.61	-26.2	-27.2	14.0	1.21e-03	0	43	0	2337275904	12	4034
2026-01-09 04:24:53.34	187.33	10.52	-26.3	-27.4	13.9	1.21e-03	0	43	0	2343567360	12	4088
2026-01-09 04:24:54.34	187.36	10.43	-26.3	-27.6	13.8	8.00e-06	0	44	0	2350907392	12	4136
2026-01-09 04:24:55.35	187.39	10.34	-26.5	-27.8	13.7	1.21e-03	0	43	0	2359296000	12	4189
2026-01-09 04:24:56.36	187.42	10.25	-26.8	-28.1	13.2	1.41e-03	0	43	0	2365587456	13	4164
2026-01-09 04:24:57.35	187.45	10.17	-26.7	-27.8	13.4	1.83e-05	0	43	0	2372927488	13	4091
2026-01-09 04:24:58.36	187.48	10.08	-26.9	-28.2	13.1	1.52e-03	0	44	0	2380267520	13	4209
2026-01-09 04:24:59.37	187.51	9.99	-26.5	-28.0	13.5	1.33e-03	0	43	0	2387607552	12	4243
2026-01-09 04:25:00.37	187.54	9.91	-26.4	-27.6	13.7	1.02e-05	0	44	0	2394947584	12	4147
2026-01-09 04:25:01.37	187.57	9.82	-26.0	-26.8	14.2	1.32e-03	0	44	0	2402287616	12	3944
2026-01-09 04:25:02.38	187.60	9.73	-26.0	-27.3	14.3	1.20e-03	0	44	0	2409627648	11	4162
2026-01-09 04:25:03.38	187.63	9.65	-26.1	-27.4	14.2	2.20e-06	0	43	0	2416967680	11	4191
2026-01-09 04:25:04.39	187.66	9.56	-26.0	-27.3	14.3	2.20e-06	0	44	0	2424307712	11	4169
2026-01-09 04:25:05.39	187.69	9.48	-26.0	-27.2	14.3	1.32e-03	0	44	0	2430599168	11	4153
2026-01-09 04:25:06.39	187.72	9.39	-26.0	-27.3	14.2	0.00e+00	0	44	0	2437939200	11	4181
2026-01-09 04:25:07.40	187.75	9.31	-26.0	-27.2	14.3	1.43e-03	0	44	0	2446327808	11	4147
2026-01-09 04:25:08.40	187.78	9.22	-26.1	-27.0	14.0	1.52e-03	0	43	0	2452619264	12	3989
2026-01-09 04:25:09.41	187.80	9.14	-26.3	-27.4	13.8	4.50e-06	0	44	0	2459959296	12	4104
2026-01-09 04:25:10.41	187.83	9.06	-26.6	-27.6	13.4	1.55e-03	0	44	0	2467299328	13	4041
2026-01-09 04:25:11.41	187.86	8.97	-26.7	-27.9	13.3	1.94e-05	0	43	0	2474639360	13	4128
2026-01-09 04:25:12.42	187.89	8.89	-26.7	-27.8	13.3	3.54e-05	0	43	0	2481979392	13	4099
2026-01-09 04:25:13.42	187.92	8.81	-26.5	-28.0	13.5	1.94e-05	0	43	0	2489319424	12	4244
2026-01-09 04:25:14.43	187.95	8.73	-26.6	-28.0	13.4	9.10e-06	0	43	0	2496659456	12	4256
2026-01-09 04:25:15.44	187.97	8.64	-26.7	-27.9	13.2	2.05e-05	0	44	0	2503999488	13	4132
2026-01-09 04:25:16.45	188.00	8.56	-26.7	-27.8	13.2	2.17e-05	0	43	0	2511339520	13	4101
2026-01-09 04:25:17.46	188.03	8.48	-26.9	-28.2	13.0	2.86e-05	0	43	0	2518679552	13	4206
2026-01-09 04:25:18.47	188.06	8.40	-27.0	-28.0	12.9	7.43e-05	0	43	0	2526019584	14	4036
2026-01-09 04:25:19.48	188.08	8.31	-26.6	-27.5	13.4	2.86e-05	0	43	0	2532311040	13	4031
2026-01-09 04:25:20.48	188.11	8.23	-26.4	-27.6	13.6	1.14e-05	0	43	0	2539651072	12	4137
2026-01-09 04:25:21.48	188.14	8.15	-26.4	-27.6	13.6	3.40e-06	0	44	0	2546991104	12	4151
2026-01-09 04:25:22.49	188.16	8.07	-26.4	-27.7	13.6	1.60e-05	0	44	0	2554331136	12	4180
2026-01-09 04:25:23.49	188.19	7.99	-26.3	-27.4	13.7	1.14e-05	0	43	0	2561671168	12	4093
2026-01-09 04:25:24.50	188.22	7.91	-26.3	-27.4	13.7	6.80e-06	0	44	0	2569011200	12	4105
2026-01-09 04:25:25.50	188.24	7.83	-26.4	-27.8	13.4	1.71e-05	0	43	0	2576351232	12	4205
2026-01-09 04:25:26.51	188.27	7.75	-26.4	-27.8	13.5	1.83e-05	0	44	0	2583691264	12	4198
2026-01-09 04:25:27.51	188.30	7.67	-26.4	-27.8	13.4	1.48e-05	0	43	0	2591031296	12	4208
2026-01-09 04:25:28.53	188.32	7.59	-26.6	-27.6	13.2	2.05e-05	0	43	0	2598371328	13	4050
2026-01-09 04:25:29.52	188.35	7.52	-26.5	-28.0	13.3	2.74e-05	0	44	0	2605711360	12	4258
2026-01-09 04:25:30.53	188.37	7.44	-26.5	-28.0	13.3	1.71e-05	0	43	0	2613051392	12	4257
2026-01-09 04:25:31.53	188.40	7.36	-26.6	-28.1	13.2	2.17e-05	0	43	0	2619342848	12	4285
2026-01-09 04:25:32.54	188.43	7.28	-26.4	-27.7	13.4	1.71e-05	0	44	0	2626682880	12	4180
2026-01-09 04:25:33.55	188.45	7.20	-26.5	-27.9	13.3	1.83e-05	0	43	0	2635071488	12	4240
2026-01-09 04:25:34.56	188.48	7.13	-26.7	-27.8	13.1	3.89e-05	0	44	0	2641362944	13	4108
2026-01-09 04:25:35.56	188.50	7.05	-32.6	-41.4	3.8	3.65e-01	0	43	104	2647654400	25	9948
2026-01-09 04:25:36.57	188.53	6.97	-32.9	-42.6	3.8	8.45e-01	0	44	104	2647654400	25	11040

#Closed at: 2026-01-09 04:25:37
#Recorded file [2647 MB]: D:/data/31010_260109_071928.dat