passes_logs/2026/01/09/R2M6_AANII_01/R2M6_AANII_01__20260109_140217_FENGYUN_3D_rec.log

#Pass ID: 20260109_140217_FENGYUN 3D
#Satellite: FENGYUN 3D
#Configuration: FENGYUN 3D
#almurnet v.1.7.20240730
#Start time: 2026-01-09 14:02:18

#Version: 2.2.20231116
#Station: R2M6_AANII_01
#Location: 30.233357 lon 59.946436 lat
#TLE: 1 43010U 17072A   26008.59015185 -.00000067  00000+0 -98204-5 0  9997
#TLE: 2 43010  98.9935 340.3069 0002117 119.1923 240.9464 14.19693468422340

#Time	Az	El	Level	Level2	SNR	BER	BlckErr	Temp	State	Recorded	gain1	gain2
2026-01-09 14:02:18.64	215.76	7.09	-27.7	-29.5	5.7	7.56e-01	0	40	0	0	16	4408
2026-01-09 14:02:19.64	215.86	7.16	-28.4	-30.6	5.6	7.61e-01	0	40	104	0	17	4658
2026-01-09 14:02:20.65	215.96	7.22	-28.5	-30.8	11.8	6.72e-04	0	40	0	0	17	4705
2026-01-09 14:02:21.66	216.06	7.28	-28.4	-30.7	11.9	7.44e-04	0	40	0	5242880	17	4666
2026-01-09 14:02:22.66	216.16	7.34	-28.0	-29.7	12.5	3.02e-04	0	40	0	11534336	17	4370
2026-01-09 14:02:23.66	216.26	7.40	-27.9	-29.3	12.7	1.65e-04	0	40	0	16777216	17	4244
2026-01-09 14:02:24.67	216.37	7.47	-27.7	-29.4	13.0	6.29e-05	0	40	0	22020096	16	4368
2026-01-09 14:02:25.68	216.47	7.53	-27.7	-29.4	13.0	5.72e-05	0	40	0	28311552	16	4385
2026-01-09 14:02:26.69	216.57	7.59	-27.3	-28.5	13.5	2.63e-05	0	40	0	33554432	16	4130
2026-01-09 14:02:27.70	216.68	7.65	-26.9	-28.2	13.9	8.00e-06	0	40	0	39845888	15	4140
2026-01-09 14:02:28.70	216.78	7.72	-26.7	-28.2	14.2	1.10e-06	0	40	0	45088768	14	4249
2026-01-09 14:02:29.71	216.89	7.78	-26.8	-28.3	14.2	3.40e-06	0	40	0	50331648	14	4268
2026-01-09 14:02:30.72	216.99	7.84	-26.8	-28.3	14.1	3.40e-06	0	40	0	56623104	14	4284
2026-01-09 14:02:31.72	217.10	7.91	-27.0	-28.7	13.9	8.00e-06	0	40	0	61865984	14	4387
2026-01-09 14:02:32.73	217.20	7.97	-27.0	-28.7	13.9	1.02e-05	0	41	0	67108864	14	4404
2026-01-09 14:02:33.74	217.31	8.03	-26.9	-28.5	14.0	1.10e-06	0	41	0	73400320	14	4336
2026-01-09 14:02:34.75	217.42	8.10	-26.9	-28.4	14.1	3.40e-06	0	41	0	78643200	14	4319
2026-01-09 14:02:35.75	217.52	8.16	-27.0	-28.7	13.9	4.50e-06	0	41	0	84934656	14	4388
2026-01-09 14:02:36.76	217.63	8.22	-26.8	-28.4	14.1	8.00e-06	0	41	0	90177536	14	4299
2026-01-09 14:02:37.76	217.74	8.29	-26.8	-28.4	14.2	0.00e+00	0	41	0	96468992	14	4295
2026-01-09 14:02:38.77	217.85	8.35	-26.8	-28.3	14.2	2.20e-06	0	41	0	101711872	14	4292
2026-01-09 14:02:39.78	217.96	8.41	-26.9	-28.6	14.0	4.50e-06	0	41	0	106954752	14	4351
2026-01-09 14:02:40.78	218.07	8.48	-26.8	-28.2	14.3	2.20e-06	0	41	0	113246208	14	4250
2026-01-09 14:02:41.79	218.18	8.54	-26.6	-27.8	14.5	1.10e-06	0	41	0	118489088	14	4149
2026-01-09 14:02:42.78	218.29	8.60	-26.7	-28.0	14.4	1.10e-06	0	41	0	123731968	14	4186
2026-01-09 14:02:43.79	218.40	8.67	-26.6	-27.8	14.5	1.10e-06	0	41	0	130023424	14	4143
2026-01-09 14:02:44.80	218.51	8.73	-26.6	-27.8	14.5	0.00e+00	0	41	0	135266304	14	4139
2026-01-09 14:02:45.81	218.62	8.79	-26.6	-27.9	14.5	2.20e-06	0	41	0	141557760	14	4168
2026-01-09 14:02:46.82	218.74	8.86	-26.5	-27.7	14.6	0.00e+00	0	41	0	146800640	14	4105
2026-01-09 14:02:47.82	218.85	8.92	-26.5	-27.5	14.7	1.10e-06	0	41	0	152043520	14	4065
2026-01-09 14:02:48.83	218.96	8.99	-26.5	-27.7	14.6	1.10e-06	0	41	0	158334976	14	4110
2026-01-09 14:02:49.83	219.08	9.05	-26.5	-27.6	14.7	0.00e+00	0	41	0	163577856	14	4094
2026-01-09 14:02:50.84	219.19	9.12	-26.7	-28.0	14.4	2.20e-06	0	41	0	169869312	14	4187
2026-01-09 14:02:51.85	219.31	9.18	-26.5	-27.7	14.6	0.00e+00	0	41	0	175112192	14	4119
2026-01-09 14:02:52.86	219.42	9.24	-26.7	-28.1	14.4	1.10e-06	0	41	0	181403648	14	4213
2026-01-09 14:02:53.86	219.54	9.31	-26.6	-27.8	14.5	0.00e+00	0	41	0	186646528	14	4151
2026-01-09 14:02:54.87	219.66	9.37	-26.7	-28.0	14.4	1.10e-06	0	41	0	191889408	14	4201
2026-01-09 14:02:55.87	219.77	9.44	-26.5	-27.5	14.7	3.40e-06	0	41	0	198180864	14	4077
2026-01-09 14:02:56.88	219.89	9.50	-26.3	-27.3	14.9	0.00e+00	0	41	0	203423744	14	4002
2026-01-09 14:02:57.89	220.01	9.57	-26.3	-27.6	15.0	0.00e+00	0	41	0	208666624	13	4181
2026-01-09 14:02:58.90	220.13	9.63	-26.1	-27.3	15.1	0.00e+00	0	41	0	214958080	13	4111
2026-01-09 14:02:59.90	220.25	9.70	-26.2	-27.4	15.1	0.00e+00	0	41	0	220200960	13	4130
2026-01-09 14:03:00.91	220.37	9.76	-26.3	-27.7	14.9	0.00e+00	0	41	0	226492416	13	4219
2026-01-09 14:03:01.92	220.49	9.83	-26.3	-27.5	15.0	1.10e-06	0	41	0	231735296	13	4177
2026-01-09 14:03:02.93	220.61	9.89	-26.2	-27.5	15.0	0.00e+00	0	41	0	236978176	13	4159
2026-01-09 14:03:03.93	220.73	9.96	-26.4	-27.8	14.9	1.10e-06	0	41	0	243269632	13	4255
2026-01-09 14:03:04.94	220.85	10.02	-26.3	-27.6	14.9	0.00e+00	0	41	0	248512512	13	4201
2026-01-09 14:03:05.95	220.97	10.09	-26.3	-27.6	15.0	0.00e+00	0	42	0	254803968	13	4196
2026-01-09 14:03:06.95	221.09	10.15	-26.3	-27.6	15.0	8.00e-06	0	41	0	260046848	13	4194
2026-01-09 14:03:07.96	221.22	10.22	-26.4	-27.8	14.9	0.00e+00	0	41	0	266338304	13	4245
2026-01-09 14:03:08.96	221.34	10.28	-26.1	-27.2	15.2	0.00e+00	0	41	0	271581184	13	4072
2026-01-09 14:03:09.96	221.46	10.35	-26.0	-26.9	15.4	2.20e-06	0	41	0	276824064	13	4008
2026-01-09 14:03:10.97	221.59	10.41	-25.9	-26.7	15.5	0.00e+00	0	42	0	283115520	13	3951
2026-01-09 14:03:11.97	221.71	10.48	-25.9	-26.8	15.5	1.10e-06	0	41	0	288358400	13	3981
2026-01-09 14:03:12.97	221.84	10.55	-25.8	-26.5	15.6	2.20e-06	0	42	0	293601280	13	3907
2026-01-09 14:03:13.98	221.97	10.61	-25.7	-26.8	15.8	0.00e+00	0	42	0	299892736	12	4080
2026-01-09 14:03:14.98	222.09	10.68	-25.7	-26.8	15.8	0.00e+00	0	42	0	305135616	12	4082
2026-01-09 14:03:15.99	222.22	10.74	-25.8	-27.1	15.6	1.10e-06	0	42	0	310378496	12	4146
2026-01-09 14:03:17.00	222.35	10.81	-25.7	-26.9	15.7	0.00e+00	0	42	0	316669952	12	4093
2026-01-09 14:03:18.01	222.48	10.87	-25.8	-26.9	15.7	0.00e+00	0	42	0	321912832	12	4103
2026-01-09 14:03:19.01	222.61	10.94	-25.8	-26.9	15.7	3.40e-06	0	41	0	328204288	12	4122
2026-01-09 14:03:20.02	222.74	11.01	-25.9	-27.2	15.6	0.00e+00	0	42	0	333447168	12	4191
2026-01-09 14:03:21.02	222.87	11.07	-25.8	-27.1	15.7	0.00e+00	0	42	0	339738624	12	4150
2026-01-09 14:03:22.03	223.00	11.14	-26.0	-27.4	15.5	0.00e+00	0	42	0	344981504	12	4235
2026-01-09 14:03:23.04	223.13	11.21	-25.8	-27.1	15.7	0.00e+00	0	42	0	350224384	12	4158
2026-01-09 14:03:24.05	223.26	11.27	-25.9	-27.3	15.5	0.00e+00	0	42	0	356515840	12	4213
2026-01-09 14:03:25.06	223.39	11.34	-25.8	-27.0	15.7	0.00e+00	0	42	0	361758720	12	4137
2026-01-09 14:03:26.06	223.53	11.40	-25.9	-27.1	15.6	0.00e+00	0	42	0	368050176	12	4170
2026-01-09 14:03:27.06	223.66	11.47	-25.8	-27.0	15.7	0.00e+00	0	42	0	373293056	12	4138
2026-01-09 14:03:28.07	223.80	11.54	-25.9	-27.2	15.6	0.00e+00	0	42	0	378535936	12	4183
2026-01-09 14:03:29.08	223.93	11.60	-26.0	-27.5	15.4	0.00e+00	0	42	0	384827392	12	4276
2026-01-09 14:03:30.08	224.07	11.67	-26.0	-27.4	15.5	0.00e+00	0	42	0	390070272	12	4243
2026-01-09 14:03:31.09	224.20	11.74	-26.1	-27.8	15.3	2.20e-06	0	42	0	395313152	12	4351
2026-01-09 14:03:32.10	224.34	11.80	-26.0	-27.5	15.5	0.00e+00	0	42	0	401604608	12	4271
2026-01-09 14:03:33.11	224.48	11.87	-26.2	-28.0	15.2	0.00e+00	0	42	0	406847488	12	4405
2026-01-09 14:03:34.11	224.61	11.94	-26.0	-27.5	15.4	0.00e+00	0	42	0	413138944	12	4284
2026-01-09 14:03:35.12	224.75	12.00	-25.9	-27.3	15.5	0.00e+00	0	42	0	418381824	12	4225
2026-01-09 14:03:36.13	224.89	12.07	-26.0	-27.4	15.5	0.00e+00	0	42	0	424673280	12	4244
2026-01-09 14:03:37.13	225.03	12.14	-26.1	-27.7	15.4	0.00e+00	0	42	0	429916160	12	4325
2026-01-09 14:03:38.14	225.17	12.20	-25.8	-27.1	15.7	0.00e+00	0	42	0	435159040	12	4154
2026-01-09 14:03:39.14	225.31	12.27	-25.7	-26.7	15.9	0.00e+00	0	42	0	441450496	12	4056
2026-01-09 14:03:40.15	225.45	12.34	-25.9	-27.1	15.7	0.00e+00	0	42	0	446693376	12	4165
2026-01-09 14:03:41.16	225.60	12.40	-25.9	-27.2	15.7	0.00e+00	0	42	0	452984832	12	4177
2026-01-09 14:03:42.17	225.74	12.47	-25.9	-27.2	15.7	0.00e+00	0	42	0	458227712	12	4172
2026-01-09 14:03:43.17	225.88	12.54	-25.9	-27.2	15.7	0.00e+00	0	42	0	463470592	12	4189
2026-01-09 14:03:44.18	226.03	12.60	-25.8	-26.9	15.8	0.00e+00	0	42	0	469762048	12	4110
2026-01-09 14:03:45.18	226.17	12.67	-25.8	-26.9	15.8	0.00e+00	0	42	0	475004928	12	4112
2026-01-09 14:03:46.19	226.32	12.74	-25.7	-26.7	16.0	0.00e+00	0	42	0	480247808	12	4052
2026-01-09 14:03:47.20	226.46	12.80	-25.6	-26.5	16.1	0.00e+00	0	42	0	486539264	12	4004
2026-01-09 14:03:48.20	226.61	12.87	-25.7	-26.7	16.0	0.00e+00	0	42	0	491782144	12	4053
2026-01-09 14:03:49.21	226.76	12.94	-25.7	-26.7	16.0	0.00e+00	0	42	0	498073600	12	4053
2026-01-09 14:03:50.22	226.91	13.01	-25.4	-26.1	16.3	0.00e+00	0	42	0	503316480	12	3899
2026-01-09 14:03:51.22	227.05	13.07	-25.4	-26.0	16.3	0.00e+00	0	42	0	509607936	12	3887
2026-01-09 14:03:52.23	227.20	13.14	-25.4	-26.2	16.3	0.00e+00	0	42	0	514850816	12	3923
2026-01-09 14:03:53.24	227.35	13.21	-25.4	-26.1	16.3	0.00e+00	0	42	0	520093696	12	3903
2026-01-09 14:03:54.24	227.50	13.27	-25.5	-26.3	16.2	0.00e+00	0	42	0	526385152	12	3955
2026-01-09 14:03:55.25	227.66	13.34	-25.3	-26.3	16.5	0.00e+00	0	42	0	531628032	11	4062
2026-01-09 14:03:56.26	227.81	13.41	-25.2	-26.3	16.6	0.00e+00	0	42	0	537919488	11	4043
2026-01-09 14:03:57.26	227.96	13.47	-25.4	-26.5	16.4	0.00e+00	0	42	0	543162368	11	4114
2026-01-09 14:03:58.26	228.11	13.54	-25.6	-26.9	16.2	0.00e+00	0	42	0	548405248	11	4212
2026-01-09 14:03:59.27	228.27	13.61	-25.4	-26.5	16.4	0.00e+00	0	42	0	554696704	11	4112
2026-01-09 14:04:00.28	228.42	13.68	-25.3	-26.3	16.5	0.00e+00	0	42	0	559939584	11	4066
2026-01-09 14:04:01.29	228.58	13.74	-25.3	-26.3	16.5	0.00e+00	0	42	0	565182464	11	4058
2026-01-09 14:04:02.29	228.73	13.81	-25.3	-26.3	16.6	0.00e+00	0	42	0	571473920	11	4057
2026-01-09 14:04:03.30	228.89	13.88	-25.3	-26.4	16.5	0.00e+00	0	42	0	576716800	11	4074
2026-01-09 14:04:04.31	229.05	13.94	-25.4	-26.6	16.4	0.00e+00	0	42	0	583008256	11	4116
2026-01-09 14:04:05.32	229.21	14.01	-25.3	-26.5	16.5	0.00e+00	0	42	0	588251136	11	4093
2026-01-09 14:04:06.32	229.36	14.08	-25.3	-26.3	16.6	0.00e+00	0	42	0	594542592	11	4066
2026-01-09 14:04:07.32	229.52	14.14	-25.3	-26.4	16.5	0.00e+00	0	42	0	599785472	11	4081
2026-01-09 14:04:08.33	229.68	14.21	-25.5	-26.7	16.4	0.00e+00	0	42	0	605028352	11	4165
2026-01-09 14:04:09.33	229.84	14.28	-25.4	-26.6	16.4	0.00e+00	0	42	0	611319808	11	4122
2026-01-09 14:04:10.34	230.01	14.34	-25.3	-26.4	16.5	0.00e+00	0	42	0	616562688	11	4077
2026-01-09 14:04:11.35	230.17	14.41	-25.3	-26.5	16.5	0.00e+00	0	42	0	622854144	11	4093
2026-01-09 14:04:12.36	230.33	14.48	-25.3	-26.4	16.5	0.00e+00	0	42	0	628097024	11	4094
2026-01-09 14:04:13.36	230.49	14.54	-25.3	-26.3	16.6	0.00e+00	0	42	0	633339904	11	4045
2026-01-09 14:04:14.37	230.66	14.61	-25.2	-26.2	16.7	0.00e+00	0	42	0	639631360	11	4033
2026-01-09 14:04:15.38	230.83	14.68	-25.2	-26.1	16.7	0.00e+00	0	42	0	644874240	11	4000
2026-01-09 14:04:16.39	230.99	14.75	-25.3	-26.3	16.6	0.00e+00	0	42	0	650117120	11	4050
2026-01-09 14:04:17.40	231.16	14.81	-25.4	-26.7	16.4	0.00e+00	0	42	0	656408576	11	4157
2026-01-09 14:04:18.41	231.33	14.88	-25.1	-26.0	16.8	1.10e-06	0	42	0	661651456	11	3974
2026-01-09 14:04:19.42	231.50	14.95	-25.0	-25.8	16.9	0.00e+00	0	42	0	667942912	11	3930
2026-01-09 14:04:20.43	231.66	15.01	-25.1	-25.9	16.9	0.00e+00	0	42	0	673185792	11	3953
2026-01-09 14:04:21.43	231.83	15.08	-25.0	-25.7	17.0	0.00e+00	0	42	0	679477248	11	3893
2026-01-09 14:04:22.44	232.00	15.15	-25.1	-25.9	16.9	0.00e+00	0	42	0	684720128	11	3944
2026-01-09 14:04:23.44	232.17	15.21	-25.1	-25.9	16.8	0.00e+00	0	42	0	689963008	11	3956
2026-01-09 14:04:24.44	232.34	15.28	-24.9	-25.5	17.1	0.00e+00	0	42	0	696254464	11	3854
2026-01-09 14:04:25.45	232.52	15.34	-25.0	-25.7	17.0	0.00e+00	0	42	0	701497344	11	3912
2026-01-09 14:04:26.46	232.69	15.41	-25.2	-26.1	16.7	0.00e+00	0	42	0	707788800	11	4012
2026-01-09 14:04:27.46	232.86	15.48	-25.0	-25.8	16.9	0.00e+00	0	42	0	713031680	11	3924
2026-01-09 14:04:28.47	233.04	15.54	-25.4	-26.5	16.5	0.00e+00	0	42	0	718274560	11	4110
2026-01-09 14:04:29.48	233.22	15.61	-25.0	-25.7	17.0	0.00e+00	0	42	0	724566016	11	3913
2026-01-09 14:04:30.49	233.39	15.67	-25.0	-25.6	17.0	5.70e-06	0	42	0	729808896	11	3883
2026-01-09 14:04:31.49	233.57	15.74	-25.0	-25.7	17.0	0.00e+00	0	42	0	735051776	11	3897
2026-01-09 14:04:32.50	233.75	15.81	-24.9	-25.4	17.2	0.00e+00	0	42	0	741343232	11	3828
2026-01-09 14:04:33.50	233.92	15.87	-24.9	-25.4	17.2	0.00e+00	0	42	0	746586112	11	3832
2026-01-09 14:04:34.51	234.10	15.94	-24.8	-25.3	17.2	0.00e+00	0	42	0	752877568	11	3815
2026-01-09 14:04:35.51	234.28	16.00	-24.9	-25.5	17.1	0.00e+00	0	42	0	758120448	11	3859
2026-01-09 14:04:36.51	234.46	16.07	-24.9	-25.5	17.1	0.00e+00	0	42	0	764411904	11	3857
2026-01-09 14:04:37.52	234.64	16.13	-24.9	-25.4	17.2	0.00e+00	0	42	0	769654784	11	3830
2026-01-09 14:04:38.53	234.83	16.20	-24.8	-25.2	17.3	0.00e+00	0	42	0	774897664	11	3788
2026-01-09 14:04:39.54	235.01	16.26	-24.8	-25.7	17.3	0.00e+00	0	42	0	781189120	10	4004
2026-01-09 14:04:40.54	235.19	16.33	-24.8	-25.8	17.3	0.00e+00	0	42	0	786432000	10	4018
2026-01-09 14:04:41.55	235.38	16.39	-24.8	-25.7	17.3	0.00e+00	0	42	0	792723456	10	4003
2026-01-09 14:04:42.56	235.56	16.46	-24.9	-25.9	17.2	0.00e+00	0	42	0	797966336	10	4045
2026-01-09 14:04:43.57	235.75	16.52	-24.8	-25.7	17.3	0.00e+00	0	42	0	803209216	10	4007
2026-01-09 14:04:44.57	235.94	16.59	-25.0	-26.2	17.0	0.00e+00	0	42	0	809500672	10	4139
2026-01-09 14:04:45.58	236.13	16.65	-24.9	-26.0	17.1	0.00e+00	0	42	0	814743552	10	4096
2026-01-09 14:04:46.58	236.31	16.71	-25.0	-26.2	17.0	0.00e+00	0	42	0	819986432	10	4141
2026-01-09 14:04:47.59	236.50	16.78	-24.8	-25.7	17.3	0.00e+00	0	42	0	826277888	10	4013
2026-01-09 14:04:48.59	236.69	16.84	-24.7	-25.5	17.4	0.00e+00	0	42	0	831520768	10	3964
2026-01-09 14:04:49.59	236.88	16.91	-24.7	-25.5	17.4	0.00e+00	0	42	0	837812224	10	3971
2026-01-09 14:04:50.60	237.07	16.97	-24.5	-25.2	17.6	0.00e+00	0	42	0	843055104	10	3878
2026-01-09 14:04:51.61	237.27	17.03	-24.5	-25.1	17.7	0.00e+00	0	42	0	849346560	10	3854
2026-01-09 14:04:52.61	237.46	17.10	-24.5	-25.0	17.7	0.00e+00	0	42	0	854589440	10	3846
2026-01-09 14:04:53.62	237.65	17.16	-24.4	-24.9	17.7	0.00e+00	0	42	0	859832320	10	3822
2026-01-09 14:04:54.62	237.85	17.22	-24.4	-24.8	17.8	0.00e+00	0	42	0	866123776	10	3803
2026-01-09 14:04:55.63	238.04	17.29	-24.4	-24.9	17.8	0.00e+00	0	42	0	871366656	10	3808
2026-01-09 14:04:56.63	238.24	17.35	-24.4	-24.9	17.7	0.00e+00	0	42	0	876609536	10	3824
2026-01-09 14:04:57.64	238.44	17.41	-24.5	-25.1	17.7	0.00e+00	0	42	0	882900992	10	3857
2026-01-09 14:04:58.64	238.63	17.47	-24.6	-25.4	17.5	0.00e+00	0	42	0	888143872	10	3929
2026-01-09 14:04:59.65	238.83	17.54	-24.6	-25.3	17.6	0.00e+00	0	42	0	894435328	10	3909
2026-01-09 14:05:00.65	239.03	17.60	-24.5	-25.1	17.7	0.00e+00	0	42	0	899678208	10	3856
2026-01-09 14:05:01.66	239.23	17.66	-24.6	-25.4	17.5	0.00e+00	0	42	0	904921088	10	3940
2026-01-09 14:05:02.67	239.43	17.72	-24.6	-25.4	17.5	0.00e+00	0	42	0	911212544	10	3928
2026-01-09 14:05:03.67	239.63	17.78	-24.5	-25.2	17.6	0.00e+00	0	42	0	916455424	10	3885
2026-01-09 14:05:04.67	239.83	17.84	-24.6	-25.4	17.5	0.00e+00	0	42	0	922746880	10	3942
2026-01-09 14:05:05.68	240.04	17.91	-24.7	-25.5	17.5	0.00e+00	0	42	0	927989760	10	3959
2026-01-09 14:05:06.69	240.24	17.97	-24.5	-25.2	17.7	0.00e+00	0	42	0	933232640	10	3875
2026-01-09 14:05:07.70	240.45	18.03	-24.6	-25.4	17.5	0.00e+00	0	42	0	939524096	10	3926
2026-01-09 14:05:08.70	240.65	18.09	-24.6	-25.2	17.6	0.00e+00	0	42	0	944766976	10	3898
2026-01-09 14:05:09.70	240.86	18.15	-24.6	-25.3	17.6	0.00e+00	0	42	0	951058432	10	3899
2026-01-09 14:05:10.71	241.07	18.21	-24.5	-25.0	17.7	0.00e+00	0	42	0	956301312	10	3844
2026-01-09 14:05:11.71	241.27	18.27	-24.3	-24.8	17.8	0.00e+00	0	42	0	961544192	10	3788
2026-01-09 14:05:12.71	241.48	18.33	-24.2	-25.0	18.0	0.00e+00	0	42	0	967835648	9	3953
2026-01-09 14:05:13.72	241.69	18.39	-24.3	-25.1	17.9	0.00e+00	0	42	0	973078528	9	3967
2026-01-09 14:05:14.73	241.90	18.45	-24.2	-24.9	18.0	0.00e+00	0	42	0	978321408	9	3918
2026-01-09 14:05:15.73	242.11	18.51	-24.2	-25.0	18.0	0.00e+00	0	42	0	984612864	9	3949
2026-01-09 14:05:16.74	242.33	18.57	-24.3	-25.2	17.9	0.00e+00	0	42	0	989855744	9	3988
2026-01-09 14:05:17.75	242.54	18.62	-24.3	-25.3	17.9	3.40e-06	0	42	0	996147200	9	4005
2026-01-09 14:05:18.76	242.76	18.68	-24.3	-25.2	17.9	0.00e+00	0	42	0	1001390080	9	3994
2026-01-09 14:05:19.76	242.97	18.74	-24.3	-25.1	17.9	0.00e+00	0	42	0	1007681536	9	3972
2026-01-09 14:05:20.77	243.19	18.80	-24.4	-25.4	17.8	0.00e+00	0	42	0	1012924416	9	4033
2026-01-09 14:05:21.77	243.40	18.86	-24.2	-25.0	18.0	0.00e+00	0	42	0	1018167296	9	3946
2026-01-09 14:05:22.78	243.62	18.91	-24.1	-24.8	18.1	0.00e+00	0	42	0	1024458752	9	3897
2026-01-09 14:05:23.79	243.84	18.97	-24.1	-24.7	18.2	0.00e+00	0	42	0	1029701632	9	3871
2026-01-09 14:05:24.79	244.05	19.03	-23.9	-24.4	18.3	0.00e+00	0	42	0	1034944512	9	3808
2026-01-09 14:05:25.79	244.27	19.08	-24.2	-25.0	18.0	0.00e+00	0	42	0	1041235968	9	3928
2026-01-09 14:05:26.80	244.49	19.14	-24.3	-25.2	17.9	1.10e-06	0	42	0	1046478848	9	3985
2026-01-09 14:05:27.81	244.72	19.20	-24.4	-25.5	17.8	0.00e+00	0	42	0	1052770304	9	4062
2026-01-09 14:05:28.81	244.94	19.25	-24.4	-25.4	17.8	0.00e+00	0	42	0	1058013184	9	4040
2026-01-09 14:05:29.82	245.16	19.31	-24.3	-25.1	17.9	1.10e-06	0	42	0	1063256064	9	3976
2026-01-09 14:05:30.83	245.38	19.36	-24.3	-25.3	17.9	1.10e-06	0	42	0	1069547520	9	4010
2026-01-09 14:05:31.84	245.61	19.42	-24.1	-24.8	18.1	0.00e+00	0	42	0	1074790400	9	3900
2026-01-09 14:05:32.84	245.83	19.47	-24.1	-24.8	18.1	2.20e-06	0	42	0	1081081856	9	3905
2026-01-09 14:05:33.85	246.06	19.53	-24.0	-24.6	18.2	0.00e+00	0	42	0	1086324736	9	3845
2026-01-09 14:05:34.86	246.29	19.58	-24.0	-24.6	18.2	0.00e+00	0	42	0	1092616192	9	3851
2026-01-09 14:05:35.86	246.51	19.63	-24.0	-24.5	18.3	0.00e+00	0	42	0	1097859072	9	3836
2026-01-09 14:05:36.87	246.74	19.69	-24.2	-24.9	18.1	0.00e+00	0	42	0	1103101952	9	3914
2026-01-09 14:05:37.88	246.97	19.74	-24.1	-24.8	18.1	0.00e+00	0	42	0	1109393408	9	3902
2026-01-09 14:05:38.88	247.20	19.79	-24.1	-24.8	18.2	3.40e-06	0	42	0	1114636288	9	3885
2026-01-09 14:05:39.88	247.43	19.84	-24.1	-24.7	18.2	0.00e+00	0	42	0	1119879168	9	3873
2026-01-09 14:05:40.89	247.66	19.90	-24.1	-24.7	18.2	0.00e+00	0	43	0	1126170624	9	3864
2026-01-09 14:05:41.89	247.89	19.95	-24.1	-24.8	18.1	0.00e+00	0	43	0	1131413504	9	3897
2026-01-09 14:05:42.90	248.12	20.00	-24.3	-25.2	18.0	0.00e+00	0	42	0	1137704960	9	3980
2026-01-09 14:05:43.90	248.35	20.05	-24.0	-24.6	18.3	1.10e-06	0	42	0	1142947840	9	3840
2026-01-09 14:05:44.91	248.59	20.10	-23.9	-24.3	18.4	0.00e+00	0	42	0	1148190720	9	3785
2026-01-09 14:05:45.92	248.83	20.15	-23.8	-24.5	18.5	0.00e+00	0	42	0	1154482176	8	3932
2026-01-09 14:05:46.93	249.06	20.20	-23.8	-24.5	18.6	0.00e+00	0	42	0	1159725056	8	3924
2026-01-09 14:05:47.94	249.30	20.25	-23.7	-24.3	18.6	0.00e+00	0	42	0	1166016512	8	3891
2026-01-09 14:05:48.95	249.54	20.30	-23.9	-24.7	18.5	0.00e+00	0	42	0	1171259392	8	3984
2026-01-09 14:05:49.96	249.78	20.35	-23.7	-24.3	18.7	0.00e+00	0	43	0	1177550848	8	3886
2026-01-09 14:05:50.96	250.01	20.39	-23.7	-24.5	18.6	0.00e+00	0	42	0	1182793728	8	3920
2026-01-09 14:05:51.97	250.25	20.44	-23.9	-24.8	18.4	0.00e+00	0	42	0	1188036608	8	3991
2026-01-09 14:05:52.98	250.49	20.49	-23.9	-24.8	18.4	0.00e+00	0	43	0	1194328064	8	3991
2026-01-09 14:05:53.98	250.73	20.53	-23.7	-24.5	18.6	0.00e+00	0	43	0	1199570944	8	3918
2026-01-09 14:05:54.99	250.98	20.58	-23.8	-24.6	18.5	0.00e+00	0	43	0	1204813824	8	3944
2026-01-09 14:05:56.00	251.22	20.63	-23.9	-24.9	18.4	0.00e+00	0	42	0	1211105280	8	4026
2026-01-09 14:05:57.01	251.46	20.67	-23.7	-24.4	18.7	0.00e+00	0	43	0	1216348160	8	3904
2026-01-09 14:05:58.02	251.71	20.72	-23.6	-24.1	18.8	0.00e+00	0	42	0	1222639616	8	3834
2026-01-09 14:05:59.02	251.95	20.76	-23.6	-24.2	18.8	0.00e+00	0	43	0	1227882496	8	3843
2026-01-09 14:06:00.03	252.19	20.81	-23.5	-23.9	18.9	0.00e+00	0	43	0	1233125376	8	3781
2026-01-09 14:06:01.03	252.44	20.85	-23.7	-24.4	18.6	0.00e+00	0	42	0	1239416832	8	3899
2026-01-09 14:06:02.03	252.68	20.89	-23.8	-24.6	18.5	0.00e+00	0	42	0	1244659712	8	3963
2026-01-09 14:06:03.03	252.93	20.94	-23.9	-24.8	18.4	0.00e+00	0	43	0	1250951168	8	4002
2026-01-09 14:06:04.04	253.18	20.98	-23.9	-24.8	18.4	0.00e+00	0	42	0	1256194048	8	4013
2026-01-09 14:06:05.04	253.42	21.02	-23.8	-24.6	18.5	0.00e+00	0	43	0	1262485504	8	3965
2026-01-09 14:06:06.06	253.68	21.06	-23.7	-24.5	18.6	0.00e+00	0	42	0	1267728384	8	3925
2026-01-09 14:06:07.06	253.92	21.10	-23.8	-24.5	18.6	0.00e+00	0	43	0	1272971264	8	3931
2026-01-09 14:06:08.07	254.18	21.14	-23.6	-24.1	18.8	0.00e+00	0	43	0	1279262720	8	3841
2026-01-09 14:06:09.07	254.42	21.18	-23.7	-24.5	18.6	0.00e+00	0	42	0	1284505600	8	3928
2026-01-09 14:06:10.07	254.67	21.22	-23.7	-24.4	18.7	0.00e+00	0	42	0	1289748480	8	3900
2026-01-09 14:06:11.07	254.92	21.26	-23.9	-24.8	18.5	0.00e+00	0	43	0	1296039936	8	3992
2026-01-09 14:06:12.08	255.18	21.30	-23.7	-24.4	18.6	0.00e+00	0	42	0	1301282816	8	3917
2026-01-09 14:06:13.09	255.43	21.34	-23.9	-24.7	18.5	0.00e+00	0	42	0	1306525696	8	3987
2026-01-09 14:06:14.09	255.69	21.38	-23.8	-24.6	18.6	0.00e+00	0	42	0	1312817152	8	3945
2026-01-09 14:06:15.10	255.94	21.41	-23.8	-24.7	18.5	0.00e+00	0	42	0	1318060032	8	3972
2026-01-09 14:06:16.10	256.19	21.45	-23.7	-24.3	18.7	0.00e+00	0	43	0	1324351488	8	3886
2026-01-09 14:06:17.10	256.45	21.49	-23.5	-24.1	18.8	0.00e+00	0	43	0	1329594368	8	3827
2026-01-09 14:06:18.11	256.71	21.52	-23.6	-24.1	18.8	0.00e+00	0	43	0	1335885824	8	3837
2026-01-09 14:06:19.12	256.96	21.56	-23.7	-24.4	18.6	0.00e+00	0	42	0	1341128704	8	3912
2026-01-09 14:06:20.13	257.22	21.59	-23.4	-23.8	19.0	0.00e+00	0	43	0	1346371584	8	3764
2026-01-09 14:06:21.13	257.48	21.62	-23.5	-24.0	18.9	0.00e+00	0	42	0	1352663040	8	3802
2026-01-09 14:06:22.13	257.73	21.66	-23.4	-23.8	19.0	0.00e+00	0	43	0	1357905920	8	3753
2026-01-09 14:06:23.13	257.99	21.69	-23.5	-24.1	18.9	0.00e+00	0	43	0	1363148800	8	3826
2026-01-09 14:06:24.14	258.25	21.72	-23.5	-24.1	18.8	0.00e+00	0	43	0	1369440256	8	3833
2026-01-09 14:06:25.14	258.51	21.75	-23.7	-24.3	18.7	0.00e+00	0	43	0	1374683136	8	3886
2026-01-09 14:06:26.15	258.77	21.79	-23.6	-24.1	18.8	0.00e+00	0	43	0	1380974592	8	3840
2026-01-09 14:06:27.16	259.03	21.82	-23.7	-24.4	18.7	0.00e+00	0	43	0	1386217472	8	3908
2026-01-09 14:06:28.16	259.29	21.85	-23.6	-24.2	18.8	0.00e+00	0	42	0	1391460352	8	3853
2026-01-09 14:06:29.16	259.55	21.88	-23.5	-23.9	18.9	2.20e-06	0	42	0	1397751808	8	3791
2026-01-09 14:06:30.16	259.81	21.90	-23.6	-24.1	18.8	0.00e+00	0	43	0	1402994688	8	3838
2026-01-09 14:06:31.18	260.08	21.93	-23.6	-24.2	18.8	0.00e+00	0	42	0	1409286144	8	3859
2026-01-09 14:06:32.19	260.35	21.96	-23.6	-24.3	18.7	0.00e+00	0	42	0	1414529024	8	3876
2026-01-09 14:06:33.19	260.61	21.99	-23.5	-24.1	18.9	0.00e+00	0	42	0	1419771904	8	3826
2026-01-09 14:06:34.20	260.87	22.01	-23.7	-24.4	18.7	0.00e+00	0	43	0	1426063360	8	3908
2026-01-09 14:06:35.21	261.14	22.04	-23.7	-24.3	18.7	0.00e+00	0	43	0	1431306240	8	3891
2026-01-09 14:06:36.22	261.40	22.07	-23.7	-24.5	18.7	0.00e+00	0	43	0	1437597696	8	3926
2026-01-09 14:06:37.22	261.67	22.09	-23.6	-24.3	18.8	0.00e+00	0	43	0	1442840576	8	3875
2026-01-09 14:06:38.22	261.93	22.11	-23.7	-24.3	18.7	8.00e-06	0	42	0	1448083456	8	3886
2026-01-09 14:06:39.23	262.20	22.14	-23.6	-24.3	18.7	0.00e+00	0	42	0	1454374912	8	3882
2026-01-09 14:06:40.23	262.47	22.16	-23.5	-23.9	18.9	0.00e+00	0	43	0	1459617792	8	3796
2026-01-09 14:06:41.24	262.73	22.18	-23.6	-24.1	18.8	2.20e-06	0	43	0	1464860672	8	3841
2026-01-09 14:06:42.25	263.00	22.21	-23.7	-24.5	18.6	0.00e+00	0	42	0	1471152128	8	3923
2026-01-09 14:06:43.25	263.27	22.23	-23.6	-24.2	18.8	0.00e+00	0	43	0	1476395008	8	3862
2026-01-09 14:06:44.26	263.54	22.25	-23.6	-24.2	18.8	0.00e+00	0	43	0	1482686464	8	3848
2026-01-09 14:06:45.27	263.81	22.27	-23.5	-24.0	18.9	0.00e+00	0	43	0	1487929344	8	3801
2026-01-09 14:06:46.28	264.08	22.29	-23.6	-24.1	18.8	0.00e+00	0	42	0	1494220800	8	3833
2026-01-09 14:06:47.29	264.35	22.31	-23.5	-23.9	18.9	3.40e-06	0	43	0	1499463680	8	3781
2026-01-09 14:06:48.29	264.62	22.32	-23.6	-24.1	18.8	0.00e+00	0	43	0	1505755136	8	3839
2026-01-09 14:06:49.30	264.89	22.34	-23.7	-24.5	18.7	0.00e+00	0	42	0	1510998016	8	3923
2026-01-09 14:06:50.30	265.15	22.36	-23.9	-24.9	18.4	2.20e-06	0	43	0	1516240896	8	4019
2026-01-09 14:06:51.30	265.42	22.37	-23.8	-24.6	18.6	0.00e+00	0	42	0	1522532352	8	3942
2026-01-09 14:06:52.29	265.69	22.39	-23.7	-24.5	18.7	0.00e+00	0	42	0	1527775232	8	3925
2026-01-09 14:06:53.30	265.96	22.40	-23.7	-24.4	18.7	0.00e+00	0	43	0	1533018112	8	3892
2026-01-09 14:06:54.31	266.23	22.42	-23.5	-24.0	18.9	0.00e+00	0	43	0	1539309568	8	3815
2026-01-09 14:06:55.32	266.51	22.43	-23.3	-23.5	19.1	0.00e+00	0	42	0	1544552448	8	3702
2026-01-09 14:06:56.32	266.78	22.45	-23.3	-24.2	19.0	0.00e+00	0	43	0	1549795328	7	3953
2026-01-09 14:06:57.33	267.05	22.46	-23.4	-24.2	19.0	0.00e+00	0	42	0	1556086784	7	3964
2026-01-09 14:06:58.33	267.32	22.47	-23.6	-24.6	18.8	0.00e+00	0	43	0	1561329664	7	4075
2026-01-09 14:06:59.34	267.59	22.48	-23.6	-24.7	18.8	5.70e-06	0	43	0	1567621120	7	4080
2026-01-09 14:07:00.35	267.86	22.49	-23.5	-24.5	18.9	0.00e+00	0	43	0	1572864000	7	4036
2026-01-09 14:07:01.35	268.14	22.50	-23.5	-24.4	18.9	0.00e+00	0	43	0	1579155456	7	4015
2026-01-09 14:07:02.36	268.41	22.51	-23.3	-24.0	19.1	0.00e+00	0	42	0	1584398336	7	3922
2026-01-09 14:07:03.37	268.68	22.52	-23.2	-23.8	19.2	0.00e+00	0	43	0	1589641216	7	3861
2026-01-09 14:07:04.38	268.96	22.53	-23.2	-23.9	19.2	0.00e+00	0	42	0	1595932672	7	3885
2026-01-09 14:07:05.38	269.23	22.53	-23.4	-24.2	19.0	0.00e+00	0	42	0	1601175552	7	3968
2026-01-09 14:07:06.39	269.50	22.54	-23.4	-24.3	19.0	0.00e+00	0	42	0	1606418432	7	3986
2026-01-09 14:07:07.39	269.77	22.55	-23.4	-24.4	18.9	0.00e+00	0	42	0	1612709888	7	4007
2026-01-09 14:07:08.40	270.05	22.55	-23.4	-24.3	19.0	0.00e+00	0	43	0	1617952768	7	3986
2026-01-09 14:07:09.40	270.32	22.55	-23.3	-24.2	19.0	0.00e+00	0	43	0	1624244224	7	3964
2026-01-09 14:07:10.41	270.59	22.56	-23.3	-24.1	19.1	0.00e+00	0	43	0	1629487104	7	3943
2026-01-09 14:07:11.42	270.87	22.56	-23.4	-24.2	19.0	0.00e+00	0	43	0	1634729984	7	3964
2026-01-09 14:07:12.43	271.14	22.56	-23.5	-24.6	18.8	0.00e+00	0	43	0	1641021440	7	4053
2026-01-09 14:07:13.43	271.42	22.57	-23.4	-24.3	19.0	0.00e+00	0	43	0	1646264320	7	3988
2026-01-09 14:07:14.43	271.69	22.57	-23.4	-24.2	19.0	0.00e+00	0	43	0	1652555776	7	3953
2026-01-09 14:07:15.44	271.96	22.57	-23.4	-24.3	19.0	0.00e+00	0	42	0	1657798656	7	3977
2026-01-09 14:07:16.45	272.24	22.57	-23.3	-24.1	19.1	0.00e+00	0	43	0	1664090112	7	3929
2026-01-09 14:07:17.46	272.51	22.57	-23.4	-24.2	19.0	0.00e+00	0	43	0	1669332992	7	3968
2026-01-09 14:07:18.46	272.78	22.57	-23.5	-24.4	18.9	0.00e+00	0	43	0	1674575872	7	4017
2026-01-09 14:07:19.47	273.06	22.56	-23.3	-24.1	19.1	0.00e+00	0	43	0	1680867328	7	3940
2026-01-09 14:07:20.47	273.33	22.56	-23.3	-24.1	19.1	0.00e+00	0	43	0	1686110208	7	3933
2026-01-09 14:07:21.48	273.60	22.56	-23.2	-23.9	19.2	0.00e+00	0	43	0	1691353088	7	3887
2026-01-09 14:07:22.49	273.88	22.55	-23.1	-23.7	19.3	0.00e+00	0	43	0	1697644544	7	3843
2026-01-09 14:07:23.49	274.15	22.55	-23.3	-24.1	19.1	0.00e+00	0	42	0	1702887424	7	3939
2026-01-09 14:07:24.51	274.43	22.54	-23.3	-24.0	19.2	0.00e+00	0	43	0	1709178880	7	3908
2026-01-09 14:07:25.51	274.70	22.54	-23.3	-24.1	19.1	0.00e+00	0	42	0	1714421760	7	3934
2026-01-09 14:07:26.52	274.97	22.53	-23.4	-24.3	19.0	0.00e+00	0	43	0	1719664640	7	3996
2026-01-09 14:07:27.53	275.25	22.52	-23.4	-24.3	19.0	0.00e+00	0	43	0	1725956096	7	3994
2026-01-09 14:07:28.54	275.52	22.51	-23.4	-24.3	18.9	0.00e+00	0	43	0	1731198976	7	4001
2026-01-09 14:07:29.55	275.79	22.51	-23.5	-24.4	18.9	0.00e+00	0	42	0	1737490432	7	4024
2026-01-09 14:07:30.55	276.06	22.50	-23.4	-24.3	19.0	0.00e+00	0	43	0	1742733312	7	3987
2026-01-09 14:07:31.56	276.34	22.49	-23.5	-24.4	18.9	0.00e+00	0	42	0	1749024768	7	4026
2026-01-09 14:07:32.57	276.61	22.48	-23.4	-24.3	19.0	0.00e+00	0	43	0	1754267648	7	3990
2026-01-09 14:07:33.57	276.88	22.46	-23.4	-24.2	19.0	0.00e+00	0	43	0	1759510528	7	3964
2026-01-09 14:07:34.58	277.15	22.45	-23.5	-24.4	18.9	0.00e+00	0	43	0	1765801984	7	4023
2026-01-09 14:07:35.59	277.43	22.44	-23.7	-24.9	18.7	0.00e+00	0	43	0	1771044864	7	4132
2026-01-09 14:07:36.59	277.70	22.43	-23.7	-25.0	18.6	0.00e+00	0	43	0	1776287744	7	4151
2026-01-09 14:07:37.60	277.97	22.41	-23.6	-24.8	18.7	0.00e+00	0	43	0	1782579200	7	4104
2026-01-09 14:07:38.60	278.24	22.40	-23.6	-24.8	18.7	0.00e+00	0	43	0	1787822080	7	4111
2026-01-09 14:07:39.62	278.51	22.38	-23.7	-24.9	18.7	0.00e+00	0	43	0	1794113536	7	4141
2026-01-09 14:07:40.61	278.78	22.37	-23.7	-25.0	18.6	0.00e+00	0	43	0	1799356416	7	4155
2026-01-09 14:07:41.62	279.05	22.35	-23.8	-25.1	18.5	0.00e+00	0	43	0	1805647872	7	4193
2026-01-09 14:07:42.62	279.32	22.33	-23.9	-24.8	18.5	0.00e+00	0	43	0	1810890752	8	3989
2026-01-09 14:07:43.63	279.59	22.32	-23.7	-24.5	18.6	0.00e+00	0	42	0	1816133632	8	3919
2026-01-09 14:07:44.64	279.86	22.30	-23.7	-24.3	18.7	0.00e+00	0	42	0	1822425088	8	3885
2026-01-09 14:07:45.64	280.12	22.28	-23.7	-24.5	18.7	0.00e+00	0	43	0	1827667968	8	3917
2026-01-09 14:07:46.65	280.39	22.26	-23.6	-24.3	18.8	0.00e+00	0	43	0	1833959424	8	3875
2026-01-09 14:07:47.66	280.66	22.24	-23.6	-24.2	18.8	0.00e+00	0	43	0	1839202304	8	3853
2026-01-09 14:07:48.67	280.93	22.22	-23.4	-23.9	18.9	0.00e+00	0	42	0	1844445184	8	3786
2026-01-09 14:07:49.67	281.20	22.20	-23.4	-23.8	19.0	0.00e+00	0	42	0	1850736640	8	3759
2026-01-09 14:07:50.67	281.46	22.18	-23.5	-23.9	18.9	0.00e+00	0	43	0	1855979520	8	3795
2026-01-09 14:07:51.68	281.73	22.15	-23.5	-24.0	18.9	0.00e+00	0	43	0	1861222400	8	3806
2026-01-09 14:07:52.68	281.99	22.13	-23.5	-24.1	18.8	0.00e+00	0	43	0	1867513856	8	3826
2026-01-09 14:07:53.69	282.26	22.11	-23.5	-24.0	18.9	0.00e+00	0	43	0	1872756736	8	3816
2026-01-09 14:07:54.69	282.52	22.08	-23.6	-24.1	18.8	0.00e+00	0	43	0	1879048192	8	3833
2026-01-09 14:07:55.69	282.79	22.06	-23.6	-24.1	18.8	0.00e+00	0	43	0	1884291072	8	3838
2026-01-09 14:07:56.70	283.05	22.03	-23.7	-24.4	18.7	0.00e+00	0	43	0	1890582528	8	3914
2026-01-09 14:07:57.71	283.32	22.00	-23.7	-24.4	18.7	0.00e+00	0	43	0	1895825408	8	3915
2026-01-09 14:07:58.71	283.58	21.98	-23.7	-24.3	18.7	0.00e+00	0	43	0	1901068288	8	3887
2026-01-09 14:07:59.71	283.84	21.95	-23.8	-24.6	18.6	0.00e+00	0	43	0	1907359744	8	3959
2026-01-09 14:08:00.72	284.10	21.92	-23.8	-24.7	18.5	0.00e+00	0	43	0	1912602624	8	3969
2026-01-09 14:08:01.73	284.37	21.89	-24.0	-24.9	18.4	0.00e+00	0	43	0	1917845504	8	4035
2026-01-09 14:08:02.74	284.63	21.87	-23.9	-24.9	18.4	0.00e+00	0	43	0	1924136960	8	4023
2026-01-09 14:08:03.75	284.89	21.84	-24.0	-25.0	18.4	0.00e+00	0	42	0	1929379840	8	4055
2026-01-09 14:08:04.76	285.15	21.81	-24.1	-25.2	18.3	0.00e+00	0	43	0	1935671296	8	4098
2026-01-09 14:08:05.76	285.41	21.77	-24.0	-25.1	18.3	0.00e+00	0	43	0	1940914176	8	4086
2026-01-09 14:08:06.75	285.67	21.74	-24.2	-25.5	18.1	0.00e+00	0	43	0	1946157056	8	4171
2026-01-09 14:08:07.77	285.93	21.71	-24.1	-25.3	18.2	0.00e+00	0	43	0	1952448512	8	4121
2026-01-09 14:08:08.77	286.19	21.68	-23.9	-24.7	18.5	0.00e+00	0	42	0	1957691392	8	3985
2026-01-09 14:08:09.77	286.44	21.65	-23.7	-24.4	18.7	0.00e+00	0	43	0	1963982848	8	3897
2026-01-09 14:08:10.77	286.70	21.61	-23.6	-24.2	18.8	0.00e+00	0	42	0	1969225728	8	3863
2026-01-09 14:08:11.78	286.96	21.58	-23.6	-24.1	18.8	0.00e+00	0	42	0	1974468608	8	3841
2026-01-09 14:08:12.80	287.22	21.54	-23.7	-24.4	18.7	0.00e+00	0	43	0	1980760064	8	3898
2026-01-09 14:08:13.80	287.47	21.51	-23.6	-24.3	18.7	0.00e+00	0	43	0	1986002944	8	3880
2026-01-09 14:08:14.81	287.73	21.47	-23.6	-24.3	18.8	0.00e+00	0	42	0	1992294400	8	3874
2026-01-09 14:08:15.82	287.99	21.44	-23.7	-24.4	18.7	0.00e+00	0	42	0	1997537280	8	3901
2026-01-09 14:08:16.83	288.24	21.40	-23.7	-24.4	18.6	0.00e+00	0	42	0	2002780160	8	3918
2026-01-09 14:08:17.83	288.49	21.36	-23.7	-24.3	18.7	0.00e+00	0	43	0	2009071616	8	3896
2026-01-09 14:08:18.84	288.75	21.33	-23.7	-24.4	18.7	0.00e+00	0	43	0	2014314496	8	3895
2026-01-09 14:08:19.84	289.00	21.29	-23.6	-24.2	18.8	0.00e+00	0	43	0	2019557376	8	3857
2026-01-09 14:08:20.84	289.25	21.25	-23.7	-24.4	18.7	0.00e+00	0	43	0	2025848832	8	3899
2026-01-09 14:08:21.85	289.50	21.21	-23.7	-24.5	18.6	0.00e+00	0	43	0	2031091712	8	3918
2026-01-09 14:08:22.85	289.75	21.17	-23.8	-24.6	18.6	0.00e+00	0	43	0	2037383168	8	3943
2026-01-09 14:08:23.85	290.00	21.13	-23.8	-24.6	18.6	0.00e+00	0	43	0	2042626048	8	3943
2026-01-09 14:08:24.86	290.25	21.09	-23.8	-24.7	18.5	0.00e+00	0	42	0	2048917504	8	3978
2026-01-09 14:08:25.86	290.49	21.05	-23.8	-24.6	18.6	0.00e+00	0	43	0	2054160384	8	3951
2026-01-09 14:08:26.87	290.74	21.01	-23.8	-24.6	18.6	0.00e+00	0	43	0	2059403264	8	3948
2026-01-09 14:08:27.88	290.99	20.97	-23.8	-24.7	18.5	0.00e+00	0	43	0	2065694720	8	3969
2026-01-09 14:08:28.89	291.24	20.92	-23.9	-24.9	18.4	0.00e+00	0	42	0	2070937600	8	4018
2026-01-09 14:08:29.89	291.48	20.88	-24.0	-25.1	18.3	0.00e+00	0	43	0	2077229056	8	4073
2026-01-09 14:08:30.90	291.73	20.84	-24.1	-25.3	18.2	0.00e+00	0	43	0	2082471936	8	4118
2026-01-09 14:08:31.91	291.97	20.79	-24.1	-25.3	18.2	0.00e+00	0	43	0	2087714816	8	4130
2026-01-09 14:08:32.92	292.22	20.75	-24.2	-25.5	18.1	0.00e+00	0	42	0	2094006272	8	4171
2026-01-09 14:08:33.92	292.46	20.71	-24.1	-25.3	18.2	0.00e+00	0	42	0	2099249152	8	4131
2026-01-09 14:08:34.93	292.70	20.66	-24.1	-25.2	18.2	0.00e+00	0	43	0	2104492032	8	4108
2026-01-09 14:08:35.93	292.94	20.62	-24.1	-25.3	18.2	0.00e+00	0	43	0	2110783488	8	4135
2026-01-09 14:08:36.94	293.19	20.57	-24.1	-25.2	18.2	0.00e+00	0	43	0	2116026368	8	4099
2026-01-09 14:08:37.94	293.42	20.52	-24.0	-25.1	18.3	0.00e+00	0	43	0	2122317824	8	4076
2026-01-09 14:08:38.94	293.66	20.48	-24.0	-25.1	18.3	0.00e+00	0	42	0	2127560704	8	4071
2026-01-09 14:08:39.94	293.90	20.43	-24.3	-25.6	18.0	0.00e+00	0	43	0	2133852160	8	4211
2026-01-09 14:08:40.95	294.14	20.38	-24.4	-25.8	17.9	0.00e+00	0	43	0	2139095040	8	4259
2026-01-09 14:08:41.95	294.38	20.33	-24.4	-25.9	17.9	0.00e+00	0	43	0	2144337920	8	4271
2026-01-09 14:08:42.95	294.61	20.29	-24.5	-26.1	17.8	0.00e+00	0	43	0	2150629376	8	4319
2026-01-09 14:08:43.95	294.84	20.24	-24.5	-25.7	17.7	0.00e+00	0	42	0	2155872256	9	4110
2026-01-09 14:08:44.96	295.08	20.19	-24.6	-25.9	17.6	0.00e+00	0	42	0	2161115136	9	4160
2026-01-09 14:08:45.96	295.31	20.14	-24.7	-26.1	17.5	1.10e-06	0	42	0	2167406592	9	4209
2026-01-09 14:08:46.97	295.55	20.09	-24.5	-25.7	17.7	0.00e+00	0	43	0	2172649472	9	4106
2026-01-09 14:08:47.97	295.78	20.04	-24.7	-26.1	17.5	0.00e+00	0	43	0	2177892352	9	4206
2026-01-09 14:08:48.98	296.01	19.99	-24.7	-26.0	17.6	0.00e+00	0	42	0	2184183808	9	4190
2026-01-09 14:08:49.99	296.25	19.94	-25.0	-26.2	17.2	0.00e+00	0	42	0	2189426688	10	4134
2026-01-09 14:08:50.99	296.48	19.89	-24.7	-25.5	17.5	0.00e+00	0	43	0	2195718144	10	3964
2026-01-09 14:08:52.00	296.71	19.84	-24.3	-24.8	18.0	0.00e+00	0	43	0	2200961024	10	3779
2026-01-09 14:08:53.01	296.94	19.78	-24.2	-25.0	18.1	0.00e+00	0	43	0	2207252480	9	3929
2026-01-09 14:08:54.02	297.17	19.73	-24.3	-25.2	18.0	0.00e+00	0	43	0	2212495360	9	4000
2026-01-09 14:08:55.02	297.39	19.68	-24.6	-25.9	17.6	0.00e+00	0	42	0	2217738240	9	4162
2026-01-09 14:08:56.02	297.62	19.63	-24.4	-25.4	17.9	0.00e+00	0	43	0	2224029696	9	4023
2026-01-09 14:08:57.02	297.84	19.57	-24.5	-25.7	17.7	0.00e+00	0	42	0	2229272576	9	4105
2026-01-09 14:08:58.03	298.07	19.52	-24.5	-25.5	17.8	0.00e+00	0	43	0	2234515456	9	4072
2026-01-09 14:08:59.03	298.29	19.47	-24.5	-25.6	17.8	0.00e+00	0	43	0	2240806912	9	4091
2026-01-09 14:09:00.04	298.52	19.41	-24.6	-25.9	17.6	0.00e+00	0	43	0	2246049792	9	4161
2026-01-09 14:09:01.05	298.74	19.36	-24.5	-25.6	17.8	1.10e-06	0	42	0	2252341248	9	4098
2026-01-09 14:09:02.06	298.96	19.30	-24.6	-25.8	17.6	0.00e+00	0	43	0	2257584128	9	4154
2026-01-09 14:09:03.07	299.19	19.25	-24.7	-26.1	17.5	0.00e+00	0	43	0	2262827008	9	4223
2026-01-09 14:09:04.07	299.41	19.19	-24.7	-26.0	17.6	0.00e+00	0	43	0	2269118464	9	4188
2026-01-09 14:09:05.08	299.63	19.14	-24.7	-26.0	17.6	0.00e+00	0	43	0	2274361344	9	4188
2026-01-09 14:09:06.09	299.85	19.08	-24.7	-25.9	17.6	0.00e+00	0	43	0	2280652800	9	4175
2026-01-09 14:09:07.09	300.06	19.02	-24.8	-26.3	17.4	2.20e-06	0	42	0	2285895680	9	4278
2026-01-09 14:09:08.10	300.28	18.97	-24.6	-25.9	17.6	0.00e+00	0	43	0	2292187136	9	4157
2026-01-09 14:09:09.11	300.50	18.91	-24.4	-25.4	17.8	0.00e+00	0	42	0	2297430016	9	4051
2026-01-09 14:09:10.11	300.71	18.85	-24.4	-25.4	17.9	1.10e-06	0	43	0	2302672896	9	4033
2026-01-09 14:09:11.11	300.93	18.80	-24.3	-25.2	17.9	0.00e+00	0	43	0	2308964352	9	3988
2026-01-09 14:09:12.12	301.14	18.74	-24.3	-25.2	17.9	0.00e+00	0	42	0	2314207232	9	4003
2026-01-09 14:09:13.12	301.35	18.68	-24.5	-25.6	17.8	0.00e+00	0	43	0	2319450112	9	4081
2026-01-09 14:09:14.13	301.57	18.62	-24.8	-26.2	17.4	0.00e+00	0	43	0	2325741568	9	4237
2026-01-09 14:09:15.13	301.78	18.57	-24.8	-26.2	17.4	0.00e+00	0	43	0	2330984448	9	4243
2026-01-09 14:09:16.14	301.99	18.51	-24.9	-26.6	17.3	1.10e-06	0	43	0	2336227328	9	4337
2026-01-09 14:09:17.15	302.20	18.45	-24.9	-26.4	17.3	0.00e+00	0	43	0	2342518784	9	4286
2026-01-09 14:09:18.16	302.41	18.39	-24.9	-26.5	17.3	0.00e+00	0	43	0	2347761664	9	4313
2026-01-09 14:09:19.16	302.62	18.33	-25.2	-26.7	16.9	0.00e+00	0	43	0	2354053120	10	4258
2026-01-09 14:09:20.17	302.83	18.27	-25.0	-26.2	17.2	0.00e+00	0	43	0	2359296000	10	4127
2026-01-09 14:09:21.17	303.03	18.21	-25.0	-26.1	17.2	0.00e+00	0	43	0	2365587456	10	4111
2026-01-09 14:09:22.18	303.24	18.15	-24.9	-25.9	17.3	0.00e+00	0	43	0	2370830336	10	4043
2026-01-09 14:09:23.19	303.45	18.09	-24.7	-25.5	17.5	0.00e+00	0	43	0	2376073216	10	3963
2026-01-09 14:09:24.20	303.65	18.03	-24.8	-25.8	17.4	0.00e+00	0	43	0	2382364672	10	4023
2026-01-09 14:09:25.20	303.86	17.97	-24.9	-25.9	17.3	0.00e+00	0	43	0	2387607552	10	4046
2026-01-09 14:09:26.20	304.06	17.91	-24.7	-25.5	17.5	0.00e+00	0	42	0	2393899008	10	3943
2026-01-09 14:09:27.21	304.26	17.85	-24.7	-25.4	17.6	0.00e+00	0	42	0	2399141888	10	3933
2026-01-09 14:09:28.22	304.46	17.79	-24.7	-25.6	17.5	0.00e+00	0	42	0	2404384768	10	3977
2026-01-09 14:09:29.22	304.66	17.73	-24.5	-25.2	17.7	0.00e+00	0	43	0	2410676224	10	3882
2026-01-09 14:09:30.23	304.86	17.66	-24.6	-25.4	17.6	0.00e+00	0	43	0	2415919104	10	3921
2026-01-09 14:09:31.23	305.06	17.60	-24.8	-25.7	17.4	0.00e+00	0	43	0	2421161984	10	4008
2026-01-09 14:09:32.24	305.26	17.54	-24.5	-25.2	17.7	0.00e+00	0	43	0	2427453440	10	3879
2026-01-09 14:09:33.24	305.46	17.48	-24.7	-25.5	17.5	0.00e+00	0	43	0	2432696320	10	3965
2026-01-09 14:09:34.24	305.65	17.42	-24.7	-25.5	17.5	0.00e+00	0	43	0	2438987776	10	3948
2026-01-09 14:09:35.25	305.85	17.36	-24.8	-25.7	17.4	0.00e+00	0	43	0	2444230656	10	4006
2026-01-09 14:09:36.25	306.04	17.29	-24.8	-25.8	17.4	0.00e+00	0	43	0	2450522112	10	4032
2026-01-09 14:09:37.25	306.24	17.23	-24.9	-26.0	17.3	0.00e+00	0	43	0	2455764992	10	4082
2026-01-09 14:09:38.26	306.43	17.17	-25.0	-26.1	17.2	0.00e+00	0	43	0	2461007872	10	4102
2026-01-09 14:09:39.27	306.63	17.11	-25.1	-26.5	17.0	0.00e+00	0	43	0	2467299328	10	4213
2026-01-09 14:09:40.27	306.82	17.04	-25.3	-26.8	16.8	0.00e+00	0	42	0	2472542208	10	4299
2026-01-09 14:09:41.27	307.01	16.98	-25.2	-26.7	16.9	0.00e+00	0	43	0	2477785088	10	4264
2026-01-09 14:09:42.28	307.20	16.92	-25.4	-27.0	16.7	0.00e+00	0	43	0	2484076544	10	4339
2026-01-09 14:09:43.29	307.39	16.85	-25.4	-27.0	16.7	0.00e+00	0	43	0	2489319424	10	4329
2026-01-09 14:09:44.30	307.58	16.79	-25.5	-26.7	16.6	0.00e+00	0	42	0	2495610880	11	4157
2026-01-09 14:09:45.30	307.77	16.73	-25.4	-26.6	16.6	0.00e+00	0	43	0	2500853760	11	4121
2026-01-09 14:09:46.31	307.95	16.66	-25.5	-26.7	16.6	0.00e+00	0	43	0	2506096640	11	4158
2026-01-09 14:09:47.32	308.14	16.60	-25.4	-26.6	16.7	0.00e+00	0	43	0	2512388096	11	4125
2026-01-09 14:09:48.31	308.32	16.53	-25.4	-26.5	16.7	0.00e+00	0	43	0	2517630976	11	4101
2026-01-09 14:09:49.32	308.51	16.47	-25.4	-26.5	16.7	0.00e+00	0	43	0	2523922432	11	4100
2026-01-09 14:09:50.32	308.69	16.41	-25.2	-26.2	16.9	0.00e+00	0	42	0	2529165312	11	4012
2026-01-09 14:09:51.32	308.88	16.34	-25.2	-26.2	16.9	0.00e+00	0	43	0	2534408192	11	4022
2026-01-09 14:09:52.33	309.06	16.28	-25.3	-26.4	16.8	0.00e+00	0	43	0	2540699648	11	4079
2026-01-09 14:09:53.33	309.24	16.21	-25.4	-26.5	16.7	0.00e+00	0	43	0	2545942528	11	4093
2026-01-09 14:09:54.34	309.42	16.15	-25.2	-26.2	16.8	0.00e+00	0	43	0	2551185408	11	4033
2026-01-09 14:09:55.35	309.60	16.08	-25.2	-26.2	16.9	0.00e+00	0	42	0	2557476864	11	4024
2026-01-09 14:09:56.35	309.78	16.02	-25.3	-26.4	16.8	0.00e+00	0	43	0	2562719744	11	4070
2026-01-09 14:09:57.36	309.96	15.95	-25.3	-26.4	16.8	0.00e+00	0	43	0	2569011200	11	4063
2026-01-09 14:09:58.37	310.14	15.89	-25.3	-26.2	16.8	0.00e+00	0	43	0	2574254080	11	4035
2026-01-09 14:09:59.37	310.32	15.82	-25.3	-26.4	16.7	0.00e+00	0	43	0	2579496960	11	4079
2026-01-09 14:10:00.38	310.50	15.76	-25.1	-25.9	17.0	0.00e+00	0	42	0	2585788416	11	3957
2026-01-09 14:10:01.39	310.67	15.69	-25.0	-25.7	17.1	0.00e+00	0	43	0	2591031296	11	3908
2026-01-09 14:10:02.39	310.85	15.63	-25.1	-25.9	17.0	0.00e+00	0	43	0	2597322752	11	3948
2026-01-09 14:10:03.40	311.02	15.56	-25.2	-26.0	16.9	0.00e+00	0	43	0	2602565632	11	3983
2026-01-09 14:10:04.41	311.20	15.50	-25.2	-26.1	16.9	0.00e+00	0	43	0	2608857088	11	3986
2026-01-09 14:10:05.42	311.37	15.43	-25.3	-26.4	16.7	0.00e+00	0	43	0	2614099968	11	4069
2026-01-09 14:10:06.42	311.54	15.37	-25.5	-26.8	16.5	0.00e+00	0	42	0	2619342848	11	4163
2026-01-09 14:10:07.42	311.71	15.30	-25.4	-26.5	16.7	0.00e+00	0	43	0	2625634304	11	4097
2026-01-09 14:10:08.43	311.88	15.23	-25.4	-26.5	16.7	0.00e+00	0	42	0	2630877184	11	4094
2026-01-09 14:10:09.43	312.05	15.17	-25.4	-26.6	16.6	0.00e+00	0	43	0	2636120064	11	4129
2026-01-09 14:10:10.43	312.22	15.10	-25.4	-26.6	16.6	0.00e+00	0	42	0	2642411520	11	4115
2026-01-09 14:10:11.43	312.39	15.04	-25.5	-26.7	16.5	0.00e+00	0	42	0	2647654400	11	4151
2026-01-09 14:10:12.44	312.56	14.97	-25.4	-26.6	16.6	0.00e+00	0	42	0	2652897280	11	4138
2026-01-09 14:10:13.45	312.72	14.91	-25.5	-26.7	16.5	0.00e+00	0	43	0	2659188736	11	4153
2026-01-09 14:10:14.45	312.89	14.84	-25.5	-26.7	16.5	0.00e+00	0	42	0	2664431616	11	4154
2026-01-09 14:10:15.46	313.06	14.77	-25.7	-27.3	16.3	0.00e+00	0	42	0	2670723072	11	4306
2026-01-09 14:10:16.46	313.22	14.71	-25.7	-27.2	16.3	0.00e+00	0	43	0	2675965952	11	4282
2026-01-09 14:10:17.46	313.38	14.64	-25.7	-27.2	16.3	0.00e+00	0	42	0	2682257408	11	4286
2026-01-09 14:10:18.46	313.55	14.58	-25.8	-27.5	16.1	0.00e+00	0	42	0	2687500288	11	4358
2026-01-09 14:10:19.48	313.71	14.51	-25.8	-27.4	16.1	0.00e+00	0	42	0	2692743168	11	4343
2026-01-09 14:10:20.48	313.87	14.44	-26.0	-27.8	15.9	0.00e+00	0	42	0	2699034624	11	4448
2026-01-09 14:10:21.48	314.03	14.38	-26.0	-27.4	15.8	0.00e+00	0	43	0	2704277504	12	4229
2026-01-09 14:10:22.49	314.19	14.31	-26.1	-27.6	15.7	0.00e+00	0	43	0	2710568960	12	4286
2026-01-09 14:10:23.50	314.36	14.25	-26.1	-27.6	15.7	0.00e+00	0	43	0	2715811840	12	4275
2026-01-09 14:10:24.50	314.51	14.18	-25.8	-27.0	16.0	0.00e+00	0	42	0	2721054720	12	4117
2026-01-09 14:10:25.51	314.67	14.11	-25.8	-27.0	16.0	0.00e+00	0	42	0	2727346176	12	4120
2026-01-09 14:10:26.52	314.83	14.05	-25.8	-27.0	16.0	0.00e+00	0	42	0	2732589056	12	4121
2026-01-09 14:10:27.52	314.99	13.98	-25.8	-27.0	16.0	0.00e+00	0	43	0	2737831936	12	4133
2026-01-09 14:10:28.52	315.14	13.91	-25.7	-26.6	16.2	0.00e+00	0	43	0	2744123392	12	4032
2026-01-09 14:10:29.53	315.30	13.85	-25.7	-26.8	16.2	0.00e+00	0	43	0	2749366272	12	4059
2026-01-09 14:10:30.54	315.46	13.78	-25.8	-26.9	16.0	0.00e+00	0	43	0	2755657728	12	4094
2026-01-09 14:10:31.55	315.61	13.71	-25.6	-26.6	16.2	0.00e+00	0	43	0	2760900608	12	4022
2026-01-09 14:10:32.55	315.77	13.65	-25.5	-26.4	16.3	0.00e+00	0	43	0	2767192064	12	3970
2026-01-09 14:10:33.56	315.92	13.58	-25.6	-26.6	16.2	0.00e+00	0	43	0	2772434944	12	4017
2026-01-09 14:10:34.56	316.07	13.52	-25.6	-26.6	16.1	0.00e+00	0	43	0	2777677824	12	4033
2026-01-09 14:10:35.57	316.22	13.45	-25.6	-26.5	16.2	0.00e+00	0	43	0	2783969280	12	4001
2026-01-09 14:10:36.57	316.37	13.38	-25.7	-26.7	16.1	0.00e+00	0	42	0	2789212160	12	4053
2026-01-09 14:10:37.58	316.53	13.32	-25.5	-26.3	16.3	0.00e+00	0	43	0	2794455040	12	3941
2026-01-09 14:10:38.59	316.68	13.25	-25.6	-26.6	16.2	0.00e+00	0	43	0	2800746496	12	4023
2026-01-09 14:10:39.60	316.83	13.18	-25.7	-26.6	16.1	0.00e+00	0	43	0	2805989376	12	4036
2026-01-09 14:10:40.61	316.98	13.12	-25.7	-26.8	16.1	0.00e+00	0	43	0	2812280832	12	4062
2026-01-09 14:10:41.62	317.12	13.05	-25.8	-26.9	16.0	0.00e+00	0	42	0	2817523712	12	4094
2026-01-09 14:10:42.63	317.27	12.98	-25.6	-26.6	16.1	0.00e+00	0	42	0	2822766592	12	4027
2026-01-09 14:10:43.63	317.42	12.92	-25.8	-26.9	16.0	0.00e+00	0	43	0	2829058048	12	4108
2026-01-09 14:10:44.64	317.56	12.85	-25.8	-27.0	16.0	0.00e+00	0	42	0	2834300928	12	4122
2026-01-09 14:10:45.64	317.71	12.78	-25.6	-26.6	16.1	0.00e+00	0	43	0	2840592384	12	4015
2026-01-09 14:10:46.65	317.85	12.72	-25.8	-26.9	16.0	0.00e+00	0	43	0	2845835264	12	4094
2026-01-09 14:10:47.66	318.00	12.65	-25.8	-26.9	16.0	0.00e+00	0	43	0	2852126720	12	4105
2026-01-09 14:10:48.65	318.14	12.59	-25.7	-26.8	16.0	0.00e+00	0	43	0	2857369600	12	4084
2026-01-09 14:10:49.66	318.28	12.52	-25.8	-27.2	15.8	0.00e+00	0	43	0	2862612480	12	4196
2026-01-09 14:10:50.67	318.43	12.45	-25.8	-27.2	15.7	0.00e+00	0	42	0	2868903936	12	4209
2026-01-09 14:10:51.67	318.57	12.39	-25.9	-27.2	15.7	0.00e+00	0	43	0	2874146816	12	4221
2026-01-09 14:10:52.68	318.71	12.32	-26.0	-27.5	15.6	0.00e+00	0	43	0	2879389696	12	4258
2026-01-09 14:10:53.69	318.85	12.25	-26.1	-27.7	15.5	0.00e+00	0	43	0	2885681152	12	4305
2026-01-09 14:10:54.69	318.99	12.19	-26.2	-28.0	15.4	1.10e-06	0	43	0	2890924032	12	4387
2026-01-09 14:10:55.70	319.13	12.12	-26.2	-27.9	15.4	0.00e+00	0	42	0	2897215488	12	4386
2026-01-09 14:10:56.70	319.27	12.06	-26.2	-27.9	15.4	0.00e+00	0	43	0	2902458368	12	4364
2026-01-09 14:10:57.71	319.41	11.99	-26.0	-27.4	15.7	1.10e-06	0	43	0	2907701248	12	4241
2026-01-09 14:10:58.72	319.54	11.92	-26.1	-27.6	15.6	0.00e+00	0	43	0	2913992704	12	4285
2026-01-09 14:10:59.72	319.68	11.86	-26.1	-27.6	15.6	0.00e+00	0	43	0	2919235584	12	4274
2026-01-09 14:11:00.73	319.82	11.79	-26.2	-27.8	15.6	0.00e+00	0	42	0	2925527040	12	4327
2026-01-09 14:11:01.73	319.95	11.73	-26.0	-27.4	15.8	0.00e+00	0	43	0	2930769920	12	4226
2026-01-09 14:11:02.74	320.09	11.66	-25.9	-27.2	15.9	0.00e+00	0	43	0	2936012800	12	4170
2026-01-09 14:11:03.75	320.22	11.60	-26.3	-28.0	15.5	0.00e+00	0	43	0	2942304256	12	4390
2026-01-09 14:11:04.76	320.36	11.53	-26.1	-27.7	15.7	0.00e+00	0	43	0	2947547136	12	4297
2026-01-09 14:11:05.77	320.49	11.46	-26.1	-27.5	15.8	0.00e+00	0	43	0	2953838592	12	4263
2026-01-09 14:11:06.77	320.62	11.40	-26.4	-28.2	15.3	0.00e+00	0	43	0	2959081472	12	4451
2026-01-09 14:11:07.78	320.76	11.33	-26.3	-28.1	15.4	0.00e+00	0	43	0	2964324352	12	4431
2026-01-09 14:11:08.78	320.89	11.27	-26.3	-28.1	15.4	0.00e+00	0	43	0	2970615808	12	4423
2026-01-09 14:11:09.78	321.02	11.20	-26.4	-28.2	15.3	0.00e+00	0	43	0	2975858688	12	4449
2026-01-09 14:11:10.79	321.15	11.14	-26.5	-28.1	15.1	0.00e+00	0	43	0	2981101568	13	4298
2026-01-09 14:11:11.80	321.28	11.07	-26.7	-28.5	14.9	0.00e+00	0	43	0	2987393024	13	4432
2026-01-09 14:11:12.81	321.41	11.01	-26.6	-28.3	15.0	0.00e+00	0	43	0	2992635904	13	4367
2026-01-09 14:11:13.81	321.54	10.94	-26.5	-28.1	15.0	0.00e+00	0	43	0	2998927360	13	4322
2026-01-09 14:11:14.82	321.67	10.87	-26.7	-28.4	14.9	0.00e+00	0	43	0	3004170240	13	4384
2026-01-09 14:11:15.82	321.79	10.81	-27.0	-28.5	14.5	0.00e+00	0	43	0	3010461696	14	4326
2026-01-09 14:11:16.83	321.92	10.74	-26.5	-27.6	15.1	0.00e+00	0	43	0	3015704576	14	4064
2026-01-09 14:11:17.83	322.05	10.68	-26.8	-28.3	14.7	1.10e-06	0	43	0	3020947456	14	4244
2026-01-09 14:11:18.84	322.17	10.61	-26.8	-28.2	14.7	0.00e+00	0	43	0	3027238912	14	4253
2026-01-09 14:11:19.85	322.30	10.55	-26.8	-28.3	14.7	0.00e+00	0	43	0	3032481792	14	4246
2026-01-09 14:11:20.86	322.43	10.48	-27.1	-28.9	14.3	1.10e-06	0	43	0	3038773248	14	4435
2026-01-09 14:11:21.86	322.55	10.42	-27.0	-28.6	14.4	1.10e-06	0	43	0	3044016128	14	4341
2026-01-09 14:11:22.86	322.67	10.35	-27.0	-28.7	14.4	1.10e-06	0	43	0	3049259008	14	4391
2026-01-09 14:11:23.86	322.80	10.29	-26.9	-28.6	14.5	0.00e+00	0	43	0	3055550464	14	4340
2026-01-09 14:11:24.87	322.92	10.23	-27.1	-28.9	14.3	3.40e-06	0	43	0	3060793344	14	4410
2026-01-09 14:11:25.88	323.04	10.16	-27.1	-28.9	14.3	2.20e-06	0	43	0	3066036224	14	4421
2026-01-09 14:11:26.88	323.16	10.10	-27.1	-29.0	14.2	2.20e-06	0	43	0	3072327680	14	4460
2026-01-09 14:11:27.89	323.29	10.03	-27.1	-28.8	14.3	0.00e+00	0	43	0	3077570560	14	4398
2026-01-09 14:11:28.89	323.41	9.97	-27.1	-29.0	14.2	1.10e-06	0	43	0	3083862016	14	4460
2026-01-09 14:11:29.90	323.53	9.90	-27.2	-29.2	14.0	5.70e-06	0	43	0	3089104896	14	4520
2026-01-09 14:11:30.91	323.65	9.84	-27.6	-29.7	13.5	1.02e-05	0	43	0	3095396352	15	4558
2026-01-09 14:11:31.91	323.77	9.77	-27.3	-28.9	13.9	9.10e-06	0	43	0	3100639232	15	4318
2026-01-09 14:11:32.92	323.88	9.71	-27.0	-28.1	14.4	1.10e-06	0	43	0	3105882112	15	4094
2026-01-09 14:11:33.93	324.00	9.64	-26.8	-28.1	14.7	1.10e-06	0	42	0	3112173568	14	4209
2026-01-09 14:11:34.94	324.12	9.58	-26.7	-28.0	14.7	0.00e+00	0	43	0	3117416448	14	4188
2026-01-09 14:11:35.95	324.24	9.52	-26.9	-28.5	14.4	1.10e-06	0	43	0	3123707904	14	4323
2026-01-09 14:11:36.95	324.36	9.45	-26.8	-28.3	14.5	0.00e+00	0	43	0	3128950784	14	4264
2026-01-09 14:11:37.96	324.47	9.39	-27.0	-28.6	14.3	1.10e-06	0	43	0	3134193664	14	4358
2026-01-09 14:11:38.97	324.59	9.32	-26.8	-28.3	14.5	1.10e-06	0	43	0	3140485120	14	4260
2026-01-09 14:11:39.97	324.70	9.26	-26.8	-28.2	14.5	1.10e-06	0	43	0	3145728000	14	4239
2026-01-09 14:11:40.98	324.82	9.20	-27.0	-28.6	14.3	2.20e-06	0	43	0	3150970880	14	4348
2026-01-09 14:11:41.98	324.93	9.13	-26.9	-28.4	14.4	3.40e-06	0	43	0	3157262336	14	4281
2026-01-09 14:11:42.99	325.05	9.07	-27.1	-29.0	14.1	2.20e-06	0	43	0	3162505216	14	4448
2026-01-09 14:11:43.99	325.16	9.01	-27.0	-28.6	14.3	2.20e-06	0	42	0	3168796672	14	4344
2026-01-09 14:11:45.00	325.27	8.94	-27.4	-29.5	13.7	5.70e-06	0	43	0	3174039552	14	4607
2026-01-09 14:11:46.01	325.39	8.88	-27.1	-28.8	14.1	2.20e-06	0	42	0	3180331008	14	4412
2026-01-09 14:11:47.02	325.50	8.82	-26.8	-28.3	14.4	1.10e-06	0	43	0	3185573888	14	4268
2026-01-09 14:11:48.03	325.61	8.75	-26.9	-28.4	14.4	0.00e+00	0	43	0	3190816768	14	4300
2026-01-09 14:11:49.03	325.72	8.69	-27.0	-28.8	14.1	1.10e-06	0	43	0	3197108224	14	4414
2026-01-09 14:11:50.04	325.83	8.63	-27.1	-29.1	14.0	2.20e-06	0	43	0	3202351104	14	4487
2026-01-09 14:11:51.05	325.94	8.56	-27.1	-29.1	14.0	3.40e-06	0	43	0	3208642560	14	4494
2026-01-09 14:11:52.05	326.05	8.50	-27.2	-29.2	13.9	5.70e-06	0	43	0	3213885440	14	4520
2026-01-09 14:11:53.06	326.16	8.44	-27.2	-29.1	13.9	6.80e-06	0	42	0	3219128320	14	4506
2026-01-09 14:11:54.07	326.27	8.37	-27.3	-29.3	13.8	6.80e-06	0	43	0	3225419776	14	4568
2026-01-09 14:11:55.08	326.38	8.31	-27.1	-29.0	14.0	1.10e-06	0	43	0	3230662656	14	4474
2026-01-09 14:11:56.08	326.49	8.25	-27.2	-29.1	13.9	2.20e-06	0	43	0	3235905536	14	4516
2026-01-09 14:11:57.09	326.60	8.19	-27.2	-29.2	13.9	5.70e-06	0	43	0	3242196992	14	4531
2026-01-09 14:11:58.10	326.70	8.12	-27.2	-29.1	13.9	3.40e-06	0	43	0	3247439872	14	4497
2026-01-09 14:11:59.11	326.81	8.06	-27.3	-29.4	13.7	1.14e-05	0	43	0	3253731328	14	4570
2026-01-09 14:12:00.12	326.92	8.00	-27.0	-28.7	14.1	5.70e-06	0	43	0	3258974208	14	4392
2026-01-09 14:12:01.13	327.02	7.93	-26.8	-28.3	14.3	1.10e-06	0	43	0	3265265664	14	4280
2026-01-09 14:12:02.13	327.13	7.87	-26.8	-28.2	14.4	3.40e-06	0	43	0	3270508544	14	4235
2026-01-09 14:12:03.14	327.23	7.81	-26.8	-28.3	14.4	1.10e-06	0	43	0	3275751424	14	4267
2026-01-09 14:12:04.15	327.34	7.75	-26.9	-28.5	14.3	3.40e-06	0	42	0	3282042880	14	4313
2026-01-09 14:12:05.16	327.44	7.69	-26.8	-28.2	14.4	0.00e+00	0	43	0	3287285760	14	4238
2026-01-09 14:12:06.17	327.55	7.62	-26.9	-28.5	14.2	3.40e-06	0	43	0	3293577216	14	4322
2026-01-09 14:12:07.18	327.65	7.56	-26.9	-28.5	14.3	2.20e-06	0	43	0	3298820096	14	4324
2026-01-09 14:12:08.19	327.75	7.50	-27.0	-28.7	14.1	5.70e-06	0	43	0	3304062976	14	4371
2026-01-09 14:12:09.19	327.86	7.44	-27.0	-28.7	14.1	3.40e-06	0	43	0	3310354432	14	4386
2026-01-09 14:12:10.19	327.96	7.38	-27.1	-29.1	13.9	5.70e-06	0	43	0	3315597312	14	4491
2026-01-09 14:12:11.20	328.06	7.31	-27.2	-29.1	13.9	4.50e-06	0	42	0	3321888768	14	4505
2026-01-09 14:12:12.21	328.16	7.25	-27.1	-29.1	13.9	6.80e-06	0	43	0	3327131648	14	4487
2026-01-09 14:12:13.22	328.26	7.19	-27.3	-29.3	13.7	1.83e-05	0	43	0	3332374528	14	4565
2026-01-09 14:12:14.22	328.36	7.13	-27.2	-29.3	13.7	1.14e-05	0	43	0	3338665984	14	4561
2026-01-09 14:12:15.23	328.46	7.07	-27.9	-30.4	12.8	2.74e-05	0	43	0	3343908864	15	4810
2026-01-09 14:12:16.24	328.56	7.01	-33.2	-44.4	3.8	8.46e-01	0	43	104	3344957440	26	13073

#Closed at: 2026-01-09 14:12:17
#Recorded file [3344 MB]: D:/data/31010_260109_170220.dat