passes_logs/2026/01/09/R2M6_AANII_01/R2M6_AANII_01__20260109_040809_FENGYUN_3D_rec.log

#Pass ID: 20260109_040809_FENGYUN 3D
#Satellite: FENGYUN 3D
#Configuration: FENGYUN 3D
#almurnet v.1.7.20240730
#Start time: 2026-01-09 04:08:09

#Version: 2.2.20231116
#Station: R2M6_AANII_01
#Location: 30.233357 lon 59.946436 lat
#TLE: 1 43010U 17072A   26008.51967461  .00000013  00000+0  27718-4 0  9992
#TLE: 2 43010  98.9935 340.2353 0002115 119.1573 240.9815 14.19693759422336

#Time	Az	El	Level	Level2	SNR	BER	BlckErr	Temp	State	Recorded	gain1	gain2
2026-01-09 04:08:09.67	11.66	6.98	-30.7	-35.1	5.0	8.02e-01	0	40	0	0	21	5979
2026-01-09 04:08:10.67	11.58	7.05	-30.0	-33.5	5.2	7.87e-01	0	40	104	0	20	5365
2026-01-09 04:08:11.67	11.50	7.11	-29.9	-33.2	9.2	2.52e-02	0	41	0	0	20	5238
2026-01-09 04:08:12.68	11.42	7.18	-30.0	-33.8	9.2	2.24e-02	0	40	0	5242880	19	5564
2026-01-09 04:08:13.68	11.33	7.25	-29.3	-32.4	9.0	2.28e-02	0	41	0	11534336	20	5152
2026-01-09 04:08:14.69	11.25	7.31	-29.3	-32.7	9.0	2.65e-02	0	41	0	16777216	20	5350
2026-01-09 04:08:15.69	11.17	7.38	-29.9	-33.5	8.4	2.64e-02	0	41	0	22020096	19	5471
2026-01-09 04:08:16.69	11.08	7.45	-30.6	-34.3	8.1	2.69e-02	0	41	0	28311552	20	5495
2026-01-09 04:08:17.70	11.00	7.52	-30.0	-33.2	9.1	3.26e-02	0	41	0	33554432	20	5258
2026-01-09 04:08:18.70	10.91	7.58	-29.4	-32.6	10.1	8.71e-03	0	41	0	38797312	18	5220
2026-01-09 04:08:19.71	10.83	7.65	-28.9	-31.9	11.1	2.25e-03	0	41	0	45088768	17	5065
2026-01-09 04:08:20.71	10.74	7.72	-28.4	-31.1	12.0	9.55e-04	0	41	0	50331648	16	4915
2026-01-09 04:08:21.71	10.66	7.79	-28.1	-30.3	12.6	3.48e-04	0	41	0	55574528	16	4628
2026-01-09 04:08:22.72	10.57	7.86	-27.7	-29.8	13.0	2.30e-03	0	41	0	61865984	15	4618
2026-01-09 04:08:23.73	10.48	7.92	-27.4	-29.7	13.4	1.85e-04	0	41	0	67108864	14	4686
2026-01-09 04:08:24.74	10.40	7.99	-27.2	-29.3	13.6	1.86e-04	0	41	0	73400320	14	4568
2026-01-09 04:08:25.75	10.31	8.06	-27.0	-28.9	13.9	1.80e-03	0	41	0	78643200	14	4440
2026-01-09 04:08:26.75	10.22	8.13	-27.1	-29.0	13.8	2.05e-04	0	41	0	84934656	14	4480
2026-01-09 04:08:27.76	10.13	8.20	-27.1	-29.0	13.8	1.94e-03	0	41	0	90177536	14	4468
2026-01-09 04:08:28.77	10.04	8.27	-27.0	-29.2	14.0	6.80e-06	0	41	0	96468992	13	4656
2026-01-09 04:08:29.78	9.95	8.34	-27.0	-29.1	14.0	2.54e-04	0	41	0	101711872	13	4627
2026-01-09 04:08:30.79	9.86	8.41	-26.9	-29.1	14.1	1.43e-03	0	41	0	106954752	13	4622
2026-01-09 04:08:31.80	9.77	8.48	-27.0	-29.2	14.0	1.56e-03	0	41	0	113246208	13	4657
2026-01-09 04:08:32.80	9.68	8.55	-27.3	-29.4	13.7	1.81e-04	0	41	0	118489088	14	4599
2026-01-09 04:08:33.81	9.59	8.62	-27.1	-29.0	13.9	1.82e-04	0	41	0	123731968	14	4459
2026-01-09 04:08:34.82	9.49	8.69	-26.8	-28.8	14.3	1.71e-03	0	41	0	130023424	13	4535
2026-01-09 04:08:35.83	9.40	8.76	-26.8	-28.7	14.3	1.72e-04	0	41	0	135266304	13	4503
2026-01-09 04:08:36.83	9.31	8.83	-27.0	-28.7	14.0	1.74e-03	0	41	0	141557760	14	4393
2026-01-09 04:08:37.84	9.22	8.90	-27.7	-29.8	13.1	1.90e-03	0	41	0	146800640	15	4610
2026-01-09 04:08:38.84	9.12	8.97	-27.3	-28.9	13.6	2.48e-04	0	41	0	152043520	15	4330
2026-01-09 04:08:39.85	9.03	9.04	-26.8	-28.9	14.2	1.77e-03	0	41	0	158334976	13	4543
2026-01-09 04:08:40.86	8.93	9.11	-27.2	-29.2	13.8	2.07e-03	0	42	0	163577856	14	4535
2026-01-09 04:08:41.87	8.84	9.18	-27.1	-29.0	13.9	2.40e-04	0	41	0	169869312	14	4463
2026-01-09 04:08:42.87	8.74	9.25	-27.4	-29.6	13.6	1.25e-05	0	41	0	175112192	14	4634
2026-01-09 04:08:43.88	8.65	9.32	-27.1	-29.0	13.9	2.01e-03	0	41	0	181403648	14	4484
2026-01-09 04:08:44.89	8.55	9.39	-27.2	-29.1	13.9	3.40e-06	0	41	0	186646528	14	4488
2026-01-09 04:08:45.90	8.45	9.46	-27.0	-29.1	14.2	2.07e-03	0	41	0	191889408	13	4614
2026-01-09 04:08:46.91	8.35	9.53	-27.0	-29.1	14.1	1.85e-03	0	41	0	198180864	13	4627
2026-01-09 04:08:47.91	8.26	9.60	-27.2	-29.1	13.9	1.88e-04	0	41	0	203423744	14	4506
2026-01-09 04:08:48.92	8.16	9.68	-27.0	-28.6	14.2	2.03e-03	0	42	0	209715200	14	4357
2026-01-09 04:08:49.93	8.06	9.75	-26.8	-28.7	14.5	3.40e-06	0	42	0	214958080	13	4485
2026-01-09 04:08:50.93	7.96	9.82	-26.6	-28.2	14.7	3.09e-04	0	41	0	220200960	13	4349
2026-01-09 04:08:51.94	7.86	9.89	-26.5	-28.0	14.8	0.00e+00	0	42	0	226492416	13	4296
2026-01-09 04:08:52.95	7.76	9.96	-26.5	-28.1	14.8	1.85e-03	0	41	0	231735296	13	4315
2026-01-09 04:08:53.95	7.66	10.04	-26.5	-28.0	14.8	0.00e+00	0	41	0	236978176	13	4304
2026-01-09 04:08:54.96	7.55	10.11	-26.4	-28.3	15.0	0.00e+00	0	42	0	243269632	12	4496
2026-01-09 04:08:55.96	7.45	10.18	-26.3	-28.2	15.0	1.63e-03	0	42	0	248512512	12	4456
2026-01-09 04:08:56.97	7.35	10.25	-26.6	-28.3	14.8	0.00e+00	0	42	0	254803968	13	4365
2026-01-09 04:08:57.97	7.25	10.32	-26.3	-28.1	15.1	0.00e+00	0	42	0	260046848	12	4420
2026-01-09 04:08:58.97	7.14	10.40	-26.2	-27.9	15.2	0.00e+00	0	42	0	266338304	12	4391
2026-01-09 04:08:59.98	7.04	10.47	-26.2	-27.9	15.2	0.00e+00	0	42	0	271581184	12	4364
2026-01-09 04:09:00.98	6.93	10.54	-26.2	-27.9	15.2	0.00e+00	0	42	0	276824064	12	4362
2026-01-09 04:09:02.00	6.83	10.62	-26.2	-27.8	15.3	0.00e+00	0	42	0	283115520	12	4346
2026-01-09 04:09:03.00	6.72	10.69	-26.2	-27.9	15.2	0.00e+00	0	42	0	288358400	12	4380
2026-01-09 04:09:04.00	6.62	10.76	-26.1	-27.7	15.4	0.00e+00	0	42	0	293601280	12	4312
2026-01-09 04:09:05.01	6.51	10.84	-26.0	-27.5	15.5	0.00e+00	0	42	0	299892736	12	4265
2026-01-09 04:09:06.01	6.40	10.91	-26.1	-27.6	15.4	0.00e+00	0	42	0	305135616	12	4299
2026-01-09 04:09:07.02	6.29	10.98	-26.3	-28.1	15.1	0.00e+00	0	42	0	310378496	12	4420
2026-01-09 04:09:08.02	6.18	11.06	-26.4	-28.2	15.0	0.00e+00	0	42	0	316669952	12	4470
2026-01-09 04:09:09.03	6.07	11.13	-26.4	-28.3	15.0	0.00e+00	0	42	0	321912832	12	4480
2026-01-09 04:09:10.03	5.97	11.20	-26.5	-28.5	15.0	0.00e+00	0	42	0	328204288	12	4532
2026-01-09 04:09:11.04	5.85	11.28	-26.5	-28.5	14.9	1.10e-06	0	42	0	333447168	12	4538
2026-01-09 04:09:12.04	5.74	11.35	-26.4	-27.9	14.9	0.00e+00	0	42	0	339738624	13	4264
2026-01-09 04:09:13.05	5.63	11.43	-26.6	-28.3	14.7	0.00e+00	0	42	0	344981504	13	4373
2026-01-09 04:09:14.06	5.52	11.50	-26.4	-27.9	15.0	0.00e+00	0	42	0	350224384	13	4256
2026-01-09 04:09:15.07	5.41	11.58	-26.8	-28.6	14.5	0.00e+00	0	42	0	356515840	13	4466
2026-01-09 04:09:16.08	5.29	11.65	-26.5	-28.1	14.9	1.10e-06	0	42	0	361758720	13	4313
2026-01-09 04:09:17.09	5.18	11.73	-26.4	-27.7	14.7	0.00e+00	0	42	0	368050176	13	4217
2026-01-09 04:09:18.09	5.06	11.80	-26.2	-27.9	15.1	9.61e-05	0	42	0	373293056	12	4365
2026-01-09 04:09:19.10	4.95	11.88	-26.1	-27.7	15.4	0.00e+00	0	42	0	378535936	12	4323
2026-01-09 04:09:20.10	4.83	11.95	-26.4	-28.3	15.1	0.00e+00	0	42	0	384827392	12	4491
2026-01-09 04:09:21.11	4.72	12.03	-26.3	-27.5	15.2	0.00e+00	0	42	0	390070272	13	4154
2026-01-09 04:09:22.12	4.60	12.10	-26.1	-27.7	15.4	0.00e+00	0	42	0	395313152	12	4316
2026-01-09 04:09:23.12	4.48	12.18	-26.3	-28.0	15.2	0.00e+00	0	42	0	401604608	12	4405
2026-01-09 04:09:24.13	4.36	12.25	-26.3	-28.0	15.3	0.00e+00	0	42	0	406847488	12	4410
2026-01-09 04:09:25.13	4.24	12.33	-26.3	-28.2	15.2	0.00e+00	0	42	0	413138944	12	4454
2026-01-09 04:09:26.14	4.12	12.40	-26.3	-28.0	15.2	0.00e+00	0	42	0	418381824	12	4406
2026-01-09 04:09:27.15	4.00	12.48	-26.3	-28.1	15.2	0.00e+00	0	42	0	424673280	12	4435
2026-01-09 04:09:28.15	3.88	12.55	-26.3	-28.0	15.3	0.00e+00	0	42	0	429916160	12	4410
2026-01-09 04:09:29.16	3.76	12.63	-26.4	-28.4	15.1	0.00e+00	0	42	0	435159040	12	4520
2026-01-09 04:09:30.17	3.64	12.71	-26.1	-27.7	15.5	0.00e+00	0	42	0	441450496	12	4308
2026-01-09 04:09:31.17	3.52	12.78	-25.9	-27.2	15.7	0.00e+00	0	42	0	446693376	12	4185
2026-01-09 04:09:32.18	3.39	12.86	-25.8	-27.0	15.8	0.00e+00	0	42	0	452984832	12	4133
2026-01-09 04:09:33.18	3.27	12.94	-25.9	-27.1	15.8	0.00e+00	0	42	0	458227712	12	4153
2026-01-09 04:09:34.19	3.14	13.01	-25.8	-27.5	15.9	0.00e+00	0	42	0	463470592	11	4361
2026-01-09 04:09:35.20	3.02	13.09	-25.9	-27.6	15.8	0.00e+00	0	42	0	469762048	11	4392
2026-01-09 04:09:36.21	2.89	13.17	-25.9	-27.6	15.9	0.00e+00	0	42	0	475004928	11	4404
2026-01-09 04:09:37.21	2.77	13.24	-25.9	-27.7	15.9	0.00e+00	0	42	0	480247808	11	4414
2026-01-09 04:09:38.22	2.64	13.32	-26.2	-27.8	14.9	0.00e+00	0	42	0	486539264	12	4337
2026-01-09 04:09:39.23	2.51	13.40	-26.3	-28.2	14.8	0.00e+00	0	42	0	491782144	12	4441
2026-01-09 04:09:40.24	2.38	13.48	-26.0	-27.5	15.6	1.12e-03	0	42	0	498073600	12	4268
2026-01-09 04:09:41.24	2.25	13.55	-26.0	-27.3	15.7	0.00e+00	0	42	0	503316480	12	4201
2026-01-09 04:09:42.24	2.12	13.63	-25.9	-27.8	15.9	1.10e-06	0	42	0	509607936	11	4438
2026-01-09 04:09:43.25	1.99	13.71	-25.9	-27.6	15.9	0.00e+00	0	42	0	514850816	11	4394
2026-01-09 04:09:44.26	1.86	13.79	-25.8	-27.4	16.1	6.86e-05	0	42	0	520093696	11	4327
2026-01-09 04:09:45.26	1.73	13.86	-25.8	-27.6	16.0	1.94e-05	0	42	0	526385152	11	4381
2026-01-09 04:09:46.27	1.59	13.94	-25.6	-27.1	16.2	0.00e+00	0	42	0	531628032	11	4254
2026-01-09 04:09:47.28	1.46	14.02	-25.5	-26.7	16.4	1.43e-04	0	42	0	537919488	11	4154
2026-01-09 04:09:48.29	1.32	14.10	-25.4	-26.6	16.5	1.02e-05	0	42	0	543162368	11	4116
2026-01-09 04:09:49.30	1.19	14.18	-25.5	-26.8	16.4	1.47e-03	0	42	0	548405248	11	4173
2026-01-09 04:09:50.31	1.05	14.26	-25.7	-27.2	16.2	1.23e-04	0	42	0	554696704	11	4291
2026-01-09 04:09:51.32	0.91	14.33	-25.5	-26.8	16.4	1.50e-03	0	42	0	559939584	11	4167
2026-01-09 04:09:52.32	0.78	14.41	-25.6	-26.9	16.4	1.62e-03	0	42	0	565182464	11	4205
2026-01-09 04:09:53.32	0.64	14.49	-25.7	-27.2	16.2	1.85e-04	0	42	0	571473920	11	4285
2026-01-09 04:09:54.33	0.50	14.57	-25.7	-27.3	16.1	1.67e-03	0	42	0	576716800	11	4302
2026-01-09 04:09:55.34	0.36	14.65	-25.6	-26.9	16.3	0.00e+00	0	42	0	583008256	11	4215
2026-01-09 04:09:56.34	0.22	14.73	-25.5	-26.8	16.4	1.85e-04	0	42	0	588251136	11	4178
2026-01-09 04:09:57.34	0.08	14.80	-25.5	-26.9	16.3	1.80e-03	0	42	0	594542592	11	4191
2026-01-09 04:09:58.34	359.94	14.88	-25.5	-26.8	16.4	1.46e-03	0	43	0	599785472	11	4165
2026-01-09 04:09:59.34	359.80	14.96	-25.3	-26.8	16.7	1.23e-04	0	42	0	605028352	10	4292
2026-01-09 04:10:00.35	359.65	15.04	-25.3	-26.9	16.6	1.48e-03	0	42	0	611319808	10	4316
2026-01-09 04:10:01.36	359.51	15.12	-25.3	-26.8	16.7	1.60e-03	0	42	0	616562688	10	4287
2026-01-09 04:10:02.36	359.36	15.20	-25.3	-26.8	16.7	2.33e-04	0	42	0	621805568	10	4298
2026-01-09 04:10:03.36	359.22	15.28	-25.3	-26.9	16.7	1.67e-03	0	43	0	628097024	10	4324
2026-01-09 04:10:04.37	359.07	15.36	-25.2	-26.7	16.8	1.62e-03	0	42	0	633339904	10	4256
2026-01-09 04:10:05.38	358.92	15.44	-25.3	-26.9	16.7	1.22e-04	0	42	0	639631360	10	4307
2026-01-09 04:10:06.39	358.77	15.52	-25.3	-26.9	16.7	1.57e-03	0	42	0	644874240	10	4321
2026-01-09 04:10:07.39	358.63	15.60	-25.4	-26.5	16.6	1.53e-03	0	42	0	650117120	11	4105
2026-01-09 04:10:08.40	358.48	15.68	-25.2	-26.7	16.9	2.18e-04	0	42	0	656408576	10	4255
2026-01-09 04:10:09.40	358.33	15.75	-25.4	-27.0	16.6	0.00e+00	0	42	0	661651456	10	4348
2026-01-09 04:10:10.41	358.17	15.83	-25.4	-27.0	16.7	1.47e-03	0	42	0	667942912	10	4331
2026-01-09 04:10:11.42	358.02	15.91	-25.5	-26.8	16.5	0.00e+00	0	43	0	673185792	11	4169
2026-01-09 04:10:12.42	357.87	15.99	-25.4	-27.0	16.6	1.59e-03	0	42	0	679477248	10	4348
2026-01-09 04:10:13.42	357.72	16.07	-25.2	-26.6	16.9	0.00e+00	0	42	0	684720128	10	4235
2026-01-09 04:10:14.43	357.56	16.15	-25.2	-26.7	16.8	5.70e-06	0	43	0	689963008	10	4251
2026-01-09 04:10:15.44	357.40	16.23	-25.2	-26.7	16.8	1.52e-03	0	42	0	696254464	10	4260
2026-01-09 04:10:16.44	357.25	16.31	-25.3	-26.9	16.7	0.00e+00	0	42	0	701497344	10	4315
2026-01-09 04:10:17.45	357.09	16.39	-25.3	-26.9	16.7	2.27e-04	0	42	0	706740224	10	4328
2026-01-09 04:10:18.46	356.93	16.47	-25.4	-26.5	16.7	0.00e+00	0	43	0	713031680	11	4099
2026-01-09 04:10:19.46	356.77	16.55	-25.6	-27.0	16.4	1.33e-03	0	43	0	718274560	11	4238
2026-01-09 04:10:20.47	356.61	16.63	-25.8	-27.4	16.2	0.00e+00	0	42	0	724566016	11	4347
2026-01-09 04:10:21.48	356.45	16.71	-25.4	-26.6	16.6	0.00e+00	0	43	0	729808896	11	4117
2026-01-09 04:10:22.48	356.29	16.79	-25.2	-26.5	16.9	0.00e+00	0	42	0	735051776	10	4211
2026-01-09 04:10:23.49	356.13	16.87	-25.1	-26.4	17.0	0.00e+00	0	42	0	741343232	10	4178
2026-01-09 04:10:24.50	355.96	16.96	-25.2	-26.5	16.9	0.00e+00	0	43	0	746586112	10	4215
2026-01-09 04:10:25.51	355.80	17.04	-25.2	-26.6	16.9	0.00e+00	0	43	0	752877568	10	4222
2026-01-09 04:10:26.51	355.63	17.12	-24.9	-25.9	17.2	0.00e+00	0	43	0	758120448	10	4056
2026-01-09 04:10:27.51	355.47	17.20	-24.8	-25.8	17.3	0.00e+00	0	42	0	763363328	10	4027
2026-01-09 04:10:28.51	355.30	17.28	-24.9	-26.5	17.2	0.00e+00	0	43	0	769654784	9	4313
2026-01-09 04:10:29.52	355.13	17.36	-24.8	-26.3	17.3	0.00e+00	0	43	0	774897664	9	4271
2026-01-09 04:10:30.53	354.96	17.44	-24.9	-26.0	17.2	0.00e+00	0	43	0	781189120	10	4087
2026-01-09 04:10:31.54	354.79	17.52	-24.9	-26.1	17.2	0.00e+00	0	43	0	786432000	10	4099
2026-01-09 04:10:32.54	354.62	17.60	-24.9	-26.0	17.3	0.00e+00	0	43	0	791674880	10	4086
2026-01-09 04:10:33.54	354.45	17.68	-24.9	-26.0	17.2	0.00e+00	0	43	0	797966336	10	4090
2026-01-09 04:10:34.55	354.28	17.76	-24.9	-26.0	17.2	0.00e+00	0	43	0	803209216	10	4075
2026-01-09 04:10:35.55	354.11	17.84	-24.8	-26.3	17.3	0.00e+00	0	43	0	808452096	9	4284
2026-01-09 04:10:36.56	353.93	17.92	-24.8	-26.4	17.3	0.00e+00	0	43	0	814743552	9	4290
2026-01-09 04:10:37.56	353.76	18.00	-24.8	-26.3	17.3	0.00e+00	0	43	0	819986432	9	4262
2026-01-09 04:10:38.57	353.58	18.08	-24.6	-25.8	17.5	0.00e+00	0	43	0	826277888	9	4136
2026-01-09 04:10:39.58	353.40	18.16	-24.6	-25.8	17.6	0.00e+00	0	43	0	831520768	9	4146
2026-01-09 04:10:40.58	353.22	18.24	-24.7	-26.0	17.5	0.00e+00	0	43	0	837812224	9	4193
2026-01-09 04:10:41.59	353.04	18.32	-24.6	-25.8	17.6	0.00e+00	0	43	0	843055104	9	4151
2026-01-09 04:10:42.60	352.86	18.40	-24.6	-25.9	17.6	0.00e+00	0	43	0	848297984	9	4154
2026-01-09 04:10:43.61	352.68	18.48	-24.7	-26.1	17.0	0.00e+00	0	42	0	854589440	9	4221
2026-01-09 04:10:44.62	352.50	18.56	-24.8	-26.2	17.4	2.61e-04	0	43	0	859832320	9	4248
2026-01-09 04:10:45.62	352.31	18.64	-25.0	-26.2	17.1	0.00e+00	0	43	0	866123776	10	4122
2026-01-09 04:10:46.62	352.13	18.72	-24.9	-26.1	17.2	2.63e-04	0	43	0	871366656	10	4092
2026-01-09 04:10:47.63	351.95	18.80	-24.9	-26.4	17.3	0.00e+00	0	43	0	876609536	9	4283
2026-01-09 04:10:48.64	351.76	18.88	-24.7	-26.1	17.5	0.00e+00	0	43	0	882900992	9	4208
2026-01-09 04:10:49.64	351.57	18.96	-24.8	-26.2	17.3	0.00e+00	0	43	0	888143872	9	4250
2026-01-09 04:10:50.65	351.38	19.04	-24.8	-26.2	17.4	0.00e+00	0	43	0	893386752	9	4255
2026-01-09 04:10:51.65	351.20	19.12	-24.7	-26.2	17.4	0.00e+00	0	43	0	899678208	9	4231
2026-01-09 04:10:52.66	351.00	19.20	-24.7	-26.0	17.5	0.00e+00	0	43	0	904921088	9	4183
2026-01-09 04:10:53.66	350.81	19.28	-24.9	-26.1	17.2	1.68e-04	0	43	0	911212544	10	4096
2026-01-09 04:10:54.67	350.62	19.36	-24.9	-26.0	17.2	0.00e+00	0	43	0	916455424	10	4081
2026-01-09 04:10:55.69	350.43	19.44	-24.5	-25.5	17.7	1.57e-04	0	43	0	922746880	9	4066
2026-01-09 04:10:56.69	350.23	19.52	-24.4	-25.4	17.8	1.22e-04	0	43	0	927989760	9	4046
2026-01-09 04:10:57.69	350.04	19.59	-24.4	-25.4	17.9	0.00e+00	0	42	0	933232640	9	4049
2026-01-09 04:10:58.70	349.84	19.67	-24.5	-25.6	17.7	1.29e-04	0	43	0	939524096	9	4081
2026-01-09 04:10:59.71	349.64	19.75	-24.5	-25.5	17.8	0.00e+00	0	43	0	944766976	9	4070
2026-01-09 04:11:00.71	349.45	19.83	-24.3	-25.2	17.9	0.00e+00	0	43	0	950009856	9	3997
2026-01-09 04:11:01.72	349.25	19.91	-24.3	-25.2	18.0	0.00e+00	0	43	0	956301312	9	3986
2026-01-09 04:11:02.72	349.05	19.99	-24.4	-25.9	17.8	9.61e-05	0	43	0	961544192	8	4269
2026-01-09 04:11:03.72	348.85	20.07	-24.5	-25.6	17.8	0.00e+00	0	43	0	967835648	9	4076
2026-01-09 04:11:04.72	348.64	20.15	-24.6	-25.9	17.6	4.11e-05	0	43	0	973078528	9	4163
2026-01-09 04:11:05.73	348.44	20.22	-24.5	-25.6	17.7	0.00e+00	0	43	0	978321408	9	4094
2026-01-09 04:11:06.74	348.23	20.30	-23.7	-24.4	16.3	0.00e+00	0	43	0	984612864	9	3914
2026-01-09 04:11:07.74	348.03	20.38	-24.3	-25.8	17.8	0.00e+00	0	43	0	989855744	8	4239
2026-01-09 04:11:08.74	347.82	20.46	-24.2	-25.5	17.3	0.00e+00	0	43	0	996147200	8	4165
2026-01-09 04:11:09.75	347.62	20.53	-24.2	-25.5	18.0	0.00e+00	0	43	0	1001390080	8	4179
2026-01-09 04:11:10.76	347.41	20.61	-24.3	-25.8	17.9	0.00e+00	0	43	0	1006632960	8	4240
2026-01-09 04:11:11.77	347.19	20.69	-24.3	-25.7	17.9	0.00e+00	0	43	0	1012924416	8	4239
2026-01-09 04:11:12.77	346.98	20.77	-24.1	-25.3	18.1	0.00e+00	0	43	0	1018167296	8	4134
2026-01-09 04:11:13.78	346.77	20.84	-24.1	-25.3	18.1	0.00e+00	0	43	0	1024458752	8	4129
2026-01-09 04:11:14.78	346.56	20.92	-24.2	-25.5	18.1	0.00e+00	0	43	0	1029701632	8	4168
2026-01-09 04:11:15.79	346.34	21.00	-24.0	-25.1	18.2	6.87e-04	0	43	0	1034944512	8	4082
2026-01-09 04:11:16.79	346.13	21.07	-24.0	-25.1	18.2	0.00e+00	0	43	0	1041235968	8	4071
2026-01-09 04:11:17.80	345.91	21.15	-24.2	-25.5	18.1	1.06e-03	0	43	0	1046478848	8	4162
2026-01-09 04:11:18.80	345.70	21.23	-24.1	-25.3	18.2	0.00e+00	0	43	0	1051721728	8	4127
2026-01-09 04:11:19.81	345.48	21.30	-24.0	-25.1	18.3	0.00e+00	0	43	0	1058013184	8	4068
2026-01-09 04:11:20.82	345.26	21.38	-24.1	-25.2	18.3	1.15e-03	0	43	0	1063256064	8	4090
2026-01-09 04:11:21.83	345.03	21.45	-24.0	-25.0	18.3	0.00e+00	0	43	0	1069547520	8	4034
2026-01-09 04:11:22.83	344.81	21.53	-24.0	-25.0	18.3	0.00e+00	0	43	0	1074790400	8	4047
2026-01-09 04:11:23.84	344.59	21.60	-24.1	-25.3	18.2	0.00e+00	0	43	0	1081081856	8	4124
2026-01-09 04:11:24.85	344.36	21.68	-24.1	-25.2	18.3	1.32e-03	0	43	0	1086324736	8	4091
2026-01-09 04:11:25.85	344.14	21.75	-24.1	-25.3	18.2	0.00e+00	0	43	0	1091567616	8	4126
2026-01-09 04:11:26.86	343.91	21.83	-24.1	-25.3	18.2	1.37e-03	0	43	0	1097859072	8	4111
2026-01-09 04:11:27.87	343.69	21.90	-24.3	-25.6	18.0	1.32e-03	0	43	0	1103101952	8	4202
2026-01-09 04:11:28.87	343.46	21.97	-24.1	-25.2	18.2	0.00e+00	0	43	0	1109393408	8	4103
2026-01-09 04:11:29.88	343.23	22.05	-24.0	-25.0	18.3	1.30e-03	0	43	0	1114636288	8	4051
2026-01-09 04:11:30.89	343.00	22.12	-24.0	-25.0	18.3	0.00e+00	0	43	0	1119879168	8	4046
2026-01-09 04:11:31.90	342.76	22.19	-24.1	-25.2	18.2	0.00e+00	0	43	0	1126170624	8	4099
2026-01-09 04:11:32.90	342.53	22.26	-24.0	-25.0	18.4	1.50e-03	0	43	0	1131413504	8	4044
2026-01-09 04:11:33.91	342.30	22.34	-24.1	-25.3	18.2	1.50e-03	0	43	0	1136656384	8	4129
2026-01-09 04:11:34.92	342.06	22.41	-24.1	-25.3	18.2	0.00e+00	0	43	0	1142947840	8	4122
2026-01-09 04:11:35.93	341.82	22.48	-24.1	-25.4	18.1	1.65e-03	0	43	0	1148190720	8	4142
2026-01-09 04:11:36.94	341.58	22.55	-24.0	-25.1	18.3	1.56e-03	0	43	0	1154482176	8	4063
2026-01-09 04:11:37.94	341.35	22.62	-23.9	-24.8	18.4	0.00e+00	0	43	0	1159725056	8	4010
2026-01-09 04:11:38.95	341.11	22.69	-24.0	-25.1	18.3	1.49e-03	0	43	0	1166016512	8	4073
2026-01-09 04:11:39.96	340.87	22.76	-23.9	-24.8	18.4	0.00e+00	0	43	0	1171259392	8	4004
2026-01-09 04:11:40.97	340.62	22.83	-24.1	-25.2	18.3	0.00e+00	0	43	0	1176502272	8	4098
2026-01-09 04:11:41.97	340.38	22.90	-23.9	-24.9	18.4	0.00e+00	0	43	0	1182793728	8	4038
2026-01-09 04:11:42.98	340.14	22.97	-23.8	-24.7	18.5	1.49e-03	0	43	0	1188036608	8	3969
2026-01-09 04:11:43.99	339.89	23.04	-23.8	-24.6	18.6	0.00e+00	0	43	0	1194328064	8	3941
2026-01-09 04:11:44.99	339.65	23.11	-23.8	-24.7	18.5	0.00e+00	0	43	0	1199570944	8	3978
2026-01-09 04:11:46.00	339.40	23.18	-23.7	-24.5	18.6	1.60e-03	0	43	0	1204813824	8	3919
2026-01-09 04:11:47.00	339.15	23.24	-23.7	-24.5	18.6	0.00e+00	0	43	0	1211105280	8	3917
2026-01-09 04:11:48.01	338.90	23.31	-23.8	-25.2	18.5	1.54e-03	0	43	0	1216348160	7	4219
2026-01-09 04:11:49.02	338.65	23.38	-23.7	-24.9	18.7	0.00e+00	0	43	0	1222639616	7	4142
2026-01-09 04:11:50.02	338.40	23.44	-23.6	-24.6	18.8	0.00e+00	0	43	0	1227882496	7	4073
2026-01-09 04:11:51.03	338.14	23.51	-23.6	-24.8	18.7	0.00e+00	0	43	0	1233125376	7	4102
2026-01-09 04:11:52.04	337.89	23.58	-23.5	-24.4	18.9	0.00e+00	0	43	0	1239416832	7	4015
2026-01-09 04:11:53.04	337.64	23.64	-23.4	-24.2	19.0	0.00e+00	0	43	0	1244659712	7	3969
2026-01-09 04:11:54.04	337.38	23.70	-23.6	-24.6	18.8	0.00e+00	0	43	0	1250951168	7	4057
2026-01-09 04:11:55.05	337.12	23.77	-23.5	-24.6	18.9	1.42e-03	0	43	0	1256194048	7	4049
2026-01-09 04:11:56.05	336.87	23.83	-23.7	-24.8	18.7	0.00e+00	0	43	0	1261436928	7	4121
2026-01-09 04:11:57.06	336.61	23.90	-23.5	-24.6	18.8	0.00e+00	0	43	0	1267728384	7	4059
2026-01-09 04:11:58.06	336.35	23.96	-23.6	-24.6	18.8	0.00e+00	0	43	0	1272971264	7	4074
2026-01-09 04:11:59.06	336.09	24.02	-23.6	-24.7	18.8	0.00e+00	0	43	0	1278214144	7	4073
2026-01-09 04:12:00.07	335.83	24.08	-23.9	-25.3	18.5	0.00e+00	0	43	0	1284505600	7	4229
2026-01-09 04:12:01.07	335.56	24.14	-23.6	-24.6	18.8	0.00e+00	0	43	0	1289748480	7	4071
2026-01-09 04:12:02.08	335.30	24.20	-23.6	-24.7	18.8	0.00e+00	0	43	0	1296039936	7	4092
2026-01-09 04:12:03.08	335.03	24.26	-23.5	-24.4	18.9	0.00e+00	0	43	0	1301282816	7	4014
2026-01-09 04:12:04.09	334.77	24.32	-23.4	-24.2	19.1	0.00e+00	0	43	0	1306525696	7	3970
2026-01-09 04:12:05.10	334.50	24.38	-23.5	-24.4	18.9	0.00e+00	0	43	0	1312817152	7	4019
2026-01-09 04:12:06.10	334.23	24.44	-23.2	-24.0	19.1	0.00e+00	0	43	0	1318060032	7	3908
2026-01-09 04:12:07.11	333.96	24.50	-23.4	-24.7	19.0	0.00e+00	0	43	0	1324351488	6	4202
2026-01-09 04:12:08.11	333.69	24.55	-23.3	-24.7	19.1	0.00e+00	0	43	0	1329594368	6	4190
2026-01-09 04:12:09.13	333.42	24.61	-23.4	-24.8	19.0	0.00e+00	0	43	0	1335885824	6	4217
2026-01-09 04:12:10.13	333.15	24.67	-23.4	-24.8	19.0	0.00e+00	0	43	0	1341128704	6	4217
2026-01-09 04:12:11.14	332.87	24.72	-23.3	-24.6	19.1	0.00e+00	0	43	0	1346371584	6	4163
2026-01-09 04:12:12.14	332.60	24.78	-23.4	-24.8	19.0	0.00e+00	0	43	0	1352663040	6	4216
2026-01-09 04:12:13.15	332.32	24.83	-22.8	-24.0	18.2	0.00e+00	0	43	0	1357905920	6	4140
2026-01-09 04:12:14.15	332.05	24.89	-23.3	-24.7	17.7	0.00e+00	0	43	0	1363148800	6	4199
2026-01-09 04:12:15.16	331.77	24.94	-23.2	-24.5	19.1	0.00e+00	0	43	0	1369440256	6	4138
2026-01-09 04:12:16.17	331.49	24.99	-23.3	-24.5	16.3	0.00e+00	0	43	0	1374683136	6	4158
2026-01-09 04:12:17.17	331.21	25.04	-23.2	-24.3	19.2	0.00e+00	0	43	0	1380974592	6	4095
2026-01-09 04:12:18.17	330.94	25.09	-23.2	-24.4	19.2	0.00e+00	0	43	0	1386217472	6	4120
2026-01-09 04:12:19.18	330.65	25.14	-23.4	-24.7	19.1	0.00e+00	0	43	0	1391460352	6	4194
2026-01-09 04:12:20.18	330.37	25.19	-23.1	-24.1	19.3	2.23e-04	0	43	0	1397751808	6	4060
2026-01-09 04:12:21.20	330.09	25.24	-23.1	-24.1	19.3	0.00e+00	0	43	0	1402994688	6	4049
2026-01-09 04:12:22.20	329.80	25.29	-23.1	-24.2	19.3	1.26e-04	0	43	0	1409286144	6	4065
2026-01-09 04:12:23.20	329.52	25.34	-23.0	-24.0	19.4	0.00e+00	0	43	0	1414529024	6	4035
2026-01-09 04:12:24.20	329.24	25.39	-23.2	-24.3	19.2	0.00e+00	0	43	0	1419771904	6	4103
2026-01-09 04:12:25.20	328.95	25.43	-23.0	-24.0	19.4	0.00e+00	0	43	0	1426063360	6	4035
2026-01-09 04:12:26.21	328.66	25.48	-23.1	-24.2	19.3	0.00e+00	0	43	0	1431306240	6	4073
2026-01-09 04:12:27.21	328.38	25.52	-23.2	-24.3	19.3	0.00e+00	0	43	0	1436549120	6	4106
2026-01-09 04:12:28.22	328.09	25.57	-23.3	-24.6	19.1	0.00e+00	0	43	0	1442840576	6	4180
2026-01-09 04:12:29.22	327.80	25.61	-23.6	-24.7	18.8	0.00e+00	0	43	0	1448083456	7	4077
2026-01-09 04:12:30.23	327.51	25.65	-23.6	-24.7	18.8	0.00e+00	0	43	0	1454374912	7	4094
2026-01-09 04:12:31.23	327.22	25.70	-23.6	-24.6	18.9	0.00e+00	0	43	0	1459617792	7	4068
2026-01-09 04:12:32.24	326.93	25.74	-23.5	-24.5	18.9	0.00e+00	0	43	0	1464860672	7	4046
2026-01-09 04:12:33.25	326.63	25.78	-23.6	-24.7	18.8	0.00e+00	0	43	0	1471152128	7	4073
2026-01-09 04:12:34.26	326.34	25.82	-23.4	-24.3	19.0	0.00e+00	0	43	0	1476395008	7	3990
2026-01-09 04:12:35.26	326.05	25.86	-23.5	-25.0	18.9	0.00e+00	0	43	0	1482686464	6	4276
2026-01-09 04:12:36.27	325.75	25.90	-23.7	-24.8	18.7	0.00e+00	0	43	0	1487929344	7	4120
2026-01-09 04:12:37.28	325.45	25.93	-23.9	-25.3	18.5	1.25e-05	0	43	0	1494220800	7	4231
2026-01-09 04:12:38.28	325.16	25.97	-23.7	-24.8	18.7	3.04e-04	0	43	0	1499463680	7	4113
2026-01-09 04:12:39.28	324.86	26.01	-23.3	-24.1	19.1	0.00e+00	0	43	0	1504706560	7	3947
2026-01-09 04:12:40.29	324.56	26.04	-23.0	-23.6	19.1	3.20e-04	0	43	0	1510998016	7	3896
2026-01-09 04:12:41.30	324.26	26.08	-22.7	-23.6	17.6	2.82e-04	0	43	0	1516240896	6	4005
2026-01-09 04:12:42.31	323.96	26.11	-23.1	-24.1	14.2	0.00e+00	0	43	0	1521483776	6	4054
2026-01-09 04:12:43.31	323.67	26.14	-23.2	-24.4	17.6	3.13e-04	0	43	0	1527775232	6	4124
2026-01-09 04:12:44.30	323.37	26.17	-23.1	-24.1	18.0	3.88e-04	0	43	0	1533018112	6	4048
2026-01-09 04:12:45.31	323.07	26.20	-23.2	-24.4	19.2	0.00e+00	0	43	0	1538260992	6	4131
2026-01-09 04:12:46.32	322.77	26.23	-23.1	-24.2	19.4	5.48e-04	0	43	0	1544552448	6	4062
2026-01-09 04:12:47.32	322.47	26.26	-23.0	-24.0	19.5	5.23e-04	0	43	0	1549795328	6	4020
2026-01-09 04:12:48.33	322.16	26.29	-23.1	-24.2	19.3	0.00e+00	0	43	0	1556086784	6	4078
2026-01-09 04:12:49.34	321.86	26.32	-23.1	-24.2	19.3	9.68e-04	0	43	0	1561329664	6	4074
2026-01-09 04:12:50.34	321.56	26.35	-23.2	-24.4	19.3	3.76e-04	0	43	0	1567621120	6	4114
2026-01-09 04:12:51.34	321.25	26.37	-23.2	-24.3	19.3	1.84e-03	0	43	0	1572864000	6	4100
2026-01-09 04:12:52.35	320.95	26.40	-23.3	-24.5	19.2	4.13e-04	0	43	0	1578106880	6	4139
2026-01-09 04:12:53.36	320.64	26.42	-23.1	-24.2	19.3	1.82e-03	0	43	0	1584398336	6	4073
2026-01-09 04:12:54.37	320.33	26.45	-23.1	-24.2	19.3	0.00e+00	0	43	0	1589641216	6	4065
2026-01-09 04:12:55.38	320.03	26.47	-23.0	-24.0	19.4	5.70e-04	0	43	0	1595932672	6	4021
2026-01-09 04:12:56.38	319.72	26.49	-23.0	-24.0	19.4	1.64e-03	0	43	0	1601175552	6	4016
2026-01-09 04:12:57.39	319.41	26.51	-23.1	-24.2	19.3	0.00e+00	0	43	0	1606418432	6	4085
2026-01-09 04:12:58.38	319.11	26.53	-23.1	-24.2	19.3	3.17e-04	0	43	0	1612709888	6	4081
2026-01-09 04:12:59.39	318.80	26.55	-23.1	-24.1	19.4	3.77e-05	0	43	0	1617952768	6	4044
2026-01-09 04:13:00.39	318.50	26.57	-23.1	-24.2	19.3	2.04e-03	0	43	0	1623195648	6	4079
2026-01-09 04:13:01.40	318.19	26.58	-23.2	-24.4	19.2	4.22e-04	0	43	0	1629487104	6	4136
2026-01-09 04:13:02.41	317.88	26.60	-23.2	-24.3	19.2	1.94e-03	0	43	0	1634729984	6	4094
2026-01-09 04:13:03.42	317.57	26.62	-23.3	-24.6	19.1	1.85e-03	0	43	0	1641021440	6	4170
2026-01-09 04:13:04.42	317.26	26.63	-23.4	-24.3	19.0	1.69e-04	0	43	0	1646264320	7	3976
2026-01-09 04:13:05.43	316.95	26.64	-23.2	-24.3	19.2	1.63e-03	0	43	0	1652555776	6	4108
2026-01-09 04:13:06.44	316.64	26.66	-23.2	-24.4	19.2	1.34e-03	0	43	0	1657798656	6	4131
2026-01-09 04:13:07.45	316.33	26.67	-23.1	-24.2	19.3	0.00e+00	0	43	0	1663041536	6	4081
2026-01-09 04:13:08.45	316.02	26.68	-23.1	-24.2	19.3	1.64e-03	0	43	0	1669332992	6	4080
2026-01-09 04:13:09.46	315.70	26.69	-23.1	-24.2	19.3	1.66e-03	0	43	0	1674575872	6	4069
2026-01-09 04:13:10.47	315.39	26.70	-23.2	-24.4	19.2	0.00e+00	0	43	0	1679818752	6	4114
2026-01-09 04:13:11.47	315.08	26.71	-23.1	-24.1	19.4	1.85e-03	0	43	0	1686110208	6	4063
2026-01-09 04:13:12.48	314.77	26.71	-22.9	-23.8	19.5	1.73e-03	0	43	0	1691353088	6	3970
2026-01-09 04:13:13.48	314.46	26.72	-22.8	-23.4	19.7	0.00e+00	0	43	0	1697644544	6	3885
2026-01-09 04:13:14.49	314.15	26.72	-22.7	-23.4	19.7	1.49e-03	0	43	0	1702887424	6	3882
2026-01-09 04:13:15.50	313.84	26.73	-22.8	-23.4	19.7	0.00e+00	0	43	0	1709178880	6	3891
2026-01-09 04:13:16.51	313.52	26.73	-22.7	-23.2	19.8	0.00e+00	0	43	0	1714421760	6	3846
2026-01-09 04:13:17.51	313.21	26.73	-22.7	-23.8	19.7	1.17e-03	0	43	0	1719664640	5	4102
2026-01-09 04:13:18.52	312.90	26.74	-22.7	-23.9	19.7	0.00e+00	0	43	0	1725956096	5	4105
2026-01-09 04:13:19.53	312.59	26.74	-22.7	-23.8	19.7	0.00e+00	0	43	0	1731198976	5	4095
2026-01-09 04:13:20.53	312.28	26.74	-22.8	-24.1	19.6	0.00e+00	0	43	0	1737490432	5	4157
2026-01-09 04:13:21.53	311.97	26.73	-23.0	-24.0	19.4	6.98e-04	0	43	0	1742733312	6	4027
2026-01-09 04:13:22.54	311.65	26.73	-23.2	-24.3	19.3	0.00e+00	0	43	0	1747976192	6	4093
2026-01-09 04:13:23.55	311.34	26.73	-23.3	-24.5	19.2	6.66e-04	0	43	0	1754267648	6	4147
2026-01-09 04:13:24.55	311.03	26.72	-23.3	-24.6	19.1	0.00e+00	0	43	0	1759510528	6	4176
2026-01-09 04:13:25.55	310.72	26.72	-23.4	-24.7	19.1	0.00e+00	0	43	0	1764753408	6	4199
2026-01-09 04:13:26.56	310.41	26.71	-23.3	-24.5	19.2	0.00e+00	0	43	0	1771044864	6	4144
2026-01-09 04:13:27.57	310.10	26.71	-23.1	-24.1	19.4	0.00e+00	0	43	0	1776287744	6	4050
2026-01-09 04:13:28.58	309.79	26.70	-23.1	-24.1	19.4	0.00e+00	0	43	0	1782579200	6	4046
2026-01-09 04:13:29.59	309.47	26.69	-23.1	-24.1	19.4	0.00e+00	0	43	0	1787822080	6	4036
2026-01-09 04:13:30.59	309.16	26.68	-22.9	-23.8	19.5	0.00e+00	0	43	0	1794113536	6	3979
2026-01-09 04:13:31.59	308.86	26.67	-22.8	-24.1	19.6	0.00e+00	0	43	0	1799356416	5	4164
2026-01-09 04:13:32.60	308.54	26.66	-22.7	-23.9	19.7	0.00e+00	0	43	0	1804599296	5	4119
2026-01-09 04:13:33.61	308.23	26.64	-22.8	-24.0	19.6	0.00e+00	0	43	0	1810890752	5	4144
2026-01-09 04:13:34.62	307.92	26.63	-22.9	-24.3	19.5	0.00e+00	0	43	0	1816133632	5	4210
2026-01-09 04:13:35.62	307.61	26.62	-23.1	-24.2	19.3	0.00e+00	0	43	0	1822425088	6	4064
2026-01-09 04:13:36.63	307.30	26.60	-23.2	-24.4	19.2	0.00e+00	0	43	0	1827667968	6	4129
2026-01-09 04:13:37.64	306.99	26.59	-23.3	-24.5	19.1	0.00e+00	0	43	0	1832910848	6	4156
2026-01-09 04:13:38.64	306.69	26.57	-23.1	-24.2	19.3	0.00e+00	0	43	0	1839202304	6	4068
2026-01-09 04:13:39.65	306.38	26.55	-23.2	-24.3	19.2	0.00e+00	0	43	0	1844445184	6	4104
2026-01-09 04:13:40.66	306.07	26.53	-23.2	-24.4	19.2	0.00e+00	0	43	0	1849688064	6	4118
2026-01-09 04:13:41.66	305.76	26.51	-23.3	-24.6	19.1	0.00e+00	0	43	0	1855979520	6	4184
2026-01-09 04:13:42.68	305.45	26.49	-23.4	-24.7	19.0	0.00e+00	0	43	0	1861222400	6	4210
2026-01-09 04:13:43.68	305.14	26.47	-23.2	-24.4	19.2	0.00e+00	0	43	0	1867513856	6	4134
2026-01-09 04:13:44.69	304.84	26.45	-23.0	-23.9	19.5	0.00e+00	0	43	0	1872756736	6	3991
2026-01-09 04:13:45.69	304.53	26.42	-22.8	-23.6	19.6	0.00e+00	0	43	0	1879048192	6	3931
2026-01-09 04:13:46.70	304.23	26.40	-22.9	-24.2	19.5	0.00e+00	0	43	0	1884291072	5	4195
2026-01-09 04:13:47.71	303.92	26.37	-22.9	-24.2	19.6	0.00e+00	0	43	0	1889533952	5	4182
2026-01-09 04:13:48.71	303.62	26.35	-23.0	-24.4	19.5	1.80e-04	0	43	0	1895825408	5	4233
2026-01-09 04:13:49.71	303.31	26.32	-23.0	-23.8	19.5	0.00e+00	0	43	0	1901068288	6	3986
2026-01-09 04:13:50.72	303.01	26.29	-23.3	-24.6	19.1	0.00e+00	0	43	0	1907359744	6	4169
2026-01-09 04:13:51.72	302.71	26.26	-23.2	-24.3	19.2	0.00e+00	0	43	0	1912602624	6	4094
2026-01-09 04:13:52.73	302.40	26.24	-23.1	-24.1	19.3	0.00e+00	0	43	0	1917845504	6	4056
2026-01-09 04:13:53.74	302.10	26.20	-23.3	-24.5	19.1	0.00e+00	0	43	0	1924136960	6	4144
2026-01-09 04:13:54.75	301.80	26.17	-23.4	-24.8	19.0	0.00e+00	0	43	0	1929379840	6	4220
2026-01-09 04:13:55.75	301.50	26.14	-23.2	-24.3	19.2	1.86e-04	0	43	0	1934622720	6	4099
2026-01-09 04:13:56.76	301.20	26.11	-23.1	-24.1	19.3	0.00e+00	0	43	0	1940914176	6	4050
2026-01-09 04:13:57.77	300.90	26.08	-23.1	-24.2	19.3	1.32e-04	0	43	0	1946157056	6	4073
2026-01-09 04:13:58.77	300.60	26.04	-23.2	-24.3	19.2	0.00e+00	0	43	0	1952448512	6	4088
2026-01-09 04:13:59.78	300.30	26.01	-23.1	-24.2	19.3	0.00e+00	0	43	0	1957691392	6	4061
2026-01-09 04:14:00.79	300.00	25.97	-23.3	-24.5	19.2	0.00e+00	0	43	0	1963982848	6	4141
2026-01-09 04:14:01.79	299.71	25.93	-23.1	-24.2	19.3	0.00e+00	0	43	0	1969225728	6	4065
2026-01-09 04:14:02.80	299.41	25.90	-23.0	-23.9	19.4	0.00e+00	0	43	0	1974468608	6	4005
2026-01-09 04:14:03.80	299.12	25.86	-23.2	-24.3	19.2	0.00e+00	0	43	0	1980760064	6	4104
2026-01-09 04:14:04.80	298.82	25.82	-23.0	-23.9	19.4	0.00e+00	0	43	0	1986002944	6	4003
2026-01-09 04:14:05.81	298.53	25.78	-22.8	-23.5	19.6	0.00e+00	0	43	0	1991245824	6	3900
2026-01-09 04:14:06.82	298.23	25.74	-22.8	-23.5	19.6	0.00e+00	0	43	0	1997537280	6	3904
2026-01-09 04:14:07.83	297.94	25.70	-22.4	-23.1	14.6	0.00e+00	0	43	0	2002780160	6	3882
2026-01-09 04:14:08.83	297.65	25.65	-22.9	-23.7	14.3	0.00e+00	0	43	0	2009071616	6	3963
2026-01-09 04:14:09.83	297.36	25.61	-23.0	-24.0	19.0	0.00e+00	0	43	0	2014314496	6	4027
2026-01-09 04:14:10.83	297.07	25.57	-22.9	-23.8	18.6	0.00e+00	0	43	0	2019557376	6	3980
2026-01-09 04:14:11.84	296.78	25.52	-23.1	-24.2	19.1	0.00e+00	0	43	0	2025848832	6	4076
2026-01-09 04:14:12.85	296.49	25.48	-23.1	-24.2	19.3	0.00e+00	0	43	0	2031091712	6	4066
2026-01-09 04:14:13.85	296.21	25.43	-23.4	-24.7	19.0	0.00e+00	0	43	0	2037383168	6	4207
2026-01-09 04:14:14.85	295.92	25.39	-23.4	-24.7	19.0	0.00e+00	0	43	0	2042626048	6	4197
2026-01-09 04:14:15.86	295.63	25.34	-23.4	-24.7	19.0	0.00e+00	0	43	0	2047868928	6	4209
2026-01-09 04:14:16.87	295.35	25.29	-23.4	-24.2	19.0	0.00e+00	0	43	0	2054160384	7	3973
2026-01-09 04:14:17.87	295.07	25.24	-23.9	-25.4	18.4	1.26e-03	0	43	0	2059403264	7	4265
2026-01-09 04:14:18.87	294.78	25.19	-23.9	-24.7	18.5	3.66e-05	0	43	0	2065694720	8	3983
2026-01-09 04:14:19.88	294.50	25.14	-23.8	-24.6	18.5	6.81e-04	0	43	0	2070937600	8	3954
2026-01-09 04:14:20.89	294.22	25.09	-23.8	-25.1	18.6	0.00e+00	0	43	0	2076180480	7	4193
2026-01-09 04:14:21.89	293.94	25.04	-23.5	-24.4	18.9	0.00e+00	0	43	0	2082471936	7	4022
2026-01-09 04:14:22.90	293.66	24.99	-23.6	-24.8	18.7	2.43e-04	0	43	0	2087714816	7	4112
2026-01-09 04:14:23.91	293.38	24.94	-23.4	-24.2	19.0	0.00e+00	0	43	0	2092957696	7	3964
2026-01-09 04:14:24.91	293.10	24.88	-23.2	-23.9	19.2	0.00e+00	0	43	0	2099249152	7	3891
2026-01-09 04:14:25.92	292.82	24.83	-22.9	-23.8	19.4	2.15e-04	0	43	0	2104492032	6	3973
2026-01-09 04:14:26.93	292.55	24.77	-22.8	-23.4	19.6	6.26e-04	0	43	0	2110783488	6	3890
2026-01-09 04:14:27.94	292.27	24.72	-22.7	-23.4	19.7	1.22e-04	0	43	0	2116026368	6	3884
2026-01-09 04:14:28.95	291.99	24.66	-22.8	-23.5	19.6	3.54e-04	0	43	0	2122317824	6	3915
2026-01-09 04:14:29.95	291.72	24.61	-22.9	-23.6	19.5	8.58e-04	0	43	0	2127560704	6	3942
2026-01-09 04:14:30.96	291.45	24.55	-22.9	-23.8	19.5	0.00e+00	0	43	0	2132803584	6	3969
2026-01-09 04:14:31.97	291.18	24.49	-22.8	-23.5	19.6	1.30e-03	0	43	0	2139095040	6	3900
2026-01-09 04:14:32.97	290.91	24.44	-22.8	-23.6	19.5	1.31e-03	0	43	0	2144337920	6	3930
2026-01-09 04:14:33.97	290.64	24.38	-22.7	-23.3	19.7	0.00e+00	0	43	0	2150629376	6	3857
2026-01-09 04:14:34.98	290.37	24.32	-22.7	-23.8	19.6	7.09e-04	0	43	0	2155872256	5	4089
2026-01-09 04:14:35.98	290.11	24.26	-22.8	-24.0	19.5	1.01e-03	0	43	0	2161115136	5	4142
2026-01-09 04:14:36.99	289.84	24.20	-22.9	-24.2	19.4	0.00e+00	0	43	0	2167406592	5	4182
2026-01-09 04:14:38.00	289.57	24.14	-23.0	-24.4	19.3	9.94e-04	0	43	0	2172649472	5	4234
2026-01-09 04:14:39.00	289.31	24.08	-23.0	-24.4	19.3	1.18e-03	0	43	0	2177892352	5	4227
2026-01-09 04:14:40.01	289.05	24.01	-23.1	-24.1	19.2	0.00e+00	0	43	0	2184183808	6	4043
2026-01-09 04:14:41.01	288.79	23.95	-23.3	-24.6	19.0	1.11e-03	0	43	0	2189426688	6	4186
2026-01-09 04:14:42.03	288.52	23.89	-23.1	-24.1	19.3	0.00e+00	0	43	0	2195718144	6	4050
2026-01-09 04:14:43.04	288.26	23.83	-23.1	-24.2	19.2	0.00e+00	0	43	0	2200961024	6	4078
2026-01-09 04:14:44.04	288.00	23.76	-23.4	-24.8	18.8	0.00e+00	0	43	0	2207252480	6	4241
2026-01-09 04:14:45.05	287.75	23.70	-23.2	-24.4	19.1	1.07e-04	0	43	0	2212495360	6	4121
2026-01-09 04:14:46.05	287.49	23.63	-23.1	-24.2	19.2	0.00e+00	0	43	0	2217738240	6	4092
2026-01-09 04:14:47.06	287.23	23.57	-23.1	-24.3	19.1	0.00e+00	0	43	0	2224029696	6	4102
2026-01-09 04:14:48.06	286.98	23.50	-22.9	-23.8	19.4	7.48e-04	0	43	0	2229272576	6	3988
2026-01-09 04:14:49.07	286.73	23.44	-23.0	-23.9	19.4	0.00e+00	0	43	0	2234515456	6	4009
2026-01-09 04:14:50.08	286.47	23.37	-23.2	-24.3	19.1	1.22e-03	0	43	0	2240806912	6	4112
2026-01-09 04:14:51.08	286.22	23.30	-22.9	-23.8	19.4	0.00e+00	0	43	0	2246049792	6	3993
2026-01-09 04:14:52.09	285.97	23.24	-23.0	-23.9	19.4	0.00e+00	0	43	0	2252341248	6	3998
2026-01-09 04:14:53.09	285.72	23.17	-23.1	-24.1	19.3	0.00e+00	0	43	0	2257584128	6	4056
2026-01-09 04:14:54.10	285.47	23.10	-23.1	-24.3	19.2	0.00e+00	0	43	0	2262827008	6	4102
2026-01-09 04:14:55.11	285.23	23.03	-23.1	-24.2	19.2	0.00e+00	0	43	0	2269118464	6	4071
2026-01-09 04:14:56.11	284.98	22.96	-23.0	-23.9	19.3	0.00e+00	0	43	0	2274361344	6	4016
2026-01-09 04:14:57.12	284.74	22.89	-23.1	-24.1	19.2	0.00e+00	0	43	0	2280652800	6	4046
2026-01-09 04:14:58.13	284.49	22.82	-23.4	-24.7	18.9	0.00e+00	0	43	0	2285895680	6	4210
2026-01-09 04:14:59.13	284.25	22.75	-23.3	-24.6	19.0	0.00e+00	0	43	0	2292187136	6	4173
2026-01-09 04:15:00.14	284.01	22.68	-23.6	-24.7	18.7	0.00e+00	0	43	0	2297430016	7	4090
2026-01-09 04:15:01.15	283.77	22.61	-23.4	-24.2	19.0	0.00e+00	0	43	0	2302672896	7	3972
2026-01-09 04:15:02.15	283.53	22.54	-23.5	-24.5	18.8	0.00e+00	0	43	0	2308964352	7	4048
2026-01-09 04:15:03.15	283.29	22.47	-23.4	-24.4	18.9	0.00e+00	0	43	0	2314207232	7	4003
2026-01-09 04:15:04.16	283.05	22.40	-23.2	-24.4	19.1	0.00e+00	0	43	0	2319450112	6	4134
2026-01-09 04:15:05.16	282.82	22.33	-23.4	-24.3	18.9	0.00e+00	0	43	0	2325741568	7	3985
2026-01-09 04:15:06.17	282.58	22.25	-23.1	-23.6	19.2	0.00e+00	0	43	0	2330984448	7	3832
2026-01-09 04:15:07.17	282.35	22.18	-23.1	-24.1	19.2	0.00e+00	0	43	0	2337275904	6	4060
2026-01-09 04:15:08.17	282.12	22.11	-23.0	-23.8	19.4	0.00e+00	0	43	0	2342518784	6	3989
2026-01-09 04:15:09.17	281.89	22.04	-23.3	-24.5	19.0	0.00e+00	0	43	0	2347761664	6	4154
2026-01-09 04:15:10.17	281.66	21.96	-23.2	-24.3	19.1	0.00e+00	0	43	0	2354053120	6	4107
2026-01-09 04:15:11.18	281.43	21.89	-23.2	-24.4	19.1	0.00e+00	0	43	0	2359296000	6	4125
2026-01-09 04:15:12.19	281.20	21.82	-23.4	-24.8	18.9	0.00e+00	0	43	0	2365587456	6	4229
2026-01-09 04:15:13.20	280.97	21.74	-23.3	-24.6	18.9	0.00e+00	0	43	0	2370830336	6	4189
2026-01-09 04:15:14.21	280.74	21.67	-23.6	-24.8	18.6	0.00e+00	0	43	0	2376073216	7	4111
2026-01-09 04:15:15.21	280.52	21.59	-23.7	-25.0	15.5	0.00e+00	0	43	0	2382364672	7	4185
2026-01-09 04:15:16.22	280.30	21.52	-23.6	-24.6	18.7	0.00e+00	0	43	0	2387607552	7	4064
2026-01-09 04:15:17.22	280.07	21.44	-23.7	-24.8	18.6	0.00e+00	0	43	0	2393899008	7	4126
2026-01-09 04:15:18.22	279.85	21.37	-23.9	-24.9	18.3	0.00e+00	0	43	0	2399141888	8	4017
2026-01-09 04:15:19.23	279.63	21.29	-23.7	-24.9	18.5	0.00e+00	0	43	0	2404384768	7	4143
2026-01-09 04:15:20.23	279.41	21.21	-23.5	-24.4	18.8	0.00e+00	0	43	0	2410676224	7	4009
2026-01-09 04:15:21.24	279.19	21.14	-23.4	-24.3	18.9	0.00e+00	0	43	0	2415919104	7	3983
2026-01-09 04:15:22.25	278.98	21.06	-23.5	-24.4	18.8	3.43e-04	0	43	0	2421161984	7	4016
2026-01-09 04:15:23.26	278.76	20.98	-23.7	-24.8	18.6	0.00e+00	0	43	0	2427453440	7	4124
2026-01-09 04:15:24.27	278.54	20.91	-23.9	-25.3	18.3	2.83e-04	0	43	0	2432696320	7	4249
2026-01-09 04:15:25.27	278.33	20.83	-23.8	-25.1	18.4	0.00e+00	0	43	0	2438987776	7	4201
2026-01-09 04:15:26.28	278.12	20.75	-23.7	-24.9	18.5	0.00e+00	0	43	0	2444230656	7	4128
2026-01-09 04:15:27.28	277.91	20.68	-23.8	-25.0	18.4	1.83e-05	0	43	0	2450522112	7	4172
2026-01-09 04:15:28.28	277.70	20.60	-23.8	-25.2	18.3	5.03e-05	0	43	0	2455764992	7	4205
2026-01-09 04:15:29.29	277.48	20.52	-23.7	-24.9	18.5	0.00e+00	0	43	0	2461007872	7	4140
2026-01-09 04:15:30.29	277.28	20.44	-23.8	-25.2	18.3	0.00e+00	0	43	0	2467299328	7	4207
2026-01-09 04:15:31.30	277.07	20.36	-24.0	-25.1	18.1	0.00e+00	0	43	0	2472542208	8	4089
2026-01-09 04:15:32.31	276.86	20.29	-24.2	-25.5	18.0	0.00e+00	0	43	0	2477785088	8	4165
2026-01-09 04:15:33.31	276.66	20.21	-24.1	-25.3	18.1	0.00e+00	0	43	0	2484076544	8	4129
2026-01-09 04:15:34.32	276.45	20.13	-24.1	-25.2	12.7	0.00e+00	0	43	0	2489319424	8	4096
2026-01-09 04:15:35.33	276.25	20.05	-24.3	-25.6	17.7	1.10e-06	0	43	0	2495610880	8	4201
2026-01-09 04:15:36.33	276.05	19.97	-24.1	-25.2	18.1	0.00e+00	0	43	0	2500853760	8	4105
2026-01-09 04:15:37.34	275.84	19.89	-24.2	-25.5	17.9	1.48e-03	0	43	0	2506096640	8	4184
2026-01-09 04:15:38.34	275.64	19.81	-24.4	-25.8	17.8	0.00e+00	0	43	0	2512388096	8	4264
2026-01-09 04:15:39.34	275.45	19.73	-24.2	-25.6	17.9	0.00e+00	0	43	0	2517630976	8	4202
2026-01-09 04:15:40.35	275.25	19.66	-24.3	-25.7	17.8	2.74e-05	0	43	0	2523922432	8	4233
2026-01-09 04:15:41.36	275.05	19.58	-24.3	-25.8	17.8	0.00e+00	0	43	0	2529165312	8	4248
2026-01-09 04:15:42.36	274.85	19.50	-24.1	-25.3	18.0	1.27e-04	0	43	0	2534408192	8	4127
2026-01-09 04:15:43.37	274.66	19.42	-24.2	-25.4	18.0	1.53e-04	0	43	0	2540699648	8	4143
2026-01-09 04:15:44.37	274.46	19.34	-24.5	-25.7	17.5	1.07e-03	0	43	0	2545942528	9	4108
2026-01-09 04:15:45.37	274.27	19.26	-24.4	-25.5	17.7	1.90e-04	0	43	0	2552233984	9	4062
2026-01-09 04:15:46.38	274.08	19.18	-24.5	-25.5	17.6	3.38e-04	0	43	0	2557476864	9	4076
2026-01-09 04:15:47.39	273.89	19.10	-24.3	-25.3	17.7	3.40e-06	0	43	0	2562719744	9	4013
2026-01-09 04:15:48.40	273.70	19.02	-24.2	-25.0	17.9	0.00e+00	0	43	0	2569011200	9	3952
2026-01-09 04:15:49.41	273.51	18.94	-24.2	-25.5	17.9	2.47e-04	0	43	0	2574254080	8	4181
2026-01-09 04:15:50.42	273.32	18.86	-24.5	-25.6	17.6	0.00e+00	0	43	0	2580545536	9	4106
2026-01-09 04:15:51.43	273.13	18.78	-24.3	-25.1	17.8	2.70e-04	0	43	0	2585788416	9	3978
2026-01-09 04:15:52.43	272.94	18.70	-24.2	-25.6	17.8	2.46e-04	0	43	0	2591031296	8	4203
2026-01-09 04:15:53.44	272.76	18.62	-24.1	-25.3	18.0	0.00e+00	0	43	0	2597322752	8	4121
2026-01-09 04:15:54.44	272.58	18.54	-24.0	-25.1	18.1	2.68e-04	0	43	0	2602565632	8	4067
2026-01-09 04:15:55.45	272.39	18.46	-24.2	-25.5	17.9	2.15e-04	0	43	0	2608857088	8	4179
2026-01-09 04:15:56.45	272.21	18.38	-24.2	-25.4	17.9	3.16e-04	0	43	0	2614099968	8	4147
2026-01-09 04:15:57.45	272.03	18.30	-24.2	-25.5	17.9	0.00e+00	0	43	0	2619342848	8	4166
2026-01-09 04:15:58.46	271.85	18.21	-24.2	-25.6	17.8	1.68e-04	0	43	0	2625634304	8	4195
2026-01-09 04:15:59.47	271.67	18.13	-24.3	-25.8	17.7	3.40e-06	0	43	0	2630877184	8	4251
2026-01-09 04:16:00.47	271.49	18.05	-24.3	-25.8	17.7	0.00e+00	0	43	0	2637168640	8	4253
2026-01-09 04:16:01.47	271.32	17.97	-24.5	-26.1	17.6	0.00e+00	0	43	0	2642411520	8	4325
2026-01-09 04:16:02.48	271.14	17.89	-24.7	-26.0	17.4	9.72e-04	0	43	0	2647654400	9	4186
2026-01-09 04:16:03.49	270.96	17.81	-24.6	-25.9	17.4	2.25e-04	0	43	0	2653945856	9	4160
2026-01-09 04:16:04.48	270.79	17.73	-24.5	-25.6	17.5	1.17e-03	0	43	0	2659188736	9	4094
2026-01-09 04:16:05.49	270.62	17.65	-24.5	-25.6	17.5	1.10e-03	0	43	0	2664431616	9	4095
2026-01-09 04:16:06.49	270.44	17.57	-24.5	-25.7	17.5	0.00e+00	0	43	0	2670723072	9	4114
2026-01-09 04:16:07.50	270.27	17.49	-24.5	-25.5	17.5	1.08e-03	0	43	0	2675965952	9	4079
2026-01-09 04:16:08.50	270.10	17.41	-24.5	-25.7	17.5	0.00e+00	0	43	0	2682257408	9	4108
2026-01-09 04:16:09.51	269.93	17.33	-24.4	-25.3	17.7	0.00e+00	0	43	0	2687500288	9	4024
2026-01-09 04:16:10.51	269.76	17.25	-24.3	-25.8	17.7	1.08e-03	0	43	0	2692743168	8	4249
2026-01-09 04:16:11.52	269.59	17.17	-24.3	-25.6	17.7	0.00e+00	0	43	0	2699034624	8	4217
2026-01-09 04:16:12.53	269.43	17.09	-24.3	-25.7	17.7	0.00e+00	0	43	0	2704277504	8	4230
2026-01-09 04:16:13.53	269.26	17.01	-24.5	-26.0	17.5	0.00e+00	0	43	0	2710568960	8	4319
2026-01-09 04:16:14.53	269.10	16.93	-24.4	-26.0	17.6	8.58e-04	0	43	0	2715811840	8	4305
2026-01-09 04:16:15.53	268.93	16.85	-24.6	-25.8	17.4	0.00e+00	0	43	0	2721054720	9	4151
2026-01-09 04:16:16.54	268.77	16.77	-24.8	-26.3	17.1	6.65e-04	0	43	0	2727346176	9	4274
2026-01-09 04:16:17.54	268.61	16.69	-24.9	-26.5	17.0	0.00e+00	0	43	0	2732589056	9	4318
2026-01-09 04:16:18.55	268.45	16.61	-24.7	-26.1	17.3	0.00e+00	0	43	0	2737831936	9	4214
2026-01-09 04:16:19.56	268.28	16.52	-24.7	-26.0	17.3	1.77e-04	0	43	0	2744123392	9	4204
2026-01-09 04:16:20.56	268.12	16.44	-24.7	-26.1	17.2	0.00e+00	0	43	0	2749366272	9	4221
2026-01-09 04:16:21.56	267.97	16.36	-24.7	-26.1	17.2	6.17e-05	0	43	0	2755657728	9	4221
2026-01-09 04:16:22.56	267.81	16.28	-24.8	-26.3	17.1	0.00e+00	0	43	0	2760900608	9	4272
2026-01-09 04:16:23.57	267.65	16.20	-24.9	-26.4	17.1	3.38e-04	0	43	0	2767192064	9	4306
2026-01-09 04:16:24.58	267.49	16.12	-24.8	-26.3	17.1	0.00e+00	0	43	0	2772434944	9	4262
2026-01-09 04:16:25.59	267.34	16.04	-24.9	-26.4	17.0	0.00e+00	0	43	0	2777677824	9	4306
2026-01-09 04:16:26.60	267.18	15.96	-24.8	-26.3	17.1	0.00e+00	0	43	0	2783969280	9	4280
2026-01-09 04:16:27.60	267.03	15.88	-24.8	-26.2	17.1	0.00e+00	0	43	0	2789212160	9	4258
2026-01-09 04:16:28.61	266.87	15.80	-24.8	-26.3	17.1	0.00e+00	0	43	0	2794455040	9	4273
2026-01-09 04:16:29.62	266.72	15.72	-25.0	-26.7	16.9	0.00e+00	0	43	0	2800746496	9	4371
2026-01-09 04:16:30.62	266.57	15.64	-25.3	-26.8	16.5	0.00e+00	0	43	0	2805989376	10	4306
2026-01-09 04:16:31.63	266.42	15.56	-25.7	-27.2	16.0	0.00e+00	0	43	0	2812280832	11	4290
2026-01-09 04:16:32.63	266.27	15.48	-25.8	-27.5	15.9	0.00e+00	0	43	0	2817523712	11	4371
2026-01-09 04:16:33.63	266.12	15.40	-25.9	-27.3	15.6	0.00e+00	0	43	0	2822766592	12	4205
2026-01-09 04:16:34.64	265.97	15.32	-26.3	-28.1	15.2	0.00e+00	0	43	0	2829058048	12	4442
2026-01-09 04:16:35.65	265.82	15.24	-26.4	-28.3	15.0	0.00e+00	0	43	0	2834300928	12	4490
2026-01-09 04:16:36.65	265.68	15.17	-26.5	-28.4	15.0	1.10e-06	0	43	0	2840592384	12	4525
2026-01-09 04:16:37.66	265.53	15.09	-26.7	-28.4	14.7	0.00e+00	0	43	0	2845835264	13	4413
2026-01-09 04:16:38.67	265.39	15.01	-26.7	-28.6	14.6	0.00e+00	0	43	0	2852126720	13	4441
2026-01-09 04:16:39.68	265.24	14.93	-26.5	-28.0	14.9	0.00e+00	0	43	0	2857369600	13	4298
2026-01-09 04:16:40.68	265.10	14.85	-27.1	-29.0	14.1	3.40e-06	0	43	0	2862612480	14	4458
2026-01-09 04:16:41.69	264.95	14.77	-26.7	-28.1	14.6	0.00e+00	0	43	0	2868903936	14	4199
2026-01-09 04:16:42.69	264.81	14.69	-26.2	-27.4	15.3	0.00e+00	0	43	0	2874146816	13	4126
2026-01-09 04:16:43.69	264.67	14.61	-26.2	-27.9	15.3	0.00e+00	0	43	0	2879389696	12	4366
2026-01-09 04:16:44.69	264.53	14.53	-26.1	-27.7	15.4	0.00e+00	0	43	0	2885681152	12	4317
2026-01-09 04:16:45.70	264.39	14.45	-26.3	-28.1	15.2	0.00e+00	0	43	0	2890924032	12	4423
2026-01-09 04:16:46.71	264.25	14.37	-26.3	-28.2	15.1	6.80e-06	0	43	0	2896166912	12	4448
2026-01-09 04:16:47.71	264.11	14.30	-26.4	-28.4	15.0	1.10e-06	0	43	0	2902458368	12	4511
2026-01-09 04:16:48.71	263.98	14.22	-25.8	-26.9	15.8	0.00e+00	0	43	0	2907701248	12	4105
2026-01-09 04:16:49.72	263.84	14.14	-26.0	-27.4	15.5	6.80e-06	0	43	0	2913992704	12	4240
2026-01-09 04:16:50.73	263.70	14.06	-26.6	-28.2	14.8	3.72e-04	0	43	0	2919235584	13	4350
2026-01-09 04:16:51.74	263.57	13.98	-26.6	-28.4	14.7	0.00e+00	0	43	0	2925527040	13	4393
2026-01-09 04:16:52.74	263.43	13.90	-26.3	-27.6	15.1	0.00e+00	0	43	0	2930769920	13	4174
2026-01-09 04:16:53.75	263.30	13.82	-26.5	-28.0	14.9	0.00e+00	0	43	0	2936012800	13	4297
2026-01-09 04:16:54.75	263.17	13.75	-26.9	-29.1	14.3	0.00e+00	0	43	0	2942304256	13	4592
2026-01-09 04:16:55.76	263.03	13.67	-26.5	-27.6	14.8	1.14e-05	0	43	0	2947547136	14	4079
2026-01-09 04:16:56.77	262.90	13.59	-26.1	-27.7	15.4	0.00e+00	0	43	0	2952790016	12	4308
2026-01-09 04:16:57.77	262.77	13.51	-26.0	-27.5	15.4	8.33e-04	0	43	0	2959081472	12	4265
2026-01-09 04:16:58.78	262.64	13.44	-26.1	-27.8	15.3	4.50e-06	0	43	0	2964324352	12	4343
2026-01-09 04:16:59.79	262.51	13.36	-26.2	-28.0	15.2	8.18e-04	0	43	0	2970615808	12	4391
2026-01-09 04:17:00.79	262.38	13.28	-26.3	-28.1	15.1	0.00e+00	0	43	0	2975858688	12	4435
2026-01-09 04:17:01.80	262.25	13.20	-26.4	-27.7	15.0	0.00e+00	0	43	0	2981101568	13	4222
2026-01-09 04:17:02.80	262.13	13.13	-26.4	-28.4	14.9	3.66e-05	0	43	0	2987393024	12	4513
2026-01-09 04:17:03.80	262.00	13.05	-25.6	-27.2	13.5	0.00e+00	0	43	0	2992635904	12	4355
2026-01-09 04:17:04.81	261.87	12.97	-26.1	-27.6	11.6	8.00e-06	0	43	0	2998927360	12	4311
2026-01-09 04:17:05.82	261.75	12.89	-27.3	-29.4	13.4	5.70e-06	0	43	0	3004170240	14	4585
2026-01-09 04:17:06.82	261.62	12.82	-27.1	-28.8	14.1	1.21e-03	0	43	0	3010461696	14	4407
2026-01-09 04:17:07.83	261.50	12.74	-26.5	-28.1	14.8	1.14e-05	0	43	0	3015704576	13	4329
2026-01-09 04:17:08.84	261.37	12.66	-26.4	-28.3	15.0	1.35e-03	0	43	0	3020947456	12	4490
2026-01-09 04:17:09.84	261.25	12.59	-26.5	-28.2	14.7	1.26e-03	0	43	0	3027238912	13	4338
2026-01-09 04:17:10.85	261.13	12.51	-26.6	-28.3	14.6	2.48e-03	0	43	0	3032481792	13	4393
2026-01-09 04:17:11.86	261.01	12.44	-26.5	-28.5	14.8	1.29e-03	0	43	0	3037724672	12	4558
2026-01-09 04:17:12.85	260.89	12.36	-26.5	-28.1	14.7	1.10e-06	0	43	0	3044016128	13	4337
2026-01-09 04:17:13.86	260.76	12.28	-26.4	-28.3	14.9	5.81e-04	0	43	0	3049259008	12	4492
2026-01-09 04:17:14.87	260.64	12.21	-26.5	-28.2	14.7	9.15e-04	0	43	0	3055550464	13	4347
2026-01-09 04:17:15.88	260.52	12.13	-26.5	-28.1	14.8	3.93e-03	0	43	0	3060793344	13	4318
2026-01-09 04:17:16.88	260.41	12.06	-26.7	-28.5	14.5	1.10e-06	0	43	0	3066036224	13	4424
2026-01-09 04:17:17.89	260.29	11.98	-26.5	-28.0	14.8	1.61e-03	0	43	0	3072327680	13	4299
2026-01-09 04:17:18.90	260.17	11.90	-26.5	-28.0	14.8	3.11e-04	0	43	0	3077570560	13	4299
2026-01-09 04:17:19.91	260.05	11.83	-26.8	-28.7	14.4	3.21e-03	0	43	0	3083862016	13	4498
2026-01-09 04:17:20.91	259.94	11.75	-26.7	-28.6	14.4	8.09e-04	0	43	0	3089104896	13	4477
2026-01-09 04:17:21.92	259.82	11.68	-26.8	-28.7	14.3	2.89e-03	0	43	0	3095396352	13	4498
2026-01-09 04:17:22.92	259.71	11.60	-27.5	-29.5	13.3	2.69e-03	0	43	0	3100639232	15	4501
2026-01-09 04:17:23.93	259.59	11.53	-26.6	-27.9	14.6	3.94e-04	0	43	0	3105882112	14	4146
2026-01-09 04:17:24.94	259.48	11.45	-27.0	-29.1	14.2	2.36e-03	0	43	0	3112173568	13	4623
2026-01-09 04:17:25.93	259.37	11.38	-26.7	-28.7	14.4	1.84e-03	0	43	0	3117416448	13	4486
2026-01-09 04:17:26.94	259.25	11.31	-27.2	-29.2	13.8	3.28e-04	0	43	0	3122659328	14	4513
2026-01-09 04:17:27.94	259.14	11.23	-27.2	-29.1	13.8	2.17e-03	0	43	0	3128950784	14	4494
2026-01-09 04:17:28.95	259.03	11.16	-27.2	-29.2	13.7	1.57e-03	0	43	0	3134193664	14	4540
2026-01-09 04:17:29.96	258.92	11.08	-27.3	-29.3	13.7	5.63e-04	0	43	0	3139436544	14	4571
2026-01-09 04:17:30.96	258.81	11.01	-26.7	-28.6	14.4	5.98e-04	0	43	0	3145728000	13	4460
2026-01-09 04:17:31.97	258.70	10.93	-26.3	-27.7	14.9	9.30e-04	0	43	0	3150970880	13	4209
2026-01-09 04:17:32.98	258.59	10.86	-26.3	-28.2	14.9	0.00e+00	0	43	0	3157262336	12	4464
2026-01-09 04:17:33.99	258.48	10.79	-26.6	-28.2	14.6	8.94e-04	0	43	0	3162505216	13	4353
2026-01-09 04:17:34.99	258.37	10.71	-26.8	-28.8	14.3	5.70e-06	0	43	0	3168796672	13	4520
2026-01-09 04:17:36.00	258.27	10.64	-26.8	-28.8	14.3	0.00e+00	0	43	0	3174039552	13	4522
2026-01-09 04:17:37.00	258.16	10.57	-26.9	-29.0	14.1	1.60e-03	0	43	0	3179282432	13	4589
2026-01-09 04:17:38.01	258.05	10.49	-26.8	-28.8	14.2	0.00e+00	0	43	0	3185573888	13	4538
2026-01-09 04:17:39.02	257.95	10.42	-27.1	-29.0	13.9	8.00e-06	0	43	0	3190816768	14	4472
2026-01-09 04:17:40.03	257.84	10.35	-26.9	-28.5	14.1	4.50e-06	0	43	0	3197108224	14	4341
2026-01-09 04:17:41.03	257.74	10.27	-26.8	-28.8	14.2	1.33e-03	0	43	0	3202351104	13	4527
2026-01-09 04:17:42.04	257.63	10.20	-27.0	-28.7	14.0	0.00e+00	0	43	0	3207593984	14	4386
2026-01-09 04:17:43.05	257.53	10.13	-27.0	-28.8	13.9	1.25e-05	0	43	0	3213885440	14	4414
2026-01-09 04:17:44.05	257.43	10.06	-26.7	-28.6	14.3	2.20e-06	0	43	0	3219128320	13	4482
2026-01-09 04:17:45.06	257.32	9.98	-26.5	-28.1	14.6	0.00e+00	0	43	0	3224371200	13	4315
2026-01-09 04:17:46.06	257.22	9.91	-26.5	-28.2	14.5	1.25e-03	0	43	0	3230662656	13	4352
2026-01-09 04:17:47.07	257.12	9.84	-26.6	-28.3	14.4	1.10e-06	0	43	0	3235905536	13	4396
2026-01-09 04:17:48.08	257.02	9.77	-26.4	-28.0	14.6	0.00e+00	0	43	0	3242196992	13	4295
2026-01-09 04:17:49.08	256.92	9.69	-26.3	-28.3	14.7	0.00e+00	0	43	0	3247439872	12	4490
2026-01-09 04:17:50.09	256.82	9.62	-26.3	-28.2	14.8	1.10e-06	0	43	0	3253731328	12	4479
2026-01-09 04:17:51.09	256.72	9.55	-26.3	-28.2	14.8	1.10e-06	0	43	0	3258974208	12	4486
2026-01-09 04:17:52.10	256.62	9.48	-26.4	-28.4	14.6	0.00e+00	0	43	0	3264217088	12	4540
2026-01-09 04:17:53.10	256.52	9.41	-26.3	-28.2	14.7	0.00e+00	0	43	0	3270508544	12	4472
2026-01-09 04:17:54.11	256.42	9.34	-26.5	-28.2	14.5	0.00e+00	0	43	0	3275751424	13	4352
2026-01-09 04:17:55.12	256.32	9.27	-26.5	-28.1	14.5	9.10e-06	0	43	0	3282042880	13	4324
2026-01-09 04:17:56.12	256.23	9.19	-26.5	-28.1	14.4	1.10e-06	0	43	0	3287285760	13	4349
2026-01-09 04:17:57.13	256.13	9.12	-26.6	-28.3	14.4	0.00e+00	0	43	0	3292528640	13	4389
2026-01-09 04:17:58.13	256.04	9.05	-26.8	-28.8	14.1	8.00e-06	0	43	0	3298820096	13	4540
2026-01-09 04:17:59.14	255.94	8.98	-26.6	-28.3	14.4	3.40e-06	0	43	0	3304062976	13	4399
2026-01-09 04:18:00.15	255.84	8.91	-26.4	-28.0	14.5	1.10e-06	0	43	0	3309305856	13	4311
2026-01-09 04:18:01.15	255.75	8.84	-26.4	-28.5	14.5	2.20e-06	0	43	0	3315597312	12	4577
2026-01-09 04:18:02.15	255.66	8.77	-26.6	-28.3	14.4	2.20e-06	0	43	0	3320840192	13	4398
2026-01-09 04:18:03.16	255.56	8.70	-26.7	-28.5	14.2	2.20e-06	0	43	0	3327131648	13	4460
2026-01-09 04:18:04.17	255.47	8.63	-26.6	-28.3	14.3	8.00e-06	0	43	0	3332374528	13	4395
2026-01-09 04:18:05.17	255.38	8.56	-26.8	-28.8	14.1	2.20e-06	0	43	0	3338665984	13	4535
2026-01-09 04:18:06.18	255.28	8.49	-26.7	-28.7	14.1	3.40e-06	0	43	0	3343908864	13	4505
2026-01-09 04:18:07.19	255.19	8.42	-26.8	-28.8	14.1	1.02e-05	0	43	0	3349151744	13	4535
2026-01-09 04:18:08.18	255.10	8.35	-26.7	-28.5	14.2	2.20e-06	0	43	0	3355443200	13	4452
2026-01-09 04:18:09.19	255.01	8.28	-26.7	-28.6	14.1	3.40e-06	0	43	0	3360686080	13	4491
2026-01-09 04:18:10.20	254.92	8.21	-26.8	-28.9	14.0	9.10e-06	0	43	0	3365928960	13	4572
2026-01-09 04:18:11.19	254.83	8.15	-26.9	-29.0	13.9	6.80e-06	0	43	0	3372220416	13	4609
2026-01-09 04:18:12.20	254.74	8.08	-27.0	-28.7	13.8	1.14e-05	0	43	0	3377463296	14	4398
2026-01-09 04:18:13.20	254.65	8.01	-26.8	-28.9	13.9	8.00e-06	0	43	0	3382706176	13	4570
2026-01-09 04:18:14.21	254.56	7.94	-27.0	-28.9	13.6	1.14e-05	0	43	0	3388997632	14	4464
2026-01-09 04:18:15.21	254.47	7.87	-27.3	-29.4	13.4	3.31e-05	0	43	0	3394240512	14	4605
2026-01-09 04:18:16.21	254.39	7.80	-27.4	-29.3	13.1	4.69e-05	0	43	0	3400531968	15	4462
2026-01-09 04:18:17.22	254.30	7.73	-27.2	-29.2	13.4	3.20e-05	0	43	0	3405774848	14	4564
2026-01-09 04:18:18.22	254.21	7.66	-26.8	-28.4	13.9	1.02e-05	0	43	0	3412066304	14	4329
2026-01-09 04:18:19.23	254.12	7.60	-26.7	-28.7	14.0	9.10e-06	0	43	0	3417309184	13	4507
2026-01-09 04:18:20.24	254.04	7.53	-26.8	-28.9	12.7	5.70e-06	0	43	0	3422552064	13	4559
2026-01-09 04:18:21.25	253.95	7.46	-27.1	-29.1	13.0	2.05e-05	0	43	0	3428843520	14	4528
2026-01-09 04:18:22.25	253.87	7.39	-27.0	-28.9	13.6	3.31e-05	0	43	0	3434086400	14	4452
2026-01-09 04:18:23.26	253.78	7.32	-27.1	-29.0	13.4	2.05e-05	0	43	0	3439329280	14	4486
2026-01-09 04:18:24.26	253.70	7.26	-26.9	-29.0	13.8	9.53e-04	0	43	0	3445620736	13	4606
2026-01-09 04:18:25.27	253.61	7.19	-26.1	-27.9	13.0	1.02e-05	0	43	0	3450863616	13	4449
2026-01-09 04:18:26.28	253.53	7.12	-25.9	-27.9	13.2	9.42e-04	0	43	0	3457155072	13	4520
2026-01-09 04:18:27.28	253.45	7.05	-28.1	-31.2	9.5	3.40e-06	0	43	0	3462397952	16	5116
2026-01-09 04:18:28.29	253.36	6.99	-32.9	-44.2	3.8	8.46e-01	0	43	104	3463446528	25	13306

#Closed at: 2026-01-09 04:18:29
#Recorded file [3463 MB]: D:/data/31010_260109_070811.dat