passes_logs/2026/01/09/R2M6_AANII_01/R2M6_AANII_01__20260109_014826_NOAA_20_JPSS-1_rec.log

#Pass ID: 20260109_014826_NOAA 20 (JPSS-1)
#Satellite: NOAA 20 (JPSS-1)
#Configuration: NOAA 20
#almurnet v.1.7.20240730
#Start time: 2026-01-09 01:48:28

#Version: 2.2.20231116
#Station: R2M6_AANII_01
#Location: 30.233357 lon 59.946436 lat
#TLE: 1 43013U 17073A   26008.42245989  .00000120  00000+0  77990-4 0  9996
#TLE: 2 43013  98.7631 309.4315 0001737  48.7960 311.3365 14.19534455421802

#Time	Az	El	Level	Level2	SNR	BER	BlckErr	Temp	State	Recorded	gain1	gain2
2026-01-09 01:48:28.79	11.76	7.14	-32.2	-41.1	4.3	1.40e+00	0	40	0	0	24	10053
2026-01-09 01:48:29.79	11.69	7.21	-32.1	-40.9	4.3	1.40e+00	0	40	104	0	24	9850
2026-01-09 01:48:30.79	11.62	7.28	-32.2	-41.0	5.2	5.69e-01	0	41	0	0	24	9906
2026-01-09 01:48:31.80	11.55	7.35	-32.2	-40.7	5.4	5.44e-01	0	41	0	1048576	24	9586
2026-01-09 01:48:32.81	11.47	7.42	-32.1	-40.4	5.6	4.74e-01	0	41	0	3145728	24	9283
2026-01-09 01:48:33.81	11.40	7.49	-32.2	-40.5	5.6	4.31e-01	0	41	0	5242880	24	9388
2026-01-09 01:48:34.81	11.33	7.56	-32.2	-40.9	5.4	4.88e-01	0	41	0	7340032	24	9762
2026-01-09 01:48:35.82	11.25	7.63	-32.3	-41.2	5.2	5.68e-01	0	41	0	9437184	24	10030
2026-01-09 01:48:36.82	11.18	7.70	-32.2	-40.9	5.3	5.91e-01	0	41	0	10485760	24	9803
2026-01-09 01:48:37.83	11.11	7.77	-32.1	-40.1	5.9	4.65e-01	0	41	0	12582912	24	9001
2026-01-09 01:48:38.84	11.03	7.84	-32.0	-39.2	6.4	2.85e-01	0	41	0	14680064	24	8264
2026-01-09 01:48:39.84	10.96	7.91	-31.8	-38.6	7.3	1.46e-01	0	41	0	16777216	23	7856
2026-01-09 01:48:40.84	10.88	7.98	-31.6	-37.7	8.1	9.20e-02	0	41	0	18874368	23	7222
2026-01-09 01:48:41.85	10.80	8.06	-31.4	-36.7	8.8	3.64e-02	0	41	0	19922944	23	6625
2026-01-09 01:48:42.85	10.73	8.13	-31.2	-36.4	9.5	1.97e-02	0	41	0	22020096	22	6562
2026-01-09 01:48:43.86	10.65	8.20	-31.0	-35.5	10.1	9.19e-03	0	41	0	24117248	22	6080
2026-01-09 01:48:44.86	10.57	8.27	-30.9	-35.7	10.4	5.21e-03	0	41	0	26214400	21	6255
2026-01-09 01:48:45.87	10.50	8.34	-30.9	-36.0	10.2	5.26e-03	0	41	0	28311552	21	6416
2026-01-09 01:48:46.87	10.42	8.42	-31.0	-36.1	10.1	6.07e-03	0	41	0	29360128	21	6487
2026-01-09 01:48:47.88	10.34	8.49	-30.1	-35.2	10.2	5.68e-03	0	41	0	31457280	21	6455
2026-01-09 01:48:48.89	10.26	8.56	-31.0	-35.7	10.1	7.02e-03	0	41	0	33554432	22	6153
2026-01-09 01:48:49.89	10.18	8.63	-31.0	-35.7	10.1	7.52e-03	0	41	0	35651584	22	6166
2026-01-09 01:48:50.90	10.10	8.71	-31.0	-35.6	10.1	5.96e-03	0	41	0	37748736	22	6135
2026-01-09 01:48:51.91	10.02	8.78	-31.1	-36.0	9.8	1.11e-02	0	41	0	38797312	22	6331
2026-01-09 01:48:52.91	9.94	8.85	-31.1	-36.1	9.8	1.01e-02	0	41	0	40894464	22	6344
2026-01-09 01:48:53.92	9.86	8.93	-31.2	-36.3	9.6	1.07e-02	0	41	0	42991616	22	6498
2026-01-09 01:48:54.92	9.78	9.00	-31.1	-35.9	10.0	1.33e-02	0	41	0	45088768	22	6278
2026-01-09 01:48:55.93	9.70	9.08	-30.9	-35.6	10.5	5.08e-03	0	41	0	46137344	21	6227
2026-01-09 01:48:56.94	9.61	9.15	-30.7	-35.2	10.9	3.05e-03	0	41	0	48234496	21	6002
2026-01-09 01:48:57.94	9.53	9.22	-30.7	-35.2	10.9	2.01e-03	0	41	0	50331648	21	6007
2026-01-09 01:48:58.95	9.45	9.30	-30.7	-35.2	10.9	4.43e-03	0	41	0	52428800	21	5999
2026-01-09 01:48:59.95	9.37	9.37	-30.7	-34.9	11.1	1.80e-03	0	41	0	54525952	21	5850
2026-01-09 01:49:00.95	9.28	9.45	-30.8	-35.4	10.7	2.01e-03	0	42	0	56623104	21	6124
2026-01-09 01:49:01.96	9.20	9.52	-30.7	-34.9	11.1	4.26e-03	0	41	0	57671680	21	5839
2026-01-09 01:49:02.97	9.11	9.60	-30.5	-34.5	11.4	1.08e-03	0	42	0	59768832	21	5661
2026-01-09 01:49:03.97	9.03	9.67	-30.5	-34.5	11.4	9.31e-04	0	42	0	61865984	21	5679
2026-01-09 01:49:04.97	8.94	9.75	-30.6	-34.6	11.4	8.86e-04	0	42	0	63963136	21	5705
2026-01-09 01:49:05.97	8.86	9.82	-30.7	-34.9	11.1	1.69e-03	0	42	0	65011712	21	5851
2026-01-09 01:49:06.97	8.77	9.90	-30.7	-34.9	11.1	1.57e-03	0	41	0	67108864	21	5868
2026-01-09 01:49:07.98	8.68	9.97	-30.6	-34.8	11.2	1.35e-03	0	42	0	69206016	21	5821
2026-01-09 01:49:08.99	8.59	10.05	-30.7	-34.9	11.2	2.19e-03	0	42	0	71303168	21	5844
2026-01-09 01:49:09.99	8.51	10.13	-30.6	-34.8	11.3	4.00e-03	0	42	0	73400320	21	5797
2026-01-09 01:49:11.00	8.42	10.20	-30.5	-34.5	11.5	8.97e-04	0	41	0	74448896	21	5663
2026-01-09 01:49:12.01	8.33	10.28	-30.6	-34.5	11.5	1.29e-03	0	42	0	76546048	21	5667
2026-01-09 01:49:13.01	8.24	10.36	-30.5	-34.2	11.7	3.25e-03	0	42	0	78643200	21	5549
2026-01-09 01:49:14.01	8.15	10.43	-30.6	-34.7	11.3	6.90e-04	0	42	0	80740352	21	5775
2026-01-09 01:49:15.01	8.06	10.51	-30.5	-34.4	11.6	1.31e-03	0	42	0	82837504	21	5636
2026-01-09 01:49:16.02	7.97	10.59	-30.3	-34.1	12.2	3.01e-03	0	42	0	83886080	20	5577
2026-01-09 01:49:17.02	7.88	10.66	-30.3	-34.2	12.1	2.99e-03	0	42	0	85983232	20	5626
2026-01-09 01:49:18.03	7.78	10.74	-30.2	-34.0	12.2	2.49e-04	0	42	0	88080384	20	5557
2026-01-09 01:49:19.03	7.69	10.82	-30.2	-33.9	12.3	2.76e-03	0	42	0	90177536	20	5528
2026-01-09 01:49:20.03	7.60	10.90	-30.2	-33.9	12.3	2.47e-03	0	42	0	92274688	20	5507
2026-01-09 01:49:21.04	7.51	10.97	-30.3	-34.1	12.2	4.13e-04	0	42	0	93323264	20	5574
2026-01-09 01:49:22.04	7.41	11.05	-30.3	-34.3	12.0	2.63e-03	0	42	0	95420416	20	5687
2026-01-09 01:49:23.05	7.32	11.13	-30.2	-33.9	12.3	2.70e-03	0	42	0	97517568	20	5509
2026-01-09 01:49:24.06	7.22	11.21	-30.2	-33.8	12.4	2.82e-04	0	42	0	99614720	20	5474
2026-01-09 01:49:25.06	7.13	11.29	-30.2	-33.8	12.5	2.56e-03	0	42	0	101711872	20	5447
2026-01-09 01:49:26.07	7.03	11.37	-30.1	-33.7	12.5	2.57e-03	0	42	0	102760448	20	5436
2026-01-09 01:49:27.08	6.93	11.45	-30.2	-33.9	12.3	2.33e-04	0	42	0	104857600	20	5520
2026-01-09 01:49:28.08	6.83	11.52	-30.2	-33.9	12.3	2.60e-03	0	42	0	106954752	20	5493
2026-01-09 01:49:29.09	6.74	11.60	-30.2	-33.8	12.4	2.41e-03	0	42	0	109051904	20	5471
2026-01-09 01:49:30.09	6.64	11.68	-30.3	-34.3	12.1	3.33e-04	0	42	0	111149056	20	5665
2026-01-09 01:49:31.09	6.54	11.76	-30.3	-34.1	12.2	2.51e-03	0	42	0	112197632	20	5602
2026-01-09 01:49:32.10	6.44	11.84	-30.2	-33.9	12.4	2.54e-03	0	42	0	114294784	20	5483
2026-01-09 01:49:33.10	6.34	11.92	-30.2	-33.9	12.4	3.62e-04	0	42	0	116391936	20	5506
2026-01-09 01:49:34.11	6.24	12.00	-30.2	-33.8	12.5	2.83e-03	0	42	0	118489088	20	5442
2026-01-09 01:49:35.11	6.14	12.08	-30.2	-34.0	12.3	1.50e-04	0	42	0	120586240	20	5529
2026-01-09 01:49:36.12	6.04	12.16	-30.3	-34.2	12.1	6.78e-04	0	42	0	121634816	20	5647
2026-01-09 01:49:37.13	5.93	12.25	-30.3	-34.0	12.3	2.90e-03	0	42	0	123731968	20	5549
2026-01-09 01:49:38.13	5.83	12.33	-30.2	-33.9	12.3	2.83e-03	0	42	0	125829120	20	5519
2026-01-09 01:49:39.14	5.73	12.41	-30.3	-34.0	12.3	1.64e-04	0	42	0	127926272	20	5533
2026-01-09 01:49:40.14	5.62	12.49	-30.3	-34.2	12.2	2.72e-03	0	42	0	130023424	20	5615
2026-01-09 01:49:41.15	5.52	12.57	-30.5	-34.6	11.9	3.21e-03	0	42	0	131072000	20	5816
2026-01-09 01:49:42.16	5.41	12.65	-30.5	-34.1	11.9	4.22e-04	0	42	0	133169152	21	5485
2026-01-09 01:49:43.16	5.31	12.73	-30.6	-34.4	11.7	3.40e-03	0	42	0	135266304	21	5616
2026-01-09 01:49:44.17	5.20	12.82	-30.6	-34.4	11.8	3.55e-03	0	42	0	137363456	21	5577
2026-01-09 01:49:45.18	5.09	12.90	-30.6	-34.4	11.7	5.45e-04	0	42	0	139460608	21	5604
2026-01-09 01:49:46.18	4.98	12.98	-30.6	-34.5	11.8	5.66e-04	0	42	0	140509184	21	5617
2026-01-09 01:49:47.19	4.88	13.06	-30.7	-34.6	11.7	3.08e-03	0	42	0	142606336	21	5673
2026-01-09 01:49:48.20	4.77	13.15	-30.7	-34.7	11.5	9.96e-04	0	42	0	144703488	21	5727
2026-01-09 01:49:49.21	4.66	13.23	-30.4	-33.9	12.1	3.35e-04	0	42	0	146800640	21	5383
2026-01-09 01:49:50.21	4.55	13.31	-30.3	-34.1	12.4	1.95e-04	0	42	0	148897792	20	5553
2026-01-09 01:49:51.22	4.43	13.40	-30.5	-34.0	12.1	3.74e-04	0	42	0	149946368	21	5392
2026-01-09 01:49:52.22	4.32	13.48	-30.3	-34.0	12.5	1.50e-04	0	42	0	152043520	20	5500
2026-01-09 01:49:53.22	4.21	13.56	-30.2	-33.8	12.6	9.30e-05	0	42	0	154140672	20	5425
2026-01-09 01:49:54.23	4.10	13.65	-30.1	-33.5	12.8	2.51e-04	0	42	0	156237824	20	5318
2026-01-09 01:49:55.23	3.99	13.73	-30.1	-33.5	12.8	8.31e-05	0	42	0	158334976	20	5307
2026-01-09 01:49:56.24	3.87	13.81	-30.1	-33.4	12.9	6.02e-05	0	42	0	159383552	20	5290
2026-01-09 01:49:57.25	3.75	13.90	-30.1	-33.4	12.9	7.24e-05	0	42	0	161480704	20	5280
2026-01-09 01:49:58.26	3.64	13.98	-30.1	-33.5	12.8	2.54e-03	0	42	0	163577856	20	5309
2026-01-09 01:49:59.26	3.52	14.07	-30.1	-33.6	12.8	5.79e-05	0	42	0	165675008	20	5336
2026-01-09 01:50:00.28	3.40	14.15	-30.2	-33.7	12.7	7.47e-05	0	42	0	167772160	20	5386
2026-01-09 01:50:01.29	3.29	14.24	-30.3	-33.9	12.7	2.88e-03	0	42	0	168820736	20	5437
2026-01-09 01:50:02.29	3.17	14.32	-30.3	-33.9	12.6	7.85e-05	0	42	0	170917888	20	5446
2026-01-09 01:50:03.30	3.05	14.41	-30.3	-33.9	12.6	7.93e-05	0	43	0	173015040	20	5459
2026-01-09 01:50:04.31	2.93	14.50	-30.4	-34.1	12.4	1.04e-04	0	42	0	175112192	20	5558
2026-01-09 01:50:05.31	2.81	14.58	-30.3	-33.9	12.6	9.61e-05	0	42	0	177209344	20	5480
2026-01-09 01:50:06.32	2.69	14.67	-30.3	-33.9	12.6	9.00e-05	0	42	0	178257920	20	5452
2026-01-09 01:50:07.32	2.57	14.75	-30.4	-34.2	12.5	8.62e-05	0	42	0	180355072	20	5574
2026-01-09 01:50:08.33	2.44	14.84	-30.4	-34.1	12.5	1.16e-04	0	43	0	182452224	20	5543
2026-01-09 01:50:09.34	2.32	14.93	-30.3	-34.0	12.6	1.06e-04	0	42	0	184549376	20	5510
2026-01-09 01:50:10.34	2.19	15.01	-30.3	-34.0	12.5	1.11e-04	0	42	0	186646528	20	5508
2026-01-09 01:50:11.34	2.07	15.10	-30.4	-34.2	12.4	1.14e-04	0	42	0	187695104	20	5580
2026-01-09 01:50:12.35	1.94	15.19	-30.3	-33.9	12.6	8.92e-05	0	42	0	189792256	20	5445
2026-01-09 01:50:13.36	1.82	15.27	-30.3	-33.8	12.7	7.01e-05	0	42	0	191889408	20	5424
2026-01-09 01:50:14.37	1.69	15.36	-30.3	-34.0	12.6	7.70e-05	0	43	0	193986560	20	5486
2026-01-09 01:50:15.37	1.56	15.45	-30.3	-33.9	12.6	9.38e-05	0	42	0	196083712	20	5476
2026-01-09 01:50:16.38	1.43	15.54	-30.3	-34.1	12.5	1.36e-04	0	42	0	197132288	20	5538
2026-01-09 01:50:17.39	1.30	15.62	-30.2	-33.8	12.7	1.08e-04	0	42	0	199229440	20	5429
2026-01-09 01:50:18.39	1.17	15.71	-30.3	-33.8	12.7	2.78e-03	0	43	0	201326592	20	5443
2026-01-09 01:50:19.40	1.04	15.80	-30.3	-34.0	12.5	1.34e-04	0	43	0	203423744	20	5516
2026-01-09 01:50:20.40	0.91	15.89	-30.2	-33.7	12.8	7.78e-05	0	42	0	205520896	20	5357
2026-01-09 01:50:21.41	0.78	15.98	-30.3	-34.1	12.5	6.63e-05	0	43	0	206569472	20	5522
2026-01-09 01:50:22.42	0.64	16.06	-30.4	-34.2	12.5	3.46e-04	0	43	0	208666624	20	5570
2026-01-09 01:50:23.42	0.51	16.15	-30.4	-34.0	12.7	1.03e-04	0	43	0	210763776	20	5482
2026-01-09 01:50:24.43	0.37	16.24	-30.3	-34.0	12.8	6.10e-05	0	43	0	212860928	20	5456
2026-01-09 01:50:25.43	0.24	16.33	-30.4	-34.0	12.7	2.93e-03	0	43	0	214958080	20	5490
2026-01-09 01:50:26.44	0.10	16.42	-30.4	-34.1	12.6	9.07e-05	0	43	0	216006656	20	5536
2026-01-09 01:50:27.44	359.96	16.51	-30.5	-34.0	12.5	1.16e-04	0	43	0	218103808	21	5355
2026-01-09 01:50:28.45	359.82	16.60	-30.6	-34.1	12.3	2.96e-03	0	43	0	220200960	21	5411
2026-01-09 01:50:29.45	359.69	16.69	-30.5	-34.0	12.4	3.54e-04	0	43	0	222298112	21	5378
2026-01-09 01:50:30.45	359.55	16.78	-30.5	-33.9	12.5	1.19e-04	0	43	0	224395264	21	5331
2026-01-09 01:50:31.46	359.41	16.87	-30.6	-34.1	12.3	1.15e-04	0	43	0	225443840	21	5419
2026-01-09 01:50:32.47	359.26	16.96	-30.5	-34.0	12.4	6.24e-04	0	42	0	227540992	21	5368
2026-01-09 01:50:33.48	359.12	17.05	-30.5	-34.0	12.4	1.54e-04	0	43	0	229638144	21	5359
2026-01-09 01:50:34.48	358.98	17.14	-30.5	-34.3	12.5	1.31e-04	0	43	0	231735296	20	5604
2026-01-09 01:50:35.49	358.83	17.23	-30.5	-34.2	12.6	6.28e-04	0	43	0	233832448	20	5569
2026-01-09 01:50:36.50	358.69	17.32	-30.3	-34.0	12.7	2.69e-03	0	42	0	234881024	20	5459
2026-01-09 01:50:37.51	358.54	17.41	-30.4	-34.1	12.7	6.10e-05	0	43	0	236978176	20	5498
2026-01-09 01:50:38.51	358.39	17.50	-30.4	-34.1	12.6	6.38e-04	0	43	0	239075328	20	5526
2026-01-09 01:50:39.52	358.24	17.59	-30.4	-34.1	12.7	2.67e-03	0	43	0	241172480	20	5522
2026-01-09 01:50:40.53	358.09	17.69	-30.4	-34.2	12.7	3.92e-04	0	43	0	243269632	20	5547
2026-01-09 01:50:41.54	357.94	17.78	-30.3	-33.9	12.8	6.80e-04	0	42	0	244318208	20	5424
2026-01-09 01:50:42.55	357.79	17.87	-30.2	-33.7	12.9	2.42e-03	0	43	0	246415360	20	5371
2026-01-09 01:50:43.55	357.64	17.96	-30.2	-33.7	12.9	3.01e-03	0	43	0	248512512	20	5373
2026-01-09 01:50:44.56	357.49	18.05	-30.2	-33.5	13.0	4.95e-04	0	43	0	250609664	20	5277
2026-01-09 01:50:45.57	357.33	18.14	-30.1	-33.3	13.2	2.63e-03	0	42	0	252706816	20	5204
2026-01-09 01:50:46.58	357.18	18.24	-30.2	-33.7	12.9	2.91e-03	0	43	0	253755392	20	5345
2026-01-09 01:50:47.58	357.02	18.33	-30.1	-33.4	13.1	5.11e-04	0	43	0	255852544	20	5233
2026-01-09 01:50:48.59	356.86	18.42	-30.1	-33.2	13.2	2.46e-03	0	43	0	257949696	20	5176
2026-01-09 01:50:49.60	356.71	18.51	-30.1	-33.2	13.2	2.57e-03	0	43	0	260046848	20	5179
2026-01-09 01:50:50.60	356.55	18.61	-30.1	-33.3	13.2	7.37e-04	0	43	0	262144000	20	5205
2026-01-09 01:50:51.61	356.39	18.70	-30.1	-33.2	13.3	2.14e-03	0	43	0	263192576	20	5152
2026-01-09 01:50:52.62	356.23	18.79	-30.0	-33.0	13.4	2.89e-03	0	43	0	265289728	20	5088
2026-01-09 01:50:53.62	356.07	18.88	-30.1	-33.2	13.3	8.55e-04	0	43	0	267386880	20	5155
2026-01-09 01:50:54.63	355.90	18.98	-30.0	-33.0	13.4	2.36e-03	0	43	0	269484032	20	5077
2026-01-09 01:50:55.63	355.74	19.07	-30.0	-33.0	13.3	2.22e-03	0	43	0	271581184	20	5103
2026-01-09 01:50:56.64	355.57	19.16	-30.1	-33.4	13.2	7.12e-04	0	43	0	272629760	20	5236
2026-01-09 01:50:57.64	355.41	19.26	-30.0	-33.0	13.4	2.28e-03	0	43	0	274726912	20	5083
2026-01-09 01:50:58.64	355.24	19.35	-29.9	-32.7	13.6	2.03e-03	0	43	0	276824064	20	4974
2026-01-09 01:50:59.64	355.08	19.44	-30.0	-33.4	13.6	8.30e-04	0	43	0	278921216	19	5339
2026-01-09 01:51:00.64	354.91	19.54	-29.9	-33.3	13.6	2.07e-03	0	43	0	281018368	19	5287
2026-01-09 01:51:01.65	354.74	19.63	-29.8	-33.0	13.8	3.80e-06	0	43	0	282066944	19	5186
2026-01-09 01:51:02.66	354.57	19.72	-29.9	-33.1	13.7	2.71e-04	0	43	0	284164096	19	5219
2026-01-09 01:51:03.66	354.40	19.82	-29.9	-33.2	13.7	2.04e-03	0	43	0	286261248	19	5249
2026-01-09 01:51:04.67	354.22	19.91	-29.9	-33.1	13.8	2.31e-03	0	43	0	288358400	19	5220
2026-01-09 01:51:05.68	354.05	20.01	-30.0	-33.3	13.6	6.80e-06	0	43	0	289406976	19	5308
2026-01-09 01:51:06.69	353.87	20.10	-29.9	-33.2	13.7	1.79e-03	0	43	0	291504128	19	5274
2026-01-09 01:51:07.69	353.70	20.19	-29.9	-33.2	13.7	2.02e-03	0	43	0	293601280	19	5266
2026-01-09 01:51:08.70	353.52	20.29	-29.9	-32.8	13.5	1.14e-05	0	43	0	295698432	20	5019
2026-01-09 01:51:09.71	353.34	20.38	-30.0	-33.1	13.4	1.63e-03	0	43	0	297795584	20	5121
2026-01-09 01:51:10.72	353.16	20.48	-30.1	-33.3	13.2	1.84e-03	0	43	0	299892736	20	5207
2026-01-09 01:51:11.72	352.98	20.57	-30.2	-33.6	13.0	3.20e-05	0	43	0	300941312	20	5301
2026-01-09 01:51:12.72	352.80	20.67	-30.2	-33.6	13.1	4.57e-05	0	43	0	303038464	20	5319
2026-01-09 01:51:13.73	352.61	20.76	-30.3	-33.8	12.9	1.57e-03	0	43	0	305135616	20	5396
2026-01-09 01:51:14.74	352.43	20.86	-30.4	-34.0	12.9	5.29e-04	0	43	0	307232768	20	5458
2026-01-09 01:51:15.74	352.24	20.95	-30.3	-33.9	12.9	3.43e-05	0	43	0	309329920	20	5406
2026-01-09 01:51:16.74	352.06	21.04	-30.4	-34.1	12.8	1.43e-03	0	43	0	310378496	20	5493
2026-01-09 01:51:17.75	351.87	21.14	-30.5	-33.9	12.5	2.02e-04	0	43	0	312475648	21	5336
2026-01-09 01:51:18.75	351.68	21.23	-30.6	-34.2	12.4	1.55e-04	0	43	0	314572800	21	5434
2026-01-09 01:51:19.75	351.49	21.33	-30.8	-34.7	12.0	2.46e-04	0	43	0	316669952	21	5658
2026-01-09 01:51:20.76	351.30	21.42	-30.7	-34.6	12.1	5.07e-04	0	43	0	317718528	21	5611
2026-01-09 01:51:21.76	351.11	21.52	-30.5	-34.0	12.5	1.21e-04	0	43	0	319815680	21	5339
2026-01-09 01:51:22.77	350.92	21.61	-30.4	-33.6	12.7	8.16e-05	0	43	0	321912832	21	5215
2026-01-09 01:51:23.77	350.72	21.70	-30.5	-33.8	12.6	1.22e-04	0	43	0	324009984	21	5278
2026-01-09 01:51:24.78	350.53	21.80	-30.5	-33.9	12.6	1.77e-03	0	43	0	326107136	21	5312
2026-01-09 01:51:25.78	350.33	21.89	-30.6	-34.2	12.3	1.17e-04	0	43	0	327155712	21	5444
2026-01-09 01:51:26.79	350.13	21.99	-30.5	-34.0	12.5	1.51e-04	0	43	0	329252864	21	5345
2026-01-09 01:51:27.80	349.93	22.08	-30.1	-33.2	12.8	1.86e-03	0	43	0	331350016	21	5173
2026-01-09 01:51:28.80	349.73	22.18	-30.3	-33.9	12.9	3.89e-05	0	43	0	333447168	20	5409
2026-01-09 01:51:29.80	349.53	22.27	-30.3	-33.9	13.0	3.58e-05	0	43	0	335544320	20	5406
2026-01-09 01:51:30.81	349.32	22.37	-30.3	-33.7	13.0	4.04e-05	0	43	0	336592896	20	5351
2026-01-09 01:51:31.81	349.12	22.46	-30.2	-33.6	13.2	4.42e-05	0	43	0	338690048	20	5304
2026-01-09 01:51:32.81	348.92	22.55	-30.3	-33.8	13.0	2.44e-05	0	43	0	340787200	20	5369
2026-01-09 01:51:33.81	348.71	22.65	-30.2	-33.6	13.1	2.74e-05	0	43	0	342884352	20	5312
2026-01-09 01:51:34.82	348.50	22.74	-30.2	-33.6	13.2	2.44e-05	0	43	0	344981504	20	5289
2026-01-09 01:51:35.83	348.29	22.84	-30.4	-34.0	12.8	3.96e-05	0	43	0	346030080	20	5479
2026-01-09 01:51:36.84	348.08	22.93	-30.3	-33.7	13.1	4.11e-05	0	43	0	348127232	20	5345
2026-01-09 01:51:37.84	347.87	23.03	-30.1	-33.2	13.4	2.21e-05	0	43	0	350224384	20	5160
2026-01-09 01:51:38.85	347.65	23.12	-30.0	-32.9	13.6	9.10e-06	0	43	0	352321536	20	5014
2026-01-09 01:51:39.85	347.44	23.21	-30.0	-32.9	13.6	6.80e-06	0	43	0	354418688	20	5046
2026-01-09 01:51:40.86	347.22	23.31	-29.9	-32.7	13.7	9.10e-06	0	43	0	355467264	20	4978
2026-01-09 01:51:41.86	347.00	23.40	-29.8	-32.4	13.9	1.50e-06	0	43	0	357564416	20	4846
2026-01-09 01:51:42.86	346.79	23.49	-29.8	-32.3	14.0	1.50e-06	0	43	0	359661568	20	4829
2026-01-09 01:51:43.86	346.57	23.59	-29.9	-32.7	13.7	2.20e-06	0	43	0	361758720	20	4957
2026-01-09 01:51:44.87	346.34	23.68	-29.9	-32.6	13.8	6.10e-06	0	43	0	363855872	20	4914
2026-01-09 01:51:45.87	346.12	23.77	-29.8	-32.8	14.0	1.50e-06	0	43	0	364904448	19	5097
2026-01-09 01:51:46.88	345.90	23.87	-29.9	-33.0	13.9	1.50e-06	0	43	0	367001600	19	5176
2026-01-09 01:51:47.89	345.67	23.96	-29.8	-32.9	14.0	1.50e-06	0	43	0	369098752	19	5147
2026-01-09 01:51:48.89	345.44	24.05	-29.7	-32.6	14.1	2.05e-05	0	43	0	371195904	19	5040
2026-01-09 01:51:49.90	345.22	24.15	-29.7	-32.5	14.2	1.52e-05	0	43	0	373293056	19	4999
2026-01-09 01:51:50.90	344.99	24.24	-29.8	-32.9	14.0	7.00e-07	0	43	0	374341632	19	5116
2026-01-09 01:51:51.91	344.75	24.33	-29.7	-32.5	14.2	1.98e-03	0	43	0	376438784	19	4987
2026-01-09 01:51:52.91	344.52	24.42	-29.7	-32.6	14.2	3.00e-06	0	43	0	378535936	19	5005
2026-01-09 01:51:53.92	344.29	24.51	-29.8	-32.8	14.1	1.50e-06	0	43	0	380633088	19	5087
2026-01-09 01:51:54.92	344.05	24.61	-29.8	-32.8	14.1	1.50e-06	0	43	0	382730240	19	5105
2026-01-09 01:51:55.93	343.82	24.70	-29.8	-32.8	14.1	2.67e-05	0	43	0	383778816	19	5093
2026-01-09 01:51:56.94	343.58	24.79	-29.9	-33.0	14.0	1.50e-06	0	43	0	385875968	19	5163
2026-01-09 01:51:57.94	343.34	24.88	-30.0	-33.3	13.8	2.20e-06	0	43	0	387973120	19	5271
2026-01-09 01:51:58.95	343.10	24.97	-29.8	-32.8	14.1	2.33e-04	0	43	0	390070272	19	5106
2026-01-09 01:51:59.95	342.86	25.06	-29.6	-32.5	14.3	7.00e-07	0	43	0	392167424	19	4975
2026-01-09 01:52:00.96	342.61	25.15	-29.6	-32.4	14.4	1.87e-04	0	43	0	393216000	19	4954
2026-01-09 01:52:01.96	342.37	25.24	-29.5	-32.1	14.6	1.57e-04	0	43	0	395313152	19	4835
2026-01-09 01:52:02.97	342.12	25.33	-29.5	-32.2	14.5	2.06e-03	0	43	0	397410304	19	4863
2026-01-09 01:52:03.97	341.87	25.42	-29.5	-32.1	14.6	4.57e-05	0	43	0	399507456	19	4830
2026-01-09 01:52:04.98	341.62	25.51	-29.6	-32.2	14.5	1.50e-06	0	43	0	401604608	19	4890
2026-01-09 01:52:05.99	341.37	25.60	-29.7	-32.5	14.3	2.36e-03	0	43	0	402653184	19	4965
2026-01-09 01:52:06.99	341.12	25.69	-29.6	-32.3	14.4	2.24e-04	0	43	0	404750336	19	4925
2026-01-09 01:52:08.00	340.87	25.78	-29.7	-32.6	14.3	3.07e-04	0	43	0	406847488	19	5019
2026-01-09 01:52:09.00	340.61	25.86	-29.9	-33.0	14.0	2.24e-03	0	43	0	408944640	19	5166
2026-01-09 01:52:10.01	340.36	25.95	-30.0	-32.9	13.7	2.53e-03	0	43	0	411041792	20	5013
2026-01-09 01:52:11.02	340.10	26.04	-30.0	-32.7	13.9	6.84e-04	0	43	0	412090368	20	4962
2026-01-09 01:52:12.01	339.84	26.12	-30.0	-33.2	13.9	2.13e-03	0	43	0	414187520	19	5239
2026-01-09 01:52:13.02	339.58	26.21	-30.1	-33.2	13.5	3.28e-03	0	43	0	416284672	20	5140
2026-01-09 01:52:14.03	339.32	26.30	-30.6	-34.0	12.6	1.10e-03	0	43	0	418381824	21	5331
2026-01-09 01:52:15.03	339.05	26.38	-30.5	-33.7	12.8	9.91e-05	0	43	0	420478976	21	5234
2026-01-09 01:52:16.04	338.79	26.47	-30.7	-34.3	12.5	3.46e-03	0	43	0	421527552	21	5441
2026-01-09 01:52:17.04	338.52	26.55	-30.6	-33.9	12.8	1.08e-03	0	43	0	423624704	21	5286
2026-01-09 01:52:18.05	338.25	26.64	-30.5	-33.9	12.8	6.40e-05	0	43	0	425721856	21	5273
2026-01-09 01:52:19.05	337.98	26.72	-30.5	-33.7	12.8	2.12e-03	0	43	0	427819008	21	5227
2026-01-09 01:52:20.05	337.72	26.80	-30.7	-34.2	12.7	1.47e-03	0	43	0	429916160	21	5415
2026-01-09 01:52:21.05	337.44	26.89	-31.1	-34.9	11.8	2.37e-03	0	43	0	430964736	22	5585
2026-01-09 01:52:22.06	337.17	26.97	-30.8	-34.5	12.4	2.59e-03	0	43	0	433061888	21	5536
2026-01-09 01:52:23.07	336.89	27.05	-30.5	-33.8	12.8	8.01e-05	0	43	0	435159040	21	5257
2026-01-09 01:52:24.07	336.62	27.13	-30.5	-33.7	13.0	2.20e-03	0	43	0	437256192	21	5198
2026-01-09 01:52:25.08	336.34	27.22	-30.6	-33.9	12.8	1.44e-03	0	43	0	438304768	21	5286
2026-01-09 01:52:26.08	336.06	27.30	-30.7	-34.2	12.7	1.77e-04	0	43	0	440401920	21	5385
2026-01-09 01:52:27.09	335.78	27.38	-30.8	-34.5	12.5	1.55e-03	0	43	0	442499072	21	5526
2026-01-09 01:52:28.09	335.50	27.46	-31.0	-34.6	12.1	2.20e-03	0	43	0	444596224	22	5459
2026-01-09 01:52:29.10	335.21	27.53	-30.9	-34.2	12.3	3.78e-04	0	43	0	446693376	22	5303
2026-01-09 01:52:30.11	334.93	27.61	-30.7	-34.1	12.7	1.55e-03	0	43	0	448790528	21	5366
2026-01-09 01:52:31.11	334.64	27.69	-30.9	-34.7	12.3	2.67e-03	0	43	0	449839104	21	5617
2026-01-09 01:52:32.11	334.36	27.77	-31.1	-34.8	11.9	4.00e-04	0	43	0	451936256	22	5545
2026-01-09 01:52:33.12	334.06	27.85	-30.8	-34.2	12.3	9.34e-04	0	43	0	454033408	22	5274
2026-01-09 01:52:34.12	333.78	27.92	-30.6	-34.1	12.7	3.45e-04	0	43	0	456130560	21	5348
2026-01-09 01:52:35.13	333.48	28.00	-30.5	-33.6	13.1	1.24e-03	0	43	0	457179136	21	5164
2026-01-09 01:52:36.14	333.19	28.07	-30.5	-33.8	12.9	2.02e-04	0	43	0	459276288	21	5233
2026-01-09 01:52:37.15	332.89	28.15	-30.7	-34.2	12.6	7.82e-04	0	43	0	461373440	21	5398
2026-01-09 01:52:38.15	332.60	28.22	-30.7	-34.4	12.5	7.27e-04	0	43	0	463470592	21	5484
2026-01-09 01:52:39.16	332.30	28.29	-30.8	-34.7	12.4	1.72e-04	0	43	0	465567744	21	5591
2026-01-09 01:52:40.16	332.00	28.37	-30.8	-34.4	12.5	2.07e-03	0	43	0	466616320	21	5507
2026-01-09 01:52:41.17	331.70	28.44	-30.8	-34.6	12.3	5.39e-04	0	43	0	468713472	21	5562
2026-01-09 01:52:42.17	331.40	28.51	-30.8	-34.4	12.4	1.53e-04	0	43	0	470810624	21	5500
2026-01-09 01:52:43.18	331.09	28.58	-30.6	-34.0	12.8	1.75e-04	0	43	0	472907776	21	5311
2026-01-09 01:52:44.19	330.79	28.65	-30.7	-34.4	12.5	4.94e-04	0	43	0	475004928	21	5471
2026-01-09 01:52:45.20	330.48	28.72	-30.8	-34.7	12.2	2.12e-04	0	43	0	477102080	21	5605
2026-01-09 01:52:46.20	330.17	28.78	-30.7	-34.2	12.6	1.30e-04	0	43	0	478150656	21	5381
2026-01-09 01:52:47.21	329.86	28.85	-30.6	-34.0	12.7	7.89e-04	0	43	0	480247808	21	5337
2026-01-09 01:52:48.22	329.55	28.92	-30.6	-33.9	12.8	2.15e-03	0	43	0	482344960	21	5286
2026-01-09 01:52:49.22	329.24	28.98	-30.4	-33.8	12.6	7.78e-05	0	43	0	484442112	21	5319
2026-01-09 01:52:50.22	328.93	29.05	-30.7	-34.2	12.6	7.93e-05	0	43	0	485490688	21	5385
2026-01-09 01:52:51.23	328.62	29.11	-30.6	-34.1	12.4	1.55e-03	0	43	0	487587840	21	5381
2026-01-09 01:52:52.23	328.31	29.18	-30.6	-34.1	12.6	9.30e-05	0	43	0	489684992	21	5374
2026-01-09 01:52:53.24	327.99	29.24	-30.7	-34.2	12.6	7.85e-05	0	43	0	491782144	21	5405
2026-01-09 01:52:54.24	327.67	29.30	-30.7	-34.4	12.4	2.45e-03	0	43	0	493879296	21	5485
2026-01-09 01:52:55.24	327.36	29.36	-30.8	-34.5	12.4	5.03e-04	0	43	0	494927872	21	5543
2026-01-09 01:52:56.25	327.03	29.42	-30.8	-34.6	12.2	1.46e-04	0	43	0	497025024	21	5598
2026-01-09 01:52:57.25	326.71	29.48	-30.9	-35.0	12.0	2.76e-04	0	43	0	499122176	21	5758
2026-01-09 01:52:58.26	326.39	29.54	-30.8	-34.7	12.2	2.88e-03	0	43	0	501219328	21	5606
2026-01-09 01:52:59.26	326.07	29.59	-30.9	-34.8	12.2	1.98e-04	0	43	0	503316480	21	5655
2026-01-09 01:53:00.27	325.74	29.65	-30.9	-34.9	12.1	2.06e-04	0	43	0	504365056	21	5693
2026-01-09 01:53:01.28	325.42	29.71	-30.9	-35.0	12.0	2.78e-04	0	43	0	506462208	21	5747
2026-01-09 01:53:02.28	325.09	29.76	-31.0	-34.8	11.8	4.82e-04	0	43	0	508559360	22	5564
2026-01-09 01:53:03.29	324.76	29.81	-31.0	-34.8	11.8	5.21e-04	0	43	0	510656512	22	5555
2026-01-09 01:53:04.30	324.43	29.87	-31.0	-34.6	11.9	4.45e-04	0	43	0	512753664	22	5486
2026-01-09 01:53:05.31	324.10	29.92	-31.1	-34.8	11.7	4.43e-04	0	43	0	513802240	22	5566
2026-01-09 01:53:06.31	323.77	29.97	-31.2	-35.2	11.6	9.15e-04	0	43	0	515899392	22	5716
2026-01-09 01:53:07.32	323.44	30.02	-31.1	-35.0	11.7	7.71e-04	0	43	0	517996544	22	5625
2026-01-09 01:53:08.33	323.10	30.07	-31.2	-35.4	11.4	5.09e-04	0	43	0	520093696	22	5811
2026-01-09 01:53:09.34	322.77	30.12	-31.3	-35.7	11.2	1.65e-03	0	43	0	522190848	22	5945
2026-01-09 01:53:10.34	322.43	30.16	-31.1	-35.0	11.6	1.16e-03	0	43	0	523239424	22	5645
2026-01-09 01:53:11.35	322.10	30.21	-30.0	-34.2	11.5	6.00e-04	0	43	0	525336576	21	5823
2026-01-09 01:53:12.35	321.76	30.25	-31.5	-35.6	11.4	6.10e-04	0	43	0	527433728	22	5739
2026-01-09 01:53:13.35	321.42	30.29	-31.0	-34.7	11.9	6.24e-04	0	43	0	529530880	22	5522
2026-01-09 01:53:14.35	321.09	30.34	-31.0	-34.8	10.9	3.90e-04	0	43	0	531628032	22	5545
2026-01-09 01:53:15.36	320.75	30.38	-31.0	-35.2	11.7	6.50e-04	0	43	0	532676608	21	5818
2026-01-09 01:53:16.37	320.40	30.42	-31.1	-35.0	11.6	1.10e-03	0	43	0	534773760	22	5642
2026-01-09 01:53:17.37	320.06	30.46	-31.1	-34.9	11.7	6.21e-04	0	43	0	536870912	22	5612
2026-01-09 01:53:18.38	319.72	30.50	-31.2	-35.4	11.4	6.43e-04	0	43	0	538968064	22	5798
2026-01-09 01:53:19.39	319.38	30.53	-31.2	-35.4	11.4	1.16e-03	0	43	0	541065216	22	5807
2026-01-09 01:53:20.39	319.03	30.57	-31.1	-35.0	11.6	6.03e-04	0	43	0	542113792	22	5642
2026-01-09 01:53:21.40	318.69	30.60	-31.1	-34.8	11.8	6.82e-04	0	43	0	544210944	22	5573
2026-01-09 01:53:22.40	318.34	30.64	-31.1	-35.0	11.7	1.05e-03	0	43	0	546308096	22	5620
2026-01-09 01:53:23.40	318.00	30.67	-31.0	-34.6	12.0	4.22e-04	0	43	0	548405248	22	5485
2026-01-09 01:53:24.41	317.65	30.70	-30.9	-34.9	12.1	4.33e-04	0	43	0	550502400	21	5693
2026-01-09 01:53:25.41	317.31	30.73	-30.8	-34.6	12.2	5.77e-04	0	43	0	551550976	21	5593
2026-01-09 01:53:26.42	316.96	30.76	-30.8	-34.5	12.3	1.78e-04	0	43	0	553648128	21	5534
2026-01-09 01:53:27.43	316.61	30.79	-30.8	-34.6	12.3	2.96e-04	0	43	0	555745280	21	5562
2026-01-09 01:53:28.44	316.25	30.81	-30.8	-34.5	12.3	3.58e-04	0	43	0	557842432	21	5546
2026-01-09 01:53:29.44	315.91	30.84	-30.7	-34.2	12.6	1.83e-03	0	43	0	559939584	21	5395
2026-01-09 01:53:30.45	315.55	30.86	-30.7	-34.2	12.5	2.51e-04	0	43	0	560988160	21	5422
2026-01-09 01:53:31.46	315.20	30.89	-30.8	-34.5	12.3	3.00e-04	0	43	0	563085312	21	5519
2026-01-09 01:53:32.45	314.86	30.91	-30.8	-34.6	12.3	1.48e-03	0	43	0	565182464	21	5593
2026-01-09 01:53:33.46	314.50	30.93	-30.8	-34.7	12.3	1.01e-03	0	43	0	567279616	21	5619
2026-01-09 01:53:34.47	314.15	30.95	-30.8	-34.5	12.3	4.94e-04	0	43	0	569376768	21	5541
2026-01-09 01:53:35.48	313.79	30.97	-30.8	-34.7	12.1	2.49e-03	0	43	0	570425344	21	5627
2026-01-09 01:53:36.48	313.44	30.98	-30.9	-34.9	12.1	3.00e-03	0	43	0	572522496	21	5689
2026-01-09 01:53:37.49	313.09	31.00	-30.9	-34.5	12.1	7.56e-04	0	43	0	574619648	22	5412
2026-01-09 01:53:38.50	312.73	31.01	-30.8	-34.7	12.2	2.75e-03	0	43	0	576716800	21	5613
2026-01-09 01:53:39.51	312.38	31.03	-30.9	-34.8	12.2	2.44e-03	0	43	0	578813952	21	5640
2026-01-09 01:53:40.51	312.02	31.04	-31.1	-35.1	11.6	9.38e-04	0	43	0	579862528	22	5676
2026-01-09 01:53:41.52	311.67	31.05	-31.4	-35.8	11.2	7.76e-04	0	43	0	581959680	22	6003
2026-01-09 01:53:42.53	311.31	31.06	-31.6	-35.9	10.8	5.98e-03	0	43	0	584056832	23	5967
2026-01-09 01:53:43.53	310.96	31.07	-31.6	-36.1	10.5	3.62e-03	0	43	0	586153984	23	6048
2026-01-09 01:53:44.54	310.60	31.08	-31.7	-36.4	10.3	3.79e-03	0	43	0	588251136	23	6172
2026-01-09 01:53:45.55	310.24	31.08	-31.6	-36.0	10.6	6.51e-03	0	43	0	589299712	23	6006
2026-01-09 01:53:46.56	309.89	31.09	-31.5	-35.6	10.8	3.09e-03	0	43	0	591396864	23	5813
2026-01-09 01:53:47.56	309.53	31.09	-31.4	-35.8	11.1	3.95e-03	0	43	0	593494016	22	6002
2026-01-09 01:53:48.57	309.17	31.09	-31.3	-35.6	11.2	3.16e-03	0	43	0	595591168	22	5924
2026-01-09 01:53:49.57	308.82	31.09	-31.1	-35.1	11.6	1.17e-03	0	43	0	597688320	22	5667
2026-01-09 01:53:50.57	308.47	31.09	-31.1	-35.1	11.6	2.88e-03	0	43	0	598736896	22	5669
2026-01-09 01:53:51.58	308.11	31.09	-31.2	-35.2	11.5	3.44e-03	0	43	0	600834048	22	5734
2026-01-09 01:53:52.59	307.75	31.09	-31.2	-35.5	11.4	1.08e-03	0	43	0	602931200	22	5843
2026-01-09 01:53:53.60	307.39	31.08	-31.2	-35.3	11.5	3.58e-03	0	43	0	605028352	22	5771
2026-01-09 01:53:54.60	307.04	31.08	-31.2	-35.2	11.6	3.38e-03	0	43	0	607125504	22	5715
2026-01-09 01:53:55.61	306.68	31.07	-31.1	-35.0	11.6	1.13e-03	0	43	0	608174080	22	5645
2026-01-09 01:53:56.62	306.33	31.06	-31.1	-35.0	11.7	3.12e-03	0	43	0	610271232	22	5647
2026-01-09 01:53:57.62	305.97	31.06	-31.2	-35.3	11.5	2.82e-03	0	43	0	612368384	22	5751
2026-01-09 01:53:58.63	305.62	31.05	-31.1	-34.9	11.7	7.29e-04	0	43	0	614465536	22	5579
2026-01-09 01:53:59.64	305.26	31.03	-30.8	-34.6	12.2	2.41e-03	0	43	0	616562688	21	5591
2026-01-09 01:54:00.64	304.91	31.02	-29.9	-33.7	12.2	2.55e-03	0	43	0	617611264	21	5563
2026-01-09 01:54:01.65	304.55	31.01	-30.9	-34.8	12.1	3.04e-04	0	43	0	619708416	21	5666
2026-01-09 01:54:02.65	304.20	30.99	-30.8	-34.5	12.0	4.63e-04	0	43	0	621805568	21	5534
2026-01-09 01:54:03.65	303.85	30.98	-30.7	-34.4	12.1	2.60e-03	0	43	0	623902720	21	5490
2026-01-09 01:54:04.65	303.50	30.96	-30.9	-34.8	12.1	3.11e-04	0	43	0	625999872	21	5657
2026-01-09 01:54:05.66	303.14	30.94	-30.8	-34.7	12.2	3.49e-04	0	43	0	627048448	21	5622
2026-01-09 01:54:06.67	302.79	30.92	-30.9	-34.8	12.1	2.43e-03	0	43	0	629145600	21	5660
2026-01-09 01:54:07.67	302.44	30.90	-30.8	-34.6	12.2	2.23e-04	0	43	0	631242752	21	5566
2026-01-09 01:54:08.68	302.08	30.88	-30.8	-34.5	12.2	2.20e-04	0	43	0	633339904	21	5546
2026-01-09 01:54:09.68	301.73	30.85	-30.6	-34.0	12.6	1.60e-04	0	43	0	635437056	21	5350
2026-01-09 01:54:10.68	301.39	30.83	-30.5	-33.7	12.8	1.87e-04	0	43	0	636485632	21	5227
2026-01-09 01:54:11.69	301.03	30.80	-30.6	-34.1	12.5	2.42e-03	0	43	0	638582784	21	5382
2026-01-09 01:54:12.69	300.69	30.77	-30.8	-34.6	12.3	1.44e-04	0	43	0	640679936	21	5577
2026-01-09 01:54:13.69	300.34	30.75	-30.9	-35.0	12.0	3.89e-04	0	43	0	642777088	21	5739
2026-01-09 01:54:14.69	299.99	30.72	-31.0	-34.8	11.8	2.10e-03	0	43	0	644874240	22	5545
2026-01-09 01:54:15.69	299.65	30.69	-31.1	-35.0	11.6	6.93e-04	0	43	0	645922816	22	5663
2026-01-09 01:54:16.70	299.30	30.65	-31.2	-35.3	11.4	7.48e-04	0	43	0	648019968	22	5772
2026-01-09 01:54:17.70	298.96	30.62	-31.1	-35.1	11.6	2.95e-03	0	43	0	650117120	22	5670
2026-01-09 01:54:18.70	298.61	30.59	-30.9	-34.4	12.1	5.07e-04	0	43	0	652214272	22	5385
2026-01-09 01:54:19.71	298.27	30.55	-30.9	-34.3	12.1	3.00e-04	0	43	0	653262848	22	5358
2026-01-09 01:54:20.70	297.93	30.52	-30.7	-34.3	12.5	1.20e-04	0	43	0	655360000	21	5447
2026-01-09 01:54:21.71	297.58	30.48	-30.6	-34.0	12.6	2.11e-03	0	43	0	657457152	21	5351
2026-01-09 01:54:22.72	297.24	30.44	-30.6	-33.9	12.7	7.01e-05	0	43	0	659554304	21	5294
2026-01-09 01:54:23.73	296.90	30.40	-30.6	-34.2	12.5	7.55e-05	0	43	0	661651456	21	5397
2026-01-09 01:54:24.73	296.56	30.36	-30.7	-34.4	12.4	2.30e-03	0	43	0	662700032	21	5482
2026-01-09 01:54:25.74	296.21	30.32	-31.0	-34.8	11.8	3.21e-04	0	43	0	664797184	22	5573
2026-01-09 01:54:26.75	295.87	30.27	-31.2	-35.4	11.4	1.18e-03	0	43	0	666894336	22	5832
2026-01-09 01:54:27.76	295.53	30.23	-31.5	-35.8	10.7	1.72e-03	0	43	0	668991488	23	5897
2026-01-09 01:54:28.77	295.20	30.18	-31.7	-36.5	10.2	5.32e-03	0	43	0	671088640	23	6228
2026-01-09 01:54:29.77	294.86	30.14	-31.5	-35.9	10.6	4.95e-03	0	43	0	672137216	23	5956
2026-01-09 01:54:30.78	294.53	30.09	-31.3	-35.6	11.2	2.50e-03	0	43	0	674234368	22	5913
2026-01-09 01:54:31.78	294.19	30.04	-31.3	-35.6	11.2	1.17e-03	0	43	0	676331520	22	5917
2026-01-09 01:54:32.78	293.86	30.00	-31.2	-35.4	11.3	1.09e-03	0	43	0	678428672	22	5828
2026-01-09 01:54:33.78	293.53	29.95	-31.1	-34.9	11.7	8.55e-04	0	43	0	680525824	22	5601
2026-01-09 01:54:34.79	293.20	29.89	-31.1	-35.1	11.5	6.71e-04	0	43	0	681574400	22	5683
2026-01-09 01:54:35.79	292.87	29.84	-31.1	-35.0	11.6	8.39e-04	0	43	0	683671552	22	5669
2026-01-09 01:54:36.79	292.54	29.79	-31.3	-35.8	11.1	9.33e-04	0	43	0	685768704	22	6006
2026-01-09 01:54:37.80	292.21	29.74	-31.4	-35.9	10.9	2.31e-03	0	43	0	687865856	22	6070
2026-01-09 01:54:38.80	291.89	29.68	-31.0	-34.7	11.8	8.41e-04	0	43	0	689963008	22	5530
2026-01-09 01:54:39.80	291.56	29.63	-31.0	-34.6	11.8	5.21e-04	0	43	0	691011584	22	5493
2026-01-09 01:54:40.81	291.24	29.57	-29.4	-33.0	12.0	4.07e-04	0	43	0	693108736	21	5393
2026-01-09 01:54:41.82	290.91	29.51	-30.9	-34.9	11.5	3.00e-04	0	43	0	695205888	21	5720
2026-01-09 01:54:42.83	290.59	29.45	-31.1	-34.9	11.6	5.49e-04	0	43	0	697303040	22	5615
2026-01-09 01:54:43.83	290.27	29.39	-31.1	-35.2	10.7	6.95e-04	0	43	0	699400192	22	5722
2026-01-09 01:54:44.84	289.95	29.33	-31.2	-35.3	11.5	1.10e-03	0	43	0	700448768	22	5766
2026-01-09 01:54:45.85	289.63	29.27	-31.1	-35.1	11.5	1.02e-03	0	43	0	702545920	22	5702
2026-01-09 01:54:46.86	289.31	29.21	-31.0	-35.2	11.8	5.39e-04	0	43	0	704643072	21	5833
2026-01-09 01:54:47.86	289.00	29.15	-30.9	-35.0	11.9	5.20e-04	0	43	0	706740224	21	5756
2026-01-09 01:54:48.87	288.68	29.08	-31.0	-35.2	11.8	3.78e-04	0	43	0	708837376	21	5863
2026-01-09 01:54:49.88	288.36	29.02	-31.0	-34.7	11.7	5.13e-04	0	43	0	709885952	22	5502
2026-01-09 01:54:50.88	288.05	28.95	-31.3	-35.7	11.1	8.37e-04	0	43	0	711983104	22	5961
2026-01-09 01:54:51.89	287.74	28.88	-31.2	-35.3	11.4	1.36e-03	0	43	0	714080256	22	5773
2026-01-09 01:54:52.89	287.43	28.82	-31.1	-35.2	11.5	2.06e-03	0	43	0	716177408	22	5743
2026-01-09 01:54:53.90	287.12	28.75	-31.2	-35.4	11.3	1.11e-03	0	43	0	718274560	22	5827
2026-01-09 01:54:54.90	286.82	28.68	-31.2	-35.4	11.2	1.34e-03	0	43	0	719323136	22	5865
2026-01-09 01:54:55.91	286.51	28.61	-31.3	-35.9	10.9	4.43e-03	0	43	0	721420288	22	6066
2026-01-09 01:54:56.91	286.21	28.54	-31.4	-36.2	10.7	2.32e-03	0	43	0	723517440	22	6237
2026-01-09 01:54:57.91	285.90	28.47	-31.2	-35.4	11.2	2.28e-03	0	43	0	725614592	22	5860
2026-01-09 01:54:58.91	285.60	28.40	-31.2	-35.4	11.3	3.32e-03	0	43	0	727711744	22	5852
2026-01-09 01:54:59.92	285.30	28.33	-31.0	-34.9	11.7	2.85e-03	0	43	0	728760320	22	5603
2026-01-09 01:55:00.92	285.01	28.26	-31.1	-35.2	11.4	1.30e-03	0	43	0	730857472	22	5730
2026-01-09 01:55:01.93	284.71	28.18	-31.1	-35.1	11.5	2.95e-03	0	43	0	732954624	22	5707
2026-01-09 01:55:02.93	284.41	28.11	-31.2	-35.2	11.4	2.40e-03	0	43	0	735051776	22	5766
2026-01-09 01:55:03.92	284.12	28.04	-31.3	-35.8	10.9	1.63e-03	0	43	0	737148928	22	6057
2026-01-09 01:55:04.93	283.83	27.96	-31.2	-35.5	11.1	1.48e-03	0	43	0	738197504	22	5906
2026-01-09 01:55:05.94	283.53	27.88	-31.1	-35.0	11.6	1.12e-03	0	43	0	740294656	22	5639
2026-01-09 01:55:06.94	283.24	27.81	-31.0	-34.8	11.6	7.60e-04	0	43	0	742391808	22	5598
2026-01-09 01:55:07.95	282.95	27.73	-31.0	-34.7	11.7	6.20e-04	0	43	0	744488960	22	5528
2026-01-09 01:55:08.95	282.66	27.65	-30.9	-34.9	11.9	8.22e-04	0	43	0	746586112	21	5714
2026-01-09 01:55:09.96	282.38	27.57	-30.7	-34.4	12.3	3.09e-04	0	43	0	747634688	21	5499
2026-01-09 01:55:10.96	282.09	27.50	-30.6	-34.1	12.5	9.67e-04	0	43	0	749731840	21	5379
2026-01-09 01:55:11.97	281.81	27.42	-30.7	-34.4	12.3	6.11e-04	0	43	0	751828992	21	5521
2026-01-09 01:55:12.97	281.53	27.34	-30.7	-34.3	12.3	1.56e-04	0	43	0	753926144	21	5465
2026-01-09 01:55:13.98	281.24	27.25	-30.7	-34.3	12.3	1.65e-04	0	43	0	754974720	21	5473
2026-01-09 01:55:14.99	280.96	27.17	-30.7	-34.3	12.4	1.85e-04	0	43	0	757071872	21	5454
2026-01-09 01:55:15.99	280.69	27.09	-30.7	-34.3	12.3	1.73e-04	0	43	0	759169024	21	5457
2026-01-09 01:55:16.99	280.41	27.01	-30.6	-34.1	12.4	1.84e-03	0	43	0	761266176	21	5382
2026-01-09 01:55:18.00	280.13	26.93	-30.7	-34.4	12.2	2.21e-03	0	43	0	763363328	21	5510
2026-01-09 01:55:19.00	279.86	26.84	-30.5	-33.9	12.6	1.89e-04	0	43	0	765460480	21	5316
2026-01-09 01:55:20.01	279.59	26.76	-30.6	-34.2	12.4	2.52e-03	0	43	0	766509056	21	5429
2026-01-09 01:55:21.01	279.32	26.68	-30.6	-34.2	12.4	2.95e-03	0	43	0	768606208	21	5415
2026-01-09 01:55:22.02	279.05	26.59	-30.5	-34.0	12.6	1.07e-04	0	43	0	770703360	21	5334
2026-01-09 01:55:23.03	278.78	26.51	-30.4	-33.5	12.8	3.11e-03	0	43	0	772800512	21	5162
2026-01-09 01:55:24.03	278.51	26.42	-30.4	-34.2	12.7	2.89e-03	0	43	0	773849088	20	5537
2026-01-09 01:55:25.04	278.25	26.34	-30.4	-34.0	12.8	4.93e-04	0	43	0	775946240	20	5452
2026-01-09 01:55:26.05	277.98	26.25	-30.4	-34.1	12.7	2.79e-03	0	43	0	778043392	20	5510
2026-01-09 01:55:27.06	277.72	26.16	-30.5	-33.9	12.5	2.47e-03	0	43	0	780140544	21	5330
2026-01-09 01:55:28.07	277.46	26.08	-30.3	-33.3	12.9	3.23e-04	0	43	0	782237696	21	5094
2026-01-09 01:55:29.07	277.20	25.99	-30.2	-33.4	13.2	2.82e-05	0	43	0	783286272	20	5221
2026-01-09 01:55:30.07	276.94	25.90	-30.1	-33.2	13.4	2.41e-03	0	43	0	785383424	20	5141
2026-01-09 01:55:31.08	276.68	25.81	-30.1	-33.3	13.3	1.69e-04	0	43	0	787480576	20	5179
2026-01-09 01:55:32.08	276.43	25.73	-30.2	-33.5	13.1	2.13e-05	0	43	0	789577728	20	5263
2026-01-09 01:55:33.09	276.17	25.64	-30.0	-33.1	13.4	1.68e-03	0	43	0	791674880	20	5098
2026-01-09 01:55:34.09	275.92	25.55	-30.0	-32.9	13.5	8.30e-06	0	43	0	793772032	20	5044
2026-01-09 01:55:35.10	275.67	25.46	-30.0	-32.9	13.5	1.28e-03	0	43	0	794820608	20	5056
2026-01-09 01:55:36.10	275.42	25.37	-29.9	-32.7	13.6	1.05e-04	0	43	0	796917760	20	4980
2026-01-09 01:55:37.10	275.18	25.28	-29.9	-32.7	13.7	9.90e-06	0	43	0	799014912	20	4974
2026-01-09 01:55:38.11	274.93	25.19	-29.9	-33.3	13.6	4.50e-06	0	43	0	801112064	19	5296
2026-01-09 01:55:39.12	274.68	25.10	-29.8	-33.0	13.8	1.78e-04	0	43	0	802160640	19	5178
2026-01-09 01:55:40.13	274.44	25.01	-29.8	-32.8	14.0	5.30e-06	0	43	0	804257792	19	5099
2026-01-09 01:55:41.13	274.20	24.92	-29.8	-32.8	13.9	2.89e-05	0	43	0	806354944	19	5095
2026-01-09 01:55:42.14	273.95	24.83	-29.6	-32.4	14.2	1.50e-06	0	43	0	808452096	19	4976
2026-01-09 01:55:43.15	273.71	24.73	-29.6	-32.5	14.2	3.80e-06	0	43	0	810549248	19	4979
2026-01-09 01:55:44.15	273.48	24.64	-29.6	-32.3	14.3	5.74e-04	0	43	0	811597824	19	4932
2026-01-09 01:55:45.16	273.24	24.55	-29.5	-32.2	14.3	7.54e-04	0	43	0	813694976	19	4904
2026-01-09 01:55:46.16	273.00	24.46	-29.7	-32.6	14.0	3.80e-06	0	43	0	815792128	19	5050
2026-01-09 01:55:47.17	272.77	24.37	-29.5	-32.0	14.5	0.00e+00	0	43	0	817889280	19	4825
2026-01-09 01:55:48.18	272.54	24.27	-29.3	-32.0	14.8	1.57e-03	0	43	0	819986432	18	4939
2026-01-09 01:55:49.19	272.30	24.18	-29.0	-31.4	15.1	2.20e-06	0	43	0	821035008	18	4744
2026-01-09 01:55:50.19	272.07	24.09	-29.0	-31.2	15.2	1.48e-04	0	43	0	823132160	18	4675
2026-01-09 01:55:51.20	271.84	23.99	-29.0	-31.4	15.1	5.41e-05	0	43	0	825229312	18	4740
2026-01-09 01:55:52.20	271.62	23.90	-29.0	-31.3	15.2	2.20e-06	0	43	0	827326464	18	4690
2026-01-09 01:55:53.22	271.39	23.81	-29.2	-31.9	14.8	7.00e-07	0	43	0	829423616	18	4907
2026-01-09 01:55:54.23	271.16	23.71	-29.0	-31.4	15.1	0.00e+00	0	43	0	830472192	18	4738
2026-01-09 01:55:55.23	270.94	23.62	-29.0	-31.5	15.0	7.00e-07	0	43	0	832569344	18	4773
2026-01-09 01:55:56.24	270.72	23.53	-29.2	-31.8	14.9	0.00e+00	0	43	0	834666496	18	4860
2026-01-09 01:55:57.25	270.50	23.43	-29.1	-31.6	15.0	7.32e-05	0	43	0	836763648	18	4798
2026-01-09 01:55:58.25	270.28	23.34	-29.3	-32.0	14.7	0.00e+00	0	43	0	838860800	18	4948
2026-01-09 01:55:59.25	270.06	23.24	-28.8	-31.0	15.3	2.25e-04	0	43	0	839909376	18	4602
2026-01-09 01:56:00.26	269.85	23.15	-28.5	-30.7	15.8	2.35e-04	0	43	0	842006528	17	4626
2026-01-09 01:56:01.27	269.63	23.05	-28.5	-30.7	15.8	0.00e+00	0	43	0	844103680	17	4633
2026-01-09 01:56:02.27	269.42	22.96	-28.5	-30.6	15.8	0.00e+00	0	43	0	846200832	17	4594
2026-01-09 01:56:03.27	269.20	22.87	-28.3	-30.5	16.1	3.62e-04	0	43	0	848297984	16	4687
2026-01-09 01:56:04.28	268.99	22.77	-28.4	-30.8	16.0	0.00e+00	0	43	0	849346560	16	4779
2026-01-09 01:56:05.29	268.78	22.68	-28.6	-30.9	14.7	0.00e+00	0	43	0	851443712	17	4686
2026-01-09 01:56:06.30	268.57	22.58	-28.5	-30.7	15.8	5.74e-04	0	43	0	853540864	17	4628
2026-01-09 01:56:07.30	268.37	22.49	-28.7	-31.0	13.8	1.50e-06	0	43	0	855638016	17	4725
2026-01-09 01:56:08.31	268.16	22.39	-28.7	-31.1	14.1	9.01e-04	0	43	0	857735168	17	4746
2026-01-09 01:56:09.31	267.95	22.30	-28.5	-31.1	15.6	0.00e+00	0	43	0	858783744	16	4858
2026-01-09 01:56:10.32	267.75	22.20	-28.4	-31.0	15.7	3.00e-06	0	43	0	860880896	16	4827
2026-01-09 01:56:11.33	267.55	22.11	-28.3	-30.8	15.9	1.34e-03	0	43	0	862978048	16	4756
2026-01-09 01:56:12.33	267.35	22.01	-28.3	-30.7	16.0	0.00e+00	0	43	0	865075200	16	4751
2026-01-09 01:56:13.33	267.15	21.92	-28.4	-30.9	15.9	0.00e+00	0	43	0	867172352	16	4788
2026-01-09 01:56:14.34	266.95	21.82	-28.3	-30.7	16.0	1.42e-03	0	43	0	868220928	16	4753
2026-01-09 01:56:15.34	266.75	21.73	-28.3	-30.7	16.0	3.52e-04	0	43	0	870318080	16	4729
2026-01-09 01:56:16.35	266.55	21.63	-28.3	-30.6	16.1	0.00e+00	0	43	0	872415232	16	4710
2026-01-09 01:56:17.35	266.36	21.54	-28.3	-30.6	16.1	1.45e-03	0	43	0	874512384	16	4702
2026-01-09 01:56:18.36	266.17	21.44	-28.2	-30.5	16.1	1.52e-03	0	43	0	876609536	16	4663
2026-01-09 01:56:19.36	265.97	21.35	-28.2	-30.5	16.1	2.55e-03	0	43	0	877658112	16	4671
2026-01-09 01:56:20.36	265.78	21.26	-28.2	-30.4	16.1	0.00e+00	0	43	0	879755264	16	4659
2026-01-09 01:56:21.37	265.59	21.16	-28.2	-30.6	16.1	1.70e-03	0	43	0	881852416	16	4696
2026-01-09 01:56:22.38	265.40	21.06	-28.2	-30.5	16.1	2.55e-03	0	43	0	883949568	16	4691
2026-01-09 01:56:23.38	265.22	20.97	-28.2	-30.5	16.1	0.00e+00	0	43	0	886046720	16	4665
2026-01-09 01:56:24.38	265.03	20.88	-28.3	-30.7	16.0	0.00e+00	0	43	0	887095296	16	4746
2026-01-09 01:56:25.39	264.84	20.78	-28.5	-30.7	15.7	2.90e-03	0	43	0	889192448	17	4638
2026-01-09 01:56:26.39	264.66	20.69	-28.5	-31.1	15.7	2.76e-03	0	43	0	891289600	16	4859
2026-01-09 01:56:27.40	264.48	20.59	-28.6	-30.9	15.5	0.00e+00	0	43	0	893386752	17	4706
2026-01-09 01:56:28.41	264.29	20.50	-28.5	-30.7	15.6	0.00e+00	0	43	0	895483904	17	4645
2026-01-09 01:56:29.41	264.11	20.40	-28.5	-30.7	15.6	1.98e-03	0	43	0	896532480	17	4650
2026-01-09 01:56:30.42	263.93	20.31	-28.5	-30.8	15.6	1.37e-04	0	43	0	898629632	17	4667
2026-01-09 01:56:31.43	263.75	20.21	-28.5	-30.7	15.6	0.00e+00	0	43	0	900726784	17	4648
2026-01-09 01:56:32.44	263.57	20.12	-28.6	-31.0	15.5	1.53e-03	0	43	0	902823936	17	4716
2026-01-09 01:56:33.44	263.40	20.02	-28.6	-31.0	15.5	4.65e-05	0	43	0	904921088	17	4729
2026-01-09 01:56:34.45	263.22	19.93	-28.6	-31.0	15.5	0.00e+00	0	43	0	905969664	17	4723
2026-01-09 01:56:35.46	263.05	19.83	-28.6	-31.0	15.4	1.66e-03	0	43	0	908066816	17	4724
2026-01-09 01:56:36.47	262.87	19.74	-28.7	-31.1	15.4	0.00e+00	0	43	0	910163968	17	4764
2026-01-09 01:56:37.47	262.70	19.65	-28.7	-31.2	15.3	1.75e-03	0	43	0	912261120	17	4810
2026-01-09 01:56:38.48	262.53	19.55	-28.8	-31.5	15.2	0.00e+00	0	43	0	914358272	17	4892
2026-01-09 01:56:39.49	262.36	19.46	-28.8	-31.5	15.1	0.00e+00	0	43	0	915406848	17	4887
2026-01-09 01:56:40.50	262.19	19.36	-29.1	-31.6	14.5	1.02e-03	0	43	0	917504000	18	4837
2026-01-09 01:56:41.50	262.02	19.27	-29.0	-31.5	14.8	0.00e+00	0	43	0	919601152	18	4791
2026-01-09 01:56:42.51	261.85	19.18	-29.1	-31.8	14.6	5.30e-06	0	43	0	921698304	18	4891
2026-01-09 01:56:43.52	261.69	19.08	-29.3	-32.1	14.5	2.07e-04	0	43	0	923795456	18	5003
2026-01-09 01:56:44.53	261.52	18.99	-29.6	-32.4	14.0	1.06e-05	0	43	0	924844032	19	5001
2026-01-09 01:56:45.53	261.36	18.89	-29.7	-32.7	13.7	1.29e-05	0	43	0	926941184	19	5109
2026-01-09 01:56:46.53	261.20	18.80	-29.7	-32.7	13.8	2.33e-04	0	43	0	929038336	19	5079
2026-01-09 01:56:47.53	261.03	18.71	-29.7	-32.8	13.7	6.29e-04	0	43	0	931135488	19	5144
2026-01-09 01:56:48.54	260.87	18.62	-29.6	-32.5	13.9	9.90e-06	0	43	0	933232640	19	5039
2026-01-09 01:56:49.54	260.71	18.52	-29.5	-32.2	14.1	1.64e-03	0	43	0	934281216	19	4911
2026-01-09 01:56:50.55	260.55	18.43	-29.4	-32.5	14.2	1.98e-03	0	43	0	936378368	18	5141
2026-01-09 01:56:51.56	260.40	18.34	-29.3	-32.3	14.3	7.00e-07	0	43	0	938475520	18	5062
2026-01-09 01:56:52.57	260.24	18.24	-29.4	-32.6	14.1	2.34e-03	0	43	0	940572672	18	5164
2026-01-09 01:56:53.57	260.08	18.15	-29.5	-32.2	14.0	2.38e-03	0	43	0	942669824	19	4938
2026-01-09 01:56:54.58	259.93	18.06	-29.4	-31.9	14.2	5.11e-05	0	43	0	943718400	19	4837
2026-01-09 01:56:55.59	259.77	17.97	-29.5	-32.4	13.9	1.50e-06	0	43	0	945815552	19	4984
2026-01-09 01:56:56.59	259.62	17.88	-29.6	-32.5	13.9	2.10e-03	0	43	0	947912704	19	5027
2026-01-09 01:56:57.60	259.47	17.78	-29.4	-32.0	14.2	2.20e-06	0	43	0	950009856	19	4848
2026-01-09 01:56:58.60	259.32	17.69	-29.4	-32.6	14.1	7.00e-07	0	43	0	952107008	18	5167
2026-01-09 01:56:59.60	259.17	17.60	-29.6	-32.4	13.9	1.50e-06	0	43	0	953155584	19	5011
2026-01-09 01:57:00.61	259.02	17.51	-29.6	-32.6	13.8	1.06e-05	0	43	0	955252736	19	5090
2026-01-09 01:57:01.62	258.87	17.42	-29.5	-32.4	14.0	2.21e-03	0	43	0	957349888	19	4986
2026-01-09 01:57:02.63	258.72	17.33	-29.7	-32.8	13.6	3.04e-04	0	43	0	959447040	19	5154
2026-01-09 01:57:03.62	258.58	17.24	-29.6	-32.6	13.8	1.57e-04	0	43	0	961544192	19	5065
2026-01-09 01:57:04.63	258.43	17.14	-29.5	-32.4	13.9	2.36e-03	0	43	0	962592768	19	4994
2026-01-09 01:57:05.64	258.28	17.05	-29.6	-32.5	13.8	8.92e-04	0	43	0	964689920	19	5055
2026-01-09 01:57:06.65	258.14	16.96	-29.6	-32.5	13.8	1.14e-05	0	43	0	966787072	19	5038
2026-01-09 01:57:07.64	258.00	16.87	-29.6	-32.5	13.7	2.13e-03	0	43	0	968884224	19	5053
2026-01-09 01:57:08.65	257.85	16.78	-29.7	-32.9	13.6	3.35e-04	0	43	0	970981376	19	5181
2026-01-09 01:57:09.66	257.71	16.69	-29.7	-32.7	13.6	9.10e-06	0	43	0	972029952	19	5125
2026-01-09 01:57:10.66	257.57	16.60	-29.6	-32.7	13.7	1.32e-03	0	43	0	974127104	19	5095
2026-01-09 01:57:11.66	257.43	16.51	-29.7	-32.9	13.5	1.92e-03	0	43	0	976224256	19	5181
2026-01-09 01:57:12.67	257.29	16.42	-29.7	-32.8	13.6	6.80e-06	0	43	0	978321408	19	5168
2026-01-09 01:57:13.68	257.16	16.33	-29.9	-33.3	13.3	1.08e-03	0	43	0	980418560	19	5344
2026-01-09 01:57:14.69	257.02	16.24	-29.9	-33.0	13.0	3.98e-03	0	43	0	981467136	20	5123
2026-01-09 01:57:15.69	256.88	16.15	-29.7	-32.4	13.4	1.60e-05	0	43	0	983564288	20	4911
2026-01-09 01:57:16.69	256.75	16.07	-29.9	-33.3	13.3	2.02e-03	0	43	0	985661440	19	5341
2026-01-09 01:57:17.70	256.61	15.98	-30.0	-33.5	13.1	2.13e-03	0	43	0	987758592	19	5448
2026-01-09 01:57:18.71	256.48	15.89	-29.8	-33.2	13.3	1.98e-05	0	43	0	989855744	19	5316
2026-01-09 01:57:19.71	256.35	15.80	-29.9	-32.9	13.1	2.24e-03	0	43	0	990904320	20	5107
2026-01-09 01:57:20.72	256.21	15.71	-30.3	-34.0	12.3	2.33e-03	0	43	0	993001472	20	5556
2026-01-09 01:57:21.72	256.08	15.62	-30.2	-33.9	12.4	3.94e-04	0	43	0	995098624	20	5478
2026-01-09 01:57:22.73	255.95	15.53	-29.9	-32.9	13.0	2.34e-03	0	43	0	997195776	20	5104
2026-01-09 01:57:23.73	255.82	15.45	-29.8	-33.2	13.3	2.22e-03	0	43	0	999292928	19	5304
2026-01-09 01:57:24.73	255.69	15.36	-29.9	-33.4	13.1	2.05e-05	0	43	0	1000341504	19	5389
2026-01-09 01:57:25.74	255.56	15.27	-30.0	-33.7	13.0	2.51e-05	0	43	0	1002438656	19	5499
2026-01-09 01:57:26.74	255.44	15.18	-30.0	-33.6	12.9	1.90e-03	0	43	0	1004535808	19	5489
2026-01-09 01:57:27.75	255.31	15.10	-30.0	-33.2	12.8	5.87e-05	0	43	0	1006632960	20	5218
2026-01-09 01:57:28.75	255.18	15.01	-30.1	-33.6	12.6	8.77e-05	0	43	0	1008730112	20	5369
2026-01-09 01:57:29.75	255.06	14.92	-30.2	-33.9	12.3	4.28e-04	0	43	0	1009778688	20	5517
2026-01-09 01:57:30.75	254.93	14.84	-30.1	-33.7	12.4	2.18e-04	0	43	0	1011875840	20	5432
2026-01-09 01:57:31.76	254.81	14.75	-30.3	-34.2	12.1	1.46e-04	0	43	0	1013972992	20	5638
2026-01-09 01:57:32.77	254.69	14.66	-30.2	-34.0	12.2	2.73e-04	0	43	0	1016070144	20	5558
2026-01-09 01:57:33.77	254.56	14.58	-30.3	-34.2	12.1	2.29e-04	0	43	0	1017118720	20	5635
2026-01-09 01:57:34.77	254.44	14.49	-30.2	-34.0	12.2	2.97e-04	0	43	0	1019215872	20	5539
2026-01-09 01:57:35.78	254.32	14.41	-30.1	-33.7	12.4	1.45e-04	0	43	0	1021313024	20	5432
2026-01-09 01:57:36.78	254.20	14.32	-29.0	-32.5	12.4	1.39e-04	0	43	0	1023410176	20	5409
2026-01-09 01:57:37.79	254.08	14.24	-30.2	-33.8	12.4	4.34e-04	0	43	0	1025507328	20	5464
2026-01-09 01:57:38.79	253.96	14.15	-30.3	-34.3	12.0	8.46e-04	0	43	0	1027604480	20	5700
2026-01-09 01:57:39.80	253.84	14.06	-30.3	-34.2	12.0	4.06e-04	0	43	0	1028653056	20	5647
2026-01-09 01:57:40.81	253.73	13.98	-30.4	-34.5	11.8	8.27e-04	0	43	0	1030750208	20	5765
2026-01-09 01:57:41.81	253.61	13.89	-30.3	-34.4	11.9	1.16e-03	0	43	0	1032847360	20	5711
2026-01-09 01:57:42.82	253.49	13.81	-30.5	-34.3	11.6	4.41e-04	0	43	0	1034944512	21	5595
2026-01-09 01:57:43.82	253.38	13.73	-30.6	-34.6	11.3	8.85e-04	0	43	0	1035993088	21	5737
2026-01-09 01:57:44.83	253.26	13.64	-30.6	-34.7	11.3	1.71e-03	0	43	0	1038090240	21	5781
2026-01-09 01:57:45.83	253.15	13.56	-30.6	-34.7	11.3	4.34e-03	0	43	0	1040187392	21	5755
2026-01-09 01:57:46.83	253.04	13.47	-30.6	-34.8	11.2	1.01e-03	0	43	0	1042284544	21	5821
2026-01-09 01:57:47.84	252.92	13.39	-30.7	-34.9	11.1	1.33e-03	0	43	0	1044381696	21	5883
2026-01-09 01:57:48.85	252.81	13.31	-30.6	-34.6	11.3	4.71e-03	0	43	0	1045430272	21	5714
2026-01-09 01:57:49.85	252.70	13.22	-30.5	-34.8	11.5	2.78e-03	0	43	0	1047527424	20	5904
2026-01-09 01:57:50.85	252.59	13.14	-30.6	-34.6	11.3	8.43e-04	0	43	0	1049624576	21	5726
2026-01-09 01:57:51.86	252.48	13.06	-30.8	-35.5	10.7	1.65e-03	0	43	0	1051721728	21	6145
2026-01-09 01:57:52.87	252.37	12.97	-30.6	-34.8	11.2	5.24e-03	0	43	0	1053818880	21	5821
2026-01-09 01:57:53.88	252.26	12.89	-30.4	-34.6	11.6	9.35e-04	0	43	0	1054867456	20	5850
2026-01-09 01:57:54.88	252.15	12.81	-30.3	-34.3	11.9	4.71e-04	0	43	0	1056964608	20	5694
2026-01-09 01:57:55.89	252.04	12.73	-30.2	-33.9	12.1	3.12e-03	0	43	0	1059061760	20	5531
2026-01-09 01:57:56.89	251.94	12.64	-30.2	-33.9	12.1	7.72e-04	0	43	0	1061158912	20	5540
2026-01-09 01:57:57.90	251.83	12.56	-30.3	-34.2	12.0	2.97e-04	0	43	0	1063256064	20	5638
2026-01-09 01:57:58.90	251.72	12.48	-30.2	-34.1	12.0	2.93e-03	0	43	0	1064304640	20	5601
2026-01-09 01:57:59.90	251.62	12.40	-30.3	-34.2	11.9	7.10e-04	0	43	0	1066401792	20	5676
2026-01-09 01:58:00.89	251.52	12.32	-30.3	-34.2	12.0	4.28e-04	0	43	0	1068498944	20	5640
2026-01-09 01:58:01.90	251.41	12.24	-30.3	-34.2	11.9	3.78e-04	0	43	0	1070596096	20	5671
2026-01-09 01:58:02.89	251.31	12.16	-30.3	-34.4	11.8	7.12e-04	0	43	0	1072693248	20	5746
2026-01-09 01:58:03.90	251.21	12.08	-30.2	-34.1	11.9	3.30e-03	0	43	0	1073741824	20	5637
2026-01-09 01:58:04.90	251.10	12.00	-30.2	-34.1	11.9	3.97e-04	0	43	0	1075838976	20	5621
2026-01-09 01:58:05.91	251.00	11.91	-30.2	-34.1	12.0	7.67e-04	0	43	0	1077936128	20	5632
2026-01-09 01:58:06.91	250.90	11.83	-30.3	-34.4	11.6	3.55e-03	0	43	0	1080033280	20	5752
2026-01-09 01:58:07.92	250.80	11.75	-30.3	-34.2	11.5	3.33e-03	0	43	0	1082130432	20	5668
2026-01-09 01:58:08.92	250.70	11.67	-30.2	-34.0	12.0	1.02e-03	0	43	0	1083179008	20	5593
2026-01-09 01:58:09.93	250.60	11.59	-30.2	-34.1	11.9	3.20e-03	0	43	0	1085276160	20	5629
2026-01-09 01:58:10.94	250.50	11.51	-30.3	-34.2	11.9	3.72e-03	0	43	0	1087373312	20	5670
2026-01-09 01:58:11.95	250.40	11.43	-30.2	-34.2	11.9	4.08e-04	0	43	0	1089470464	20	5668
2026-01-09 01:58:12.95	250.30	11.35	-30.3	-34.5	11.6	4.00e-03	0	43	0	1091567616	20	5799
2026-01-09 01:58:13.96	250.21	11.28	-30.3	-34.3	11.8	3.82e-03	0	43	0	1092616192	20	5725
2026-01-09 01:58:14.97	250.11	11.20	-30.3	-34.4	11.7	2.03e-03	0	43	0	1094713344	20	5742
2026-01-09 01:58:15.98	250.01	11.12	-30.3	-34.5	11.6	4.69e-03	0	43	0	1096810496	20	5802
2026-01-09 01:58:16.98	249.92	11.04	-30.4	-34.5	11.6	3.77e-03	0	43	0	1098907648	20	5825
2026-01-09 01:58:17.99	249.82	10.96	-30.4	-34.5	11.6	1.69e-03	0	43	0	1101004800	20	5815
2026-01-09 01:58:18.99	249.73	10.88	-30.4	-34.7	11.4	1.43e-03	0	43	0	1102053376	20	5926
2026-01-09 01:58:19.99	249.63	10.80	-30.4	-34.8	11.3	5.03e-03	0	43	0	1104150528	20	5970
2026-01-09 01:58:20.99	249.54	10.73	-30.4	-34.8	11.3	1.16e-03	0	43	0	1106247680	20	5942
2026-01-09 01:58:21.99	249.45	10.65	-30.5	-34.5	11.1	4.27e-03	0	43	0	1108344832	21	5719
2026-01-09 01:58:22.99	249.35	10.57	-30.7	-35.1	10.7	5.59e-03	0	43	0	1110441984	21	6008
2026-01-09 01:58:24.00	249.26	10.49	-30.6	-34.8	10.9	2.83e-03	0	43	0	1111490560	21	5874
2026-01-09 01:58:25.00	249.17	10.42	-30.6	-34.9	10.9	5.16e-03	0	43	0	1113587712	21	5929
2026-01-09 01:58:26.01	249.08	10.34	-30.8	-35.5	10.4	4.72e-03	0	43	0	1115684864	21	6221
2026-01-09 01:58:27.02	248.99	10.26	-30.7	-35.2	10.6	4.02e-03	0	43	0	1117782016	21	6062
2026-01-09 01:58:28.03	248.90	10.18	-30.7	-35.1	10.7	6.29e-03	0	43	0	1119879168	21	6013
2026-01-09 01:58:29.04	248.81	10.11	-30.7	-35.3	10.5	4.44e-03	0	43	0	1120927744	21	6100
2026-01-09 01:58:30.04	248.72	10.03	-30.7	-35.1	10.7	3.25e-03	0	43	0	1123024896	21	5995
2026-01-09 01:58:31.05	248.63	9.96	-30.7	-35.3	10.6	6.71e-03	0	43	0	1125122048	21	6090
2026-01-09 01:58:32.05	248.54	9.88	-30.7	-35.2	10.6	7.28e-03	0	43	0	1127219200	21	6038
2026-01-09 01:58:33.06	248.45	9.80	-30.8	-35.5	10.4	3.68e-03	0	43	0	1129316352	21	6186
2026-01-09 01:58:34.06	248.37	9.73	-30.9	-35.8	10.1	9.26e-03	0	43	0	1130364928	21	6388
2026-01-09 01:58:35.06	248.28	9.65	-30.7	-35.2	10.6	8.13e-03	0	43	0	1132462080	21	6049
2026-01-09 01:58:36.07	248.19	9.58	-30.6	-34.9	10.8	2.84e-03	0	43	0	1134559232	21	5922
2026-01-09 01:58:37.07	248.11	9.50	-30.5	-34.6	11.0	2.70e-03	0	43	0	1136656384	21	5788
2026-01-09 01:58:38.08	248.02	9.43	-30.5	-34.6	11.0	5.65e-03	0	43	0	1137704960	21	5774
2026-01-09 01:58:39.08	247.94	9.35	-30.4	-34.9	11.1	1.65e-03	0	43	0	1139802112	20	6045
2026-01-09 01:58:40.08	247.85	9.28	-30.4	-34.8	11.2	1.82e-03	0	43	0	1141899264	20	5994
2026-01-09 01:58:41.09	247.77	9.20	-30.4	-34.9	11.1	1.84e-03	0	43	0	1143996416	20	6047
2026-01-09 01:58:42.09	247.68	9.13	-30.4	-34.7	11.3	2.57e-03	0	43	0	1146093568	20	5937
2026-01-09 01:58:43.09	247.60	9.05	-30.3	-34.5	11.4	1.46e-03	0	43	0	1147142144	20	5862
2026-01-09 01:58:44.10	247.52	8.98	-30.4	-34.8	11.2	1.66e-03	0	43	0	1149239296	20	6008
2026-01-09 01:58:45.10	247.44	8.91	-30.4	-34.8	11.2	1.87e-03	0	43	0	1151336448	20	5989
2026-01-09 01:58:46.11	247.35	8.83	-30.4	-34.8	11.2	1.70e-03	0	43	0	1153433600	20	5985
2026-01-09 01:58:47.12	247.27	8.76	-30.4	-34.9	11.0	2.05e-03	0	43	0	1155530752	20	6064
2026-01-09 01:58:48.12	247.19	8.69	-30.5	-35.1	10.9	1.81e-03	0	43	0	1156579328	20	6133
2026-01-09 01:58:49.13	247.11	8.61	-30.5	-35.1	10.9	2.04e-03	0	43	0	1158676480	20	6139
2026-01-09 01:58:50.13	247.03	8.54	-30.6	-35.0	10.6	3.47e-03	0	43	0	1160773632	21	5976
2026-01-09 01:58:51.14	246.95	8.47	-30.7	-35.4	10.3	4.38e-03	0	43	0	1162870784	21	6193
2026-01-09 01:58:52.15	246.87	8.39	-30.6	-35.1	10.5	4.58e-03	0	43	0	1164967936	21	6044
2026-01-09 01:58:53.16	246.79	8.32	-30.7	-35.4	10.2	5.03e-03	0	43	0	1166016512	21	6200
2026-01-09 01:58:54.16	246.71	8.25	-30.6	-35.3	10.3	5.12e-03	0	43	0	1168113664	21	6161
2026-01-09 01:58:55.17	246.63	8.17	-30.7	-35.5	10.1	5.67e-03	0	43	0	1170210816	21	6271
2026-01-09 01:58:56.18	246.55	8.10	-30.8	-36.0	9.8	9.08e-03	0	43	0	1172307968	21	6509
2026-01-09 01:58:57.19	246.48	8.03	-30.7	-35.6	10.0	8.15e-03	0	43	0	1174405120	21	6335
2026-01-09 01:58:58.20	246.40	7.96	-30.9	-36.1	9.7	1.07e-02	0	43	0	1175453696	21	6565
2026-01-09 01:58:59.20	246.32	7.89	-30.8	-35.8	9.8	1.04e-02	0	43	0	1177550848	21	6439
2026-01-09 01:59:00.20	246.25	7.81	-30.7	-35.6	10.0	8.55e-03	0	43	0	1179648000	21	6328
2026-01-09 01:59:01.21	246.17	7.74	-30.7	-35.7	10.0	9.00e-03	0	43	0	1181745152	21	6354
2026-01-09 01:59:02.22	246.09	7.67	-30.2	-35.2	9.8	1.04e-02	0	43	0	1183842304	21	6460
2026-01-09 01:59:03.22	246.02	7.60	-30.7	-35.7	9.8	9.21e-03	0	43	0	1184890880	21	6401
2026-01-09 01:59:04.23	245.94	7.53	-30.8	-35.8	9.8	8.33e-03	0	43	0	1186988032	21	6427
2026-01-09 01:59:05.23	245.87	7.46	-30.8	-35.8	9.9	1.02e-02	0	43	0	1189085184	21	6412
2026-01-09 01:59:06.24	245.80	7.39	-30.8	-36.0	9.7	1.28e-02	0	43	0	1191182336	21	6542
2026-01-09 01:59:07.25	245.72	7.32	-30.8	-36.0	9.6	1.03e-02	0	43	0	1193279488	21	6531
2026-01-09 01:59:08.25	245.65	7.25	-30.8	-36.0	9.6	1.39e-02	0	43	0	1194328064	21	6538
2026-01-09 01:59:09.25	245.58	7.18	-30.7	-35.7	9.8	1.05e-02	0	43	0	1196425216	21	6409
2026-01-09 01:59:10.25	245.50	7.11	-31.6	-38.3	7.6	1.01e-02	0	43	0	1198522368	23	7820
2026-01-09 01:59:11.26	245.43	7.04	-32.9	-47.3	3.8	1.49e+00	0	43	104	1198522368	25	18937

#Closed at: 2026-01-09 01:59:12
#Recorded file [1198 MB]: D:/data/31010_260109_044830.dat