passes_logs/2026/01/09/R2M6_AANII_01/R2M6_AANII_01__20260109_232827_SUOMI_NPP_rec.log

#Pass ID: 20260109_232827_SUOMI NPP
#Satellite: SUOMI NPP
#Configuration: NPP
#almurnet v.1.7.20240730
#Start time: 2026-01-09 23:28:29

#Version: 2.2.20231116
#Station: R2M6_AANII_01
#Location: 30.233357 lon 59.946436 lat
#TLE: 1 37849U 11061A   26008.83076692  .00000095  00000+0  66074-4 0  9997
#TLE: 2 37849  98.7806 310.9327 0002533  74.3004 285.8451 14.19523607735834

#Time	Az	El	Level	Level2	SNR	BER	BlckErr	Temp	State	Recorded	gain1	gain2
2026-01-09 23:28:29.17	24.10	7.09	-31.5	-36.7	4.8	1.30e+00	0	39	0	0	23	6552
2026-01-09 23:28:30.16	24.16	7.16	-31.6	-37.1	4.7	1.34e+00	0	40	104	0	23	6771
2026-01-09 23:28:31.16	24.21	7.23	-31.6	-37.0	7.0	2.43e-01	0	40	0	0	23	6671
2026-01-09 23:28:32.16	24.27	7.30	-31.7	-37.2	6.8	2.22e-01	0	40	0	1048576	23	6797
2026-01-09 23:28:33.15	24.33	7.38	-31.7	-37.3	6.6	2.61e-01	0	40	0	3145728	23	6904
2026-01-09 23:28:34.15	24.39	7.45	-31.8	-38.0	6.0	2.96e-01	0	40	0	5242880	23	7366
2026-01-09 23:28:35.15	24.45	7.52	-31.6	-37.0	6.5	3.12e-01	0	40	0	7340032	23	6685
2026-01-09 23:28:36.15	24.50	7.60	-31.9	-38.0	5.7	5.04e-01	0	40	0	8388608	24	7304
2026-01-09 23:28:37.16	24.56	7.67	-31.6	-36.6	7.0	2.74e-01	0	40	0	10485760	24	6360
2026-01-09 23:28:38.16	24.62	7.74	-32.1	-39.4	4.9	5.18e-01	0	40	0	12582912	24	8341
2026-01-09 23:28:39.15	24.68	7.82	-32.0	-38.7	5.5	4.97e-01	0	40	0	14680064	24	7755
2026-01-09 23:28:40.16	24.74	7.89	-31.7	-37.0	6.3	3.72e-01	0	40	0	16777216	24	6617
2026-01-09 23:28:41.16	24.80	7.97	-31.8	-37.7	6.4	2.75e-01	0	40	0	17825792	23	7097
2026-01-09 23:28:42.16	24.86	8.04	-31.6	-37.0	6.7	1.88e-01	0	40	0	19922944	23	6684
2026-01-09 23:28:43.16	24.92	8.12	-31.5	-36.5	7.2	9.15e-02	0	40	0	22020096	23	6402
2026-01-09 23:28:44.15	24.98	8.19	-31.3	-35.6	7.9	1.06e-01	0	40	0	24117248	23	5852
2026-01-09 23:28:45.15	25.04	8.27	-31.6	-36.8	7.0	6.79e-02	0	40	0	26214400	23	6570
2026-01-09 23:28:46.16	25.10	8.34	-31.5	-36.4	7.2	1.72e-01	0	40	0	27262976	23	6324
2026-01-09 23:28:47.16	25.17	8.42	-31.6	-36.6	7.3	9.06e-02	0	40	0	29360128	23	6455
2026-01-09 23:28:48.15	25.23	8.49	-31.3	-35.3	8.1	8.63e-02	0	40	0	31457280	23	5706
2026-01-09 23:28:49.15	25.29	8.57	-31.0	-34.1	9.1	4.59e-02	0	40	0	33554432	23	5149
2026-01-09 23:28:50.15	25.35	8.64	-30.6	-33.3	9.9	1.15e-02	0	40	0	34603008	22	4909
2026-01-09 23:28:51.15	25.42	8.72	-30.9	-34.1	9.6	2.06e-02	0	40	0	36700160	22	5221
2026-01-09 23:28:52.14	25.48	8.80	-30.8	-34.2	10.0	8.49e-03	0	40	0	38797312	21	5354
2026-01-09 23:28:53.15	25.54	8.87	-30.6	-33.7	10.2	4.64e-03	0	40	0	40894464	21	5154
2026-01-09 23:28:54.14	25.61	8.95	-30.8	-34.3	9.7	7.61e-03	0	41	0	42991616	21	5404
2026-01-09 23:28:55.14	25.67	9.03	-30.8	-34.4	9.5	9.64e-03	0	41	0	44040192	21	5437
2026-01-09 23:28:56.14	25.73	9.10	-30.6	-33.8	10.0	7.27e-03	0	40	0	46137344	21	5183
2026-01-09 23:28:57.15	25.80	9.18	-30.4	-32.9	10.7	3.65e-03	0	40	0	48234496	21	4834
2026-01-09 23:28:58.15	25.86	9.26	-30.2	-32.4	11.2	2.81e-03	0	40	0	50331648	21	4625
2026-01-09 23:28:59.15	25.93	9.34	-30.3	-33.1	11.0	1.37e-03	0	41	0	52428800	20	4978
2026-01-09 23:29:00.16	26.00	9.42	-30.3	-33.3	10.9	2.33e-03	0	41	0	53477376	20	5062
2026-01-09 23:29:01.16	26.06	9.50	-30.1	-32.5	11.3	1.58e-03	0	41	0	55574528	20	4770
2026-01-09 23:29:02.16	26.13	9.57	-30.3	-33.2	11.0	1.43e-03	0	41	0	57671680	20	5003
2026-01-09 23:29:03.15	26.19	9.65	-30.0	-32.4	11.4	1.60e-03	0	41	0	59768832	20	4709
2026-01-09 23:29:04.15	26.26	9.73	-30.0	-32.2	11.6	6.81e-04	0	41	0	61865984	20	4643
2026-01-09 23:29:05.16	26.33	9.81	-29.9	-31.8	11.9	4.16e-04	0	41	0	62914560	20	4507
2026-01-09 23:29:06.16	26.40	9.89	-29.7	-31.2	12.3	3.11e-04	0	41	0	65011712	20	4311
2026-01-09 23:29:07.17	26.47	9.97	-29.4	-30.5	12.9	1.33e-04	0	41	0	67108864	20	4073
2026-01-09 23:29:08.17	26.53	10.05	-29.5	-30.8	12.6	1.35e-04	0	41	0	69206016	20	4152
2026-01-09 23:29:09.17	26.60	10.13	-29.5	-30.7	12.7	1.04e-04	0	41	0	71303168	20	4124
2026-01-09 23:29:10.18	26.67	10.21	-29.6	-31.1	12.5	1.21e-04	0	41	0	72351744	20	4252
2026-01-09 23:29:11.18	26.74	10.29	-29.6	-30.9	12.6	7.09e-05	0	41	0	74448896	20	4188
2026-01-09 23:29:12.18	26.81	10.38	-29.6	-31.1	12.5	1.18e-04	0	41	0	76546048	20	4247
2026-01-09 23:29:13.18	26.88	10.46	-29.4	-30.3	13.0	1.04e-04	0	41	0	78643200	20	4000
2026-01-09 23:29:14.19	26.95	10.54	-29.5	-30.6	12.8	6.79e-05	0	41	0	79691776	20	4099
2026-01-09 23:29:15.19	27.02	10.62	-29.6	-30.9	12.6	5.34e-05	0	41	0	81788928	20	4195
2026-01-09 23:29:16.19	27.10	10.70	-29.4	-30.5	12.9	6.63e-05	0	41	0	83886080	20	4066
2026-01-09 23:29:17.20	27.17	10.79	-29.5	-30.8	12.7	6.40e-05	0	41	0	85983232	20	4170
2026-01-09 23:29:18.19	27.24	10.87	-29.8	-31.4	12.3	2.01e-04	0	41	0	88080384	20	4361
2026-01-09 23:29:19.19	27.31	10.95	-29.6	-31.0	12.6	1.14e-04	0	41	0	89128960	20	4220
2026-01-09 23:29:20.20	27.39	11.03	-29.5	-30.7	12.7	8.62e-05	0	41	0	91226112	20	4133
2026-01-09 23:29:21.20	27.46	11.12	-29.6	-30.9	12.6	6.63e-05	0	41	0	93323264	20	4188
2026-01-09 23:29:22.20	27.53	11.20	-29.6	-31.0	12.5	6.40e-05	0	41	0	95420416	20	4229
2026-01-09 23:29:23.21	27.61	11.28	-29.6	-31.0	12.6	1.05e-04	0	41	0	97517568	20	4233
2026-01-09 23:29:24.21	27.68	11.37	-29.5	-30.7	12.8	1.12e-04	0	41	0	98566144	20	4136
2026-01-09 23:29:25.21	27.76	11.45	-29.6	-31.0	12.5	1.11e-04	0	41	0	100663296	20	4228
2026-01-09 23:29:26.21	27.83	11.54	-29.6	-31.1	12.5	5.41e-05	0	41	0	102760448	20	4246
2026-01-09 23:29:27.21	27.91	11.62	-29.6	-30.9	12.6	9.15e-05	0	41	0	104857600	20	4201
2026-01-09 23:29:28.21	27.98	11.71	-29.6	-30.9	12.6	1.15e-04	0	41	0	106954752	20	4198
2026-01-09 23:29:29.22	28.06	11.79	-29.7	-31.3	12.5	8.46e-05	0	41	0	108003328	20	4302
2026-01-09 23:29:30.23	28.14	11.88	-29.7	-31.3	12.3	1.32e-04	0	41	0	110100480	20	4327
2026-01-09 23:29:31.23	28.22	11.96	-29.7	-31.3	12.4	9.53e-05	0	41	0	112197632	20	4313
2026-01-09 23:29:32.23	28.29	12.05	-29.8	-31.4	12.4	1.13e-04	0	41	0	114294784	20	4353
2026-01-09 23:29:33.23	28.37	12.14	-29.7	-31.3	12.4	1.04e-04	0	41	0	116391936	20	4320
2026-01-09 23:29:34.23	28.45	12.22	-29.6	-30.9	12.7	1.14e-04	0	41	0	117440512	20	4170
2026-01-09 23:29:35.23	28.53	12.31	-29.8	-31.4	12.4	9.99e-05	0	41	0	119537664	20	4334
2026-01-09 23:29:36.24	28.61	12.40	-29.7	-31.2	12.5	1.18e-04	0	41	0	121634816	20	4269
2026-01-09 23:29:37.24	28.69	12.48	-29.8	-31.5	12.3	1.65e-04	0	41	0	123731968	20	4369
2026-01-09 23:29:38.24	28.77	12.57	-29.8	-31.6	12.2	2.63e-04	0	41	0	124780544	20	4394
2026-01-09 23:29:39.24	28.85	12.66	-29.5	-31.0	13.1	4.65e-05	0	41	0	126877696	19	4284
2026-01-09 23:29:40.24	28.93	12.75	-29.8	-31.8	12.6	4.57e-05	0	41	0	128974848	19	4563
2026-01-09 23:29:41.24	29.01	12.83	-29.7	-31.6	12.6	6.79e-05	0	41	0	131072000	19	4495
2026-01-09 23:29:42.24	29.10	12.92	-29.7	-31.6	12.7	6.86e-05	0	41	0	133169152	19	4497
2026-01-09 23:29:43.24	29.18	13.01	-29.6	-31.4	12.8	9.00e-05	0	41	0	134217728	19	4413
2026-01-09 23:29:44.24	29.26	13.10	-29.8	-32.0	12.5	6.86e-05	0	41	0	136314880	19	4614
2026-01-09 23:29:45.25	29.35	13.19	-29.8	-32.0	12.4	1.21e-04	0	41	0	138412032	19	4633
2026-01-09 23:29:46.25	29.43	13.28	-29.6	-31.4	12.9	4.50e-05	0	41	0	140509184	19	4415
2026-01-09 23:29:47.25	29.51	13.37	-29.6	-31.3	12.9	6.17e-05	0	41	0	142606336	19	4397
2026-01-09 23:29:48.25	29.60	13.46	-29.6	-31.4	12.8	5.64e-04	0	41	0	143654912	19	4412
2026-01-09 23:29:49.25	29.69	13.55	-29.8	-31.8	12.6	6.33e-05	0	41	0	145752064	19	4547
2026-01-09 23:29:50.26	29.77	13.64	-29.8	-31.4	12.4	1.84e-04	0	41	0	147849216	20	4322
2026-01-09 23:29:51.26	29.86	13.73	-29.5	-31.0	13.1	5.13e-04	0	41	0	149946368	19	4275
2026-01-09 23:29:52.26	29.95	13.83	-29.7	-31.7	12.6	1.01e-04	0	42	0	152043520	19	4525
2026-01-09 23:29:53.26	30.03	13.92	-29.6	-31.4	12.9	9.76e-05	0	41	0	153092096	19	4417
2026-01-09 23:29:54.26	30.12	14.01	-29.7	-31.7	12.7	4.64e-04	0	41	0	155189248	19	4507
2026-01-09 23:29:55.26	30.21	14.10	-30.1	-32.3	11.8	7.88e-04	0	41	0	157286400	20	4639
2026-01-09 23:29:56.26	30.30	14.19	-29.6	-30.9	12.8	1.02e-03	0	41	0	159383552	20	4179
2026-01-09 23:29:57.25	30.39	14.29	-30.1	-31.7	11.6	4.82e-04	0	41	0	160432128	21	4342
2026-01-09 23:29:58.26	30.48	14.38	-29.7	-31.2	12.6	3.65e-04	0	41	0	162529280	20	4282
2026-01-09 23:29:59.25	30.57	14.47	-30.2	-32.1	11.9	6.68e-04	0	41	0	164626432	21	4477
2026-01-09 23:30:00.25	30.66	14.57	-30.0	-31.4	12.1	4.93e-04	0	41	0	166723584	21	4258
2026-01-09 23:30:01.25	30.75	14.66	-30.2	-32.6	11.6	4.37e-04	0	41	0	168820736	20	4726
2026-01-09 23:30:02.26	30.85	14.75	-31.0	-34.4	10.3	7.88e-03	0	41	0	169869312	22	5277
2026-01-09 23:30:03.26	30.94	14.85	-30.1	-31.8	11.8	6.37e-04	0	41	0	171966464	21	4362
2026-01-09 23:30:04.26	31.03	14.94	-29.9	-31.6	12.3	5.17e-04	0	42	0	174063616	20	4397
2026-01-09 23:30:05.26	31.13	15.04	-29.6	-30.8	12.8	1.27e-04	0	41	0	176160768	20	4142
2026-01-09 23:30:06.27	31.22	15.14	-30.3	-32.9	12.3	1.16e-04	0	41	0	178257920	20	4834
2026-01-09 23:30:07.27	31.32	15.23	-29.9	-31.6	12.4	4.80e-04	0	42	0	179306496	20	4382
2026-01-09 23:30:08.27	31.41	15.33	-29.4	-30.3	13.3	4.11e-05	0	41	0	181403648	20	3977
2026-01-09 23:30:09.28	31.51	15.42	-29.4	-30.7	13.5	6.63e-05	0	41	0	183500800	19	4185
2026-01-09 23:30:10.28	31.61	15.52	-29.4	-30.8	13.3	1.75e-05	0	42	0	185597952	19	4223
2026-01-09 23:30:11.27	31.70	15.62	-29.4	-30.8	13.4	1.75e-05	0	42	0	187695104	19	4219
2026-01-09 23:30:12.27	31.80	15.71	-29.8	-31.8	12.7	3.20e-05	0	41	0	188743680	19	4523
2026-01-09 23:30:13.27	31.90	15.81	-29.3	-30.4	13.7	2.74e-05	0	41	0	190840832	19	4100
2026-01-09 23:30:14.27	32.00	15.91	-29.3	-30.3	13.7	7.60e-06	0	42	0	192937984	19	4071
2026-01-09 23:30:15.27	32.10	16.01	-29.3	-30.5	13.6	9.99e-05	0	41	0	195035136	19	4117
2026-01-09 23:30:16.27	32.20	16.11	-29.4	-30.7	13.4	7.47e-05	0	41	0	197132288	19	4182
2026-01-09 23:30:17.27	32.30	16.21	-29.3	-30.4	13.7	1.67e-05	0	42	0	198180864	19	4101
2026-01-09 23:30:18.28	32.40	16.31	-29.3	-30.4	13.7	1.22e-05	0	41	0	200278016	19	4078
2026-01-09 23:30:19.28	32.51	16.41	-29.4	-30.7	13.5	1.59e-04	0	42	0	202375168	19	4169
2026-01-09 23:30:20.28	32.61	16.51	-29.8	-31.8	12.9	4.04e-05	0	41	0	204472320	19	4530
2026-01-09 23:30:21.28	32.71	16.61	-29.7	-31.4	12.9	2.05e-05	0	41	0	205520896	19	4413
2026-01-09 23:30:22.28	32.82	16.71	-29.8	-31.8	12.7	2.86e-04	0	41	0	207618048	19	4540
2026-01-09 23:30:23.28	32.92	16.81	-29.8	-31.7	12.8	4.19e-05	0	42	0	209715200	19	4503
2026-01-09 23:30:24.29	33.03	16.91	-29.6	-30.8	13.0	9.61e-05	0	42	0	211812352	20	4126
2026-01-09 23:30:25.29	33.14	17.01	-29.7	-31.0	12.8	5.64e-05	0	42	0	213909504	20	4205
2026-01-09 23:30:26.29	33.25	17.11	-29.6	-30.9	13.0	5.64e-05	0	42	0	214958080	20	4159
2026-01-09 23:30:27.30	33.35	17.22	-29.7	-31.1	12.7	2.05e-05	0	42	0	217055232	20	4231
2026-01-09 23:30:28.30	33.46	17.32	-29.8	-31.5	12.4	3.28e-05	0	42	0	219152384	20	4342
2026-01-09 23:30:29.30	33.57	17.42	-29.7	-31.1	12.7	7.78e-05	0	42	0	221249536	20	4224
2026-01-09 23:30:30.31	33.68	17.53	-29.7	-31.0	12.9	1.82e-04	0	42	0	223346688	20	4189
2026-01-09 23:30:31.31	33.79	17.63	-29.8	-31.8	12.7	8.54e-05	0	42	0	224395264	19	4548
2026-01-09 23:30:32.31	33.91	17.73	-29.7	-31.6	12.8	5.41e-05	0	42	0	226492416	19	4455
2026-01-09 23:30:33.31	34.02	17.84	-30.0	-31.8	12.4	6.76e-04	0	42	0	228589568	20	4451
2026-01-09 23:30:34.32	34.13	17.94	-29.8	-31.9	12.6	8.16e-04	0	42	0	230686720	19	4581
2026-01-09 23:30:35.32	34.25	18.05	-29.9	-32.0	12.6	6.86e-05	0	42	0	232783872	19	4585
2026-01-09 23:30:36.32	34.36	18.15	-29.9	-31.7	12.4	1.23e-03	0	42	0	233832448	20	4412
2026-01-09 23:30:37.32	34.48	18.26	-29.8	-31.9	12.7	1.15e-03	0	42	0	235929600	19	4558
2026-01-09 23:30:38.32	34.59	18.37	-29.9	-32.0	12.5	6.25e-05	0	42	0	238026752	19	4609
2026-01-09 23:30:39.33	34.71	18.47	-29.8	-31.9	12.7	1.15e-03	0	42	0	240123904	19	4553
2026-01-09 23:30:40.34	34.83	18.58	-30.0	-31.8	12.3	1.11e-03	0	42	0	242221056	20	4442
2026-01-09 23:30:41.34	34.95	18.69	-29.8	-31.3	12.7	5.41e-05	0	42	0	243269632	20	4282
2026-01-09 23:30:42.34	35.07	18.80	-29.8	-31.8	12.8	1.02e-03	0	42	0	245366784	19	4515
2026-01-09 23:30:43.35	35.19	18.90	-29.8	-31.9	12.7	9.75e-04	0	42	0	247463936	19	4558
2026-01-09 23:30:44.35	35.31	19.01	-29.6	-31.1	13.3	6.33e-05	0	42	0	249561088	19	4294
2026-01-09 23:30:45.35	35.43	19.12	-29.7	-31.4	13.1	5.69e-04	0	42	0	250609664	19	4386
2026-01-09 23:30:46.35	35.56	19.23	-29.8	-31.9	12.8	4.81e-04	0	42	0	252706816	19	4552
2026-01-09 23:30:47.36	35.68	19.34	-29.8	-31.2	12.8	9.46e-05	0	42	0	254803968	20	4250
2026-01-09 23:30:48.36	35.80	19.45	-29.6	-30.6	13.2	1.90e-04	0	42	0	256901120	20	4078
2026-01-09 23:30:49.35	35.93	19.56	-29.7	-31.0	12.9	7.01e-05	0	42	0	258998272	20	4184
2026-01-09 23:30:50.35	36.05	19.67	-29.7	-31.0	12.9	6.63e-05	0	42	0	260046848	20	4182
2026-01-09 23:30:51.35	36.18	19.78	-29.6	-30.9	13.0	8.08e-05	0	42	0	262144000	20	4143
2026-01-09 23:30:52.35	36.31	19.89	-29.7	-31.1	12.8	1.14e-04	0	42	0	264241152	20	4227
2026-01-09 23:30:53.34	36.44	20.00	-29.7	-31.0	12.9	5.26e-05	0	42	0	266338304	20	4184
2026-01-09 23:30:54.34	36.57	20.11	-29.8	-31.8	12.8	4.36e-04	0	42	0	268435456	19	4521
2026-01-09 23:30:55.35	36.70	20.23	-29.9	-32.0	12.7	3.79e-04	0	42	0	269484032	19	4587
2026-01-09 23:30:56.35	36.83	20.34	-29.7	-31.6	13.0	4.57e-05	0	42	0	271581184	19	4442
2026-01-09 23:30:57.35	36.96	20.45	-29.8	-31.8	12.8	3.69e-04	0	42	0	273678336	19	4537
2026-01-09 23:30:58.36	37.10	20.57	-29.9	-31.6	12.5	4.44e-04	0	42	0	275775488	20	4388
2026-01-09 23:30:59.36	37.23	20.68	-29.8	-31.3	12.7	7.78e-05	0	42	0	277872640	20	4292
2026-01-09 23:31:00.36	37.37	20.79	-30.0	-31.8	12.4	5.23e-04	0	42	0	278921216	20	4428
2026-01-09 23:31:01.35	37.50	20.91	-30.0	-31.9	12.3	3.49e-04	0	42	0	281018368	20	4467
2026-01-09 23:31:02.36	37.64	21.02	-30.0	-31.9	12.3	2.52e-04	0	42	0	283115520	20	4478
2026-01-09 23:31:03.36	37.78	21.14	-29.9	-31.6	12.6	1.10e-04	0	42	0	285212672	20	4374
2026-01-09 23:31:04.36	37.92	21.25	-29.9	-31.6	12.6	1.42e-04	0	42	0	287309824	20	4356
2026-01-09 23:31:05.36	38.06	21.37	-29.8	-31.3	12.7	1.20e-04	0	42	0	288358400	20	4294
2026-01-09 23:31:06.36	38.20	21.48	-29.8	-31.1	12.9	7.24e-05	0	42	0	290455552	20	4227
2026-01-09 23:31:07.36	38.34	21.60	-29.7	-31.0	13.0	7.32e-05	0	42	0	292552704	20	4187
2026-01-09 23:31:08.36	38.49	21.72	-29.6	-30.8	13.1	2.74e-05	0	42	0	294649856	20	4134
2026-01-09 23:31:09.37	38.63	21.84	-29.4	-30.2	13.5	2.97e-05	0	42	0	295698432	20	3938
2026-01-09 23:31:10.38	38.78	21.95	-29.4	-30.3	13.5	1.37e-05	0	42	0	297795584	20	3965
2026-01-09 23:31:11.38	38.93	22.07	-29.5	-30.4	13.3	2.28e-05	0	42	0	299892736	20	4011
2026-01-09 23:31:12.38	39.07	22.19	-29.3	-30.5	13.8	8.16e-05	0	42	0	301989888	19	4097
2026-01-09 23:31:13.38	39.22	22.31	-29.2	-30.0	14.0	5.64e-05	0	42	0	304087040	19	3964
2026-01-09 23:31:14.39	39.37	22.43	-29.3	-30.3	13.9	7.60e-06	0	42	0	305135616	19	4037
2026-01-09 23:31:15.39	39.52	22.55	-29.2	-30.1	13.9	6.63e-05	0	42	0	307232768	19	3974
2026-01-09 23:31:16.39	39.68	22.67	-29.2	-30.0	14.0	8.01e-05	0	42	0	309329920	19	3949
2026-01-09 23:31:17.38	39.83	22.79	-29.1	-29.9	14.2	6.10e-06	0	42	0	311427072	19	3916
2026-01-09 23:31:18.38	39.98	22.91	-29.3	-30.4	13.8	3.66e-05	0	42	0	313524224	19	4071
2026-01-09 23:31:19.38	40.14	23.03	-29.4	-30.5	13.7	2.20e-06	0	42	0	314572800	19	4116
2026-01-09 23:31:20.38	40.30	23.15	-29.5	-31.0	13.5	1.14e-05	0	42	0	316669952	19	4260
2026-01-09 23:31:21.38	40.45	23.27	-29.8	-31.7	13.3	2.13e-05	0	42	0	318767104	19	4463
2026-01-09 23:31:22.38	40.61	23.39	-29.6	-31.2	13.4	1.60e-05	0	42	0	320864256	19	4299
2026-01-09 23:31:23.38	40.77	23.52	-29.8	-31.6	13.2	3.50e-05	0	42	0	322961408	19	4448
2026-01-09 23:31:24.38	40.93	23.64	-29.8	-31.6	13.2	5.26e-05	0	42	0	324009984	19	4426
2026-01-09 23:31:25.38	41.10	23.76	-29.9	-31.4	12.7	6.71e-05	0	42	0	326107136	20	4293
2026-01-09 23:31:26.39	41.26	23.89	-29.6	-30.5	13.4	2.67e-05	0	42	0	328204288	20	4024
2026-01-09 23:31:27.39	41.43	24.01	-29.5	-30.4	13.5	4.50e-06	0	42	0	330301440	20	3985
2026-01-09 23:31:28.40	41.60	24.14	-29.2	-30.0	14.0	2.05e-05	0	42	0	331350016	19	3952
2026-01-09 23:31:29.40	41.76	24.26	-29.2	-29.9	14.2	3.80e-06	0	42	0	333447168	19	3912
2026-01-09 23:31:30.40	41.93	24.38	-29.3	-30.3	13.9	7.00e-07	0	42	0	335544320	19	4026
2026-01-09 23:31:31.40	42.10	24.51	-29.1	-29.7	14.4	0.00e+00	0	42	0	337641472	19	3870
2026-01-09 23:31:32.40	42.28	24.64	-29.1	-29.9	14.2	2.20e-06	0	42	0	339738624	19	3907
2026-01-09 23:31:33.40	42.45	24.76	-29.4	-30.6	13.9	1.50e-06	0	42	0	340787200	19	4114
2026-01-09 23:31:34.41	42.63	24.89	-29.5	-30.9	13.6	4.50e-06	0	42	0	342884352	19	4214
2026-01-09 23:31:35.41	42.80	25.01	-29.4	-30.6	13.8	7.60e-06	0	42	0	344981504	19	4126
2026-01-09 23:31:36.42	42.98	25.14	-29.8	-31.5	13.3	1.50e-06	0	42	0	347078656	19	4393
2026-01-09 23:31:37.42	43.16	25.27	-29.6	-31.0	13.7	4.50e-06	0	42	0	349175808	19	4230
2026-01-09 23:31:38.42	43.34	25.40	-29.8	-31.5	13.3	9.10e-06	0	42	0	350224384	19	4392
2026-01-09 23:31:39.43	43.52	25.53	-29.7	-31.3	13.5	1.22e-05	0	42	0	352321536	19	4324
2026-01-09 23:31:40.43	43.71	25.65	-29.6	-31.1	13.6	1.60e-05	0	42	0	354418688	19	4270
2026-01-09 23:31:41.43	43.89	25.78	-29.6	-31.1	13.6	1.22e-05	0	42	0	356515840	19	4265
2026-01-09 23:31:42.44	44.08	25.91	-29.7	-31.4	13.4	1.75e-05	0	42	0	358612992	19	4367
2026-01-09 23:31:43.44	44.27	26.04	-29.5	-30.8	13.7	3.28e-05	0	42	0	359661568	19	4187
2026-01-09 23:31:44.44	44.46	26.17	-29.1	-29.7	14.5	7.00e-07	0	42	0	361758720	19	3861
2026-01-09 23:31:45.44	44.65	26.30	-29.5	-30.7	13.8	1.98e-05	0	42	0	363855872	19	4133
2026-01-09 23:31:46.44	44.84	26.43	-29.4	-30.3	14.1	1.14e-05	0	42	0	365953024	19	4036
2026-01-09 23:31:47.45	45.03	26.56	-29.8	-31.5	13.3	1.29e-05	0	42	0	368050176	19	4377
2026-01-09 23:31:48.45	45.23	26.69	-29.9	-31.4	12.9	2.89e-05	0	42	0	369098752	20	4280
2026-01-09 23:31:49.45	45.43	26.82	-30.1	-32.1	12.5	6.10e-04	0	42	0	371195904	20	4496
2026-01-09 23:31:50.46	45.63	26.96	-30.2	-32.2	12.4	1.69e-04	0	42	0	373293056	20	4546
2026-01-09 23:31:51.46	45.83	27.09	-30.3	-32.6	12.2	1.93e-04	0	42	0	375390208	20	4683
2026-01-09 23:31:52.46	46.03	27.22	-30.2	-32.3	12.4	7.13e-04	0	42	0	377487360	20	4578
2026-01-09 23:31:53.46	46.23	27.35	-30.4	-33.0	11.9	2.35e-04	0	42	0	378535936	20	4816
2026-01-09 23:31:54.46	46.44	27.48	-30.2	-32.2	12.4	1.72e-04	0	42	0	380633088	20	4546
2026-01-09 23:31:55.47	46.64	27.62	-30.0	-31.7	12.8	1.54e-04	0	42	0	382730240	20	4355
2026-01-09 23:31:56.47	46.85	27.75	-29.7	-30.7	13.4	9.23e-05	0	42	0	384827392	20	4058
2026-01-09 23:31:57.48	47.06	27.89	-29.5	-30.2	13.7	7.60e-06	0	42	0	385875968	20	3915
2026-01-09 23:31:58.47	47.27	28.02	-29.6	-30.5	13.5	3.80e-06	0	42	0	387973120	20	4007
2026-01-09 23:31:59.47	47.49	28.15	-29.8	-31.1	13.1	1.37e-05	0	42	0	390070272	20	4179
2026-01-09 23:32:00.47	47.70	28.28	-29.9	-31.4	13.0	5.87e-05	0	42	0	392167424	20	4284
2026-01-09 23:32:01.48	47.92	28.42	-30.2	-32.1	12.6	6.71e-05	0	42	0	394264576	20	4515
2026-01-09 23:32:02.48	48.14	28.55	-30.2	-32.1	12.5	6.63e-05	0	42	0	395313152	20	4489
2026-01-09 23:32:03.48	48.36	28.69	-30.2	-31.7	12.5	3.55e-04	0	42	0	397410304	21	4282
2026-01-09 23:32:04.48	48.58	28.82	-30.0	-31.1	13.0	3.50e-05	0	42	0	399507456	21	4077
2026-01-09 23:32:05.48	48.81	28.96	-30.2	-31.8	12.6	6.86e-05	0	42	0	401604608	21	4287
2026-01-09 23:32:06.49	49.03	29.09	-30.0	-31.7	13.1	6.15e-04	0	42	0	403701760	20	4340
2026-01-09 23:32:07.49	49.26	29.23	-30.0	-31.6	13.1	6.21e-04	0	42	0	404750336	20	4318
2026-01-09 23:32:08.49	49.49	29.36	-30.2	-32.2	12.6	3.96e-05	0	42	0	406847488	20	4509
2026-01-09 23:32:09.50	49.73	29.50	-30.1	-31.8	12.8	1.58e-04	0	42	0	408944640	20	4401
2026-01-09 23:32:10.50	49.96	29.64	-30.2	-32.1	12.6	3.61e-04	0	42	0	411041792	20	4480
2026-01-09 23:32:11.51	50.20	29.77	-30.5	-32.0	12.0	8.03e-04	0	42	0	413138944	22	4264
2026-01-09 23:32:12.51	50.44	29.91	-30.8	-32.8	11.5	1.01e-03	0	42	0	414187520	22	4566
2026-01-09 23:32:13.51	50.68	30.05	-30.8	-33.1	11.2	5.65e-04	0	42	0	416284672	22	4644
2026-01-09 23:32:14.51	50.92	30.18	-30.5	-32.1	12.1	3.20e-04	0	42	0	418381824	22	4299
2026-01-09 23:32:15.51	51.16	30.32	-30.5	-31.9	12.1	2.23e-04	0	42	0	420478976	22	4254
2026-01-09 23:32:16.52	51.41	30.46	-30.4	-31.8	12.2	2.40e-04	0	42	0	422576128	22	4201
2026-01-09 23:32:17.52	51.66	30.59	-30.3	-32.0	12.3	4.10e-04	0	42	0	423624704	21	4369
2026-01-09 23:32:18.52	51.91	30.73	-30.2	-31.6	12.7	9.61e-05	0	42	0	425721856	21	4229
2026-01-09 23:32:19.52	52.16	30.87	-30.2	-31.7	12.6	7.85e-05	0	42	0	427819008	21	4279
2026-01-09 23:32:20.52	52.41	31.00	-30.2	-31.6	12.7	5.41e-05	0	42	0	429916160	21	4240
2026-01-09 23:32:21.52	52.67	31.14	-30.2	-31.7	12.7	8.92e-05	0	42	0	430964736	21	4268
2026-01-09 23:32:22.52	52.92	31.27	-30.5	-32.5	12.1	9.00e-05	0	42	0	433061888	21	4515
2026-01-09 23:32:23.52	53.18	31.41	-30.5	-32.6	11.9	4.90e-04	0	42	0	435159040	21	4580
2026-01-09 23:32:24.51	53.44	31.55	-30.7	-33.2	11.6	4.65e-04	0	42	0	437256192	21	4762
2026-01-09 23:32:25.51	53.71	31.68	-31.1	-33.9	10.8	1.44e-03	0	42	0	439353344	22	4961
2026-01-09 23:32:26.52	53.98	31.82	-31.5	-34.9	9.6	8.02e-03	0	42	0	440401920	23	5313
2026-01-09 23:32:27.52	54.25	31.96	-31.9	-36.2	8.6	2.03e-02	0	42	0	442499072	23	5918
2026-01-09 23:32:28.52	54.52	32.09	-32.0	-36.3	8.1	6.34e-02	0	42	0	444596224	24	5903
2026-01-09 23:32:29.52	54.79	32.23	-32.1	-36.8	7.7	6.71e-02	0	42	0	446693376	24	6162
2026-01-09 23:32:30.52	55.07	32.37	-31.8	-35.1	9.2	2.90e-02	0	42	0	448790528	24	5311
2026-01-09 23:32:31.52	55.35	32.50	-31.5	-34.0	10.0	1.31e-02	0	42	0	449839104	24	4831
2026-01-09 23:32:32.52	55.63	32.64	-31.2	-33.6	10.8	1.07e-02	0	42	0	451936256	23	4739
2026-01-09 23:32:33.52	55.91	32.78	-31.5	-34.2	9.6	4.89e-02	0	42	0	454033408	24	4917
2026-01-09 23:32:34.52	56.19	32.91	-31.8	-35.4	8.9	1.05e-02	0	42	0	456130560	24	5444
2026-01-09 23:32:35.51	56.48	33.05	-32.1	-36.5	8.2	2.86e-02	0	42	0	458227712	24	5975
2026-01-09 23:32:36.51	56.77	33.18	-32.1	-36.3	8.3	5.04e-02	0	42	0	459276288	24	5861
2026-01-09 23:32:37.52	57.06	33.32	-32.2	-36.9	7.8	6.41e-02	0	42	0	461373440	24	6219
2026-01-09 23:32:38.52	57.36	33.45	-32.0	-35.9	8.5	9.04e-02	0	42	0	463470592	24	5686
2026-01-09 23:32:39.52	57.65	33.59	-32.3	-37.5	7.3	6.22e-02	0	42	0	465567744	24	6561
2026-01-09 23:32:40.51	57.95	33.72	-32.3	-37.4	7.5	5.94e-02	0	42	0	466616320	24	6466
2026-01-09 23:32:41.51	58.25	33.86	-32.0	-36.2	8.3	4.86e-02	0	42	0	468713472	24	5810
2026-01-09 23:32:42.50	58.55	33.99	-31.9	-35.7	8.5	2.68e-02	0	42	0	470810624	24	5568
2026-01-09 23:32:43.50	58.86	34.12	-31.7	-34.9	9.3	1.66e-02	0	42	0	472907776	24	5211
2026-01-09 23:32:44.50	59.17	34.26	-31.7	-34.7	9.3	1.46e-02	0	42	0	475004928	24	5112
2026-01-09 23:32:45.50	59.48	34.39	-31.7	-34.8	9.4	2.19e-02	0	42	0	476053504	24	5167
2026-01-09 23:32:46.49	59.79	34.52	-31.8	-35.3	9.0	1.95e-02	0	42	0	478150656	24	5388
2026-01-09 23:32:47.50	60.11	34.66	-32.1	-36.3	8.3	3.66e-02	0	42	0	480247808	24	5877
2026-01-09 23:32:48.51	60.44	34.79	-32.3	-36.7	7.6	8.85e-02	0	42	0	482344960	25	5961
2026-01-09 23:32:49.51	60.76	34.92	-32.1	-36.1	8.0	6.23e-02	0	42	0	484442112	25	5710
2026-01-09 23:32:50.51	61.08	35.05	-32.0	-35.6	8.5	4.38e-02	0	42	0	485490688	25	5417
2026-01-09 23:32:51.51	61.41	35.18	-31.9	-35.6	8.8	3.16e-02	0	42	0	487587840	24	5532
2026-01-09 23:32:52.51	61.74	35.31	-31.6	-34.3	9.9	1.11e-02	0	42	0	489684992	24	4937
2026-01-09 23:32:53.51	62.07	35.44	-31.6	-34.6	9.6	1.04e-02	0	42	0	491782144	24	5042
2026-01-09 23:32:54.51	62.41	35.57	-31.9	-35.6	8.8	9.49e-03	0	42	0	493879296	24	5511
2026-01-09 23:32:55.51	62.74	35.70	-31.8	-35.1	9.4	1.84e-02	0	42	0	494927872	24	5271
2026-01-09 23:32:56.51	63.08	35.83	-31.8	-35.1	9.1	1.17e-02	0	42	0	497025024	24	5262
2026-01-09 23:32:57.51	63.43	35.96	-31.8	-35.2	9.1	1.25e-02	0	42	0	499122176	24	5311
2026-01-09 23:32:58.51	63.77	36.08	-31.7	-34.8	9.3	1.51e-02	0	42	0	501219328	24	5152
2026-01-09 23:32:59.51	64.12	36.21	-31.7	-34.9	9.5	2.42e-02	0	42	0	502267904	24	5184
2026-01-09 23:33:00.51	64.47	36.33	-31.5	-34.2	10.0	8.65e-03	0	42	0	504365056	24	4870
2026-01-09 23:33:01.51	64.82	36.46	-31.4	-34.2	10.3	5.91e-03	0	42	0	506462208	23	4982
2026-01-09 23:33:02.51	65.18	36.58	-31.2	-33.7	10.8	4.38e-03	0	42	0	508559360	23	4765
2026-01-09 23:33:03.51	65.54	36.71	-31.3	-33.7	10.5	3.44e-03	0	42	0	510656512	23	4783
2026-01-09 23:33:04.51	65.90	36.83	-31.3	-33.7	10.7	8.80e-03	0	42	0	511705088	23	4774
2026-01-09 23:33:05.51	66.26	36.95	-31.6	-34.7	10.0	3.66e-03	0	42	0	513802240	23	5175
2026-01-09 23:33:06.51	66.63	37.07	-31.8	-35.5	9.4	1.36e-02	0	42	0	515899392	23	5513
2026-01-09 23:33:07.51	67.00	37.19	-31.6	-35.0	9.8	2.17e-02	0	42	0	517996544	23	5306
2026-01-09 23:33:08.51	67.37	37.31	-31.4	-34.2	10.2	9.27e-03	0	42	0	520093696	23	4979
2026-01-09 23:33:09.52	67.75	37.43	-31.3	-33.8	10.5	5.45e-03	0	42	0	521142272	23	4806
2026-01-09 23:33:10.52	68.13	37.55	-30.8	-32.7	11.8	1.17e-03	0	42	0	523239424	22	4486
2026-01-09 23:33:11.52	68.51	37.66	-30.8	-32.6	11.8	3.89e-04	0	42	0	525336576	22	4463
2026-01-09 23:33:12.53	68.90	37.78	-30.8	-32.6	11.8	3.01e-04	0	42	0	527433728	22	4468
2026-01-09 23:33:13.53	69.28	37.90	-31.0	-33.4	11.3	1.01e-03	0	42	0	528482304	22	4722
2026-01-09 23:33:14.54	69.68	38.01	-31.1	-33.6	11.1	1.37e-03	0	42	0	530579456	22	4813
2026-01-09 23:33:15.54	70.07	38.12	-31.3	-34.3	10.6	2.94e-03	0	42	0	532676608	22	5098
2026-01-09 23:33:16.54	70.46	38.23	-31.0	-33.4	11.3	2.81e-03	0	42	0	534773760	22	4748
2026-01-09 23:33:17.54	70.86	38.34	-31.1	-33.7	11.1	1.30e-03	0	42	0	536870912	22	4864
2026-01-09 23:33:18.53	71.25	38.45	-31.0	-33.3	11.3	9.06e-04	0	42	0	537919488	22	4715
2026-01-09 23:33:19.53	71.65	38.56	-30.7	-32.3	12.1	1.06e-03	0	42	0	540016640	22	4359
2026-01-09 23:33:20.53	72.06	38.67	-30.5	-31.8	12.5	2.26e-04	0	42	0	542113792	22	4169
2026-01-09 23:33:21.54	72.47	38.77	-30.6	-32.2	12.2	2.87e-04	0	42	0	544210944	22	4321
2026-01-09 23:33:22.54	72.88	38.88	-30.9	-32.9	11.7	3.58e-04	0	42	0	546308096	22	4564
2026-01-09 23:33:23.53	73.29	38.98	-31.0	-33.5	11.2	1.35e-03	0	42	0	547356672	22	4773
2026-01-09 23:33:24.54	73.71	39.08	-31.3	-34.5	10.6	2.66e-03	0	42	0	549453824	22	5161
2026-01-09 23:33:25.54	74.12	39.18	-31.1	-33.6	11.2	2.35e-03	0	42	0	551550976	22	4793
2026-01-09 23:33:26.55	74.55	39.28	-30.6	-32.1	12.2	5.30e-04	0	42	0	553648128	22	4290
2026-01-09 23:33:27.55	74.97	39.38	-30.5	-31.9	12.4	1.73e-04	0	42	0	555745280	22	4214
2026-01-09 23:33:28.55	75.39	39.47	-30.6	-32.2	12.2	1.10e-04	0	42	0	556793856	22	4304
2026-01-09 23:33:29.55	75.82	39.57	-30.4	-31.7	12.6	1.56e-04	0	42	0	558891008	22	4145
2026-01-09 23:33:30.56	76.26	39.66	-30.3	-31.7	12.8	4.65e-05	0	42	0	560988160	21	4243
2026-01-09 23:33:31.56	76.69	39.75	-30.5	-32.5	12.3	1.12e-04	0	42	0	563085312	21	4500
2026-01-09 23:33:32.56	77.12	39.84	-31.2	-34.0	11.0	5.48e-04	0	42	0	565182464	22	4961
2026-01-09 23:33:33.56	77.56	39.93	-31.7	-35.3	9.5	6.44e-03	0	42	0	566231040	23	5438
2026-01-09 23:33:34.56	78.00	40.01	-31.6	-34.9	9.8	8.24e-03	0	42	0	568328192	23	5277
2026-01-09 23:33:35.56	78.44	40.10	-31.2	-33.4	10.9	4.73e-03	0	42	0	570425344	23	4664
2026-01-09 23:33:36.56	78.89	40.18	-31.2	-33.5	11.0	2.99e-03	0	42	0	572522496	23	4693
2026-01-09 23:33:37.57	79.34	40.26	-31.6	-34.8	9.9	5.91e-03	0	42	0	573571072	23	5209
2026-01-09 23:33:38.57	79.78	40.34	-31.3	-33.8	10.6	3.72e-03	0	42	0	575668224	23	4790
2026-01-09 23:33:39.57	80.23	40.42	-31.1	-33.2	11.1	1.74e-03	0	42	0	577765376	23	4578
2026-01-09 23:33:40.57	80.69	40.50	-31.2	-33.4	11.0	1.27e-03	0	42	0	579862528	23	4652
2026-01-09 23:33:41.58	81.15	40.57	-31.3	-33.9	10.7	2.49e-03	0	42	0	581959680	23	4828
2026-01-09 23:33:42.57	81.60	40.64	-32.0	-36.0	8.7	1.09e-02	0	42	0	583008256	24	5673
2026-01-09 23:33:43.57	82.06	40.71	-32.5	-38.0	7.1	8.79e-02	0	42	0	585105408	24	6822
2026-01-09 23:33:44.58	82.52	40.78	-32.5	-37.9	6.9	1.83e-01	0	42	0	587202560	25	6693
2026-01-09 23:33:45.58	82.99	40.85	-32.5	-37.4	7.0	1.69e-01	0	42	0	589299712	25	6371
2026-01-09 23:33:46.57	83.45	40.91	-32.5	-37.5	7.0	1.29e-01	0	42	0	591396864	25	6431
2026-01-09 23:33:47.57	83.91	40.98	-32.4	-37.0	7.4	1.24e-01	0	42	0	592445440	25	6147
2026-01-09 23:33:48.58	84.39	41.04	-32.0	-35.3	8.8	7.06e-02	0	42	0	594542592	25	5280
2026-01-09 23:33:49.58	84.86	41.10	-31.8	-35.0	9.5	4.47e-02	0	42	0	596639744	24	5201
2026-01-09 23:33:50.57	85.32	41.15	-31.4	-33.7	10.4	7.81e-03	0	42	0	598736896	24	4666
2026-01-09 23:33:51.58	85.80	41.21	-31.6	-34.4	9.9	8.82e-03	0	42	0	600834048	24	4967
2026-01-09 23:33:52.58	86.28	41.26	-32.1	-36.2	8.5	3.08e-02	0	42	0	601882624	24	5769
2026-01-09 23:33:53.58	86.75	41.31	-32.4	-37.0	7.6	7.77e-02	0	42	0	603979776	25	6118
2026-01-09 23:33:54.58	87.23	41.36	-32.4	-37.0	7.4	1.35e-01	0	42	0	606076928	25	6123
2026-01-09 23:33:55.59	87.71	41.41	-32.2	-35.9	8.4	7.19e-02	0	42	0	608174080	25	5523
2026-01-09 23:33:56.59	88.19	41.45	-32.0	-35.2	8.8	4.00e-02	0	42	0	609222656	25	5207
2026-01-09 23:33:57.59	88.68	41.49	-32.2	-36.0	8.3	3.53e-02	0	42	0	611319808	25	5588
2026-01-09 23:33:58.59	89.16	41.53	-32.2	-36.1	8.2	6.18e-02	0	42	0	613416960	25	5638
2026-01-09 23:33:59.59	89.64	41.57	-32.1	-35.7	8.4	6.31e-02	0	42	0	615514112	25	5455
2026-01-09 23:34:00.59	90.13	41.61	-31.8	-34.7	9.3	2.64e-02	0	42	0	617611264	25	4986
2026-01-09 23:34:01.60	90.62	41.64	-32.0	-35.3	8.9	2.91e-02	0	42	0	618659840	25	5253
2026-01-09 23:34:02.60	91.11	41.67	-32.5	-37.7	7.0	1.49e-01	0	42	0	620756992	25	6559
2026-01-09 23:34:03.60	91.59	41.70	-32.8	-39.6	5.5	3.22e-01	0	42	0	622854144	25	7836
2026-01-09 23:34:04.60	92.08	41.72	-32.7	-38.4	6.4	3.98e-01	0	42	0	624951296	25	6982
2026-01-09 23:34:05.60	92.57	41.75	-32.2	-36.2	8.0	1.13e-01	0	42	0	627048448	25	5735
2026-01-09 23:34:06.60	93.06	41.77	-31.6	-34.5	9.7	2.38e-02	0	42	0	628097024	24	4983
2026-01-09 23:34:07.60	93.56	41.79	-31.5	-33.8	10.3	7.71e-03	0	42	0	630194176	24	4730
2026-01-09 23:34:08.61	94.05	41.81	-31.7	-34.5	9.9	6.98e-03	0	42	0	632291328	24	4986
2026-01-09 23:34:09.60	94.54	41.82	-32.1	-36.3	8.4	4.44e-02	0	42	0	634388480	24	5850
2026-01-09 23:34:10.60	95.03	41.83	-32.1	-36.1	8.6	4.96e-02	0	42	0	635437056	24	5743
2026-01-09 23:34:11.60	95.52	41.84	-32.0	-35.7	8.9	3.49e-02	0	42	0	637534208	24	5541
2026-01-09 23:34:12.59	96.01	41.85	-31.8	-35.1	9.4	1.75e-02	0	42	0	639631360	24	5236
2026-01-09 23:34:13.59	96.51	41.86	-31.8	-34.9	9.5	1.66e-02	0	42	0	641728512	24	5186
2026-01-09 23:34:14.59	97.00	41.86	-32.2	-36.7	8.2	1.83e-02	0	42	0	643825664	24	6013
2026-01-09 23:34:15.60	97.50	41.86	-32.4	-37.8	7.3	1.05e-01	0	42	0	644874240	24	6650
2026-01-09 23:34:16.60	97.99	41.86	-32.5	-37.6	7.0	1.17e-01	0	42	0	646971392	25	6460
2026-01-09 23:34:17.60	98.49	41.86	-32.3	-36.8	7.6	1.78e-01	0	42	0	649068544	25	6038
2026-01-09 23:34:18.60	98.98	41.85	-32.0	-35.4	8.7	7.67e-02	0	42	0	651165696	25	5320
2026-01-09 23:34:19.61	99.48	41.84	-31.9	-34.8	9.1	3.49e-02	0	42	0	653262848	25	5059
2026-01-09 23:34:20.61	99.97	41.83	-32.1	-35.7	8.5	3.74e-02	0	42	0	654311424	25	5437
2026-01-09 23:34:21.61	100.46	41.82	-32.1	-35.6	8.6	5.31e-02	0	42	0	656408576	25	5393
2026-01-09 23:34:22.60	100.95	41.80	-31.2	-33.5	11.0	1.17e-02	0	42	0	658505728	23	4674
2026-01-09 23:34:23.60	101.44	41.79	-30.7	-32.3	12.2	4.23e-04	0	42	0	660602880	22	4322
2026-01-09 23:34:24.60	101.93	41.77	-30.6	-32.2	12.3	1.27e-04	0	42	0	662700032	22	4295
2026-01-09 23:34:25.60	102.42	41.74	-31.6	-34.9	10.0	6.34e-04	0	42	0	663748608	23	5252
2026-01-09 23:34:26.60	102.91	41.72	-32.3	-36.9	8.0	4.74e-02	0	42	0	665845760	24	6122
2026-01-09 23:34:27.61	103.41	41.69	-32.0	-35.5	9.1	5.41e-02	0	42	0	667942912	24	5442
2026-01-09 23:34:28.61	103.90	41.66	-31.5	-33.7	10.3	1.70e-02	0	42	0	670040064	24	4668
2026-01-09 23:34:29.61	104.38	41.63	-31.2	-33.3	11.1	2.00e-03	0	42	0	672137216	23	4593
2026-01-09 23:34:30.61	104.87	41.60	-31.5	-34.4	10.3	3.11e-03	0	42	0	673185792	23	5035
2026-01-09 23:34:31.61	105.36	41.56	-31.7	-35.0	9.8	1.10e-02	0	42	0	675282944	23	5286
2026-01-09 23:34:32.61	105.84	41.52	-31.3	-33.9	10.6	3.99e-03	0	42	0	677380096	23	4823
2026-01-09 23:34:33.61	106.32	41.48	-30.8	-32.7	11.8	5.67e-04	0	42	0	679477248	22	4482
2026-01-09 23:34:34.62	106.81	41.44	-31.2	-34.0	11.0	6.51e-04	0	42	0	680525824	22	4943
2026-01-09 23:34:35.61	107.29	41.40	-31.6	-34.9	9.9	3.30e-03	0	42	0	682622976	23	5242
2026-01-09 23:34:36.61	107.76	41.35	-31.7	-35.0	9.7	1.13e-02	0	42	0	684720128	23	5312
2026-01-09 23:34:37.62	108.25	41.30	-31.5	-34.6	10.1	7.40e-03	0	42	0	686817280	23	5106
2026-01-09 23:34:38.63	108.73	41.25	-31.3	-33.9	10.7	6.04e-03	0	42	0	688914432	23	4824
2026-01-09 23:34:39.62	109.20	41.20	-31.5	-34.6	10.2	3.40e-03	0	42	0	689963008	23	5114
2026-01-09 23:34:40.62	109.67	41.14	-31.8	-35.5	9.4	7.97e-03	0	42	0	692060160	23	5531
2026-01-09 23:34:41.62	110.14	41.08	-32.2	-36.5	8.3	3.97e-02	0	42	0	694157312	24	5937
2026-01-09 23:34:42.61	110.61	41.02	-32.2	-36.8	8.1	4.70e-02	0	42	0	696254464	24	6077
2026-01-09 23:34:43.61	111.08	40.96	-32.0	-35.6	8.9	4.40e-02	0	42	0	698351616	24	5482
2026-01-09 23:34:44.61	111.55	40.90	-31.7	-34.8	9.5	1.34e-02	0	42	0	699400192	24	5116
2026-01-09 23:34:45.61	112.01	40.83	-31.8	-34.9	9.5	8.81e-03	0	42	0	701497344	24	5160
2026-01-09 23:34:46.62	112.48	40.77	-31.7	-34.7	9.7	1.35e-02	0	42	0	703594496	24	5082
2026-01-09 23:34:47.62	112.94	40.70	-30.8	-32.2	11.9	3.28e-03	0	42	0	705691648	23	4222
2026-01-09 23:34:48.62	113.40	40.63	-30.3	-31.7	12.9	1.31e-04	0	42	0	707788800	21	4223
2026-01-09 23:34:49.62	113.85	40.55	-30.1	-31.3	13.0	4.11e-05	0	42	0	708837376	21	4123
2026-01-09 23:34:50.62	114.31	40.48	-30.4	-32.0	12.7	9.84e-05	0	42	0	710934528	21	4329
2026-01-09 23:34:51.62	114.76	40.40	-30.5	-32.5	12.4	1.36e-04	0	42	0	713031680	21	4492
2026-01-09 23:34:52.63	115.22	40.32	-30.7	-33.0	11.9	2.45e-04	0	42	0	715128832	21	4680
2026-01-09 23:34:53.63	115.67	40.24	-30.8	-33.4	11.7	4.08e-04	0	42	0	716177408	21	4823
2026-01-09 23:34:54.63	116.11	40.16	-31.0	-33.3	11.5	1.30e-03	0	42	0	718274560	22	4698
2026-01-09 23:34:55.64	116.56	40.08	-30.5	-31.8	12.5	3.71e-04	0	42	0	720371712	22	4181
2026-01-09 23:34:56.64	117.00	39.99	-29.8	-30.9	13.7	1.29e-05	0	42	0	722468864	20	4073
2026-01-09 23:34:57.65	117.45	39.90	-29.4	-30.0	14.3	7.00e-07	0	42	0	724566016	20	3825
2026-01-09 23:34:58.65	117.89	39.81	-29.6	-30.3	14.1	8.30e-06	0	42	0	725614592	20	3932
2026-01-09 23:34:59.64	118.32	39.72	-29.9	-31.2	13.5	5.30e-06	0	42	0	727711744	20	4171
2026-01-09 23:35:00.64	118.75	39.63	-29.4	-29.7	14.4	6.10e-06	0	42	0	729808896	20	3755
2026-01-09 23:35:01.64	119.18	39.54	-28.4	-28.3	15.9	3.80e-06	0	42	0	731906048	18	3565
2026-01-09 23:35:02.65	119.61	39.44	-27.8	-27.5	16.7	0.00e+00	0	42	0	734003200	17	3458
2026-01-09 23:35:03.65	120.04	39.35	-27.9	-28.1	16.6	0.00e+00	0	42	0	735051776	16	3701
2026-01-09 23:35:04.65	120.46	39.25	-28.1	-28.5	16.4	0.00e+00	0	42	0	737148928	16	3796
2026-01-09 23:35:05.65	120.88	39.15	-28.6	-29.3	15.6	0.00e+00	0	42	0	739246080	17	3908
2026-01-09 23:35:06.65	121.30	39.05	-28.9	-30.0	15.2	0.00e+00	0	42	0	741343232	17	4103
2026-01-09 23:35:07.65	121.71	38.95	-28.8	-29.3	15.4	0.00e+00	0	42	0	743440384	18	3823
2026-01-09 23:35:08.65	122.12	38.84	-28.9	-29.5	15.2	0.00e+00	0	42	0	744488960	18	3879
2026-01-09 23:35:09.65	122.53	38.74	-29.2	-30.3	14.8	0.00e+00	0	42	0	746586112	18	4084
2026-01-09 23:35:10.66	122.95	38.63	-29.5	-30.6	14.2	1.50e-06	0	42	0	748683264	19	4081
2026-01-09 23:35:11.65	123.35	38.53	-28.9	-28.9	15.2	7.00e-07	0	42	0	750780416	19	3639
2026-01-09 23:35:12.65	123.75	38.42	-28.6	-28.7	15.7	0.00e+00	0	42	0	751828992	18	3664
2026-01-09 23:35:13.65	124.15	38.31	-28.0	-28.0	16.3	0.00e+00	0	42	0	753926144	17	3577
2026-01-09 23:35:14.64	124.54	38.20	-28.4	-28.9	15.8	0.00e+00	0	42	0	756023296	17	3804
2026-01-09 23:35:15.64	124.93	38.09	-28.3	-28.5	16.0	0.00e+00	0	42	0	758120448	17	3707
2026-01-09 23:35:16.64	125.33	37.97	-28.3	-28.6	16.1	0.00e+00	0	42	0	760217600	17	3732
2026-01-09 23:35:17.63	125.71	37.86	-28.4	-28.8	15.9	0.00e+00	0	42	0	761266176	17	3786
2026-01-09 23:35:18.64	126.10	37.75	-28.0	-27.9	16.5	0.00e+00	0	42	0	763363328	17	3546
2026-01-09 23:35:19.64	126.48	37.63	-28.2	-28.3	16.2	0.00e+00	0	42	0	765460480	17	3647
2026-01-09 23:35:20.64	126.86	37.51	-28.6	-29.4	15.6	0.00e+00	0	42	0	767557632	17	3941
2026-01-09 23:35:21.64	127.24	37.39	-28.8	-29.4	15.3	0.00e+00	0	42	0	769654784	18	3842
2026-01-09 23:35:22.64	127.62	37.27	-28.7	-29.1	15.5	0.00e+00	0	42	0	770703360	18	3762
2026-01-09 23:35:23.64	127.99	37.16	-28.2	-28.4	16.2	0.00e+00	0	42	0	772800512	17	3679
2026-01-09 23:35:24.65	128.36	37.03	-27.1	-26.9	17.4	0.00e+00	0	42	0	774897664	15	3515
2026-01-09 23:35:25.65	128.73	36.91	-27.1	-26.8	17.4	0.00e+00	0	42	0	776994816	15	3492
2026-01-09 23:35:26.65	129.10	36.79	-27.7	-28.3	16.6	0.00e+00	0	42	0	778043392	15	3840
2026-01-09 23:35:27.65	129.46	36.67	-27.9	-28.8	16.3	0.00e+00	0	42	0	780140544	15	3975
2026-01-09 23:35:28.65	129.82	36.54	-28.2	-28.9	16.2	0.00e+00	0	42	0	782237696	16	3900
2026-01-09 23:35:29.65	130.17	36.42	-28.0	-28.5	16.4	0.00e+00	0	42	0	784334848	16	3789
2026-01-09 23:35:30.65	130.53	36.29	-28.1	-28.8	16.2	0.00e+00	0	42	0	786432000	16	3864
2026-01-09 23:35:31.65	130.88	36.16	-28.4	-29.5	15.8	0.00e+00	0	42	0	787480576	16	4063
2026-01-09 23:35:32.65	131.23	36.04	-28.9	-30.2	15.1	0.00e+00	0	42	0	789577728	17	4169
2026-01-09 23:35:33.65	131.57	35.91	-29.1	-30.1	14.9	0.00e+00	0	42	0	791674880	18	4032
2026-01-09 23:35:34.65	131.92	35.78	-28.9	-29.5	15.2	0.00e+00	0	42	0	793772032	18	3889
2026-01-09 23:35:35.65	132.26	35.65	-28.8	-29.5	15.2	0.00e+00	0	42	0	795869184	18	3866
2026-01-09 23:35:36.65	132.59	35.52	-28.7	-29.1	15.4	0.00e+00	0	42	0	796917760	18	3778
2026-01-09 23:35:37.66	132.93	35.39	-29.4	-30.8	14.4	3.00e-06	0	42	0	799014912	18	4240
2026-01-09 23:35:38.66	133.27	35.26	-29.6	-30.8	14.1	6.10e-06	0	42	0	801112064	19	4145
2026-01-09 23:35:39.67	133.60	35.13	-29.7	-31.2	13.8	0.00e+00	0	42	0	803209216	19	4261
2026-01-09 23:35:40.67	133.93	35.00	-29.5	-30.7	14.1	5.30e-06	0	42	0	805306368	19	4132
2026-01-09 23:35:41.68	134.25	34.86	-29.0	-29.2	15.0	7.00e-07	0	42	0	806354944	19	3709
2026-01-09 23:35:42.69	134.58	34.73	-29.1	-29.6	14.8	0.00e+00	0	42	0	808452096	19	3803
2026-01-09 23:35:43.68	134.90	34.60	-29.6	-30.8	14.1	7.00e-07	0	42	0	810549248	19	4161
2026-01-09 23:35:44.68	135.21	34.47	-30.6	-32.8	12.0	2.39e-04	0	42	0	812646400	21	4602
2026-01-09 23:35:45.68	135.53	34.33	-31.1	-33.8	11.0	2.56e-03	0	42	0	814743552	22	4909
2026-01-09 23:35:46.68	135.84	34.20	-30.9	-32.9	11.5	1.97e-03	0	42	0	815792128	22	4578
2026-01-09 23:35:47.68	136.15	34.06	-30.1	-31.2	13.0	2.26e-04	0	42	0	817889280	21	4107
2026-01-09 23:35:48.67	136.45	33.93	-29.7	-30.7	13.5	7.93e-05	0	42	0	819986432	20	4044
2026-01-09 23:35:49.67	136.76	33.80	-30.2	-32.1	12.9	2.51e-05	0	42	0	822083584	20	4477
2026-01-09 23:35:50.67	137.06	33.66	-31.1	-33.6	11.2	3.52e-04	0	42	0	823132160	22	4829
2026-01-09 23:35:51.67	137.36	33.52	-31.5	-34.5	10.0	7.95e-03	0	42	0	825229312	23	5081
2026-01-09 23:35:52.67	137.66	33.39	-31.5	-34.7	10.0	8.54e-03	0	42	0	827326464	23	5172
2026-01-09 23:35:53.68	137.95	33.25	-31.2	-33.6	10.8	5.37e-03	0	42	0	829423616	23	4753
2026-01-09 23:35:54.68	138.25	33.12	-30.5	-31.7	12.4	1.77e-03	0	42	0	831520768	22	4178
2026-01-09 23:35:55.68	138.54	32.98	-29.9	-30.7	13.4	2.82e-05	0	42	0	832569344	21	3940
2026-01-09 23:35:56.68	138.82	32.84	-30.3	-31.9	12.6	1.43e-04	0	42	0	834666496	21	4311
2026-01-09 23:35:57.69	139.11	32.70	-31.0	-33.8	11.4	2.58e-04	0	42	0	836763648	21	4976
2026-01-09 23:35:58.68	139.39	32.57	-31.7	-35.2	9.6	5.91e-03	0	42	0	838860800	23	5412
2026-01-09 23:35:59.68	139.67	32.43	-31.8	-35.7	9.2	2.86e-02	0	42	0	840957952	23	5624
2026-01-09 23:36:00.69	139.95	32.29	-31.0	-32.9	11.3	1.08e-02	0	42	0	842006528	23	4476
2026-01-09 23:36:01.69	140.23	32.16	-29.6	-30.5	13.8	2.30e-04	0	42	0	844103680	20	3980
2026-01-09 23:36:02.69	140.50	32.02	-29.0	-29.2	15.0	7.70e-05	0	42	0	846200832	19	3705
2026-01-09 23:36:03.69	140.77	31.88	-28.9	-29.6	15.1	3.12e-04	0	42	0	848297984	18	3885
2026-01-09 23:36:04.69	141.04	31.74	-29.5	-31.0	14.3	0.00e+00	0	42	0	850395136	18	4301
2026-01-09 23:36:05.68	141.31	31.61	-30.8	-33.2	11.8	7.99e-04	0	42	0	851443712	21	4783
2026-01-09 23:36:06.68	141.57	31.47	-31.4	-34.8	10.3	6.39e-03	0	42	0	853540864	22	5309
2026-01-09 23:36:07.69	141.84	31.33	-31.2	-33.9	10.8	4.90e-03	0	42	0	855638016	22	4965
2026-01-09 23:36:08.69	142.10	31.19	-30.6	-32.9	11.9	2.93e-03	0	42	0	857735168	21	4649
2026-01-09 23:36:09.70	142.36	31.06	-30.1	-31.7	13.1	1.22e-03	0	42	0	858783744	20	4348
2026-01-09 23:36:10.70	142.61	30.92	-30.1	-31.7	13.2	2.59e-05	0	42	0	860880896	20	4320
2026-01-09 23:36:11.69	142.86	30.78	-29.7	-31.2	13.8	2.28e-05	0	42	0	862978048	19	4251
2026-01-09 23:36:12.70	143.12	30.64	-30.0	-31.8	13.5	1.44e-03	0	42	0	865075200	19	4470
2026-01-09 23:36:13.70	143.37	30.51	-30.5	-32.5	12.3	9.46e-05	0	42	0	867172352	21	4512
2026-01-09 23:36:14.70	143.61	30.37	-31.2	-34.0	10.8	2.30e-03	0	42	0	868220928	22	4999
2026-01-09 23:36:15.71	143.86	30.23	-31.5	-34.8	9.8	5.54e-03	0	42	0	870318080	23	5236
2026-01-09 23:36:16.71	144.11	30.09	-30.9	-32.6	11.4	3.14e-03	0	42	0	872415232	23	4371
2026-01-09 23:36:17.71	144.35	29.96	-30.4	-32.1	12.4	1.35e-03	0	42	0	874512384	21	4386
2026-01-09 23:36:18.71	144.59	29.82	-29.6	-30.9	14.0	1.14e-05	0	42	0	876609536	19	4169
2026-01-09 23:36:19.72	144.83	29.68	-29.5	-30.6	14.1	0.00e+00	0	42	0	877658112	19	4079
2026-01-09 23:36:20.71	145.06	29.55	-29.5	-30.5	14.2	1.80e-03	0	42	0	879755264	19	4062
2026-01-09 23:36:21.71	145.29	29.41	-30.3	-32.4	12.6	1.76e-03	0	42	0	881852416	20	4584
2026-01-09 23:36:22.71	145.53	29.27	-30.8	-33.5	11.5	6.84e-04	0	42	0	883949568	21	4883
2026-01-09 23:36:23.71	145.75	29.14	-31.3	-34.6	10.3	5.22e-03	0	42	0	886046720	22	5219
2026-01-09 23:36:24.70	145.98	29.00	-30.9	-33.1	11.4	5.81e-03	0	42	0	887095296	22	4650
2026-01-09 23:36:25.71	146.21	28.87	-30.3	-31.3	12.6	3.84e-04	0	42	0	889192448	22	4053
2026-01-09 23:36:26.71	146.43	28.73	-29.2	-29.9	14.5	2.55e-03	0	42	0	891289600	19	3886
2026-01-09 23:36:27.72	146.66	28.59	-29.0	-29.9	14.9	2.30e-03	0	42	0	893386752	18	3996
2026-01-09 23:36:28.72	146.88	28.46	-28.6	-28.9	15.4	0.00e+00	0	42	0	895483904	18	3716
2026-01-09 23:36:29.72	147.10	28.32	-29.5	-31.1	14.2	1.88e-03	0	42	0	896532480	18	4341
2026-01-09 23:36:30.73	147.31	28.19	-30.3	-32.4	12.6	1.77e-03	0	42	0	898629632	20	4579
2026-01-09 23:36:31.73	147.53	28.05	-30.7	-33.0	11.7	1.73e-04	0	42	0	900726784	21	4711
2026-01-09 23:36:32.73	147.74	27.92	-30.8	-33.6	11.3	2.91e-03	0	42	0	902823936	21	4922
2026-01-09 23:36:33.73	147.95	27.79	-30.9	-33.4	11.1	4.34e-03	0	42	0	903872512	22	4752
2026-01-09 23:36:34.73	148.16	27.65	-30.6	-32.4	11.8	8.65e-04	0	42	0	905969664	22	4402
2026-01-09 23:36:35.74	148.37	27.52	-30.6	-32.8	12.0	2.98e-03	0	42	0	908066816	21	4645
2026-01-09 23:36:36.73	148.58	27.39	-30.3	-32.5	12.5	2.73e-03	0	42	0	910163968	20	4609
2026-01-09 23:36:37.73	148.78	27.25	-29.8	-31.1	13.4	4.27e-05	0	42	0	912261120	20	4152
2026-01-09 23:36:38.73	148.99	27.12	-29.8	-31.4	13.5	2.41e-03	0	42	0	913309696	19	4350
2026-01-09 23:36:39.73	149.19	26.99	-30.0	-31.6	13.0	2.23e-03	0	42	0	915406848	20	4323
2026-01-09 23:36:40.73	149.39	26.85	-30.2	-32.2	12.6	9.30e-05	0	42	0	917504000	20	4518
2026-01-09 23:36:41.74	149.59	26.72	-30.3	-32.5	12.5	2.36e-03	0	42	0	919601152	20	4634
2026-01-09 23:36:42.75	149.79	26.59	-30.5	-32.5	12.1	2.71e-03	0	42	0	921698304	21	4521
2026-01-09 23:36:43.75	149.98	26.46	-30.4	-32.3	12.1	2.59e-04	0	42	0	922746880	21	4484
2026-01-09 23:36:44.75	150.17	26.33	-30.3	-32.5	12.4	2.73e-03	0	42	0	924844032	20	4632
2026-01-09 23:36:45.75	150.37	26.20	-30.1	-31.9	12.8	2.63e-03	0	42	0	926941184	20	4412
2026-01-09 23:36:46.74	150.56	26.07	-30.2	-32.3	12.5	9.23e-05	0	42	0	929038336	20	4552
2026-01-09 23:36:47.75	150.75	25.94	-30.1	-31.9	12.7	2.49e-03	0	42	0	930086912	20	4438
2026-01-09 23:36:48.75	150.93	25.81	-29.7	-31.3	13.5	2.22e-03	0	42	0	932184064	19	4329
2026-01-09 23:36:49.75	151.12	25.68	-29.5	-30.8	13.9	6.80e-06	0	42	0	934281216	19	4153
2026-01-09 23:36:50.76	151.31	25.55	-29.3	-30.7	14.3	2.27e-03	0	42	0	936378368	18	4212
2026-01-09 23:36:51.76	151.49	25.42	-29.2	-30.4	14.4	2.52e-03	0	42	0	938475520	18	4133
2026-01-09 23:36:52.76	151.67	25.29	-29.3	-30.8	14.2	7.00e-07	0	42	0	940572672	18	4244
2026-01-09 23:36:53.76	151.85	25.16	-29.4	-30.9	14.1	2.24e-03	0	42	0	941621248	18	4307
2026-01-09 23:36:54.76	152.03	25.03	-29.2	-30.4	14.4	2.31e-03	0	42	0	943718400	18	4143
2026-01-09 23:36:55.76	152.21	24.90	-29.2	-30.4	14.4	7.00e-07	0	42	0	945815552	18	4133
2026-01-09 23:36:56.76	152.38	24.78	-29.4	-30.9	14.2	2.63e-04	0	42	0	947912704	18	4281
2026-01-09 23:36:57.76	152.56	24.65	-29.4	-30.9	14.1	2.13e-03	0	42	0	948961280	18	4284
2026-01-09 23:36:58.77	152.73	24.52	-29.6	-31.1	13.7	2.20e-06	0	42	0	951058432	19	4263
2026-01-09 23:36:59.77	152.90	24.40	-29.5	-30.6	13.9	2.15e-03	0	42	0	953155584	19	4126
2026-01-09 23:37:00.77	153.07	24.27	-29.5	-30.8	13.9	2.26e-03	0	42	0	955252736	19	4169
2026-01-09 23:37:01.77	153.24	24.15	-29.8	-31.6	13.3	6.10e-06	0	42	0	957349888	19	4436
2026-01-09 23:37:02.77	153.41	24.02	-29.4	-30.4	14.0	2.37e-03	0	42	0	958398464	19	4072
2026-01-09 23:37:03.77	153.58	23.90	-29.4	-30.6	13.9	2.33e-03	0	42	0	960495616	19	4113
2026-01-09 23:37:04.78	153.74	23.77	-29.5	-30.8	13.8	4.50e-06	0	42	0	962592768	19	4167
2026-01-09 23:37:05.77	153.90	23.65	-29.5	-30.7	13.8	1.98e-03	0	42	0	964689920	19	4134
2026-01-09 23:37:06.77	154.07	23.52	-29.8	-31.6	13.3	1.67e-03	0	42	0	966787072	19	4412
2026-01-09 23:37:07.77	154.23	23.40	-29.9	-31.5	12.9	4.57e-05	0	42	0	967835648	20	4303
2026-01-09 23:37:08.77	154.39	23.28	-30.3	-32.5	12.3	1.79e-03	0	42	0	969932800	20	4658
2026-01-09 23:37:09.77	154.55	23.16	-30.6	-32.8	11.8	2.12e-03	0	42	0	972029952	21	4677
2026-01-09 23:37:10.76	154.70	23.03	-30.5	-32.7	11.8	4.84e-04	0	42	0	974127104	21	4613
2026-01-09 23:37:11.76	154.86	22.91	-31.0	-33.7	10.7	3.69e-03	0	42	0	975175680	22	4913
2026-01-09 23:37:12.76	155.02	22.79	-30.6	-33.0	11.5	3.46e-03	0	42	0	977272832	21	4737
2026-01-09 23:37:13.76	155.17	22.67	-30.4	-32.4	11.9	4.73e-04	0	42	0	979369984	21	4526
2026-01-09 23:37:14.76	155.32	22.55	-30.5	-32.7	11.8	2.65e-03	0	42	0	981467136	21	4626
2026-01-09 23:37:15.77	155.48	22.43	-30.1	-31.8	12.7	2.64e-03	0	42	0	983564288	20	4413
2026-01-09 23:37:16.77	155.63	22.31	-30.0	-31.6	12.9	1.01e-04	0	42	0	984612864	20	4330
2026-01-09 23:37:17.77	155.78	22.19	-30.3	-32.5	12.2	2.40e-03	0	42	0	986710016	20	4657
2026-01-09 23:37:18.77	155.93	22.07	-30.6	-32.8	11.6	2.85e-03	0	42	0	988807168	21	4670
2026-01-09 23:37:19.78	156.07	21.95	-30.8	-33.6	11.1	7.59e-04	0	42	0	990904320	21	4954
2026-01-09 23:37:20.79	156.22	21.83	-30.3	-32.1	12.2	4.10e-03	0	42	0	993001472	21	4418
2026-01-09 23:37:21.79	156.37	21.71	-30.5	-32.5	11.8	2.64e-03	0	42	0	994050048	21	4563
2026-01-09 23:37:22.79	156.51	21.59	-30.7	-33.4	11.3	4.36e-04	0	42	0	996147200	21	4877
2026-01-09 23:37:23.79	156.65	21.47	-30.6	-33.0	11.6	3.45e-03	0	42	0	998244352	21	4730
2026-01-09 23:37:24.79	156.80	21.36	-30.5	-32.5	11.8	2.54e-03	0	42	0	1000341504	21	4563
2026-01-09 23:37:25.79	156.94	21.24	-30.4	-32.5	11.9	4.03e-04	0	42	0	1002438656	21	4556
2026-01-09 23:37:26.79	157.08	21.12	-30.2	-32.4	12.3	2.28e-03	0	42	0	1003487232	20	4624
2026-01-09 23:37:27.79	157.22	21.01	-29.9	-31.4	12.9	7.55e-05	0	42	0	1005584384	20	4302
2026-01-09 23:37:28.79	157.35	20.89	-29.5	-30.5	13.6	2.67e-05	0	42	0	1007681536	20	4000
2026-01-09 23:37:29.79	157.49	20.78	-29.4	-30.6	13.9	2.25e-03	0	42	0	1009778688	19	4113
2026-01-09 23:37:30.79	157.63	20.66	-29.2	-30.6	14.2	2.25e-03	0	42	0	1010827264	18	4205
2026-01-09 23:37:31.79	157.76	20.55	-29.1	-30.3	14.4	7.00e-07	0	42	0	1012924416	18	4113
2026-01-09 23:37:32.79	157.90	20.43	-29.0	-30.0	14.5	2.17e-03	0	42	0	1015021568	18	4035
2026-01-09 23:37:33.80	158.03	20.32	-29.2	-30.4	14.4	2.09e-03	0	42	0	1017118720	18	4159
2026-01-09 23:37:34.80	158.16	20.21	-29.3	-30.8	14.0	1.50e-06	0	42	0	1019215872	18	4262
2026-01-09 23:37:35.81	158.30	20.09	-29.4	-31.1	13.9	2.12e-03	0	42	0	1020264448	18	4362
2026-01-09 23:37:36.81	158.43	19.98	-29.5	-30.9	13.6	2.41e-03	0	42	0	1022361600	19	4208
2026-01-09 23:37:37.81	158.56	19.87	-29.7	-31.4	13.3	1.44e-05	0	42	0	1024458752	19	4358
2026-01-09 23:37:38.82	158.69	19.75	-29.9	-31.9	13.0	2.48e-03	0	42	0	1026555904	19	4519
2026-01-09 23:37:39.82	158.81	19.64	-30.0	-31.7	12.6	2.33e-03	0	42	0	1028653056	20	4391
2026-01-09 23:37:40.82	158.94	19.53	-29.9	-31.4	12.9	5.72e-05	0	42	0	1029701632	20	4301
2026-01-09 23:37:41.83	159.07	19.42	-29.9	-31.9	13.0	3.89e-05	0	42	0	1031798784	19	4541
2026-01-09 23:37:42.83	159.19	19.31	-29.9	-31.4	13.0	2.15e-03	0	42	0	1033895936	20	4272
2026-01-09 23:37:43.83	159.32	19.20	-29.7	-30.8	13.3	4.73e-05	0	42	0	1035993088	20	4114
2026-01-09 23:37:44.83	159.44	19.09	-29.9	-31.9	13.0	3.12e-05	0	42	0	1038090240	19	4534
2026-01-09 23:37:45.83	159.56	18.98	-29.7	-31.0	13.1	2.36e-03	0	42	0	1039138816	20	4162
2026-01-09 23:37:46.84	159.68	18.87	-29.5	-30.3	13.6	1.37e-05	0	42	0	1041235968	20	3957
2026-01-09 23:37:47.83	159.80	18.76	-29.8	-31.6	13.2	2.48e-03	0	42	0	1043333120	19	4428
2026-01-09 23:37:48.83	159.92	18.65	-29.6	-31.1	13.5	1.83e-05	0	42	0	1045430272	19	4258
2026-01-09 23:37:49.83	160.04	18.55	-29.3	-30.3	14.0	6.80e-06	0	42	0	1047527424	19	4030
2026-01-09 23:37:50.83	160.16	18.44	-29.4	-30.6	13.8	2.40e-03	0	42	0	1048576000	19	4116
2026-01-09 23:37:51.83	160.28	18.33	-29.3	-30.8	14.0	1.50e-06	0	42	0	1050673152	18	4278
2026-01-09 23:37:52.83	160.39	18.22	-29.5	-31.2	13.7	7.00e-07	0	42	0	1052770304	18	4411
2026-01-09 23:37:53.83	160.51	18.12	-29.7	-31.3	13.3	2.20e-03	0	42	0	1054867456	19	4338
2026-01-09 23:37:54.84	160.62	18.01	-29.6	-31.1	13.5	2.62e-03	0	42	0	1055916032	19	4271
2026-01-09 23:37:55.84	160.74	17.90	-29.8	-31.8	13.0	2.89e-05	0	42	0	1058013184	19	4505
2026-01-09 23:37:56.84	160.85	17.80	-29.8	-31.6	13.1	2.66e-03	0	42	0	1060110336	19	4454
2026-01-09 23:37:57.85	160.97	17.69	-29.8	-31.6	13.1	2.59e-03	0	42	0	1062207488	19	4434
2026-01-09 23:37:58.85	161.08	17.59	-30.0	-31.9	12.6	5.95e-05	0	42	0	1064304640	20	4444
2026-01-09 23:37:59.85	161.19	17.48	-29.9	-31.5	12.7	2.55e-03	0	42	0	1065353216	20	4337
2026-01-09 23:38:00.85	161.30	17.38	-30.0	-31.8	12.6	2.33e-03	0	42	0	1067450368	20	4432
2026-01-09 23:38:01.86	161.41	17.27	-30.0	-31.9	12.5	1.16e-04	0	42	0	1069547520	20	4465
2026-01-09 23:38:02.86	161.52	17.17	-30.0	-31.6	12.7	1.14e-04	0	42	0	1071644672	20	4374
2026-01-09 23:38:03.85	161.63	17.07	-30.1	-32.2	12.3	2.69e-03	0	42	0	1073741824	20	4550
2026-01-09 23:38:04.85	161.73	16.97	-30.4	-33.0	11.7	2.16e-04	0	42	0	1074790400	20	4844
2026-01-09 23:38:05.86	161.84	16.86	-30.3	-32.8	11.9	3.38e-04	0	42	0	1076887552	20	4767
2026-01-09 23:38:06.87	161.95	16.76	-30.6	-33.1	11.3	3.56e-03	0	42	0	1078984704	21	4798
2026-01-09 23:38:07.87	162.05	16.66	-30.5	-33.0	11.3	1.55e-03	0	42	0	1081081856	21	4774
2026-01-09 23:38:08.88	162.16	16.56	-30.9	-34.3	10.4	2.10e-03	0	42	0	1083179008	21	5290
2026-01-09 23:38:09.88	162.26	16.45	-30.9	-34.3	10.3	3.91e-03	0	42	0	1084227584	21	5322
2026-01-09 23:38:10.88	162.37	16.35	-30.9	-34.2	10.4	5.01e-03	0	42	0	1086324736	21	5303
2026-01-09 23:38:11.87	162.47	16.25	-31.1	-34.6	9.7	1.08e-02	0	42	0	1088421888	22	5391
2026-01-09 23:38:12.87	162.57	16.15	-31.0	-34.3	9.9	1.16e-02	0	42	0	1090519040	22	5260
2026-01-09 23:38:13.87	162.67	16.05	-31.1	-34.6	9.7	1.02e-02	0	42	0	1092616192	22	5402
2026-01-09 23:38:14.87	162.77	15.96	-31.2	-35.0	9.4	1.62e-02	0	42	0	1093664768	22	5552
2026-01-09 23:38:15.86	162.87	15.86	-31.2	-34.9	9.5	1.65e-02	0	42	0	1095761920	22	5521
2026-01-09 23:38:16.87	162.97	15.76	-31.2	-35.0	9.4	1.15e-02	0	42	0	1097859072	22	5557
2026-01-09 23:38:17.87	163.07	15.66	-31.1	-34.5	9.8	1.34e-02	0	42	0	1099956224	22	5328
2026-01-09 23:38:18.87	163.17	15.56	-30.9	-33.7	10.4	1.20e-02	0	42	0	1101004800	22	5015
2026-01-09 23:38:19.87	163.27	15.46	-30.9	-33.8	10.3	5.41e-03	0	42	0	1103101952	22	5039
2026-01-09 23:38:20.87	163.37	15.37	-31.0	-34.1	10.1	7.82e-03	0	42	0	1105199104	22	5157
2026-01-09 23:38:21.87	163.46	15.27	-30.9	-34.4	10.2	9.41e-03	0	42	0	1107296256	21	5374
2026-01-09 23:38:22.86	163.56	15.17	-31.0	-34.0	10.2	6.78e-03	0	42	0	1109393408	22	5100
2026-01-09 23:38:23.86	163.65	15.08	-31.0	-34.0	10.1	7.22e-03	0	42	0	1110441984	22	5100
2026-01-09 23:38:24.87	163.75	14.98	-30.8	-34.1	10.5	5.45e-03	0	42	0	1112539136	21	5223
2026-01-09 23:38:25.87	163.84	14.88	-31.0	-34.1	10.1	5.94e-03	0	42	0	1114636288	22	5136
2026-01-09 23:38:26.87	163.93	14.79	-30.9	-33.8	10.3	5.64e-03	0	42	0	1116733440	22	5007
2026-01-09 23:38:27.87	164.03	14.69	-31.2	-34.6	9.7	9.91e-03	0	42	0	1118830592	22	5339
2026-01-09 23:38:28.88	164.12	14.60	-31.0	-33.9	10.3	9.74e-03	0	42	0	1119879168	22	5027
2026-01-09 23:38:29.88	164.21	14.50	-31.1	-34.5	9.9	6.67e-03	0	42	0	1121976320	22	5277
2026-01-09 23:38:30.89	164.30	14.41	-31.0	-34.0	10.2	9.20e-03	0	42	0	1124073472	22	5063
2026-01-09 23:38:31.89	164.40	14.31	-30.7	-32.9	11.0	3.30e-03	0	42	0	1126170624	22	4645
2026-01-09 23:38:32.89	164.49	14.22	-30.3	-32.3	11.7	8.12e-04	0	42	0	1128267776	21	4521
2026-01-09 23:38:33.88	164.57	14.13	-30.0	-31.9	12.3	1.91e-04	0	42	0	1129316352	20	4478
2026-01-09 23:38:34.89	164.66	14.03	-29.9	-31.6	12.5	1.41e-04	0	42	0	1131413504	20	4387
2026-01-09 23:38:35.89	164.75	13.94	-30.1	-32.3	12.0	2.68e-03	0	42	0	1133510656	20	4620
2026-01-09 23:38:36.89	164.84	13.85	-30.0	-32.1	12.2	1.88e-04	0	42	0	1135607808	20	4546
2026-01-09 23:38:37.89	164.93	13.75	-29.8	-31.3	12.7	1.23e-04	0	42	0	1136656384	20	4303
2026-01-09 23:38:38.90	165.02	13.66	-29.7	-31.5	13.0	2.46e-03	0	42	0	1138753536	19	4423
2026-01-09 23:38:39.90	165.10	13.57	-30.0	-32.3	12.4	9.91e-05	0	42	0	1140850688	19	4701
2026-01-09 23:38:40.90	165.19	13.48	-29.9	-31.6	12.5	9.53e-05	0	42	0	1142947840	20	4397
2026-01-09 23:38:41.90	165.27	13.39	-29.9	-31.8	12.4	1.35e-04	0	42	0	1145044992	20	4445
2026-01-09 23:38:42.90	165.36	13.30	-30.2	-32.5	11.9	2.83e-03	0	42	0	1146093568	20	4698
2026-01-09 23:38:43.90	165.44	13.20	-30.2	-32.7	11.7	5.67e-04	0	42	0	1148190720	20	4777
2026-01-09 23:38:44.91	165.53	13.11	-30.2	-32.4	11.9	3.75e-04	0	42	0	1150287872	20	4678
2026-01-09 23:38:45.91	165.61	13.02	-30.3	-32.8	11.7	2.91e-03	0	42	0	1152385024	20	4797
2026-01-09 23:38:46.91	165.69	12.93	-30.2	-32.6	11.8	5.98e-04	0	42	0	1154482176	20	4738
2026-01-09 23:38:47.91	165.78	12.84	-30.2	-32.5	11.8	3.01e-04	0	42	0	1155530752	20	4715
2026-01-09 23:38:48.91	165.86	12.75	-30.6	-33.3	11.0	6.18e-04	0	42	0	1157627904	21	4917
2026-01-09 23:38:49.91	165.94	12.67	-30.6	-33.2	11.0	2.34e-03	0	42	0	1159725056	21	4869
2026-01-09 23:38:50.91	166.02	12.58	-30.4	-32.7	11.3	1.48e-03	0	42	0	1161822208	21	4690
2026-01-09 23:38:51.91	166.10	12.49	-30.4	-33.2	11.3	8.93e-04	0	42	0	1163919360	20	4974
2026-01-09 23:38:52.91	166.18	12.40	-30.4	-32.7	11.3	1.27e-03	0	42	0	1164967936	21	4712
2026-01-09 23:38:53.91	166.26	12.31	-30.5	-33.5	11.1	1.21e-03	0	42	0	1167065088	20	5096
2026-01-09 23:38:54.91	166.34	12.23	-30.1	-32.4	11.9	1.11e-03	0	42	0	1169162240	20	4676
2026-01-09 23:38:55.91	166.42	12.14	-30.0	-31.9	12.2	3.32e-04	0	42	0	1171259392	20	4503
2026-01-09 23:38:56.92	166.50	12.05	-30.2	-32.6	11.8	4.21e-04	0	42	0	1173356544	20	4726
2026-01-09 23:38:57.92	166.58	11.96	-30.1	-32.3	11.9	2.60e-04	0	42	0	1174405120	20	4644
2026-01-09 23:38:58.92	166.65	11.88	-30.0	-31.9	12.2	3.32e-04	0	42	0	1176502272	20	4493
2026-01-09 23:38:59.92	166.73	11.79	-30.1	-32.4	11.9	2.76e-03	0	42	0	1178599424	20	4651
2026-01-09 23:39:00.93	166.81	11.70	-30.2	-32.6	11.8	5.08e-04	0	42	0	1180696576	20	4731
2026-01-09 23:39:01.93	166.88	11.62	-30.2	-32.5	11.8	3.62e-04	0	42	0	1181745152	20	4716
2026-01-09 23:39:02.93	166.96	11.53	-30.3	-32.8	11.6	6.51e-04	0	42	0	1183842304	20	4802
2026-01-09 23:39:03.93	167.03	11.45	-30.3	-32.8	11.6	6.60e-04	0	42	0	1185939456	20	4830
2026-01-09 23:39:04.93	167.11	11.36	-30.4	-33.3	11.3	1.06e-03	0	42	0	1188036608	20	4993
2026-01-09 23:39:05.93	167.18	11.28	-30.5	-33.5	11.1	1.18e-03	0	42	0	1190133760	20	5072
2026-01-09 23:39:06.94	167.26	11.19	-30.5	-33.5	11.1	1.59e-03	0	42	0	1191182336	20	5076
2026-01-09 23:39:07.94	167.33	11.11	-30.6	-33.4	10.8	3.16e-03	0	42	0	1193279488	21	4974
2026-01-09 23:39:08.93	167.40	11.03	-30.5	-33.1	10.9	2.44e-03	0	42	0	1195376640	21	4858
2026-01-09 23:39:09.93	167.48	10.94	-30.4	-32.7	11.3	1.31e-03	0	42	0	1197473792	21	4686
2026-01-09 23:39:10.93	167.55	10.86	-30.5	-33.0	11.1	1.73e-03	0	42	0	1199570944	21	4810
2026-01-09 23:39:11.94	167.62	10.77	-30.5	-33.2	10.9	2.53e-03	0	42	0	1200619520	21	4880
2026-01-09 23:39:12.94	167.69	10.69	-30.7	-33.8	10.4	3.29e-03	0	42	0	1202716672	21	5133
2026-01-09 23:39:13.95	167.77	10.61	-30.7	-33.6	10.6	5.41e-03	0	42	0	1204813824	21	5039
2026-01-09 23:39:14.95	167.84	10.53	-30.7	-33.6	10.6	3.05e-03	0	42	0	1206910976	21	5055
2026-01-09 23:39:15.94	167.91	10.44	-30.6	-33.5	10.6	2.83e-03	0	42	0	1207959552	21	5018
2026-01-09 23:39:16.94	167.98	10.36	-30.6	-33.5	10.6	2.85e-03	0	42	0	1210056704	21	5008
2026-01-09 23:39:17.95	168.05	10.28	-30.8	-34.2	10.1	4.41e-03	0	42	0	1212153856	21	5304
2026-01-09 23:39:18.95	168.12	10.20	-30.8	-34.0	10.2	6.93e-03	0	42	0	1214251008	21	5235
2026-01-09 23:39:19.96	168.19	10.12	-30.8	-34.1	10.1	5.00e-03	0	42	0	1216348160	21	5260
2026-01-09 23:39:20.96	168.26	10.03	-31.0	-34.4	9.5	1.50e-02	0	42	0	1218445312	22	5337
2026-01-09 23:39:21.96	168.32	9.95	-30.8	-33.7	10.1	1.08e-02	0	42	0	1219493888	22	5005
2026-01-09 23:39:22.96	168.39	9.87	-30.7	-33.4	10.3	5.51e-03	0	42	0	1221591040	22	4888
2026-01-09 23:39:23.96	168.46	9.79	-30.7	-33.7	10.4	4.16e-03	0	42	0	1223688192	21	5097
2026-01-09 23:39:24.97	168.53	9.71	-30.7	-33.9	10.3	4.36e-03	0	42	0	1225785344	21	5196
2026-01-09 23:39:25.96	168.59	9.63	-30.6	-33.6	10.5	3.20e-03	0	42	0	1226833920	21	5087
2026-01-09 23:39:26.96	168.66	9.55	-30.6	-33.5	10.5	3.33e-03	0	42	0	1228931072	21	5025
2026-01-09 23:39:27.96	168.73	9.47	-30.4	-33.0	10.9	3.39e-03	0	42	0	1231028224	21	4853
2026-01-09 23:39:28.96	168.79	9.39	-30.4	-32.8	11.0	1.63e-03	0	42	0	1233125376	21	4764
2026-01-09 23:39:29.97	168.86	9.31	-30.3	-33.2	11.1	1.77e-03	0	42	0	1235222528	20	5013
2026-01-09 23:39:30.97	168.92	9.24	-30.3	-33.2	11.1	1.45e-03	0	42	0	1236271104	20	5006
2026-01-09 23:39:31.97	168.99	9.16	-30.5	-33.2	10.7	2.76e-03	0	42	0	1238368256	21	4922
2026-01-09 23:39:32.98	169.05	9.08	-30.5	-33.4	10.5	2.79e-03	0	42	0	1240465408	21	5022
2026-01-09 23:39:33.97	169.12	9.00	-30.4	-33.1	10.7	3.33e-03	0	42	0	1242562560	21	4896
2026-01-09 23:39:34.98	169.18	8.92	-30.3	-32.7	11.1	1.72e-03	0	42	0	1244659712	21	4729
2026-01-09 23:39:35.98	169.25	8.84	-30.2	-32.8	11.4	1.23e-03	0	42	0	1245708288	20	4867
2026-01-09 23:39:36.99	169.31	8.77	-30.3	-33.0	11.2	1.23e-03	0	42	0	1247805440	20	4944
2026-01-09 23:39:37.98	169.37	8.69	-30.2	-32.9	11.2	1.47e-03	0	42	0	1249902592	20	4913
2026-01-09 23:39:38.98	169.43	8.61	-30.2	-32.8	11.3	1.37e-03	0	42	0	1251999744	20	4878
2026-01-09 23:39:39.98	169.50	8.54	-30.2	-32.9	11.3	1.25e-03	0	42	0	1253048320	20	4898
2026-01-09 23:39:40.98	169.56	8.46	-30.4	-33.4	10.9	1.39e-03	0	42	0	1255145472	20	5103
2026-01-09 23:39:41.98	169.62	8.38	-30.2	-32.7	11.4	1.01e-03	0	42	0	1257242624	20	4825
2026-01-09 23:39:42.98	169.68	8.31	-30.2	-32.9	11.2	1.14e-03	0	42	0	1259339776	20	4903
2026-01-09 23:39:43.99	169.74	8.23	-30.2	-32.8	11.3	1.22e-03	0	42	0	1261436928	20	4880
2026-01-09 23:39:44.99	169.80	8.15	-30.3	-33.1	11.1	1.84e-03	0	42	0	1262485504	20	4984
2026-01-09 23:39:45.99	169.86	8.08	-30.3	-33.1	11.1	1.70e-03	0	42	0	1264582656	20	4966
2026-01-09 23:39:47.00	169.93	8.00	-30.2	-33.0	11.1	1.17e-03	0	42	0	1266679808	20	4931
2026-01-09 23:39:48.00	169.99	7.93	-30.2	-32.7	11.3	9.41e-04	0	42	0	1268776960	20	4830
2026-01-09 23:39:49.00	170.04	7.85	-30.3	-33.2	11.0	1.52e-03	0	42	0	1270874112	20	5024
2026-01-09 23:39:50.01	170.10	7.78	-30.2	-32.9	11.2	1.57e-03	0	42	0	1271922688	20	4915
2026-01-09 23:39:51.01	170.16	7.70	-30.3	-33.0	11.0	1.21e-03	0	42	0	1274019840	20	4941
2026-01-09 23:39:52.01	170.22	7.63	-30.2	-32.9	11.1	1.27e-03	0	42	0	1276116992	20	4922
2026-01-09 23:39:53.01	170.28	7.55	-30.5	-33.9	10.1	2.91e-03	0	42	0	1278214144	20	5302
2026-01-09 23:39:54.01	170.34	7.48	-30.5	-33.9	10.2	4.98e-03	0	42	0	1280311296	20	5300
2026-01-09 23:39:55.01	170.40	7.40	-30.5	-33.3	10.3	4.63e-03	0	42	0	1281359872	21	5008
2026-01-09 23:39:56.01	170.45	7.33	-30.5	-33.4	10.1	5.51e-03	0	42	0	1283457024	21	5013
2026-01-09 23:39:57.01	170.51	7.26	-30.6	-33.7	9.8	4.61e-03	0	42	0	1285554176	21	5131
2026-01-09 23:39:58.01	170.57	7.18	-30.5	-33.4	10.3	5.65e-03	0	42	0	1287651328	21	5015
2026-01-09 23:39:59.01	170.63	7.11	-30.6	-33.7	10.0	6.24e-03	0	42	0	1289748480	21	5137
