passes_logs/2026/01/09/R2M6_AANII_01/R2M6_AANII_01__20260109_000754_NOAA_20_JPSS-1_rec.log

#Pass ID: 20260109_000754_NOAA 20 (JPSS-1)
#Satellite: NOAA 20 (JPSS-1)
#Configuration: NOAA 20
#almurnet v.1.7.20240730
#Start time: 2026-01-09 00:07:55

#Version: 2.2.20231116
#Station: R2M6_AANII_01
#Location: 30.233357 lon 59.946436 lat
#TLE: 1 43013U 17073A   26008.42245989  .00000120  00000+0  77990-4 0  9996
#TLE: 2 43013  98.7631 309.4315 0001737  48.7960 311.3365 14.19534455421802

#Time	Az	El	Level	Level2	SNR	BER	BlckErr	Temp	State	Recorded	gain1	gain2
2026-01-09 00:07:55.04	19.27	7.03	-31.8	-40.1	4.5	1.40e+00	0	41	0	0	23	9373
2026-01-09 00:07:56.04	19.28	7.11	-31.8	-40.2	4.4	1.39e+00	0	40	104	0	23	9537
2026-01-09 00:07:57.05	19.30	7.18	-31.8	-40.0	5.8	3.83e-01	0	41	0	0	23	9277
2026-01-09 00:07:58.06	19.31	7.26	-31.8	-40.1	5.7	3.75e-01	0	40	0	1048576	23	9385
2026-01-09 00:07:59.06	19.33	7.34	-31.8	-40.0	5.8	4.01e-01	0	41	0	3145728	23	9267
2026-01-09 00:08:00.07	19.35	7.42	-31.8	-40.0	5.8	3.99e-01	0	41	0	5242880	23	9272
2026-01-09 00:08:01.08	19.36	7.50	-31.8	-40.3	5.7	4.02e-01	0	41	0	7340032	23	9505
2026-01-09 00:08:02.09	19.38	7.57	-31.7	-39.1	6.4	2.75e-01	0	41	0	9437184	23	8519
2026-01-09 00:08:03.09	19.39	7.65	-31.4	-38.0	7.2	2.00e-01	0	41	0	10485760	23	7658
2026-01-09 00:08:04.09	19.41	7.73	-31.3	-37.5	7.9	1.11e-01	0	41	0	12582912	22	7422
2026-01-09 00:08:05.10	19.43	7.81	-31.1	-36.9	8.5	5.35e-02	0	41	0	14680064	22	7004
2026-01-09 00:08:06.11	19.44	7.89	-30.9	-36.6	9.1	3.44e-02	0	41	0	16777216	21	6923
2026-01-09 00:08:07.12	19.46	7.97	-30.7	-35.9	9.6	2.20e-02	0	41	0	18874368	21	6520
2026-01-09 00:08:08.12	19.47	8.05	-30.6	-35.2	10.1	8.01e-03	0	41	0	19922944	21	6182
2026-01-09 00:08:09.13	19.49	8.13	-30.4	-35.2	10.5	5.06e-03	0	41	0	22020096	20	6245
2026-01-09 00:08:10.13	19.51	8.21	-30.5	-35.5	10.3	7.76e-03	0	41	0	24117248	20	6406
2026-01-09 00:08:11.13	19.52	8.29	-30.7	-35.8	9.7	7.03e-03	0	41	0	26214400	21	6466
2026-01-09 00:08:12.14	19.54	8.37	-30.5	-34.9	10.3	7.41e-03	0	41	0	28311552	21	6018
2026-01-09 00:08:13.15	19.56	8.45	-30.3	-35.0	10.7	5.72e-03	0	41	0	29360128	20	6164
2026-01-09 00:08:14.16	19.57	8.54	-30.2	-34.6	11.0	2.50e-03	0	41	0	31457280	20	5965
2026-01-09 00:08:15.16	19.59	8.62	-30.2	-34.4	11.2	1.47e-03	0	41	0	33554432	20	5841
2026-01-09 00:08:16.17	19.61	8.70	-30.1	-34.3	11.3	1.32e-03	0	41	0	35651584	20	5783
2026-01-09 00:08:17.18	19.62	8.78	-30.2	-34.4	11.1	1.43e-03	0	41	0	37748736	20	5873
2026-01-09 00:08:18.18	19.64	8.86	-30.3	-34.8	11.0	1.81e-03	0	41	0	38797312	20	6044
2026-01-09 00:08:19.19	19.66	8.95	-30.4	-35.2	10.6	2.67e-03	0	41	0	40894464	20	6243
2026-01-09 00:08:20.20	19.68	9.03	-30.3	-34.6	11.1	2.54e-03	0	41	0	42991616	20	5930
2026-01-09 00:08:21.20	19.69	9.11	-30.0	-33.9	11.6	8.93e-04	0	41	0	45088768	20	5617
2026-01-09 00:08:22.21	19.71	9.20	-29.8	-33.3	12.0	4.66e-04	0	41	0	47185920	20	5371
2026-01-09 00:08:23.22	19.73	9.28	-29.7	-32.9	12.3	2.12e-04	0	41	0	48234496	20	5197
2026-01-09 00:08:24.23	19.75	9.37	-29.7	-33.2	12.5	2.82e-03	0	41	0	50331648	19	5420
2026-01-09 00:08:25.24	19.76	9.45	-29.8	-33.5	12.4	1.41e-04	0	41	0	52428800	19	5521
2026-01-09 00:08:26.24	19.78	9.54	-29.8	-33.7	12.2	2.15e-04	0	41	0	54525952	19	5623
2026-01-09 00:08:27.24	19.80	9.62	-29.7	-33.4	12.5	1.76e-04	0	42	0	56623104	19	5491
2026-01-09 00:08:28.25	19.82	9.71	-29.7	-33.3	12.5	1.29e-04	0	41	0	57671680	19	5439
2026-01-09 00:08:29.26	19.83	9.79	-29.7	-33.2	12.6	1.01e-04	0	42	0	59768832	19	5390
2026-01-09 00:08:30.27	19.85	9.88	-29.7	-33.4	12.5	9.07e-05	0	41	0	61865984	19	5488
2026-01-09 00:08:31.27	19.87	9.96	-29.9	-33.8	12.2	2.25e-04	0	42	0	63963136	19	5654
2026-01-09 00:08:32.28	19.89	10.05	-29.8	-33.4	12.4	1.50e-04	0	41	0	66060288	19	5488
2026-01-09 00:08:33.29	19.91	10.14	-29.8	-33.4	12.5	1.43e-04	0	42	0	67108864	19	5490
2026-01-09 00:08:34.30	19.92	10.23	-29.8	-33.5	12.3	1.41e-04	0	42	0	69206016	19	5516
2026-01-09 00:08:35.30	19.94	10.31	-29.8	-33.7	11.4	1.61e-04	0	42	0	71303168	19	5590
2026-01-09 00:08:36.31	19.96	10.40	-29.8	-33.7	11.6	1.76e-04	0	42	0	73400320	19	5595
2026-01-09 00:08:37.32	19.98	10.49	-29.8	-33.5	12.4	1.58e-04	0	42	0	75497472	19	5540
2026-01-09 00:08:38.32	20.00	10.58	-29.8	-33.4	12.4	1.22e-04	0	42	0	76546048	19	5496
2026-01-09 00:08:39.32	20.02	10.67	-29.7	-33.2	12.6	8.39e-05	0	42	0	78643200	19	5411
2026-01-09 00:08:40.33	20.04	10.76	-29.7	-33.1	12.7	7.32e-05	0	42	0	80740352	19	5359
2026-01-09 00:08:41.33	20.05	10.84	-29.7	-33.3	12.6	2.56e-03	0	42	0	82837504	19	5429
2026-01-09 00:08:42.34	20.07	10.93	-29.8	-33.5	12.5	1.45e-04	0	42	0	84934656	19	5514
2026-01-09 00:08:43.34	20.09	11.02	-29.7	-33.1	12.8	7.78e-05	0	42	0	85983232	19	5338
2026-01-09 00:08:44.34	20.11	11.11	-29.5	-32.8	13.0	5.72e-05	0	42	0	88080384	19	5219
2026-01-09 00:08:45.35	20.13	11.21	-29.5	-33.0	13.2	3.12e-05	0	42	0	90177536	18	5426
2026-01-09 00:08:46.36	20.15	11.30	-29.5	-32.5	13.2	2.67e-05	0	42	0	92274688	19	5130
2026-01-09 00:08:47.36	20.17	11.39	-29.5	-33.1	13.2	2.44e-05	0	42	0	94371840	18	5449
2026-01-09 00:08:48.36	20.19	11.48	-29.5	-32.6	13.2	2.52e-03	0	42	0	95420416	19	5148
2026-01-09 00:08:49.37	20.21	11.57	-29.4	-32.3	13.3	2.05e-05	0	42	0	97517568	19	5031
2026-01-09 00:08:50.37	20.23	11.66	-29.4	-32.9	13.3	1.60e-05	0	42	0	99614720	18	5372
2026-01-09 00:08:51.37	20.25	11.76	-29.5	-33.0	13.2	2.71e-03	0	42	0	101711872	18	5414
2026-01-09 00:08:52.38	20.27	11.85	-29.4	-32.9	13.3	1.75e-05	0	42	0	102760448	18	5384
2026-01-09 00:08:53.39	20.29	11.94	-29.3	-32.7	13.4	2.36e-05	0	42	0	104857600	18	5286
2026-01-09 00:08:54.40	20.31	12.04	-29.4	-33.0	13.3	2.76e-03	0	42	0	106954752	18	5391
2026-01-09 00:08:55.40	20.33	12.13	-29.4	-32.4	13.3	3.28e-05	0	42	0	109051904	19	5084
2026-01-09 00:08:56.41	20.35	12.23	-29.3	-32.7	13.5	1.14e-05	0	42	0	111149056	18	5289
2026-01-09 00:08:57.41	20.37	12.32	-29.3	-32.7	13.5	9.10e-06	0	42	0	113246208	18	5283
2026-01-09 00:08:58.41	20.39	12.42	-29.3	-32.6	13.5	1.75e-05	0	42	0	114294784	18	5267
2026-01-09 00:08:59.41	20.41	12.51	-29.3	-32.6	13.5	2.55e-03	0	42	0	116391936	18	5272
2026-01-09 00:09:00.42	20.43	12.61	-29.3	-32.7	13.5	9.10e-06	0	42	0	118489088	18	5279
2026-01-09 00:09:01.43	20.45	12.70	-29.3	-32.6	13.5	1.67e-05	0	42	0	120586240	18	5249
2026-01-09 00:09:02.43	20.47	12.80	-29.3	-32.4	13.6	2.77e-03	0	42	0	121634816	18	5191
2026-01-09 00:09:03.44	20.49	12.90	-29.2	-32.3	13.8	4.50e-06	0	42	0	123731968	18	5120
2026-01-09 00:09:04.45	20.51	13.00	-29.3	-32.4	13.7	9.10e-06	0	42	0	125829120	18	5180
2026-01-09 00:09:05.46	20.54	13.09	-29.3	-32.6	13.6	2.66e-03	0	42	0	127926272	18	5240
2026-01-09 00:09:06.46	20.56	13.19	-29.4	-32.8	13.5	2.53e-03	0	42	0	130023424	18	5314
2026-01-09 00:09:07.46	20.58	13.29	-29.5	-32.9	13.4	1.22e-05	0	42	0	131072000	18	5370
2026-01-09 00:09:08.46	20.60	13.39	-29.7	-33.0	13.0	2.57e-03	0	42	0	133169152	19	5303
2026-01-09 00:09:09.47	20.62	13.49	-29.7	-33.0	13.0	2.94e-03	0	42	0	135266304	19	5305
2026-01-09 00:09:10.48	20.64	13.59	-29.6	-32.8	13.1	5.26e-05	0	42	0	137363456	19	5228
2026-01-09 00:09:11.49	20.67	13.69	-29.4	-32.7	13.5	2.83e-03	0	42	0	139460608	18	5281
2026-01-09 00:09:12.49	20.69	13.79	-29.4	-32.9	13.4	2.97e-03	0	42	0	141557760	18	5342
2026-01-09 00:09:13.50	20.71	13.89	-29.4	-32.3	13.5	4.95e-05	0	42	0	142606336	19	5018
2026-01-09 00:09:14.50	20.73	13.99	-29.3	-32.4	13.7	2.90e-03	0	42	0	144703488	18	5174
2026-01-09 00:09:15.51	20.75	14.10	-29.3	-32.5	13.7	2.79e-03	0	42	0	146800640	18	5182
2026-01-09 00:09:16.51	20.78	14.20	-29.4	-32.7	13.6	9.10e-06	0	42	0	148897792	18	5273
2026-01-09 00:09:17.51	20.80	14.30	-29.4	-32.9	13.5	2.83e-03	0	42	0	149946368	18	5346
2026-01-09 00:09:18.52	20.82	14.40	-29.3	-32.6	13.6	3.23e-03	0	42	0	152043520	18	5231
2026-01-09 00:09:19.52	20.84	14.51	-29.3	-32.3	13.8	4.50e-06	0	42	0	154140672	18	5136
2026-01-09 00:09:20.53	20.87	14.61	-29.3	-32.4	13.8	3.33e-03	0	42	0	156237824	18	5159
2026-01-09 00:09:21.53	20.89	14.72	-29.4	-32.6	13.6	2.23e-03	0	42	0	158334976	18	5247
2026-01-09 00:09:22.53	20.91	14.82	-29.4	-32.6	13.6	6.80e-06	0	42	0	159383552	18	5251
2026-01-09 00:09:23.53	20.94	14.93	-29.3	-32.5	13.7	3.28e-03	0	42	0	161480704	18	5210
2026-01-09 00:09:24.54	20.96	15.03	-29.3	-32.6	13.7	7.60e-06	0	42	0	163577856	18	5215
2026-01-09 00:09:25.55	20.98	15.14	-29.4	-32.8	13.5	1.29e-05	0	42	0	165675008	18	5311
2026-01-09 00:09:26.56	21.01	15.25	-29.4	-32.8	13.5	3.18e-03	0	42	0	167772160	18	5296
2026-01-09 00:09:27.56	21.03	15.35	-29.5	-32.9	13.5	3.44e-03	0	42	0	168820736	18	5330
2026-01-09 00:09:28.57	21.06	15.46	-29.5	-32.6	13.4	1.60e-05	0	42	0	170917888	19	5113
2026-01-09 00:09:29.57	21.08	15.57	-29.4	-32.8	13.5	3.51e-03	0	42	0	173015040	18	5316
2026-01-09 00:09:30.58	21.11	15.68	-29.4	-32.8	13.6	3.39e-03	0	42	0	175112192	18	5295
2026-01-09 00:09:31.59	21.13	15.79	-29.5	-32.4	13.5	1.44e-05	0	42	0	177209344	19	5036
2026-01-09 00:09:32.59	21.15	15.90	-29.5	-32.5	13.5	2.95e-03	0	42	0	178257920	19	5080
2026-01-09 00:09:33.59	21.18	16.01	-29.5	-32.4	13.5	2.99e-03	0	42	0	180355072	19	5059
2026-01-09 00:09:34.60	21.20	16.12	-29.5	-32.4	13.5	1.06e-05	0	42	0	182452224	19	5032
2026-01-09 00:09:35.60	21.23	16.23	-29.5	-32.5	13.5	9.90e-06	0	42	0	184549376	19	5081
2026-01-09 00:09:36.61	21.26	16.34	-29.6	-32.6	13.4	3.39e-03	0	42	0	186646528	19	5130
2026-01-09 00:09:37.62	21.28	16.46	-29.6	-32.6	13.4	8.30e-06	0	42	0	187695104	19	5131
2026-01-09 00:09:38.62	21.31	16.57	-29.6	-32.7	13.4	1.98e-05	0	42	0	189792256	19	5141
2026-01-09 00:09:39.62	21.33	16.68	-29.6	-32.8	13.3	4.12e-04	0	42	0	191889408	19	5181
2026-01-09 00:09:40.62	21.36	16.79	-29.6	-32.9	13.2	1.67e-05	0	42	0	193986560	19	5224
2026-01-09 00:09:41.62	21.38	16.91	-29.6	-32.8	13.3	1.67e-05	0	42	0	196083712	19	5198
2026-01-09 00:09:42.63	21.41	17.02	-29.7	-33.0	13.2	1.98e-05	0	42	0	197132288	19	5273
2026-01-09 00:09:43.64	21.44	17.14	-29.7	-33.1	13.1	3.50e-05	0	43	0	199229440	19	5302
2026-01-09 00:09:44.64	21.46	17.25	-29.8	-33.2	13.0	3.20e-05	0	42	0	201326592	19	5358
2026-01-09 00:09:45.65	21.49	17.37	-29.8	-33.3	13.0	4.42e-05	0	43	0	203423744	19	5376
2026-01-09 00:09:46.65	21.52	17.49	-29.8	-33.4	13.0	3.96e-05	0	42	0	205520896	19	5410
2026-01-09 00:09:47.66	21.54	17.61	-29.9	-33.5	12.9	2.81e-03	0	42	0	206569472	19	5464
2026-01-09 00:09:48.66	21.57	17.72	-29.9	-33.6	12.8	7.09e-05	0	42	0	208666624	19	5521
2026-01-09 00:09:49.66	21.60	17.84	-29.9	-33.5	12.8	5.41e-05	0	42	0	210763776	19	5478
2026-01-09 00:09:50.66	21.63	17.96	-30.0	-33.8	12.7	1.97e-03	0	42	0	212860928	19	5575
2026-01-09 00:09:51.67	21.65	18.08	-30.1	-33.7	12.3	1.46e-04	0	42	0	214958080	20	5459
2026-01-09 00:09:52.67	21.68	18.20	-30.1	-33.8	12.2	2.15e-04	0	42	0	216006656	20	5496
2026-01-09 00:09:53.68	21.71	18.32	-30.2	-33.9	12.2	1.90e-04	0	43	0	218103808	20	5531
2026-01-09 00:09:54.69	21.74	18.45	-30.3	-34.3	11.9	3.00e-03	0	43	0	220200960	20	5683
2026-01-09 00:09:55.69	21.77	18.57	-30.3	-34.2	12.0	4.81e-04	0	43	0	222298112	20	5666
2026-01-09 00:09:56.70	21.80	18.69	-30.3	-34.2	12.0	3.97e-04	0	43	0	224395264	20	5649
2026-01-09 00:09:57.70	21.83	18.81	-30.3	-34.2	12.0	3.04e-04	0	43	0	225443840	20	5678
2026-01-09 00:09:58.71	21.86	18.94	-30.3	-34.4	11.9	3.66e-04	0	42	0	227540992	20	5730
2026-01-09 00:09:59.72	21.88	19.07	-30.5	-34.8	11.6	3.81e-04	0	42	0	229638144	20	5927
2026-01-09 00:10:00.72	21.91	19.19	-30.5	-34.4	11.5	1.21e-03	0	43	0	231735296	21	5619
2026-01-09 00:10:01.73	21.94	19.32	-30.4	-34.1	11.7	5.93e-04	0	42	0	232783872	21	5518
2026-01-09 00:10:02.73	21.97	19.44	-30.5	-34.8	11.7	5.19e-04	0	42	0	234881024	20	5905
2026-01-09 00:10:03.73	22.00	19.57	-30.5	-34.5	11.5	4.90e-04	0	43	0	236978176	21	5678
2026-01-09 00:10:04.73	22.03	19.70	-30.7	-35.1	11.0	1.62e-03	0	43	0	239075328	21	5975
2026-01-09 00:10:05.73	22.07	19.83	-30.6	-34.7	11.3	1.64e-03	0	42	0	241172480	21	5786
2026-01-09 00:10:06.74	22.10	19.96	-30.6	-34.7	11.3	9.70e-04	0	43	0	243269632	21	5751
2026-01-09 00:10:07.75	22.13	20.09	-30.4	-34.6	11.8	7.63e-04	0	43	0	244318208	20	5816
2026-01-09 00:10:08.76	22.16	20.22	-30.4	-34.5	11.5	4.63e-04	0	43	0	246415360	20	5765
2026-01-09 00:10:09.76	22.19	20.35	-30.3	-34.2	12.0	3.86e-04	0	43	0	248512512	20	5665
2026-01-09 00:10:10.77	22.22	20.48	-30.2	-33.9	11.9	2.62e-04	0	43	0	250609664	20	5528
2026-01-09 00:10:11.78	22.26	20.61	-30.1	-33.6	12.1	2.19e-04	0	43	0	251658240	20	5372
2026-01-09 00:10:12.79	22.29	20.75	-30.1	-33.6	12.5	1.40e-04	0	43	0	253755392	20	5392
2026-01-09 00:10:13.79	22.32	20.88	-30.1	-33.6	12.5	9.53e-05	0	43	0	255852544	20	5373
2026-01-09 00:10:14.79	22.35	21.02	-30.1	-33.6	12.5	1.95e-03	0	43	0	257949696	20	5374
2026-01-09 00:10:15.80	22.39	21.15	-30.2	-34.0	12.2	1.52e-04	0	43	0	260046848	20	5544
2026-01-09 00:10:16.80	22.42	21.29	-30.2	-34.0	12.2	2.23e-04	0	43	0	261095424	20	5571
2026-01-09 00:10:17.81	22.45	21.43	-30.3	-34.1	12.2	2.08e-04	0	43	0	263192576	20	5612
2026-01-09 00:10:18.81	22.49	21.56	-30.2	-34.0	12.2	2.33e-04	0	43	0	265289728	20	5548
2026-01-09 00:10:19.81	22.52	21.70	-30.1	-33.6	12.5	1.20e-04	0	43	0	267386880	20	5409
2026-01-09 00:10:20.82	22.56	21.84	-30.1	-33.7	12.5	1.19e-04	0	42	0	269484032	20	5420
2026-01-09 00:10:21.83	22.59	21.98	-30.2	-33.8	12.4	1.29e-04	0	43	0	270532608	20	5457
2026-01-09 00:10:22.84	22.63	22.12	-30.2	-33.7	12.5	3.55e-04	0	43	0	272629760	20	5443
2026-01-09 00:10:23.85	22.66	22.27	-30.3	-34.1	12.2	1.51e-04	0	43	0	274726912	20	5599
2026-01-09 00:10:24.85	22.70	22.41	-30.2	-33.8	12.4	2.32e-04	0	43	0	276824064	20	5443
2026-01-09 00:10:25.86	22.73	22.55	-30.0	-33.4	12.7	2.32e-03	0	43	0	278921216	20	5299
2026-01-09 00:10:26.87	22.77	22.70	-29.9	-33.1	12.9	7.55e-05	0	43	0	279969792	20	5204
2026-01-09 00:10:27.87	22.81	22.84	-30.0	-33.2	12.8	4.88e-05	0	43	0	282066944	20	5210
2026-01-09 00:10:28.88	22.84	22.99	-30.0	-33.6	13.0	2.34e-03	0	43	0	284164096	19	5491
2026-01-09 00:10:29.89	22.88	23.13	-29.9	-33.5	13.1	4.14e-04	0	43	0	286261248	19	5430
2026-01-09 00:10:30.90	22.92	23.28	-29.8	-33.2	13.2	2.36e-05	0	42	0	288358400	19	5338
2026-01-09 00:10:31.90	22.95	23.43	-29.8	-33.2	13.2	2.38e-03	0	43	0	289406976	19	5323
2026-01-09 00:10:32.90	22.99	23.58	-29.8	-33.2	13.3	2.43e-03	0	42	0	291504128	19	5317
2026-01-09 00:10:33.91	23.03	23.73	-30.0	-33.3	12.8	3.12e-05	0	42	0	293601280	20	5257
2026-01-09 00:10:34.91	23.07	23.88	-30.3	-34.1	12.2	2.69e-03	0	43	0	295698432	20	5596
2026-01-09 00:10:35.92	23.11	24.03	-30.2	-34.0	12.3	2.54e-03	0	43	0	297795584	20	5524
2026-01-09 00:10:36.93	23.15	24.18	-30.2	-33.9	12.4	1.66e-04	0	43	0	298844160	20	5506
2026-01-09 00:10:37.93	23.19	24.34	-30.2	-33.9	12.4	1.50e-04	0	42	0	300941312	20	5489
2026-01-09 00:10:38.94	23.23	24.49	-30.3	-34.0	12.3	2.74e-03	0	43	0	303038464	20	5556
2026-01-09 00:10:39.95	23.27	24.65	-30.3	-34.3	12.2	2.08e-04	0	43	0	305135616	20	5649
2026-01-09 00:10:40.96	23.31	24.80	-30.4	-34.5	12.0	4.72e-04	0	43	0	307232768	20	5753
2026-01-09 00:10:41.96	23.35	24.96	-30.3	-34.0	12.4	2.71e-03	0	43	0	308281344	20	5520
2026-01-09 00:10:42.97	23.39	25.12	-29.9	-33.1	13.0	5.18e-05	0	43	0	310378496	20	5166
2026-01-09 00:10:43.98	23.43	25.28	-29.8	-33.2	13.3	2.55e-03	0	43	0	312475648	19	5326
2026-01-09 00:10:44.98	23.48	25.44	-30.0	-33.6	13.0	2.06e-03	0	43	0	314572800	19	5486
2026-01-09 00:10:45.99	23.52	25.60	-29.9	-33.3	13.2	2.82e-05	0	43	0	316669952	19	5362
2026-01-09 00:10:46.99	23.56	25.76	-29.8	-33.3	13.3	2.30e-03	0	43	0	317718528	19	5342
2026-01-09 00:10:47.99	23.61	25.92	-30.0	-33.2	12.9	2.46e-03	0	43	0	319815680	20	5206
2026-01-09 00:10:49.00	23.65	26.09	-29.9	-33.1	13.0	3.28e-05	0	43	0	321912832	20	5173
2026-01-09 00:10:50.00	23.69	26.25	-29.8	-33.3	13.2	2.16e-03	0	43	0	324009984	19	5344
2026-01-09 00:10:51.01	23.74	26.42	-29.9	-33.3	13.2	2.10e-03	0	43	0	326107136	19	5367
2026-01-09 00:10:52.02	23.78	26.59	-30.0	-33.3	12.9	3.50e-05	0	43	0	327155712	20	5241
2026-01-09 00:10:53.02	23.83	26.75	-30.0	-33.2	12.9	1.88e-03	0	43	0	329252864	20	5200
2026-01-09 00:10:54.03	23.87	26.92	-30.0	-33.2	12.9	1.69e-03	0	43	0	331350016	20	5229
2026-01-09 00:10:55.03	23.92	27.09	-30.1	-33.4	12.8	5.11e-05	0	43	0	333447168	20	5307
2026-01-09 00:10:56.04	23.97	27.26	-30.1	-33.7	12.5	1.61e-03	0	43	0	335544320	20	5412
2026-01-09 00:10:57.04	24.02	27.43	-30.3	-34.0	12.3	1.67e-03	0	43	0	336592896	20	5554
2026-01-09 00:10:58.05	24.06	27.61	-30.2	-33.9	12.5	1.36e-04	0	43	0	338690048	20	5491
2026-01-09 00:10:59.05	24.11	27.78	-30.4	-34.3	12.2	2.38e-04	0	43	0	340787200	20	5672
2026-01-09 00:11:00.06	24.16	27.96	-30.4	-34.5	12.1	1.48e-03	0	43	0	342884352	20	5750
2026-01-09 00:11:01.07	24.21	28.13	-30.5	-34.6	11.9	3.13e-04	0	43	0	344981504	20	5819
2026-01-09 00:11:02.07	24.26	28.31	-30.5	-34.3	11.9	3.65e-04	0	43	0	346030080	21	5558
2026-01-09 00:11:03.08	24.31	28.49	-30.5	-34.3	11.9	1.30e-03	0	43	0	348127232	21	5534
2026-01-09 00:11:04.08	24.36	28.67	-30.5	-34.3	11.8	4.25e-04	0	43	0	350224384	21	5565
2026-01-09 00:11:05.09	24.41	28.85	-30.6	-34.5	11.7	6.43e-04	0	43	0	352321536	21	5627
2026-01-09 00:11:06.09	24.46	29.03	-30.5	-34.3	11.9	4.61e-04	0	43	0	354418688	21	5530
2026-01-09 00:11:07.10	24.52	29.22	-30.5	-34.2	12.0	3.71e-04	0	43	0	355467264	21	5510
2026-01-09 00:11:08.11	24.57	29.40	-30.5	-34.2	11.9	4.13e-04	0	43	0	357564416	21	5510
2026-01-09 00:11:09.11	24.62	29.59	-30.5	-34.3	11.9	4.63e-04	0	43	0	359661568	21	5539
2026-01-09 00:11:10.12	24.68	29.77	-30.6	-34.4	11.9	4.15e-04	0	43	0	361758720	21	5580
2026-01-09 00:11:11.13	24.73	29.96	-30.7	-34.7	11.6	1.91e-03	0	43	0	363855872	21	5699
2026-01-09 00:11:12.14	24.79	30.15	-30.7	-34.8	11.6	6.23e-04	0	43	0	364904448	21	5750
2026-01-09 00:11:13.14	24.84	30.34	-30.8	-35.0	11.5	6.77e-04	0	43	0	367001600	21	5836
2026-01-09 00:11:14.14	24.90	30.53	-30.7	-34.7	11.6	1.91e-03	0	43	0	369098752	21	5728
2026-01-09 00:11:15.15	24.96	30.73	-30.6	-34.6	11.7	5.33e-04	0	43	0	371195904	21	5661
2026-01-09 00:11:16.15	25.01	30.92	-30.7	-34.7	11.7	4.40e-04	0	43	0	373293056	21	5696
2026-01-09 00:11:17.16	25.07	31.12	-30.7	-34.8	11.6	7.25e-04	0	43	0	374341632	21	5774
2026-01-09 00:11:18.17	25.13	31.31	-30.8	-34.9	11.6	8.43e-04	0	43	0	376438784	21	5784
2026-01-09 00:11:19.17	25.19	31.51	-30.9	-35.4	11.2	1.02e-03	0	43	0	378535936	21	6027
2026-01-09 00:11:20.17	25.25	31.71	-30.9	-35.3	11.2	1.41e-03	0	43	0	380633088	21	5999
2026-01-09 00:11:21.18	25.31	31.91	-30.9	-35.4	11.2	2.54e-03	0	43	0	382730240	21	6042
2026-01-09 00:11:22.19	25.37	32.11	-30.8	-35.2	11.4	1.17e-03	0	43	0	383778816	21	5919
2026-01-09 00:11:23.19	25.44	32.32	-30.8	-35.1	11.4	1.04e-03	0	43	0	385875968	21	5891
2026-01-09 00:11:24.20	25.50	32.52	-30.9	-35.2	11.4	9.12e-04	0	43	0	387973120	21	5930
2026-01-09 00:11:25.21	25.57	32.73	-30.9	-34.9	11.2	1.53e-03	0	43	0	390070272	22	5680
2026-01-09 00:11:26.21	25.63	32.94	-30.7	-34.1	11.8	7.19e-04	0	43	0	392167424	22	5326
2026-01-09 00:11:27.22	25.70	33.15	-30.6	-34.3	12.0	3.81e-04	0	43	0	393216000	21	5532
2026-01-09 00:11:28.22	25.76	33.36	-30.5	-34.1	12.2	3.05e-04	0	43	0	395313152	21	5453
2026-01-09 00:11:29.23	25.83	33.57	-30.5	-34.0	12.2	2.43e-04	0	43	0	397410304	21	5415
2026-01-09 00:11:30.24	25.90	33.78	-30.4	-33.8	12.3	2.31e-04	0	43	0	399507456	21	5325
2026-01-09 00:11:31.25	25.97	34.00	-30.2	-33.8	12.6	1.39e-04	0	43	0	401604608	20	5441
2026-01-09 00:11:32.25	26.04	34.21	-30.0	-33.1	13.1	4.88e-05	0	43	0	402653184	20	5147
2026-01-09 00:11:33.26	26.11	34.43	-30.1	-33.3	13.1	5.18e-05	0	43	0	404750336	20	5219
2026-01-09 00:11:34.27	26.18	34.65	-30.0	-33.2	13.1	2.67e-05	0	43	0	406847488	20	5197
2026-01-09 00:11:35.27	26.25	34.87	-30.2	-33.6	12.8	6.02e-05	0	43	0	408944640	20	5356
2026-01-09 00:11:36.27	26.32	35.09	-30.0	-33.2	13.1	3.81e-05	0	43	0	411041792	20	5206
2026-01-09 00:11:37.28	26.40	35.32	-30.0	-33.0	13.2	2.21e-05	0	43	0	412090368	20	5116
2026-01-09 00:11:38.29	26.47	35.54	-29.9	-32.8	13.4	8.30e-06	0	43	0	414187520	20	5036
2026-01-09 00:11:39.30	26.55	35.77	-30.0	-33.1	13.2	2.28e-05	0	43	0	416284672	20	5147
2026-01-09 00:11:40.30	26.63	36.00	-29.9	-32.9	13.3	1.60e-05	0	43	0	418381824	20	5082
2026-01-09 00:11:41.31	26.71	36.23	-30.0	-33.3	13.1	1.75e-05	0	43	0	420478976	20	5208
2026-01-09 00:11:42.31	26.79	36.46	-29.9	-32.9	13.4	1.98e-05	0	43	0	421527552	20	5056
2026-01-09 00:11:43.32	26.87	36.70	-29.9	-32.9	13.3	1.83e-05	0	43	0	423624704	20	5059
2026-01-09 00:11:44.32	26.95	36.93	-30.0	-33.0	13.3	2.21e-05	0	43	0	425721856	20	5106
2026-01-09 00:11:45.32	27.03	37.16	-30.1	-33.3	13.1	2.74e-05	0	43	0	427819008	20	5198
2026-01-09 00:11:46.33	27.11	37.40	-30.0	-33.2	13.2	2.51e-05	0	43	0	429916160	20	5160
2026-01-09 00:11:47.33	27.20	37.64	-30.1	-33.4	13.0	1.06e-05	0	43	0	430964736	20	5257
2026-01-09 00:11:48.34	27.29	37.89	-30.2	-33.6	12.9	5.11e-05	0	43	0	433061888	20	5317
2026-01-09 00:11:49.35	27.37	38.13	-30.2	-33.7	12.8	5.41e-05	0	43	0	435159040	20	5394
2026-01-09 00:11:50.35	27.46	38.37	-30.1	-33.5	13.0	2.67e-05	0	43	0	437256192	20	5295
2026-01-09 00:11:51.36	27.55	38.62	-30.2	-33.7	12.8	7.17e-05	0	43	0	439353344	20	5371
2026-01-09 00:11:52.36	27.64	38.87	-30.2	-33.8	12.8	6.17e-05	0	43	0	440401920	20	5416
2026-01-09 00:11:53.37	27.74	39.12	-30.3	-34.1	12.6	4.73e-05	0	43	0	442499072	20	5533
2026-01-09 00:11:54.37	27.83	39.37	-30.3	-34.0	12.6	8.23e-05	0	43	0	444596224	20	5498
2026-01-09 00:11:55.38	27.93	39.63	-30.3	-34.1	12.6	1.41e-04	0	43	0	446693376	20	5538
2026-01-09 00:11:56.38	28.02	39.88	-30.5	-34.4	12.4	1.69e-04	0	43	0	447741952	20	5674
2026-01-09 00:11:57.40	28.12	40.14	-30.6	-34.3	12.0	1.98e-04	0	43	0	449839104	21	5513
2026-01-09 00:11:58.41	28.22	40.40	-30.8	-35.0	11.7	5.12e-04	0	43	0	451936256	21	5822
2026-01-09 00:11:59.41	28.32	40.66	-30.9	-35.2	11.5	5.84e-04	0	43	0	454033408	21	5906
2026-01-09 00:12:00.42	28.43	40.92	-30.9	-35.3	11.4	1.06e-03	0	43	0	456130560	21	5972
2026-01-09 00:12:01.43	28.53	41.19	-30.8	-35.0	11.6	7.77e-04	0	43	0	458227712	21	5840
2026-01-09 00:12:02.43	28.64	41.45	-30.8	-34.9	11.7	8.19e-04	0	43	0	459276288	21	5785
2026-01-09 00:12:03.43	28.75	41.72	-30.8	-34.8	11.8	4.59e-04	0	43	0	461373440	21	5724
2026-01-09 00:12:04.44	28.86	41.99	-30.7	-34.7	11.8	5.54e-04	0	43	0	463470592	21	5671
2026-01-09 00:12:05.44	28.97	42.26	-30.5	-34.0	12.4	5.20e-04	0	43	0	465567744	21	5368
2026-01-09 00:12:06.44	29.08	42.54	-30.5	-34.0	12.3	1.17e-04	0	43	0	467664896	21	5391
2026-01-09 00:12:07.45	29.20	42.81	-30.5	-34.0	12.3	6.07e-04	0	43	0	468713472	21	5388
2026-01-09 00:12:08.45	29.31	43.09	-30.7	-34.5	12.0	6.38e-04	0	43	0	470810624	21	5604
2026-01-09 00:12:09.46	29.43	43.37	-30.7	-34.6	12.0	3.53e-04	0	43	0	472907776	21	5643
2026-01-09 00:12:10.47	29.56	43.65	-30.8	-34.8	11.8	6.29e-04	0	43	0	475004928	21	5735
2026-01-09 00:12:11.48	29.68	43.94	-31.0	-34.9	11.5	1.41e-03	0	43	0	477102080	22	5635
2026-01-09 00:12:12.49	29.81	44.23	-30.9	-34.7	11.6	9.03e-04	0	43	0	478150656	22	5577
2026-01-09 00:12:13.49	29.93	44.51	-30.7	-34.5	12.0	9.29e-04	0	43	0	480247808	21	5594
2026-01-09 00:12:14.50	30.06	44.80	-30.7	-34.5	12.0	2.88e-04	0	43	0	482344960	21	5597
2026-01-09 00:12:15.51	30.20	45.10	-30.6	-34.2	12.3	2.28e-04	0	43	0	484442112	21	5435
2026-01-09 00:12:16.50	30.33	45.38	-30.6	-34.1	12.3	4.90e-04	0	43	0	486539264	21	5426
2026-01-09 00:12:17.51	30.47	45.68	-30.6	-34.4	12.3	7.03e-04	0	43	0	487587840	21	5515
2026-01-09 00:12:18.51	30.61	45.98	-30.6	-34.3	12.3	1.58e-04	0	43	0	489684992	21	5474
2026-01-09 00:12:19.52	30.75	46.28	-30.6	-34.1	12.4	4.90e-04	0	43	0	491782144	21	5410
2026-01-09 00:12:20.52	30.89	46.58	-30.5	-33.9	12.5	4.97e-04	0	43	0	493879296	21	5315
2026-01-09 00:12:21.53	31.04	46.88	-30.6	-34.1	12.4	1.22e-04	0	43	0	494927872	21	5395
2026-01-09 00:12:22.53	31.19	47.19	-30.7	-34.5	12.1	1.46e-03	0	43	0	497025024	21	5584
2026-01-09 00:12:23.54	31.35	47.50	-30.9	-35.1	11.7	1.70e-03	0	43	0	499122176	21	5866
2026-01-09 00:12:24.55	31.50	47.81	-30.9	-35.3	11.6	6.48e-04	0	43	0	501219328	21	5918
2026-01-09 00:12:25.56	31.66	48.12	-30.9	-35.2	11.7	6.32e-04	0	43	0	503316480	21	5890
2026-01-09 00:12:26.56	31.83	48.43	-30.8	-35.0	11.8	1.83e-03	0	43	0	505413632	21	5786
2026-01-09 00:12:27.57	31.99	48.75	-30.5	-33.9	12.5	3.47e-04	0	43	0	506462208	21	5341
2026-01-09 00:12:28.58	32.16	49.07	-30.3	-33.9	12.9	6.17e-05	0	43	0	508559360	20	5435
2026-01-09 00:12:29.58	32.34	49.39	-30.3	-33.8	13.0	1.66e-03	0	43	0	510656512	20	5390
2026-01-09 00:12:30.58	32.51	49.71	-30.1	-33.3	13.3	4.50e-05	0	43	0	512753664	20	5211
2026-01-09 00:12:31.59	32.69	50.03	-29.9	-32.7	13.7	1.14e-05	0	43	0	513802240	20	4984
2026-01-09 00:12:32.60	32.88	50.36	-29.8	-33.0	13.9	4.50e-06	0	43	0	515899392	19	5186
2026-01-09 00:12:33.61	33.07	50.69	-29.4	-32.0	14.5	2.20e-06	0	43	0	517996544	19	4806
2026-01-09 00:12:34.61	33.26	51.02	-29.2	-31.8	15.0	0.00e+00	0	43	0	520093696	18	4853
2026-01-09 00:12:35.61	33.45	51.35	-28.9	-31.2	15.4	0.00e+00	0	43	0	522190848	18	4657
2026-01-09 00:12:36.62	33.65	51.69	-28.9	-31.0	15.5	0.00e+00	0	43	0	523239424	18	4605
2026-01-09 00:12:37.62	33.86	52.02	-28.8	-31.4	15.5	1.03e-03	0	43	0	525336576	17	4852
2026-01-09 00:12:38.62	34.07	52.36	-28.6	-30.9	15.8	0.00e+00	0	43	0	527433728	17	4678
2026-01-09 00:12:39.62	34.28	52.69	-28.5	-30.5	16.0	0.00e+00	0	43	0	529530880	17	4560
2026-01-09 00:12:40.62	34.50	53.03	-28.2	-30.2	16.4	1.26e-03	0	43	0	531628032	16	4582
2026-01-09 00:12:41.62	34.72	53.38	-28.0	-29.8	16.7	0.00e+00	0	43	0	532676608	16	4455
2026-01-09 00:12:42.62	34.95	53.72	-27.7	-29.2	17.1	0.00e+00	0	43	0	534773760	16	4273
2026-01-09 00:12:43.63	35.19	54.07	-27.6	-29.5	17.0	0.00e+00	0	43	0	536870912	15	4482
2026-01-09 00:12:44.63	35.43	54.42	-27.5	-29.3	17.0	5.13e-04	0	43	0	538968064	15	4437
2026-01-09 00:12:45.64	35.67	54.77	-27.5	-29.2	17.2	0.00e+00	0	43	0	541065216	15	4387
2026-01-09 00:12:46.64	35.92	55.12	-27.4	-29.0	17.3	0.00e+00	0	43	0	542113792	15	4337
2026-01-09 00:12:47.65	36.18	55.48	-27.4	-29.6	17.3	0.00e+00	0	43	0	544210944	14	4616
2026-01-09 00:12:48.65	36.45	55.83	-27.7	-29.7	16.9	0.00e+00	0	43	0	546308096	15	4545
2026-01-09 00:12:49.65	36.72	56.19	-28.3	-30.5	16.4	0.00e+00	0	43	0	548405248	16	4665
2026-01-09 00:12:50.65	37.00	56.55	-28.7	-31.1	15.7	0.00e+00	0	43	0	550502400	17	4746
2026-01-09 00:12:51.65	37.28	56.91	-28.8	-31.4	15.5	0.00e+00	0	43	0	551550976	17	4855
2026-01-09 00:12:52.65	37.58	57.27	-29.0	-31.2	15.4	7.00e-07	0	43	0	553648128	18	4664
2026-01-09 00:12:53.65	37.88	57.64	-28.6	-30.3	15.9	0.00e+00	0	43	0	555745280	18	4396
2026-01-09 00:12:54.65	38.18	58.00	-28.3	-30.0	16.4	0.00e+00	0	43	0	557842432	17	4388
2026-01-09 00:12:55.66	38.50	58.37	-28.1	-29.6	16.6	0.00e+00	0	43	0	559939584	17	4279
2026-01-09 00:12:56.67	38.83	58.74	-27.9	-29.5	16.9	0.00e+00	0	43	0	560988160	16	4367
2026-01-09 00:12:57.67	39.17	59.11	-27.8	-29.5	17.0	0.00e+00	0	43	0	563085312	16	4352
2026-01-09 00:12:58.68	39.52	59.49	-27.7	-29.8	16.9	0.00e+00	0	43	0	565182464	15	4579
2026-01-09 00:12:59.68	39.87	59.86	-27.5	-29.3	17.2	0.00e+00	0	43	0	567279616	15	4429
2026-01-09 00:13:00.68	40.24	60.23	-27.6	-29.5	17.1	0.00e+00	0	43	0	568328192	15	4470
2026-01-09 00:13:01.69	40.61	60.61	-27.4	-28.9	17.4	0.00e+00	0	43	0	570425344	15	4315
2026-01-09 00:13:02.69	41.00	60.99	-27.1	-28.8	17.8	0.00e+00	0	43	0	572522496	14	4385
2026-01-09 00:13:03.69	41.40	61.36	-27.0	-28.6	17.9	0.00e+00	0	43	0	574619648	14	4324
2026-01-09 00:13:04.70	41.81	61.74	-26.8	-28.6	16.6	8.89e-04	0	43	0	576716800	13	4445
2026-01-09 00:13:05.69	42.23	62.12	-26.7	-28.4	18.3	0.00e+00	0	43	0	578813952	13	4387
2026-01-09 00:13:06.70	42.67	62.50	-26.7	-28.4	18.2	0.00e+00	0	43	0	579862528	13	4399
2026-01-09 00:13:07.70	43.12	62.88	-26.7	-28.4	18.3	0.00e+00	0	43	0	581959680	13	4377
2026-01-09 00:13:08.71	43.59	63.27	-26.9	-28.8	18.1	0.00e+00	0	43	0	584056832	13	4513
2026-01-09 00:13:09.72	44.08	63.65	-27.2	-29.0	17.7	0.00e+00	0	43	0	586153984	14	4455
2026-01-09 00:13:10.72	44.57	64.03	-27.5	-29.4	17.2	1.50e-06	0	43	0	587202560	15	4433
2026-01-09 00:13:11.73	45.09	64.42	-27.7	-29.8	17.0	0.00e+00	0	43	0	589299712	15	4561
2026-01-09 00:13:12.73	45.62	64.80	-28.2	-30.4	16.5	0.00e+00	0	43	0	591396864	16	4621
2026-01-09 00:13:13.74	46.18	65.19	-28.5	-30.7	16.1	4.50e-06	0	43	0	593494016	17	4591
2026-01-09 00:13:14.75	46.75	65.57	-28.8	-31.4	15.7	0.00e+00	0	43	0	595591168	17	4811
2026-01-09 00:13:15.75	47.33	65.95	-29.2	-31.6	15.3	2.11e-03	0	43	0	596639744	18	4784
2026-01-09 00:13:16.75	47.94	66.33	-29.5	-32.5	14.8	0.00e+00	0	43	0	598736896	18	5069
2026-01-09 00:13:17.76	48.58	66.72	-29.9	-33.1	14.0	0.00e+00	0	43	0	600834048	19	5195
2026-01-09 00:13:18.76	49.23	67.10	-30.1	-33.1	13.6	2.05e-03	0	43	0	602931200	20	5104
2026-01-09 00:13:19.77	49.91	67.48	-30.4	-34.1	13.0	9.30e-05	0	43	0	605028352	20	5477
2026-01-09 00:13:20.77	50.62	67.86	-30.6	-34.2	12.6	7.01e-05	0	43	0	606076928	21	5409
2026-01-09 00:13:21.78	51.35	68.23	-30.5	-33.6	12.9	1.80e-03	0	43	0	608174080	21	5189
2026-01-09 00:13:22.78	52.11	68.61	-30.4	-33.8	13.1	1.58e-03	0	43	0	610271232	20	5367
2026-01-09 00:13:23.79	52.90	68.98	-30.5	-34.1	13.0	2.13e-05	0	43	0	612368384	20	5473
2026-01-09 00:13:24.80	53.72	69.36	-30.7	-34.2	12.6	7.62e-04	0	43	0	614465536	21	5390
2026-01-09 00:13:25.80	54.57	69.72	-30.6	-34.0	12.7	7.33e-04	0	43	0	615514112	21	5315
2026-01-09 00:13:26.81	55.46	70.09	-30.6	-34.0	12.7	1.11e-04	0	43	0	617611264	21	5340
2026-01-09 00:13:27.82	56.39	70.46	-30.7	-34.3	12.6	1.98e-04	0	43	0	619708416	21	5444
2026-01-09 00:13:28.82	57.34	70.81	-30.6	-33.9	12.8	6.08e-04	0	43	0	621805568	21	5275
2026-01-09 00:13:29.83	58.34	71.17	-30.5	-33.8	12.9	1.13e-04	0	43	0	623902720	21	5239
2026-01-09 00:13:30.83	59.37	71.52	-30.8	-34.5	12.6	2.47e-04	0	43	0	624951296	21	5520
2026-01-09 00:13:31.84	60.45	71.87	-31.1	-35.1	11.8	2.22e-03	0	43	0	627048448	22	5671
2026-01-09 00:13:32.85	61.58	72.21	-31.2	-35.3	11.7	8.19e-04	0	43	0	629145600	22	5736
2026-01-09 00:13:33.86	62.76	72.55	-31.5	-35.7	10.9	3.37e-03	0	43	0	631242752	23	5829
2026-01-09 00:13:34.87	63.98	72.88	-31.3	-35.4	11.5	2.74e-03	0	43	0	633339904	22	5792
2026-01-09 00:13:35.87	65.24	73.20	-30.6	-33.6	12.8	2.29e-04	0	43	0	634388480	22	5032
2026-01-09 00:13:36.87	66.55	73.51	-30.4	-33.5	13.2	1.65e-03	0	43	0	636485632	21	5101
2026-01-09 00:13:37.88	67.92	73.82	-30.5	-33.8	13.0	2.89e-05	0	43	0	638582784	21	5216
2026-01-09 00:13:38.88	69.34	74.12	-30.2	-32.8	13.7	1.44e-05	0	43	0	640679936	21	4865
2026-01-09 00:13:39.89	70.83	74.41	-30.1	-33.2	13.7	1.66e-03	0	43	0	642777088	20	5096
2026-01-09 00:13:40.89	72.36	74.69	-30.0	-32.7	14.1	1.26e-03	0	43	0	643825664	20	4910
2026-01-09 00:13:41.90	73.97	74.96	-29.6	-31.6	14.8	1.50e-06	0	43	0	645922816	20	4563
2026-01-09 00:13:42.90	75.61	75.22	-29.6	-32.3	14.6	1.23e-04	0	43	0	648019968	19	4880
2026-01-09 00:13:43.91	77.34	75.47	-30.0	-32.9	13.9	1.29e-03	0	43	0	650117120	20	5009
2026-01-09 00:13:44.92	79.12	75.70	-30.3	-33.7	13.3	1.60e-05	0	43	0	652214272	20	5321
2026-01-09 00:13:45.93	80.97	75.92	-30.7	-34.2	12.8	1.63e-03	0	43	0	653262848	21	5386
2026-01-09 00:13:46.94	82.87	76.13	-30.6	-33.8	12.8	1.16e-03	0	43	0	655360000	21	5256
2026-01-09 00:13:47.95	84.83	76.33	-30.6	-33.8	12.9	5.72e-05	0	43	0	657457152	21	5229
2026-01-09 00:13:48.95	86.83	76.50	-30.9	-34.7	12.5	8.46e-05	0	43	0	659554304	21	5596
2026-01-09 00:13:49.96	88.90	76.66	-31.1	-35.0	12.0	1.79e-04	0	43	0	661651456	22	5603
2026-01-09 00:13:50.97	91.02	76.81	-31.4	-35.7	11.3	9.09e-04	0	43	0	662700032	22	5941
2026-01-09 00:13:51.97	93.16	76.93	-31.0	-34.7	12.2	4.69e-04	0	43	0	664797184	22	5471
2026-01-09 00:13:52.98	95.37	77.04	-30.8	-34.0	12.6	3.84e-04	0	43	0	666894336	22	5198
2026-01-09 00:13:53.98	97.59	77.13	-31.4	-35.8	11.3	3.91e-04	0	43	0	668991488	22	5989
2026-01-09 00:13:54.99	99.85	77.20	-31.3	-35.5	11.6	8.47e-04	0	43	0	671088640	22	5828
2026-01-09 00:13:56.00	102.15	77.25	-31.6	-35.9	10.8	2.70e-03	0	43	0	672137216	23	5893
2026-01-09 00:13:57.00	104.43	77.28	-31.3	-34.9	11.6	1.21e-03	0	43	0	674234368	23	5462
2026-01-09 00:13:58.00	106.72	77.30	-31.3	-35.6	11.5	1.54e-03	0	43	0	676331520	22	5873
2026-01-09 00:13:59.00	109.01	77.29	-31.5	-35.4	11.2	1.43e-03	0	43	0	678428672	23	5693
2026-01-09 00:14:00.01	111.32	77.26	-31.6	-35.9	10.8	1.89e-03	0	43	0	680525824	23	5932
2026-01-09 00:14:01.02	113.61	77.21	-31.6	-36.0	10.8	2.75e-03	0	43	0	681574400	23	5928
2026-01-09 00:14:02.02	115.86	77.14	-31.8	-36.7	10.4	3.56e-03	0	43	0	683671552	23	6279
2026-01-09 00:14:03.03	118.11	77.06	-31.9	-36.5	10.0	7.61e-03	0	43	0	685768704	24	6128
2026-01-09 00:14:04.03	120.30	76.95	-31.7	-35.8	10.6	4.89e-03	0	43	0	687865856	24	5751
2026-01-09 00:14:05.04	122.47	76.83	-31.5	-35.0	11.1	1.60e-03	0	43	0	689963008	24	5392
2026-01-09 00:14:06.04	124.57	76.69	-31.5	-35.1	11.2	1.06e-03	0	43	0	691011584	24	5434
2026-01-09 00:14:07.04	126.63	76.53	-31.5	-35.3	11.0	1.69e-03	0	43	0	693108736	24	5529
2026-01-09 00:14:08.04	128.64	76.35	-31.6	-35.4	10.9	2.12e-03	0	43	0	695205888	24	5572
2026-01-09 00:14:09.05	130.61	76.16	-31.5	-35.1	11.2	1.60e-03	0	43	0	697303040	24	5437
2026-01-09 00:14:10.06	132.52	75.96	-32.0	-36.7	9.9	3.28e-03	0	43	0	699400192	24	6230
2026-01-09 00:14:11.06	134.36	75.74	-32.4	-38.3	8.7	1.93e-02	0	43	0	700448768	24	7116
2026-01-09 00:14:12.07	136.16	75.51	-32.1	-37.1	9.7	2.06e-02	0	43	0	702545920	24	6442
2026-01-09 00:14:13.08	137.89	75.26	-32.0	-37.0	9.7	7.96e-03	0	43	0	704643072	24	6347
2026-01-09 00:14:14.09	139.57	75.00	-32.3	-37.9	9.0	1.80e-02	0	43	0	706740224	24	6843
2026-01-09 00:14:15.10	141.18	74.73	-32.2	-37.4	9.4	1.75e-02	0	43	0	708837376	24	6590
2026-01-09 00:14:16.09	142.71	74.45	-32.1	-37.1	9.5	1.79e-02	0	43	0	709885952	24	6449
2026-01-09 00:14:17.10	144.21	74.16	-31.8	-36.1	10.4	7.76e-03	0	43	0	711983104	24	5896
2026-01-09 00:14:18.10	145.63	73.87	-31.3	-34.9	11.6	9.62e-04	0	43	0	714080256	23	5474
2026-01-09 00:14:19.11	147.02	73.56	-31.4	-35.3	11.3	1.18e-03	0	43	0	716177408	23	5637
2026-01-09 00:14:20.12	148.35	73.24	-31.0	-34.5	12.3	7.99e-04	0	43	0	718274560	22	5388
2026-01-09 00:14:21.12	149.62	72.92	-30.5	-33.1	13.3	6.48e-05	0	43	0	719323136	22	4847
2026-01-09 00:14:22.12	150.84	72.60	-30.2	-32.9	13.7	7.17e-05	0	43	0	721420288	21	4874
2026-01-09 00:14:23.13	152.02	72.26	-30.1	-33.1	13.8	6.80e-06	0	43	0	723517440	20	5060
2026-01-09 00:14:24.13	153.15	71.92	-30.1	-32.9	14.0	9.90e-06	0	43	0	725614592	20	5008
2026-01-09 00:14:25.14	154.24	71.57	-30.0	-32.6	14.1	1.68e-04	0	43	0	727711744	20	4909
2026-01-09 00:14:26.15	155.29	71.22	-29.9	-32.5	14.2	7.00e-07	0	43	0	728760320	20	4847
2026-01-09 00:14:27.16	156.30	70.86	-29.6	-32.3	14.7	0.00e+00	0	43	0	730857472	19	4877
2026-01-09 00:14:28.17	157.27	70.50	-29.8	-32.8	14.4	5.29e-04	0	43	0	732954624	19	5067
2026-01-09 00:14:29.18	158.20	70.14	-30.2	-33.3	13.7	8.30e-06	0	43	0	735051776	20	5159
2026-01-09 00:14:30.18	159.08	69.77	-29.9	-32.6	14.1	3.80e-06	0	43	0	737148928	20	4882
2026-01-09 00:14:31.19	159.95	69.40	-29.9	-32.8	14.4	7.00e-07	0	43	0	738197504	19	5075
2026-01-09 00:14:32.20	160.77	69.03	-30.7	-34.1	12.8	1.06e-05	0	43	0	740294656	21	5345
2026-01-09 00:14:33.21	161.57	68.65	-31.0	-34.7	12.1	5.56e-04	0	43	0	742391808	22	5480
2026-01-09 00:14:34.22	162.34	68.28	-31.3	-35.4	11.6	2.75e-04	0	43	0	744488960	22	5786
2026-01-09 00:14:35.23	163.08	67.90	-31.7	-36.5	10.4	3.43e-03	0	43	0	746586112	23	6212
2026-01-09 00:14:36.23	163.79	67.52	-31.7	-36.4	10.4	6.82e-03	0	43	0	747634688	23	6174
2026-01-09 00:14:37.24	164.47	67.14	-31.1	-34.4	11.9	1.51e-03	0	43	0	749731840	23	5246
2026-01-09 00:14:38.24	165.13	66.76	-30.9	-33.7	12.4	1.35e-04	0	43	0	751828992	23	4967
2026-01-09 00:14:39.25	165.77	66.37	-30.8	-33.9	12.6	2.07e-04	0	43	0	753926144	22	5176
2026-01-09 00:14:40.26	166.39	65.99	-30.3	-32.7	13.4	5.64e-05	0	43	0	756023296	22	4707
2026-01-09 00:14:41.26	166.98	65.61	-30.4	-33.0	13.3	1.37e-05	0	43	0	757071872	22	4807
2026-01-09 00:14:42.26	167.55	65.22	-30.3	-32.6	13.4	2.51e-05	0	43	0	759169024	22	4683
2026-01-09 00:14:43.27	168.10	64.84	-29.3	-31.0	15.1	7.00e-07	0	43	0	761266176	20	4377
2026-01-09 00:14:44.27	168.64	64.45	-29.2	-31.2	15.3	0.00e+00	0	43	0	763363328	19	4516
2026-01-09 00:14:45.27	169.15	64.07	-29.3	-31.4	15.2	0.00e+00	0	43	0	765460480	19	4595
2026-01-09 00:14:46.27	169.65	63.69	-28.8	-30.3	15.8	0.00e+00	0	43	0	766509056	19	4265
2026-01-09 00:14:47.28	170.14	63.30	-28.4	-29.8	16.5	0.00e+00	0	43	0	768606208	18	4219
2026-01-09 00:14:48.29	170.61	62.92	-28.4	-30.2	16.5	0.00e+00	0	43	0	770703360	17	4436
2026-01-09 00:14:49.29	171.06	62.54	-29.3	-31.9	15.3	0.00e+00	0	43	0	772800512	18	4864
2026-01-09 00:14:50.30	171.50	62.15	-29.7	-32.5	14.6	7.00e-07	0	43	0	774897664	19	4953
2026-01-09 00:14:51.30	171.93	61.77	-30.3	-33.7	13.3	6.80e-06	0	43	0	775946240	20	5318
2026-01-09 00:14:52.31	172.35	61.39	-29.7	-32.0	14.4	1.50e-06	0	43	0	778043392	20	4677
2026-01-09 00:14:53.32	172.75	61.01	-29.3	-31.0	15.1	0.00e+00	0	43	0	780140544	20	4358
2026-01-09 00:14:54.32	173.14	60.63	-29.5	-32.0	14.8	0.00e+00	0	43	0	782237696	19	4801
2026-01-09 00:14:55.33	173.52	60.25	-30.5	-34.1	13.1	1.44e-05	0	43	0	783286272	20	5471
2026-01-09 00:14:56.34	173.89	59.87	-31.3	-35.7	11.3	2.26e-04	0	43	0	785383424	22	5936
2026-01-09 00:14:57.34	174.24	59.50	-31.4	-35.4	11.1	2.44e-03	0	43	0	787480576	23	5702
2026-01-09 00:14:58.35	174.59	59.12	-30.7	-33.6	12.7	1.85e-04	0	43	0	789577728	22	5050
2026-01-09 00:14:59.36	174.93	58.75	-30.6	-33.5	12.8	4.11e-05	0	43	0	791674880	22	5026
2026-01-09 00:15:00.37	175.26	58.38	-31.0	-34.6	12.1	1.23e-04	0	43	0	793772032	22	5441
2026-01-09 00:15:01.37	175.58	58.01	-31.4	-36.0	11.1	6.29e-04	0	43	0	794820608	22	6094
2026-01-09 00:15:02.38	175.89	57.64	-31.6	-35.9	10.7	2.83e-03	0	43	0	796917760	23	5958
2026-01-09 00:15:03.38	176.20	57.27	-31.1	-34.4	11.8	1.78e-03	0	43	0	799014912	23	5269
2026-01-09 00:15:04.38	176.49	56.91	-30.1	-32.7	13.6	7.78e-05	0	43	0	801112064	21	4815
2026-01-09 00:15:05.39	176.78	56.54	-29.2	-31.3	15.2	0.00e+00	0	43	0	802160640	19	4565
2026-01-09 00:15:06.39	177.06	56.18	-28.6	-30.2	16.2	0.00e+00	0	43	0	804257792	18	4319
2026-01-09 00:15:07.39	177.33	55.83	-28.7	-30.6	16.0	4.65e-05	0	43	0	806354944	18	4443
2026-01-09 00:15:08.40	177.60	55.47	-29.3	-32.1	15.1	0.00e+00	0	43	0	808452096	18	4931
2026-01-09 00:15:09.41	177.86	55.11	-29.5	-31.9	14.8	5.80e-04	0	43	0	810549248	19	4780
2026-01-09 00:15:10.42	178.11	54.75	-28.6	-30.3	16.0	7.06e-04	0	43	0	811597824	18	4381
2026-01-09 00:15:11.42	178.36	54.40	-28.4	-29.9	16.4	0.00e+00	0	43	0	813694976	18	4242
2026-01-09 00:15:12.43	178.60	54.05	-28.8	-31.1	15.8	5.13e-04	0	43	0	815792128	17	4736
2026-01-09 00:15:13.43	178.83	53.70	-29.0	-31.3	15.5	6.33e-04	0	43	0	817889280	18	4661
2026-01-09 00:15:14.44	179.06	53.35	-29.7	-32.6	14.4	0.00e+00	0	43	0	819986432	19	5001
2026-01-09 00:15:15.44	179.29	53.01	-29.8	-32.9	14.2	3.68e-04	0	43	0	822083584	19	5124
2026-01-09 00:15:16.45	179.51	52.66	-30.3	-33.7	13.3	3.05e-04	0	43	0	823132160	20	5325
2026-01-09 00:15:17.46	179.72	52.32	-30.7	-34.2	12.5	2.13e-05	0	43	0	825229312	21	5436
2026-01-09 00:15:18.47	179.93	51.98	-31.2	-35.2	11.5	4.15e-04	0	43	0	827326464	22	5737
2026-01-09 00:15:19.47	180.14	51.65	-31.5	-36.3	10.8	1.38e-03	0	43	0	829423616	22	6235
2026-01-09 00:15:20.47	180.34	51.31	-31.9	-37.3	9.6	6.29e-03	0	43	0	830472192	23	6693
2026-01-09 00:15:21.47	180.53	50.98	-32.2	-38.0	8.6	2.43e-02	0	43	0	832569344	24	7037
2026-01-09 00:15:22.48	180.73	50.65	-32.6	-39.5	7.1	1.10e-01	0	43	0	834666496	25	7946
2026-01-09 00:15:23.48	180.91	50.32	-32.9	-41.1	5.9	2.66e-01	0	43	0	836763648	25	9285
2026-01-09 00:15:24.49	181.10	49.99	-32.7	-40.1	6.7	3.12e-01	0	43	0	838860800	25	8372
2026-01-09 00:15:25.49	181.28	49.67	-32.4	-38.4	8.0	8.36e-02	0	43	0	839909376	25	7184
2026-01-09 00:15:26.49	181.45	49.35	-32.3	-38.1	8.2	6.13e-02	0	43	0	842006528	25	6954
2026-01-09 00:15:27.50	181.63	49.02	-32.4	-39.0	7.9	6.25e-02	0	43	0	844103680	24	7665
2026-01-09 00:15:28.50	181.80	48.71	-32.2	-38.0	8.5	5.64e-02	0	43	0	846200832	24	7044
2026-01-09 00:15:29.51	181.96	48.39	-31.8	-36.6	9.8	1.78e-02	0	43	0	848297984	24	6198
2026-01-09 00:15:30.51	182.13	48.07	-31.6	-36.3	10.3	6.94e-03	0	43	0	849346560	23	6165
2026-01-09 00:15:31.52	182.29	47.76	-31.4	-35.5	10.9	5.95e-03	0	43	0	851443712	23	5769
2026-01-09 00:15:32.53	182.44	47.45	-31.5	-36.0	10.5	3.24e-03	0	43	0	853540864	23	6008
2026-01-09 00:15:33.54	182.60	47.14	-31.8	-37.0	9.9	6.49e-03	0	43	0	855638016	23	6531
2026-01-09 00:15:34.54	182.75	46.83	-31.9	-36.7	9.6	1.73e-02	0	43	0	857735168	24	6253
2026-01-09 00:15:35.55	182.90	46.53	-31.3	-34.9	10.9	4.25e-03	0	43	0	858783744	24	5395
2026-01-09 00:15:36.55	183.04	46.23	-30.6	-33.7	12.4	4.56e-04	0	43	0	860880896	22	5113
2026-01-09 00:15:37.55	183.18	45.93	-30.0	-32.3	13.7	6.51e-04	0	43	0	862978048	21	4718
2026-01-09 00:15:38.56	183.32	45.63	-29.6	-31.8	14.4	3.00e-06	0	43	0	865075200	20	4647
2026-01-09 00:15:39.57	183.46	45.33	-29.2	-31.3	15.1	0.00e+00	0	43	0	867172352	19	4580
2026-01-09 00:15:40.57	183.59	45.04	-29.4	-31.7	14.8	0.00e+00	0	43	0	868220928	19	4697
2026-01-09 00:15:41.58	183.73	44.74	-29.5	-32.0	14.7	1.83e-05	0	43	0	870318080	19	4797
2026-01-09 00:15:42.58	183.86	44.45	-29.6	-32.1	14.5	0.00e+00	0	43	0	872415232	19	4854
2026-01-09 00:15:43.59	183.99	44.16	-29.8	-32.8	14.2	7.00e-07	0	43	0	874512384	19	5086
2026-01-09 00:15:44.58	184.11	43.88	-30.0	-33.0	13.7	3.80e-06	0	43	0	876609536	20	5046
2026-01-09 00:15:45.58	184.23	43.60	-30.2	-33.5	13.3	9.46e-05	0	43	0	877658112	20	5238
2026-01-09 00:15:46.59	184.35	43.31	-30.4	-34.1	12.9	2.36e-05	0	43	0	879755264	20	5508
2026-01-09 00:15:47.60	184.47	43.03	-30.4	-33.6	12.9	7.09e-05	0	43	0	881852416	21	5175
2026-01-09 00:15:48.60	184.59	42.75	-30.0	-32.9	13.7	9.91e-05	0	43	0	883949568	20	5039
2026-01-09 00:15:49.60	184.70	42.48	-29.4	-31.4	14.6	7.00e-07	0	43	0	886046720	20	4524
2026-01-09 00:15:50.61	184.82	42.20	-29.2	-31.4	15.0	7.00e-07	0	43	0	887095296	19	4600
2026-01-09 00:15:51.61	184.93	41.93	-29.2	-31.2	15.1	4.73e-05	0	43	0	889192448	19	4539
2026-01-09 00:15:52.61	185.04	41.66	-29.1	-31.5	15.2	0.00e+00	0	43	0	891289600	18	4729
2026-01-09 00:15:53.62	185.15	41.39	-29.6	-32.4	14.4	0.00e+00	0	43	0	893386752	19	4935
2026-01-09 00:15:54.62	185.25	41.12	-29.9	-33.1	13.9	2.20e-06	0	43	0	895483904	19	5218
2026-01-09 00:15:55.63	185.36	40.86	-30.4	-34.2	12.9	1.44e-05	0	43	0	896532480	20	5526
2026-01-09 00:15:56.64	185.46	40.59	-30.6	-34.2	12.4	2.64e-04	0	43	0	898629632	21	5422
2026-01-09 00:15:57.65	185.56	40.33	-30.9	-35.1	11.8	1.33e-04	0	43	0	900726784	21	5809
2026-01-09 00:15:58.65	185.66	40.07	-30.8	-34.1	12.2	3.50e-04	0	43	0	902823936	22	5260
2026-01-09 00:15:59.66	185.76	39.81	-30.7	-33.7	12.5	2.70e-04	0	43	0	904921088	22	5139
2026-01-09 00:16:00.67	185.86	39.55	-30.5	-33.9	12.6	1.39e-04	0	43	0	905969664	21	5294
2026-01-09 00:16:01.68	185.95	39.30	-30.2	-33.0	13.2	4.73e-05	0	43	0	908066816	21	4965
2026-01-09 00:16:02.68	186.05	39.04	-30.2	-33.4	13.3	2.41e-04	0	43	0	910163968	20	5199
2026-01-09 00:16:03.69	186.14	38.79	-30.3	-33.8	13.1	3.05e-04	0	43	0	912261120	20	5383
2026-01-09 00:16:04.69	186.23	38.54	-30.3	-33.8	13.0	4.34e-05	0	43	0	914358272	20	5382
2026-01-09 00:16:05.70	186.32	38.29	-30.4	-34.2	12.8	3.85e-04	0	43	0	915406848	20	5526
2026-01-09 00:16:06.70	186.41	38.05	-30.9	-35.2	11.8	5.62e-04	0	43	0	917504000	21	5863
2026-01-09 00:16:07.71	186.50	37.80	-31.1	-35.1	11.4	9.08e-04	0	43	0	919601152	22	5724
2026-01-09 00:16:08.72	186.58	37.56	-31.3	-35.9	10.8	2.49e-03	0	43	0	921698304	22	6123
2026-01-09 00:16:09.73	186.67	37.32	-31.7	-36.6	9.9	7.41e-03	0	43	0	923795456	23	6352
2026-01-09 00:16:10.73	186.75	37.08	-31.8	-37.3	9.4	1.02e-02	0	43	0	924844032	23	6771
2026-01-09 00:16:11.74	186.84	36.84	-31.9	-37.4	9.3	2.22e-02	0	43	0	926941184	23	6800
2026-01-09 00:16:12.74	186.92	36.61	-31.8	-37.1	9.5	1.53e-02	0	43	0	929038336	23	6618
2026-01-09 00:16:13.75	187.00	36.37	-31.7	-36.7	9.8	1.22e-02	0	43	0	931135488	23	6412
2026-01-09 00:16:14.76	187.08	36.14	-31.6	-36.5	10.0	9.78e-03	0	43	0	933232640	23	6314
2026-01-09 00:16:15.76	187.15	35.91	-31.9	-37.3	9.3	1.51e-02	0	43	0	934281216	23	6756
2026-01-09 00:16:16.77	187.23	35.68	-31.8	-37.0	9.6	2.19e-02	0	43	0	936378368	23	6562
2026-01-09 00:16:17.77	187.31	35.45	-31.6	-36.5	9.9	1.08e-02	0	43	0	938475520	23	6305
2026-01-09 00:16:18.77	187.38	35.23	-31.3	-35.5	10.7	4.71e-03	0	43	0	940572672	23	5785
2026-01-09 00:16:19.78	187.46	35.00	-31.2	-35.0	11.1	1.74e-03	0	43	0	942669824	23	5571
2026-01-09 00:16:20.79	187.53	34.78	-31.1	-35.2	11.3	1.84e-03	0	43	0	943718400	22	5784
2026-01-09 00:16:21.79	187.60	34.56	-31.3	-35.8	10.9	2.01e-03	0	43	0	945815552	22	6051
2026-01-09 00:16:22.80	187.67	34.34	-31.3	-36.0	10.7	3.20e-03	0	43	0	947912704	22	6184
2026-01-09 00:16:23.81	187.74	34.12	-31.7	-36.8	9.7	7.17e-03	0	43	0	950009856	23	6477
2026-01-09 00:16:24.82	187.81	33.90	-31.9	-37.5	9.1	1.76e-02	0	43	0	952107008	23	6895
2026-01-09 00:16:25.82	187.88	33.68	-32.2	-38.4	8.1	3.89e-02	0	43	0	953155584	24	7361
2026-01-09 00:16:26.83	187.95	33.47	-32.2	-38.6	7.9	7.80e-02	0	43	0	955252736	24	7507
2026-01-09 00:16:27.83	188.02	33.26	-32.3	-39.2	7.5	8.25e-02	0	43	0	957349888	24	7921
2026-01-09 00:16:28.83	188.08	33.05	-32.3	-39.2	7.4	1.09e-01	0	43	0	959447040	24	7944
2026-01-09 00:16:29.84	188.15	32.84	-32.2	-38.6	7.9	9.07e-02	0	43	0	960495616	24	7476
2026-01-09 00:16:30.85	188.21	32.63	-32.1	-38.2	8.2	6.84e-02	0	43	0	962592768	24	7207
2026-01-09 00:16:31.85	188.28	32.42	-32.1	-38.1	8.3	4.90e-02	0	43	0	964689920	24	7142
2026-01-09 00:16:32.85	188.34	32.22	-32.2	-38.2	8.2	5.16e-02	0	43	0	966787072	24	7257
2026-01-09 00:16:33.85	188.40	32.01	-32.1	-37.8	8.4	5.97e-02	0	43	0	968884224	24	6997
2026-01-09 00:16:34.85	188.46	31.81	-32.3	-38.9	7.7	5.03e-02	0	43	0	970981376	24	7686
2026-01-09 00:16:35.86	188.52	31.61	-32.2	-38.3	8.1	7.80e-02	0	43	0	972029952	24	7291
2026-01-09 00:16:36.87	188.58	31.41	-32.1	-37.9	8.4	5.88e-02	0	43	0	974127104	24	7004
2026-01-09 00:16:37.88	188.64	31.21	-31.9	-37.0	9.1	3.14e-02	0	43	0	976224256	24	6488
2026-01-09 00:16:38.88	188.70	31.01	-31.8	-37.1	9.4	1.76e-02	0	43	0	978321408	23	6628
2026-01-09 00:16:39.89	188.76	30.81	-31.8	-37.2	9.4	1.77e-02	0	43	0	979369984	23	6717
2026-01-09 00:16:40.90	188.82	30.62	-32.0	-37.9	8.8	2.26e-02	0	43	0	981467136	23	7135
2026-01-09 00:16:41.91	188.87	30.42	-32.0	-37.4	8.8	3.75e-02	0	43	0	983564288	24	6745
2026-01-09 00:16:42.91	188.93	30.23	-31.6	-36.7	9.7	2.08e-02	0	43	0	985661440	23	6450
2026-01-09 00:16:43.92	188.99	30.04	-31.2	-35.1	10.9	5.34e-03	0	43	0	987758592	23	5634
2026-01-09 00:16:44.92	189.04	29.85	-31.1	-35.4	11.0	4.28e-03	0	43	0	988807168	22	5884
2026-01-09 00:16:45.93	189.10	29.66	-31.1	-35.2	11.2	3.39e-03	0	43	0	990904320	22	5794
2026-01-09 00:16:46.93	189.15	29.47	-31.3	-36.0	10.6	2.21e-03	0	43	0	993001472	22	6183
2026-01-09 00:16:47.94	189.20	29.29	-31.3	-35.9	10.7	5.94e-03	0	43	0	995098624	22	6130
2026-01-09 00:16:48.95	189.25	29.10	-31.2	-35.7	10.8	5.09e-03	0	43	0	997195776	22	6036
2026-01-09 00:16:49.95	189.31	28.92	-31.5	-36.5	10.1	3.11e-03	0	43	0	999292928	22	6465
2026-01-09 00:16:50.96	189.36	28.74	-31.1	-35.5	10.9	7.14e-03	0	43	0	1000341504	22	5923
2026-01-09 00:16:51.96	189.41	28.55	-30.8	-35.0	11.7	8.69e-04	0	43	0	1002438656	21	5798
2026-01-09 00:16:52.97	189.46	28.37	-30.6	-34.5	12.0	3.30e-04	0	43	0	1004535808	21	5580
2026-01-09 00:16:53.97	189.51	28.20	-30.4	-33.8	12.4	2.34e-03	0	43	0	1006632960	21	5314
2026-01-09 00:16:54.98	189.56	28.02	-30.3	-33.5	12.6	1.11e-04	0	43	0	1007681536	21	5191
2026-01-09 00:16:55.99	189.61	27.84	-30.4	-33.7	12.5	9.46e-05	0	43	0	1009778688	21	5246
2026-01-09 00:16:56.99	189.66	27.66	-30.2	-33.8	12.7	2.51e-03	0	43	0	1011875840	20	5398
2026-01-09 00:16:58.00	189.70	27.49	-30.4	-34.3	12.5	2.41e-03	0	43	0	1013972992	20	5611
2026-01-09 00:16:59.00	189.75	27.32	-30.3	-34.0	12.4	9.91e-05	0	43	0	1016070144	20	5516
2026-01-09 00:17:00.01	189.80	27.14	-30.5	-34.1	12.0	2.51e-03	0	43	0	1017118720	21	5440
2026-01-09 00:17:01.01	189.84	26.97	-30.8	-34.8	11.7	2.48e-03	0	43	0	1019215872	21	5721
2026-01-09 00:17:02.02	189.89	26.80	-30.5	-34.1	12.2	3.07e-04	0	43	0	1021313024	21	5425
2026-01-09 00:17:03.03	189.94	26.63	-30.3	-33.8	12.7	1.15e-04	0	43	0	1023410176	20	5415
2026-01-09 00:17:04.04	189.98	26.46	-29.9	-32.9	13.3	2.43e-03	0	43	0	1025507328	20	5057
2026-01-09 00:17:05.04	190.03	26.29	-29.7	-32.8	13.8	2.71e-04	0	43	0	1026555904	19	5131
2026-01-09 00:17:06.04	190.07	26.13	-29.8	-32.9	13.7	4.50e-06	0	43	0	1028653056	19	5173
2026-01-09 00:17:07.05	190.11	25.96	-29.8	-32.9	13.8	1.87e-03	0	43	0	1030750208	19	5176
2026-01-09 00:17:08.04	190.16	25.80	-29.7	-32.9	13.8	2.18e-04	0	43	0	1032847360	19	5163
2026-01-09 00:17:09.05	190.20	25.64	-30.0	-33.5	13.3	2.31e-04	0	43	0	1034944512	19	5399
2026-01-09 00:17:10.06	190.24	25.47	-29.8	-33.1	13.5	1.29e-05	0	43	0	1035993088	19	5268
2026-01-09 00:17:11.06	190.28	25.31	-30.0	-33.1	13.1	2.35e-04	0	43	0	1038090240	20	5144
2026-01-09 00:17:12.07	190.33	25.15	-29.9	-33.4	13.4	3.24e-04	0	43	0	1040187392	19	5353
2026-01-09 00:17:13.08	190.37	24.99	-30.0	-33.0	13.2	1.60e-05	0	43	0	1042284544	20	5116
2026-01-09 00:17:14.08	190.41	24.83	-29.8	-33.1	13.6	1.22e-05	0	43	0	1044381696	19	5244
2026-01-09 00:17:15.09	190.45	24.68	-29.5	-32.2	14.1	3.13e-04	0	43	0	1045430272	19	4923
2026-01-09 00:17:16.09	190.49	24.52	-29.4	-32.5	14.3	3.80e-06	0	43	0	1047527424	18	5126
2026-01-09 00:17:17.10	190.53	24.36	-29.5	-32.3	14.1	2.20e-06	0	43	0	1049624576	19	4949
2026-01-09 00:17:18.10	190.57	24.21	-29.3	-31.6	14.5	2.11e-03	0	43	0	1051721728	19	4717
2026-01-09 00:17:19.11	190.61	24.05	-29.2	-32.0	14.6	0.00e+00	0	43	0	1053818880	18	4953
2026-01-09 00:17:20.11	190.65	23.90	-29.2	-31.9	14.6	0.00e+00	0	43	0	1054867456	18	4918
2026-01-09 00:17:21.12	190.69	23.75	-29.3	-32.1	14.5	0.00e+00	0	43	0	1056964608	18	4993
2026-01-09 00:17:22.12	190.72	23.60	-29.5	-32.2	14.1	7.00e-07	0	43	0	1059061760	19	4911
2026-01-09 00:17:23.13	190.76	23.45	-29.2	-31.4	14.6	1.61e-04	0	43	0	1061158912	19	4665
2026-01-09 00:17:24.14	190.80	23.30	-29.0	-31.4	14.9	0.00e+00	0	43	0	1063256064	18	4747
2026-01-09 00:17:25.14	190.84	23.15	-28.8	-31.5	15.1	7.00e-07	0	43	0	1064304640	17	4919
2026-01-09 00:17:26.15	190.87	23.00	-28.9	-31.7	15.0	1.06e-04	0	43	0	1066401792	17	4966
2026-01-09 00:17:27.16	190.91	22.85	-28.8	-31.5	15.1	3.96e-05	0	43	0	1068498944	17	4918
2026-01-09 00:17:28.17	190.95	22.71	-28.9	-31.7	15.0	0.00e+00	0	43	0	1070596096	17	4970
2026-01-09 00:17:29.18	190.98	22.56	-29.1	-31.6	14.8	6.10e-06	0	43	0	1072693248	18	4825
2026-01-09 00:17:30.18	191.02	22.42	-29.2	-32.1	14.5	0.00e+00	0	43	0	1073741824	18	4985
2026-01-09 00:17:31.18	191.05	22.27	-29.3	-32.2	14.4	7.00e-07	0	43	0	1075838976	18	5033
2026-01-09 00:17:32.19	191.09	22.13	-29.5	-32.7	14.1	3.80e-06	0	43	0	1077936128	18	5233
2026-01-09 00:17:33.19	191.12	21.99	-29.4	-31.9	14.1	0.00e+00	0	43	0	1080033280	19	4834
2026-01-09 00:17:34.20	191.16	21.85	-29.5	-32.3	14.0	7.00e-07	0	43	0	1082130432	19	4960
2026-01-09 00:17:35.20	191.19	21.71	-29.4	-32.1	14.1	3.80e-06	0	43	0	1083179008	19	4897
2026-01-09 00:17:36.21	191.22	21.57	-29.4	-32.5	14.2	7.00e-07	0	43	0	1085276160	18	5151
2026-01-09 00:17:37.21	191.26	21.43	-29.6	-32.5	13.9	1.50e-06	0	43	0	1087373312	19	5039
2026-01-09 00:17:38.22	191.29	21.29	-29.3	-31.9	14.3	3.80e-06	0	43	0	1089470464	19	4816
2026-01-09 00:17:39.22	191.32	21.15	-29.6	-32.5	13.9	3.00e-06	0	43	0	1091567616	19	5034
2026-01-09 00:17:40.22	191.36	21.01	-29.8	-33.1	13.4	1.06e-05	0	43	0	1092616192	19	5283
2026-01-09 00:17:41.22	191.39	20.88	-29.6	-32.6	13.8	1.14e-05	0	43	0	1094713344	19	5075
2026-01-09 00:17:42.23	191.42	20.74	-29.5	-32.4	13.9	3.55e-04	0	43	0	1096810496	19	5022
2026-01-09 00:17:43.24	191.45	20.61	-29.4	-32.1	14.1	3.00e-06	0	43	0	1098907648	19	4894
2026-01-09 00:17:44.24	191.49	20.47	-29.3	-32.2	14.3	5.30e-06	0	43	0	1101004800	18	5052
2026-01-09 00:17:45.24	191.52	20.34	-29.2	-32.1	14.4	6.84e-04	0	43	0	1102053376	18	4995
2026-01-09 00:17:46.24	191.55	20.21	-29.3	-32.2	14.3	0.00e+00	0	43	0	1104150528	18	5049
2026-01-09 00:17:47.24	191.58	20.08	-29.4	-32.6	14.1	2.44e-05	0	43	0	1106247680	18	5183
2026-01-09 00:17:48.25	191.61	19.95	-29.3	-32.2	14.4	3.80e-06	0	43	0	1108344832	18	5045
2026-01-09 00:17:49.25	191.64	19.82	-29.4	-32.6	14.1	1.53e-04	0	43	0	1110441984	18	5182
2026-01-09 00:17:50.26	191.67	19.69	-29.7	-32.8	13.6	1.29e-05	0	43	0	1111490560	19	5145
2026-01-09 00:17:51.26	191.70	19.56	-29.4	-32.1	14.1	2.20e-06	0	43	0	1113587712	19	4881
2026-01-09 00:17:52.26	191.73	19.43	-29.3	-32.3	14.3	1.57e-04	0	43	0	1115684864	18	5082
2026-01-09 00:17:53.27	191.76	19.30	-29.3	-32.4	14.2	1.67e-04	0	43	0	1117782016	18	5100
2026-01-09 00:17:54.27	191.79	19.18	-29.4	-32.6	14.1	2.36e-04	0	43	0	1118830592	18	5181
2026-01-09 00:17:55.28	191.82	19.05	-29.4	-32.5	14.1	1.69e-04	0	43	0	1120927744	18	5152
2026-01-09 00:17:56.28	191.85	18.92	-29.5	-32.7	14.0	3.31e-04	0	43	0	1123024896	18	5247
2026-01-09 00:17:57.29	191.88	18.80	-29.6	-32.7	13.7	5.10e-04	0	43	0	1125122048	19	5102
2026-01-09 00:17:58.30	191.91	18.67	-29.8	-33.0	13.4	1.22e-05	0	43	0	1127219200	19	5245
2026-01-09 00:17:59.30	191.93	18.55	-29.7	-32.7	13.6	2.58e-04	0	43	0	1129316352	19	5132
2026-01-09 00:18:00.30	191.96	18.43	-29.6	-32.6	13.7	6.70e-04	0	43	0	1130364928	19	5092
2026-01-09 00:18:01.31	191.99	18.30	-29.7	-32.8	13.6	9.10e-06	0	43	0	1132462080	19	5165
2026-01-09 00:18:02.31	192.02	18.18	-29.9	-33.4	13.2	2.00e-04	0	43	0	1134559232	19	5370
2026-01-09 00:18:03.32	192.05	18.06	-29.8	-33.2	13.3	2.26e-04	0	43	0	1136656384	19	5326
2026-01-09 00:18:04.33	192.07	17.94	-29.9	-33.4	13.2	3.12e-05	0	43	0	1137704960	19	5395
2026-01-09 00:18:05.33	192.10	17.82	-29.8	-33.2	13.3	3.20e-04	0	43	0	1139802112	19	5321
2026-01-09 00:18:06.34	192.13	17.70	-29.9	-33.4	13.2	3.00e-04	0	43	0	1141899264	19	5408
2026-01-09 00:18:07.34	192.15	17.58	-30.2	-33.8	12.5	2.06e-04	0	43	0	1143996416	20	5458
2026-01-09 00:18:08.35	192.18	17.46	-30.3	-34.1	12.3	5.80e-04	0	43	0	1146093568	20	5573
2026-01-09 00:18:09.36	192.21	17.34	-30.2	-33.9	12.3	5.17e-04	0	43	0	1147142144	20	5517
2026-01-09 00:18:10.36	192.23	17.22	-30.4	-34.3	12.1	3.73e-04	0	43	0	1149239296	20	5692
2026-01-09 00:18:11.37	192.26	17.11	-30.4	-34.5	12.0	7.33e-04	0	43	0	1151336448	20	5740
2026-01-09 00:18:12.38	192.29	16.99	-30.4	-34.5	12.0	6.25e-04	0	43	0	1153433600	20	5738
2026-01-09 00:18:13.38	192.31	16.87	-30.4	-34.5	11.9	5.35e-04	0	43	0	1155530752	20	5775
2026-01-09 00:18:14.39	192.34	16.76	-30.3	-34.0	12.3	6.06e-04	0	43	0	1156579328	20	5546
2026-01-09 00:18:15.39	192.36	16.64	-30.3	-34.0	12.3	7.06e-04	0	43	0	1158676480	20	5562
2026-01-09 00:18:16.40	192.39	16.53	-30.2	-33.8	12.4	2.78e-04	0	43	0	1160773632	20	5468
2026-01-09 00:18:17.40	192.41	16.42	-30.3	-34.1	12.2	7.35e-04	0	43	0	1162870784	20	5610
2026-01-09 00:18:18.41	192.44	16.30	-30.2	-33.8	12.4	1.58e-04	0	43	0	1164967936	20	5450
2026-01-09 00:18:19.41	192.46	16.19	-30.2	-33.8	12.4	2.96e-04	0	43	0	1166016512	20	5462
2026-01-09 00:18:20.43	192.49	16.08	-30.2	-33.8	12.4	9.80e-04	0	43	0	1168113664	20	5484
2026-01-09 00:18:21.43	192.51	15.96	-30.1	-33.7	12.4	1.10e-03	0	43	0	1170210816	20	5429
2026-01-09 00:18:22.44	192.54	15.85	-29.9	-33.6	13.0	1.73e-04	0	43	0	1172307968	19	5501
2026-01-09 00:18:23.44	192.56	15.74	-29.9	-33.2	12.6	1.04e-03	0	43	0	1174405120	20	5287
2026-01-09 00:18:24.44	192.58	15.63	-29.9	-33.1	12.8	8.35e-04	0	43	0	1175453696	20	5209
2026-01-09 00:18:25.45	192.61	15.52	-30.1	-33.6	12.3	1.23e-04	0	43	0	1177550848	20	5411
2026-01-09 00:18:26.46	192.63	15.41	-30.2	-33.8	12.1	1.05e-03	0	43	0	1179648000	20	5475
2026-01-09 00:18:27.46	192.66	15.31	-30.2	-33.9	12.3	1.15e-03	0	43	0	1181745152	20	5523
2026-01-09 00:18:28.46	192.68	15.20	-30.0	-33.7	12.7	4.29e-04	0	43	0	1183842304	19	5539
2026-01-09 00:18:29.47	192.70	15.09	-29.7	-32.9	13.3	1.67e-05	0	43	0	1184890880	19	5218
2026-01-09 00:18:30.48	192.73	14.98	-29.7	-32.9	13.4	5.23e-04	0	43	0	1186988032	19	5199
2026-01-09 00:18:31.48	192.75	14.88	-29.7	-32.9	13.3	2.89e-05	0	43	0	1189085184	19	5212
2026-01-09 00:18:32.49	192.77	14.77	-29.7	-32.9	13.4	1.06e-05	0	43	0	1191182336	19	5218
2026-01-09 00:18:33.50	192.79	14.66	-29.7	-33.0	13.3	4.03e-04	0	43	0	1193279488	19	5249
2026-01-09 00:18:34.50	192.82	14.56	-29.8	-33.3	13.1	4.65e-05	0	43	0	1194328064	19	5358
2026-01-09 00:18:35.51	192.84	14.45	-29.9	-33.5	13.0	4.06e-04	0	43	0	1196425216	19	5440
2026-01-09 00:18:36.51	192.86	14.35	-29.8	-33.3	13.1	3.12e-05	0	43	0	1198522368	19	5372
2026-01-09 00:18:37.52	192.88	14.24	-29.9	-33.6	12.9	1.44e-04	0	43	0	1200619520	19	5486
2026-01-09 00:18:38.52	192.91	14.14	-29.9	-33.5	12.9	4.28e-04	0	43	0	1202716672	19	5461
2026-01-09 00:18:39.53	192.93	14.04	-29.9	-33.1	12.8	7.40e-05	0	43	0	1203765248	20	5188
2026-01-09 00:18:40.54	192.95	13.93	-29.8	-32.8	12.9	1.56e-04	0	43	0	1205862400	20	5100
2026-01-09 00:18:41.54	192.97	13.83	-29.8	-33.4	13.0	2.43e-04	0	43	0	1207959552	19	5403
2026-01-09 00:18:42.55	192.99	13.73	-29.9	-33.6	12.8	6.17e-05	0	43	0	1210056704	19	5507
2026-01-09 00:18:43.56	193.01	13.63	-29.9	-33.6	12.8	4.88e-05	0	43	0	1212153856	19	5509
2026-01-09 00:18:44.56	193.04	13.53	-30.0	-33.3	12.6	2.85e-04	0	43	0	1213202432	20	5299
2026-01-09 00:18:45.57	193.06	13.43	-30.0	-33.3	12.6	1.02e-04	0	43	0	1215299584	20	5304
2026-01-09 00:18:46.58	193.08	13.32	-30.0	-33.4	12.5	4.31e-04	0	43	0	1217396736	20	5310
2026-01-09 00:18:47.59	193.10	13.22	-30.0	-33.7	12.7	8.54e-05	0	43	0	1219493888	19	5554
2026-01-09 00:18:48.60	193.12	13.12	-30.0	-33.7	12.7	8.46e-05	0	43	0	1221591040	19	5565
2026-01-09 00:18:49.60	193.14	13.03	-30.0	-33.8	12.7	4.10e-04	0	43	0	1222639616	19	5570
2026-01-09 00:18:50.60	193.16	12.93	-30.1	-33.7	12.3	5.23e-04	0	43	0	1224736768	20	5460
2026-01-09 00:18:51.61	193.18	12.83	-30.1	-33.8	12.2	8.85e-04	0	43	0	1226833920	20	5495
2026-01-09 00:18:52.61	193.20	12.73	-30.0	-33.5	12.5	3.81e-04	0	43	0	1228931072	20	5362
2026-01-09 00:18:53.62	193.22	12.63	-30.1	-33.8	12.2	4.20e-04	0	43	0	1231028224	20	5503
2026-01-09 00:18:54.62	193.24	12.54	-30.1	-33.6	12.3	2.04e-04	0	43	0	1232076800	20	5437
2026-01-09 00:18:55.62	193.26	12.44	-30.0	-33.8	12.7	4.61e-04	0	43	0	1234173952	19	5598
2026-01-09 00:18:56.63	193.28	12.34	-30.0	-33.4	12.5	6.18e-04	0	43	0	1236271104	20	5312
2026-01-09 00:18:57.63	193.30	12.25	-30.0	-33.5	12.4	1.18e-04	0	43	0	1238368256	20	5387
2026-01-09 00:18:58.64	193.32	12.15	-30.0	-33.5	12.4	4.48e-04	0	43	0	1240465408	20	5371
2026-01-09 00:18:59.65	193.34	12.06	-30.0	-33.6	12.3	3.15e-04	0	43	0	1241513984	20	5408
2026-01-09 00:19:00.65	193.36	11.96	-30.1	-33.6	12.3	1.79e-04	0	43	0	1243611136	20	5427
2026-01-09 00:19:01.65	193.38	11.87	-30.1	-33.7	12.2	5.90e-04	0	43	0	1245708288	20	5447
2026-01-09 00:19:02.66	193.40	11.77	-30.1	-33.9	12.1	6.64e-04	0	43	0	1247805440	20	5531
2026-01-09 00:19:03.66	193.42	11.68	-30.2	-34.0	12.0	3.54e-04	0	43	0	1249902592	20	5595
2026-01-09 00:19:04.67	193.44	11.59	-30.2	-34.2	11.9	9.71e-04	0	43	0	1250951168	20	5681
2026-01-09 00:19:05.68	193.45	11.49	-30.2	-34.0	12.0	8.90e-04	0	43	0	1253048320	20	5605
2026-01-09 00:19:06.68	193.47	11.40	-30.1	-33.8	12.2	2.27e-04	0	43	0	1255145472	20	5513
2026-01-09 00:19:07.69	193.49	11.31	-30.1	-33.8	12.1	3.84e-04	0	43	0	1257242624	20	5528
2026-01-09 00:19:08.70	193.51	11.22	-30.1	-33.8	11.9	1.71e-04	0	43	0	1259339776	20	5508
2026-01-09 00:19:09.70	193.53	11.13	-30.2	-34.1	11.9	3.27e-04	0	43	0	1260388352	20	5645
2026-01-09 00:19:10.71	193.55	11.03	-30.2	-34.0	11.9	7.56e-04	0	43	0	1262485504	20	5611
2026-01-09 00:19:11.71	193.57	10.94	-30.1	-33.9	12.0	4.75e-04	0	43	0	1264582656	20	5549
2026-01-09 00:19:12.71	193.58	10.85	-30.0	-33.6	12.2	2.33e-04	0	43	0	1266679808	20	5419
2026-01-09 00:19:13.71	193.60	10.76	-30.1	-33.7	12.1	2.85e-04	0	43	0	1268776960	20	5480
2026-01-09 00:19:14.71	193.62	10.67	-30.0	-33.6	12.2	3.88e-04	0	43	0	1269825536	20	5438
2026-01-09 00:19:15.72	193.64	10.58	-30.1	-33.8	12.1	2.43e-04	0	43	0	1271922688	20	5501
2026-01-09 00:19:16.73	193.66	10.49	-30.1	-33.7	12.1	3.47e-04	0	43	0	1274019840	20	5492
2026-01-09 00:19:17.73	193.67	10.41	-30.1	-33.8	12.0	2.84e-04	0	43	0	1276116992	20	5534
2026-01-09 00:19:18.74	193.69	10.32	-30.1	-33.8	12.0	3.35e-04	0	43	0	1277165568	20	5537
2026-01-09 00:19:19.75	193.71	10.23	-30.3	-34.5	11.5	5.07e-04	0	43	0	1279262720	20	5819
2026-01-09 00:19:20.75	193.73	10.14	-30.3	-34.4	11.6	6.86e-04	0	43	0	1281359872	20	5799
2026-01-09 00:19:21.76	193.74	10.05	-30.2	-34.2	11.7	7.38e-04	0	43	0	1283457024	20	5682
2026-01-09 00:19:22.76	193.76	9.97	-30.2	-34.2	11.8	2.16e-03	0	43	0	1285554176	20	5683
2026-01-09 00:19:23.76	193.78	9.88	-30.2	-34.3	11.6	7.44e-04	0	43	0	1287651328	20	5766
2026-01-09 00:19:24.77	193.80	9.79	-30.1	-34.0	11.8	6.44e-04	0	43	0	1288699904	20	5624
2026-01-09 00:19:25.78	193.81	9.70	-30.2	-34.2	11.6	2.35e-03	0	43	0	1290797056	20	5728
