passes_logs/2026/01/09/R2M6_AANII_01/R2M6_AANII_01__20260109_012737_SUOMI_NPP_rec.log

#Pass ID: 20260109_012737_SUOMI NPP
#Satellite: SUOMI NPP
#Configuration: NPP
#almurnet v.1.7.20240730
#Start time: 2026-01-09 01:27:39

#Version: 2.2.20231116
#Station: R2M6_AANII_01
#Location: 30.233357 lon 59.946436 lat
#TLE: 1 37849U 11061A   26008.05542337  .00000108  00000+0  71976-4 0  9997
#TLE: 2 37849  98.7805 310.1641 0002540  75.6410 284.5048 14.19523335735721

#Time	Az	El	Level	Level2	SNR	BER	BlckErr	Temp	State	Recorded	gain1	gain2
2026-01-09 01:27:39.70	13.39	7.14	-31.8	-38.1	4.6	1.38e+00	0	41	0	0	23	7419
2026-01-09 01:27:40.70	13.34	7.22	-31.9	-38.4	4.5	1.38e+00	0	41	104	0	23	7621
2026-01-09 01:27:41.71	13.29	7.29	-31.8	-37.9	6.2	3.72e-01	0	41	0	0	23	7223
2026-01-09 01:27:42.71	13.24	7.36	-31.8	-37.6	6.5	2.25e-01	0	41	0	1048576	23	7023
2026-01-09 01:27:43.71	13.19	7.44	-31.8	-37.4	6.7	1.95e-01	0	41	0	3145728	23	6882
2026-01-09 01:27:44.72	13.13	7.51	-31.7	-37.1	6.9	1.81e-01	0	41	0	5242880	23	6673
2026-01-09 01:27:45.72	13.08	7.59	-31.6	-36.6	7.3	1.29e-01	0	41	0	7340032	23	6364
2026-01-09 01:27:46.73	13.03	7.66	-31.6	-36.5	7.4	1.19e-01	0	41	0	9437184	23	6327
2026-01-09 01:27:47.73	12.97	7.74	-31.7	-36.8	7.3	1.37e-01	0	41	0	10485760	23	6472
2026-01-09 01:27:48.74	12.92	7.81	-31.9	-37.6	6.6	1.52e-01	0	41	0	12582912	23	6995
2026-01-09 01:27:49.75	12.87	7.89	-31.7	-37.0	7.1	1.93e-01	0	41	0	14680064	23	6606
2026-01-09 01:27:50.75	12.81	7.96	-31.5	-36.1	7.8	1.17e-01	0	41	0	16777216	23	6053
2026-01-09 01:27:51.76	12.76	8.04	-31.3	-35.6	8.5	6.14e-02	0	41	0	18874368	22	5887
2026-01-09 01:27:52.76	12.70	8.12	-31.1	-34.6	9.3	2.15e-02	0	41	0	19922944	22	5426
2026-01-09 01:27:53.77	12.65	8.19	-30.7	-33.7	10.4	1.14e-02	0	41	0	22020096	21	5108
2026-01-09 01:27:54.78	12.59	8.27	-30.6	-33.6	10.5	8.81e-03	0	41	0	24117248	21	5044
2026-01-09 01:27:55.79	12.54	8.35	-30.4	-33.2	11.2	1.75e-03	0	41	0	26214400	20	4977
2026-01-09 01:27:56.80	12.48	8.43	-30.3	-32.9	11.4	2.15e-03	0	41	0	28311552	20	4861
2026-01-09 01:27:57.81	12.42	8.50	-30.4	-33.2	11.1	4.45e-03	0	41	0	29360128	20	4980
2026-01-09 01:27:58.82	12.37	8.58	-30.5	-33.4	11.0	1.69e-03	0	41	0	31457280	20	5079
2026-01-09 01:27:59.82	12.31	8.66	-30.6	-33.3	10.8	1.52e-03	0	41	0	33554432	21	4925
2026-01-09 01:28:00.82	12.25	8.74	-30.7	-33.6	10.6	5.21e-03	0	41	0	35651584	21	5042
2026-01-09 01:28:01.82	12.20	8.81	-30.6	-33.2	10.9	4.14e-03	0	41	0	37748736	21	4890
2026-01-09 01:28:02.82	12.14	8.89	-30.2	-32.1	11.7	1.78e-03	0	41	0	38797312	21	4467
2026-01-09 01:28:03.82	12.08	8.97	-30.3	-33.1	11.3	1.42e-03	0	41	0	40894464	20	4924
2026-01-09 01:28:04.83	12.02	9.05	-30.2	-32.6	11.6	1.46e-03	0	41	0	42991616	20	4744
2026-01-09 01:28:05.84	11.96	9.13	-30.4	-33.2	11.3	8.32e-04	0	41	0	45088768	20	4956
2026-01-09 01:28:06.56	11.92	9.18	-30.3	-32.8	11.5	1.14e-03	0	41	0	47185920	20	4812
2026-01-09 01:28:07.85	11.84	9.29	-30.2	-32.7	11.0	1.12e-03	0	41	0	49283072	20	4786
2026-01-09 01:28:08.57	11.80	9.34	-30.2	-32.6	11.6	6.69e-04	0	41	0	50331648	20	4759
2026-01-09 01:28:09.86	11.72	9.45	-30.3	-33.0	11.4	7.61e-04	0	41	0	52428800	20	4900
2026-01-09 01:28:10.58	11.68	9.50	-30.2	-32.5	11.7	8.92e-04	0	41	0	54525952	20	4703
2026-01-09 01:28:11.87	11.60	9.61	-30.3	-32.9	11.5	7.93e-04	0	41	0	56623104	20	4854
2026-01-09 01:28:12.59	11.56	9.66	-30.2	-32.6	11.7	6.27e-04	0	41	0	57671680	20	4763
2026-01-09 01:28:13.88	11.48	9.77	-30.0	-32.0	12.1	3.32e-03	0	41	0	60817408	20	4537
2026-01-09 01:28:14.60	11.43	9.82	-30.1	-32.4	11.8	3.29e-04	0	41	0	61865984	20	4660
2026-01-09 01:28:15.89	11.35	9.93	-30.1	-32.2	12.0	4.20e-04	0	41	0	63963136	20	4589
2026-01-09 01:28:16.61	11.31	9.99	-30.3	-32.8	11.6	4.23e-04	0	42	0	66060288	20	4818
2026-01-09 01:28:17.90	11.23	10.09	-30.4	-33.1	11.5	1.28e-03	0	42	0	68157440	20	4903
2026-01-09 01:28:18.62	11.18	10.15	-30.1	-32.4	11.9	5.03e-04	0	41	0	69206016	20	4652
2026-01-09 01:28:19.92	11.10	10.26	-30.0	-32.0	12.1	4.87e-04	0	42	0	71303168	20	4526
2026-01-09 01:28:20.64	11.05	10.32	-30.1	-32.3	12.0	3.11e-04	0	42	0	73400320	20	4633
2026-01-09 01:28:21.93	10.97	10.42	-30.3	-32.8	11.6	5.97e-04	0	41	0	75497472	20	4793
2026-01-09 01:28:22.65	10.92	10.48	-30.2	-32.5	11.9	4.85e-04	0	42	0	76546048	20	4685
2026-01-09 01:28:23.95	10.84	10.59	-30.0	-32.3	12.4	2.83e-03	0	42	0	79691776	19	4718
2026-01-09 01:28:24.67	10.79	10.65	-30.0	-31.8	12.3	1.09e-04	0	42	0	80740352	20	4454
2026-01-09 01:28:25.96	10.70	10.75	-30.0	-31.9	12.2	3.32e-04	0	42	0	82837504	20	4500
2026-01-09 01:28:26.68	10.66	10.81	-29.9	-31.7	12.4	1.39e-04	0	42	0	84934656	20	4433
2026-01-09 01:28:27.97	10.57	10.92	-30.2	-32.4	12.0	7.16e-04	0	42	0	87031808	20	4661
2026-01-09 01:28:28.70	10.52	10.98	-29.9	-31.9	12.3	5.13e-04	0	42	0	88080384	20	4491
2026-01-09 01:28:29.99	10.43	11.09	-29.9	-32.1	12.6	2.78e-03	0	42	0	90177536	19	4625
2026-01-09 01:28:30.70	10.38	11.15	-29.9	-32.1	12.5	9.61e-05	0	42	0	92274688	19	4618
2026-01-09 01:28:32.00	10.30	11.26	-30.0	-32.3	12.5	3.08e-03	0	42	0	94371840	19	4709
2026-01-09 01:28:32.71	10.25	11.32	-30.0	-31.8	12.4	4.10e-04	0	42	0	95420416	20	4452
2026-01-09 01:28:34.01	10.16	11.43	-29.8	-31.4	12.6	3.28e-04	0	42	0	98566144	20	4334
2026-01-09 01:28:34.73	10.11	11.49	-30.0	-32.4	12.4	1.27e-04	0	42	0	99614720	19	4732
2026-01-09 01:28:36.02	10.02	11.60	-29.9	-31.5	12.5	2.68e-03	0	42	0	101711872	20	4367
2026-01-09 01:28:36.74	9.96	11.67	-29.9	-31.5	12.5	1.07e-04	0	42	0	102760448	20	4359
2026-01-09 01:28:38.02	9.87	11.78	-29.9	-31.5	12.5	2.63e-03	0	42	0	105906176	20	4367
2026-01-09 01:28:38.75	9.82	11.84	-29.9	-31.6	12.4	2.89e-03	0	42	0	106954752	20	4403
2026-01-09 01:28:40.04	9.73	11.95	-30.0	-31.8	12.4	2.97e-04	0	42	0	109051904	20	4442
2026-01-09 01:28:40.76	9.68	12.01	-30.0	-31.9	12.3	3.62e-04	0	42	0	111149056	20	4499
2026-01-09 01:28:42.05	9.58	12.13	-30.1	-32.1	12.2	3.09e-03	0	42	0	113246208	20	4554
2026-01-09 01:28:42.77	9.53	12.19	-30.0	-32.0	12.2	3.81e-04	0	42	0	114294784	20	4512
2026-01-09 01:28:44.07	9.43	12.30	-30.1	-32.2	12.1	2.71e-03	0	42	0	117440512	20	4593
2026-01-09 01:28:44.79	9.38	12.37	-30.2	-32.5	12.0	2.91e-04	0	42	0	118489088	20	4693
2026-01-09 01:28:46.08	9.28	12.48	-30.1	-32.1	12.3	6.26e-04	0	42	0	120586240	20	4543
2026-01-09 01:28:46.80	9.23	12.54	-30.4	-33.0	11.7	2.81e-03	0	42	0	121634816	20	4856
2026-01-09 01:28:48.10	9.13	12.66	-30.5	-32.7	11.5	3.66e-03	0	42	0	124780544	21	4667
2026-01-09 01:28:48.81	9.08	12.72	-30.4	-32.6	11.7	8.14e-04	0	42	0	125829120	21	4610
2026-01-09 01:28:50.10	8.98	12.84	-30.2	-32.3	12.2	2.48e-04	0	42	0	127926272	20	4613
2026-01-09 01:28:50.82	8.92	12.90	-30.4	-32.6	11.7	5.76e-04	0	42	0	130023424	21	4601
2026-01-09 01:28:52.12	8.82	13.02	-30.6	-32.9	11.5	1.20e-03	0	42	0	132120576	21	4722
2026-01-09 01:28:52.84	8.77	13.08	-30.4	-32.9	11.8	3.53e-03	0	42	0	133169152	20	4795
2026-01-09 01:28:54.13	8.66	13.20	-30.4	-33.0	11.8	3.01e-04	0	42	0	136314880	20	4859
2026-01-09 01:28:54.85	8.61	13.27	-30.3	-32.5	12.1	4.11e-04	0	42	0	137363456	20	4677
2026-01-09 01:28:56.15	8.50	13.38	-30.1	-32.1	12.4	2.79e-03	0	42	0	139460608	20	4511
2026-01-09 01:28:56.87	8.45	13.45	-30.0	-31.8	12.7	2.94e-03	0	42	0	141557760	20	4422
2026-01-09 01:28:58.17	8.34	13.57	-29.9	-31.4	12.9	1.08e-04	0	42	0	143654912	20	4303
2026-01-09 01:28:58.88	8.28	13.63	-29.8	-31.2	13.0	2.76e-03	0	42	0	144703488	20	4243
2026-01-09 01:29:00.18	8.18	13.75	-30.0	-31.6	12.8	5.18e-05	0	42	0	146800640	20	4358
2026-01-09 01:29:00.90	8.12	13.82	-29.9	-31.5	12.8	1.94e-04	0	42	0	148897792	20	4311
2026-01-09 01:29:02.19	8.01	13.94	-29.9	-32.1	12.9	2.57e-03	0	42	0	150994944	19	4597
2026-01-09 01:29:02.91	7.95	14.01	-29.9	-32.0	12.9	2.31e-03	0	42	0	152043520	19	4574
2026-01-09 01:29:04.21	7.84	14.13	-29.8	-31.2	13.0	6.25e-05	0	42	0	155189248	20	4238
2026-01-09 01:29:04.92	7.78	14.19	-29.9	-32.0	12.9	2.38e-03	0	42	0	156237824	19	4586
2026-01-09 01:29:06.21	7.67	14.32	-30.2	-32.3	12.4	2.59e-03	0	42	0	158334976	20	4566
2026-01-09 01:29:06.92	7.61	14.38	-30.1	-32.0	12.6	3.42e-04	0	42	0	159383552	20	4477
2026-01-09 01:29:08.22	7.50	14.51	-30.0	-31.6	12.8	7.93e-05	0	42	0	162529280	20	4366
2026-01-09 01:29:08.94	7.44	14.57	-30.1	-32.1	12.5	2.41e-03	0	42	0	163577856	20	4518
2026-01-09 01:29:10.23	7.32	14.70	-30.0	-31.8	12.6	7.40e-05	0	42	0	165675008	20	4426
2026-01-09 01:29:10.95	7.26	14.77	-30.0	-31.7	12.8	2.59e-03	0	42	0	167772160	20	4379
2026-01-09 01:29:12.25	7.14	14.89	-30.0	-31.5	12.9	7.93e-05	0	42	0	169869312	20	4315
2026-01-09 01:29:12.97	7.08	14.96	-30.0	-31.7	12.8	1.88e-04	0	42	0	170917888	20	4364
2026-01-09 01:29:14.26	6.96	15.08	-30.0	-31.8	12.8	4.11e-05	0	42	0	174063616	20	4397
2026-01-09 01:29:14.97	6.90	15.15	-30.0	-31.6	12.9	2.67e-03	0	42	0	175112192	20	4349
2026-01-09 01:29:16.27	6.78	15.28	-30.0	-31.8	12.7	7.32e-05	0	42	0	177209344	20	4402
2026-01-09 01:29:16.98	6.72	15.35	-30.2	-32.3	12.4	2.63e-03	0	42	0	178257920	20	4580
2026-01-09 01:29:18.28	6.60	15.47	-29.9	-31.4	13.0	4.04e-05	0	42	0	181403648	20	4291
2026-01-09 01:29:18.99	6.53	15.54	-29.9	-31.5	12.9	3.66e-05	0	42	0	182452224	20	4309
2026-01-09 01:29:20.29	6.41	15.67	-29.9	-31.5	12.9	1.17e-04	0	42	0	184549376	20	4311
2026-01-09 01:29:21.01	6.34	15.74	-29.9	-31.4	12.9	2.38e-03	0	42	0	186646528	20	4304
2026-01-09 01:29:22.31	6.22	15.87	-30.2	-32.2	12.4	7.62e-05	0	42	0	188743680	20	4565
2026-01-09 01:29:23.02	6.15	15.94	-30.0	-31.7	12.8	1.08e-04	0	42	0	189792256	20	4389
2026-01-09 01:29:24.32	6.03	16.07	-30.0	-31.6	12.9	3.96e-05	0	42	0	192937984	20	4364
2026-01-09 01:29:25.04	5.96	16.14	-30.2	-32.4	12.3	9.30e-05	0	42	0	193986560	20	4612
2026-01-09 01:29:26.33	5.83	16.27	-28.7	-30.9	12.2	8.69e-05	0	42	0	196083712	19	4661
2026-01-09 01:29:27.04	5.76	16.34	-29.9	-31.5	12.8	8.01e-05	0	42	0	197132288	20	4336
2026-01-09 01:29:28.34	5.63	16.47	-30.0	-31.9	11.8	2.75e-04	0	42	0	200278016	20	4438
2026-01-09 01:29:29.05	5.56	16.55	-30.2	-32.4	12.3	1.12e-04	0	42	0	201326592	20	4600
2026-01-09 01:29:30.35	5.43	16.68	-30.2	-32.4	12.2	1.74e-04	0	42	0	203423744	20	4629
2026-01-09 01:29:31.07	5.36	16.75	-30.1	-32.0	12.6	3.97e-04	0	42	0	205520896	20	4464
2026-01-09 01:29:32.36	5.23	16.88	-30.2	-32.4	12.3	1.27e-04	0	42	0	207618048	20	4620
2026-01-09 01:29:33.08	5.15	16.96	-30.4	-33.0	11.9	2.23e-04	0	42	0	208666624	20	4824
2026-01-09 01:29:34.37	5.02	17.09	-30.1	-32.1	12.5	2.72e-04	0	43	0	211812352	20	4496
2026-01-09 01:29:35.09	4.95	17.16	-30.0	-31.8	12.8	2.51e-04	0	42	0	212860928	20	4407
2026-01-09 01:29:36.39	4.81	17.30	-30.1	-31.9	12.7	9.53e-05	0	42	0	214958080	20	4444
2026-01-09 01:29:37.10	4.73	17.37	-30.1	-32.0	12.7	6.40e-05	0	42	0	216006656	20	4465
2026-01-09 01:29:38.40	4.60	17.51	-30.1	-31.9	12.7	7.62e-05	0	42	0	219152384	20	4443
2026-01-09 01:29:39.12	4.52	17.58	-29.9	-31.4	13.0	5.03e-05	0	42	0	220200960	20	4274
2026-01-09 01:29:40.42	4.38	17.72	-30.0	-31.6	12.9	2.50e-03	0	42	0	222298112	20	4332
2026-01-09 01:29:41.14	4.30	17.79	-30.1	-32.0	12.7	4.73e-05	0	42	0	224395264	20	4455
2026-01-09 01:29:42.43	4.16	17.93	-30.0	-31.5	13.0	2.44e-05	0	42	0	226492416	20	4316
2026-01-09 01:29:43.15	4.08	18.01	-29.9	-31.5	13.1	3.28e-05	0	43	0	227540992	20	4293
2026-01-09 01:29:44.44	3.94	18.14	-30.0	-31.7	12.9	2.73e-03	0	42	0	230686720	20	4350
2026-01-09 01:29:45.16	3.86	18.22	-30.2	-32.2	12.5	8.46e-05	0	43	0	231735296	20	4528
2026-01-09 01:29:46.45	3.71	18.36	-30.3	-32.5	12.3	1.04e-04	0	42	0	233832448	20	4638
2026-01-09 01:29:47.17	3.63	18.44	-30.1	-31.9	12.8	1.19e-04	0	42	0	234881024	20	4432
2026-01-09 01:29:48.46	3.48	18.57	-30.0	-31.6	12.9	6.33e-05	0	43	0	238026752	20	4319
2026-01-09 01:29:49.18	3.40	18.65	-30.0	-31.7	12.9	4.73e-05	0	43	0	239075328	20	4357
2026-01-09 01:29:50.48	3.25	18.79	-30.1	-31.8	12.8	2.74e-03	0	42	0	241172480	20	4404
2026-01-09 01:29:51.20	3.17	18.87	-30.3	-32.4	12.5	5.79e-05	0	42	0	243269632	20	4597
2026-01-09 01:29:52.49	3.01	19.01	-30.0	-31.7	13.0	7.78e-05	0	43	0	245366784	20	4371
2026-01-09 01:29:53.21	2.93	19.09	-30.2	-32.1	12.7	5.49e-05	0	43	0	246415360	20	4500
2026-01-09 01:29:54.51	2.77	19.23	-30.2	-32.1	12.7	3.14e-04	0	43	0	249561088	20	4475
2026-01-09 01:29:55.23	2.69	19.31	-30.0	-31.6	13.1	2.65e-03	0	42	0	250609664	20	4318
2026-01-09 01:29:56.52	2.53	19.46	-29.9	-31.2	13.3	2.35e-03	0	43	0	252706816	20	4195
2026-01-09 01:29:57.24	2.44	19.54	-29.9	-31.3	13.3	2.05e-05	0	43	0	253755392	20	4217
2026-01-09 01:29:58.52	2.29	19.68	-30.0	-32.0	13.2	2.35e-03	0	43	0	256901120	19	4521
2026-01-09 01:29:59.24	2.20	19.76	-29.9	-31.8	13.3	2.44e-05	0	42	0	257949696	19	4473
2026-01-09 01:30:00.54	2.03	19.90	-29.8	-30.9	13.5	1.17e-04	0	43	0	260046848	20	4110
2026-01-09 01:30:01.26	1.94	19.98	-29.8	-31.6	13.5	4.50e-06	0	43	0	262144000	19	4389
2026-01-09 01:30:02.56	1.78	20.13	-29.8	-31.6	13.4	2.62e-03	0	43	0	264241152	19	4415
2026-01-09 01:30:03.28	1.69	20.21	-29.8	-31.6	13.5	1.37e-05	0	42	0	265289728	19	4401
2026-01-09 01:30:04.57	1.52	20.36	-30.0	-31.4	13.3	2.63e-03	0	43	0	268435456	20	4259
2026-01-09 01:30:05.29	1.43	20.44	-29.9	-31.3	13.3	2.35e-03	0	43	0	269484032	20	4239
2026-01-09 01:30:06.59	1.26	20.59	-29.8	-30.9	13.5	1.22e-05	0	43	0	271581184	20	4112
2026-01-09 01:30:07.31	1.16	20.67	-29.9	-31.8	13.3	1.29e-05	0	43	0	272629760	19	4469
2026-01-09 01:30:08.60	0.99	20.82	-29.9	-31.3	13.3	2.62e-03	0	43	0	275775488	20	4211
2026-01-09 01:30:09.32	0.90	20.90	-29.9	-31.4	13.2	1.98e-04	0	43	0	276824064	20	4263
2026-01-09 01:30:10.62	0.72	21.05	-29.8	-31.1	13.4	2.65e-03	0	43	0	278921216	20	4157
2026-01-09 01:30:11.34	0.62	21.14	-29.9	-31.4	13.2	1.36e-04	0	43	0	281018368	20	4253
2026-01-09 01:30:12.64	0.45	21.29	-30.1	-31.8	13.0	2.48e-04	0	43	0	283115520	20	4382
2026-01-09 01:30:13.35	0.35	21.37	-30.0	-31.6	13.1	2.68e-03	0	43	0	284164096	20	4334
2026-01-09 01:30:14.65	0.17	21.52	-30.1	-31.9	12.9	2.42e-03	0	43	0	287309824	20	4410
2026-01-09 01:30:15.37	0.07	21.61	-30.2	-32.2	12.8	2.16e-04	0	43	0	288358400	20	4507
2026-01-09 01:30:16.66	359.88	21.76	-30.0	-31.6	13.1	5.26e-05	0	43	0	290455552	20	4329
2026-01-09 01:30:17.37	359.78	21.84	-30.2	-32.0	12.9	1.24e-04	0	43	0	291504128	20	4435
2026-01-09 01:30:18.67	359.60	22.00	-30.1	-31.8	13.0	2.43e-04	0	42	0	294649856	20	4396
2026-01-09 01:30:19.39	359.49	22.08	-30.1	-31.8	13.0	2.61e-03	0	43	0	295698432	20	4383
2026-01-09 01:30:20.68	359.30	22.24	-30.2	-32.1	12.8	4.34e-05	0	43	0	297795584	20	4502
2026-01-09 01:30:21.40	359.20	22.32	-30.2	-32.1	12.8	7.55e-05	0	43	0	299892736	20	4476
2026-01-09 01:30:22.69	359.01	22.48	-30.5	-32.5	12.2	2.72e-03	0	43	0	301989888	21	4514
2026-01-09 01:30:23.41	358.90	22.56	-30.4	-32.8	12.3	2.57e-03	0	43	0	303038464	20	4724
2026-01-09 01:30:24.70	358.71	22.72	-30.5	-32.5	12.1	2.08e-04	0	43	0	306184192	21	4528
2026-01-09 01:30:25.42	358.60	22.81	-30.2	-32.2	12.7	2.43e-03	0	43	0	307232768	20	4527
2026-01-09 01:30:26.72	358.40	22.96	-30.6	-32.7	12.1	1.48e-04	0	43	0	309329920	21	4597
2026-01-09 01:30:27.44	358.29	23.05	-30.6	-32.7	12.0	5.40e-04	0	43	0	310378496	21	4585
2026-01-09 01:30:28.74	358.09	23.21	-30.6	-32.7	12.0	2.92e-03	0	43	0	313524224	21	4597
2026-01-09 01:30:29.45	357.97	23.30	-30.6	-32.7	12.1	2.62e-03	0	43	0	314572800	21	4619
2026-01-09 01:30:30.75	357.77	23.46	-30.5	-32.5	12.2	1.98e-04	0	43	0	316669952	21	4527
2026-01-09 01:30:31.47	357.65	23.54	-30.4	-32.3	12.3	1.91e-04	0	43	0	318767104	21	4466
2026-01-09 01:30:32.76	357.45	23.70	-30.5	-32.6	12.1	2.78e-04	0	43	0	320864256	21	4578
2026-01-09 01:30:33.48	357.33	23.79	-30.5	-32.7	12.0	5.87e-04	0	43	0	321912832	21	4593
2026-01-09 01:30:34.78	357.12	23.95	-30.3	-32.5	12.6	7.78e-05	0	43	0	325058560	20	4621
2026-01-09 01:30:35.49	357.00	24.04	-30.3	-32.3	12.7	4.74e-04	0	43	0	326107136	20	4562
2026-01-09 01:30:36.79	356.79	24.20	-30.1	-31.8	13.0	1.83e-04	0	43	0	328204288	20	4394
2026-01-09 01:30:37.51	356.67	24.29	-30.3	-32.3	12.7	2.41e-03	0	43	0	329252864	20	4541
2026-01-09 01:30:38.81	356.45	24.46	-30.1	-31.8	13.1	4.34e-05	0	43	0	332398592	20	4373
2026-01-09 01:30:39.52	356.33	24.55	-30.0	-31.5	13.3	1.98e-04	0	43	0	333447168	20	4278
2026-01-09 01:30:40.82	356.10	24.71	-30.1	-31.8	13.1	3.66e-05	0	43	0	335544320	20	4372
2026-01-09 01:30:41.54	355.98	24.80	-30.1	-31.7	13.3	2.36e-05	0	43	0	337641472	20	4335
2026-01-09 01:30:42.83	355.76	24.96	-30.3	-32.2	12.8	2.44e-05	0	43	0	339738624	20	4512
2026-01-09 01:30:43.55	355.63	25.06	-30.2	-32.1	13.0	2.09e-03	0	43	0	340787200	20	4456
2026-01-09 01:30:44.84	355.40	25.22	-30.2	-32.0	13.1	2.21e-05	0	43	0	343932928	20	4437
2026-01-09 01:30:45.56	355.27	25.31	-30.3	-32.3	12.8	4.42e-05	0	43	0	344981504	20	4534
2026-01-09 01:30:46.85	355.04	25.48	-30.2	-32.0	13.0	3.81e-05	0	43	0	347078656	20	4423
2026-01-09 01:30:47.57	354.91	25.57	-30.0	-31.5	13.2	1.64e-03	0	43	0	348127232	20	4285
2026-01-09 01:30:48.87	354.67	25.74	-30.4	-32.7	12.3	1.05e-04	0	43	0	351272960	20	4674
2026-01-09 01:30:49.59	354.54	25.83	-30.3	-32.4	12.8	9.99e-05	0	43	0	352321536	20	4550
2026-01-09 01:30:50.88	354.30	26.00	-30.4	-32.7	12.5	5.56e-05	0	43	0	354418688	20	4681
2026-01-09 01:30:51.59	354.17	26.09	-30.4	-32.1	12.6	1.23e-04	0	43	0	356515840	21	4383
2026-01-09 01:30:52.89	353.92	26.26	-30.5	-32.3	12.4	1.65e-03	0	43	0	358612992	21	4458
2026-01-09 01:30:53.61	353.78	26.35	-30.4	-32.1	12.5	7.62e-05	0	43	0	359661568	21	4392
2026-01-09 01:30:54.90	353.54	26.52	-30.2	-32.2	12.9	7.47e-05	0	43	0	362807296	20	4503
2026-01-09 01:30:55.61	353.40	26.61	-30.2	-32.0	12.9	5.56e-05	0	43	0	363855872	20	4442
2026-01-09 01:30:56.90	353.15	26.78	-30.5	-33.0	12.3	1.17e-04	0	43	0	365953024	20	4781
2026-01-09 01:30:57.62	353.00	26.87	-30.6	-32.9	12.0	2.85e-04	0	43	0	367001600	21	4654
2026-01-09 01:30:58.92	352.74	27.05	-30.7	-32.9	12.1	2.26e-04	0	43	0	370147328	21	4648
2026-01-09 01:30:59.64	352.60	27.14	-30.6	-32.8	12.1	2.80e-04	0	43	0	371195904	21	4635
2026-01-09 01:31:00.92	352.34	27.31	-30.8	-33.1	11.9	2.48e-04	0	43	0	373293056	21	4732
2026-01-09 01:31:01.64	352.19	27.40	-30.9	-33.5	11.7	5.35e-04	0	43	0	375390208	21	4853
2026-01-09 01:31:02.94	351.93	27.58	-30.7	-32.9	12.1	3.16e-04	0	43	0	377487360	21	4644
2026-01-09 01:31:03.66	351.78	27.67	-30.5	-32.3	12.5	1.65e-04	0	43	0	378535936	21	4432
2026-01-09 01:31:04.94	351.51	27.84	-30.7	-33.1	12.0	2.03e-04	0	43	0	380633088	21	4708
2026-01-09 01:31:05.66	351.36	27.94	-30.9	-33.7	11.5	4.93e-04	0	43	0	382730240	21	4928
2026-01-09 01:31:06.95	351.08	28.11	-30.9	-33.6	11.7	2.14e-03	0	43	0	384827392	21	4904
2026-01-09 01:31:07.66	350.93	28.20	-31.2	-33.9	11.1	8.03e-04	0	43	0	385875968	22	4940
2026-01-09 01:31:08.96	350.65	28.38	-31.1	-33.7	11.2	1.71e-03	0	43	0	389021696	22	4853
2026-01-09 01:31:09.67	350.49	28.47	-31.4	-34.7	10.5	2.68e-03	0	43	0	390070272	22	5254
2026-01-09 01:31:10.97	350.21	28.65	-31.2	-34.0	11.1	4.75e-03	0	43	0	392167424	22	4968
2026-01-09 01:31:11.69	350.05	28.74	-31.1	-33.7	11.2	1.59e-03	0	43	0	394264576	22	4853
2026-01-09 01:31:12.99	349.76	28.92	-31.3	-34.5	10.7	4.25e-03	0	43	0	396361728	22	5153
2026-01-09 01:31:13.71	349.59	29.01	-31.7	-35.1	9.6	3.73e-03	0	43	0	397410304	23	5316
2026-01-09 01:31:15.00	349.30	29.19	-31.6	-34.8	10.1	5.63e-03	0	43	0	400556032	23	5200
2026-01-09 01:31:15.72	349.14	29.28	-31.6	-35.0	9.5	8.55e-03	0	43	0	401604608	23	5295
2026-01-09 01:31:17.01	348.84	29.46	-31.8	-35.6	9.5	1.58e-02	0	43	0	403701760	23	5559
2026-01-09 01:31:17.73	348.67	29.56	-31.9	-35.9	9.1	1.54e-02	0	43	0	404750336	23	5734
2026-01-09 01:31:19.02	348.36	29.73	-31.9	-35.9	9.1	1.33e-02	0	43	0	407896064	23	5743
2026-01-09 01:31:19.75	348.19	29.83	-32.0	-36.0	8.7	2.24e-02	0	43	0	408944640	24	5691
2026-01-09 01:31:21.04	347.88	30.00	-31.7	-34.7	9.9	1.54e-02	0	43	0	411041792	24	5080
2026-01-09 01:31:21.75	347.71	30.10	-31.6	-35.0	9.8	1.14e-02	0	43	0	413138944	23	5327
2026-01-09 01:31:23.04	347.39	30.27	-31.8	-35.7	9.3	1.92e-02	0	43	0	415236096	23	5656
2026-01-09 01:31:23.76	347.22	30.37	-31.9	-36.0	9.1	2.22e-02	0	43	0	416284672	23	5768
2026-01-09 01:31:25.05	346.90	30.54	-32.0	-36.4	8.8	2.63e-02	0	43	0	418381824	23	6000
2026-01-09 01:31:25.78	346.71	30.64	-31.8	-35.2	9.2	2.81e-02	0	43	0	420478976	24	5338
2026-01-09 01:31:27.07	346.39	30.82	-31.9	-35.4	9.2	2.05e-02	0	43	0	422576128	24	5412
2026-01-09 01:31:27.81	346.20	30.92	-32.1	-36.0	8.7	2.75e-02	0	43	0	423624704	24	5682
2026-01-09 01:31:29.09	345.87	31.09	-31.6	-34.9	9.9	1.03e-02	0	43	0	426770432	23	5229
2026-01-09 01:31:29.81	345.69	31.19	-31.6	-34.6	10.2	5.33e-03	0	43	0	427819008	23	5104
2026-01-09 01:31:31.11	345.35	31.36	-31.6	-34.6	10.3	7.70e-03	0	43	0	429916160	23	5098
2026-01-09 01:31:31.82	345.16	31.46	-31.6	-34.7	10.2	8.55e-03	0	43	0	432013312	23	5147
2026-01-09 01:31:33.11	344.82	31.64	-31.9	-35.9	9.2	1.19e-02	0	43	0	434110464	23	5693
2026-01-09 01:31:33.85	344.62	31.74	-31.7	-35.0	9.9	1.34e-02	0	43	0	435159040	23	5305
2026-01-09 01:31:35.14	344.27	31.91	-32.0	-35.7	9.0	2.18e-02	0	43	0	437256192	24	5517
2026-01-09 01:31:35.86	344.07	32.01	-32.0	-35.7	8.9	2.79e-02	0	43	0	439353344	24	5522
2026-01-09 01:31:37.14	343.72	32.18	-32.0	-35.8	9.0	3.56e-02	0	43	0	441450496	24	5568
2026-01-09 01:31:37.88	343.52	32.28	-31.7	-35.0	9.9	1.37e-02	0	43	0	442499072	23	5289
2026-01-09 01:31:39.17	343.16	32.45	-31.3	-33.9	10.7	3.00e-03	0	43	0	445644800	23	4815
2026-01-09 01:31:39.89	342.95	32.55	-31.2	-33.9	11.1	3.81e-03	0	43	0	446693376	22	4912
2026-01-09 01:31:41.17	342.59	32.72	-31.0	-33.4	11.4	2.26e-03	0	43	0	448790528	22	4730
2026-01-09 01:31:41.89	342.38	32.82	-31.2	-34.0	11.1	1.31e-03	0	43	0	450887680	22	4942
2026-01-09 01:31:43.18	342.01	32.99	-31.3	-34.5	10.6	2.37e-03	0	43	0	452984832	22	5165
2026-01-09 01:31:43.90	341.80	33.08	-31.5	-34.3	10.3	4.73e-03	0	43	0	454033408	23	5018
2026-01-09 01:31:45.20	341.42	33.26	-31.5	-34.7	10.0	6.05e-03	0	43	0	456130560	23	5179
2026-01-09 01:31:45.92	341.20	33.35	-31.5	-34.5	10.2	7.16e-03	0	43	0	458227712	23	5095
2026-01-09 01:31:47.20	340.82	33.52	-31.4	-34.1	10.6	5.39e-03	0	43	0	460324864	23	4911
2026-01-09 01:31:47.92	340.60	33.62	-31.3	-33.9	10.8	2.82e-03	0	43	0	461373440	23	4820
2026-01-09 01:31:49.21	340.21	33.79	-31.1	-33.7	11.2	1.61e-03	0	43	0	464519168	22	4863
2026-01-09 01:31:49.94	339.99	33.88	-30.7	-32.9	12.0	2.52e-03	0	43	0	465567744	21	4653
2026-01-09 01:31:51.22	339.59	34.05	-30.5	-32.5	12.4	1.72e-04	0	43	0	467664896	21	4510
2026-01-09 01:31:51.94	339.37	34.15	-30.6	-32.6	12.4	1.90e-03	0	43	0	469762048	21	4553
2026-01-09 01:31:53.24	338.96	34.32	-30.5	-32.4	12.4	1.30e-04	0	43	0	471859200	21	4484
2026-01-09 01:31:53.96	338.73	34.41	-30.5	-32.4	12.5	1.30e-04	0	43	0	472907776	21	4463
2026-01-09 01:31:55.25	338.32	34.58	-30.7	-33.0	12.2	2.18e-03	0	43	0	475004928	21	4662
2026-01-09 01:31:55.97	338.09	34.67	-30.7	-32.9	12.2	2.42e-03	0	43	0	477102080	21	4634
2026-01-09 01:31:57.26	337.67	34.83	-30.7	-33.1	12.0	6.45e-04	0	43	0	479199232	21	4720
2026-01-09 01:31:57.98	337.44	34.93	-30.8	-33.2	11.9	3.19e-04	0	43	0	480247808	21	4752
2026-01-09 01:31:59.28	337.01	35.09	-30.9	-33.5	11.6	5.56e-04	0	43	0	483393536	21	4879
2026-01-09 01:32:00.00	336.77	35.18	-30.7	-33.0	12.0	5.43e-04	0	43	0	484442112	21	4705
2026-01-09 01:32:01.29	336.34	35.35	-30.9	-33.8	11.4	7.60e-04	0	43	0	486539264	21	5010
2026-01-09 01:32:02.01	336.10	35.44	-31.2	-34.2	10.8	3.16e-03	0	43	0	488636416	22	5079
2026-01-09 01:32:03.30	335.66	35.60	-31.5	-35.1	10.2	5.62e-03	0	43	0	490733568	22	5484
2026-01-09 01:32:04.02	335.41	35.69	-31.7	-35.5	9.4	1.01e-02	0	43	0	491782144	23	5587
2026-01-09 01:32:05.31	334.96	35.85	-32.0	-36.2	8.4	2.27e-02	0	43	0	493879296	24	5869
2026-01-09 01:32:06.03	334.71	35.93	-32.1	-36.5	8.3	4.68e-02	0	43	0	495976448	24	6010
2026-01-09 01:32:07.32	334.26	36.09	-31.8	-35.9	8.9	2.56e-02	0	43	0	498073600	23	5789
2026-01-09 01:32:08.04	334.01	36.18	-31.7	-35.5	9.4	2.92e-02	0	43	0	499122176	23	5586
2026-01-09 01:32:09.33	333.55	36.33	-31.6	-35.0	9.9	1.02e-02	0	43	0	502267904	23	5317
2026-01-09 01:32:10.05	333.29	36.42	-31.7	-35.3	9.6	1.09e-02	0	43	0	503316480	23	5454
2026-01-09 01:32:11.35	332.82	36.57	-31.7	-35.4	9.5	9.82e-03	0	43	0	505413632	23	5512
2026-01-09 01:32:12.07	332.56	36.66	-31.7	-35.3	9.7	1.04e-02	0	43	0	507510784	23	5439
2026-01-09 01:32:13.36	332.09	36.81	-31.8	-35.5	9.7	7.76e-03	0	43	0	509607936	23	5542
2026-01-09 01:32:14.09	331.82	36.89	-31.7	-35.3	9.7	1.47e-02	0	43	0	510656512	23	5446
2026-01-09 01:32:15.38	331.34	37.04	-31.7	-35.5	9.4	1.01e-02	0	43	0	512753664	23	5569
2026-01-09 01:32:16.10	331.07	37.12	-31.9	-35.7	9.4	1.33e-02	0	43	0	514850816	23	5576
2026-01-09 01:32:17.39	330.58	37.27	-31.5	-34.5	10.3	6.80e-03	0	43	0	516947968	23	5090
2026-01-09 01:32:18.11	330.31	37.35	-31.2	-33.5	11.0	3.03e-03	0	43	0	517996544	23	4709
2026-01-09 01:32:19.41	329.81	37.49	-31.0	-33.3	11.7	1.00e-03	0	43	0	521142272	22	4693
2026-01-09 01:32:20.13	329.53	37.57	-31.0	-33.3	11.5	7.39e-04	0	43	0	522190848	22	4709
2026-01-09 01:32:21.42	329.03	37.71	-30.8	-33.2	11.9	9.21e-04	0	43	0	524288000	21	4770
2026-01-09 01:32:22.14	328.75	37.79	-30.5	-32.4	12.5	3.33e-04	0	43	0	526385152	21	4467
2026-01-09 01:32:23.43	328.24	37.93	-30.9	-33.6	11.6	3.04e-04	0	43	0	528482304	21	4924
2026-01-09 01:32:24.15	327.96	38.00	-31.1	-33.8	11.1	5.03e-04	0	43	0	529530880	22	4885
2026-01-09 01:32:25.45	327.44	38.14	-31.2	-34.2	10.8	2.68e-03	0	43	0	531628032	22	5068
2026-01-09 01:32:26.17	327.15	38.21	-30.9	-33.3	11.3	2.44e-03	0	43	0	533725184	22	4713
2026-01-09 01:32:27.46	326.63	38.34	-30.8	-33.5	11.6	2.05e-03	0	43	0	535822336	21	4890
2026-01-09 01:32:28.19	326.34	38.41	-30.6	-33.0	11.9	9.98e-04	0	43	0	536870912	21	4706
2026-01-09 01:32:29.48	325.81	38.54	-30.5	-32.6	12.2	2.66e-04	0	43	0	540016640	21	4580
2026-01-09 01:32:30.20	325.51	38.61	-30.8	-33.6	11.5	4.57e-04	0	43	0	541065216	21	4937
2026-01-09 01:32:31.49	324.98	38.73	-30.6	-33.0	11.9	7.19e-04	0	43	0	543162368	21	4734
2026-01-09 01:32:32.21	324.68	38.80	-30.5	-32.5	12.3	4.58e-04	0	43	0	545259520	21	4532
2026-01-09 01:32:33.51	324.14	38.92	-30.4	-32.8	12.4	2.62e-03	0	43	0	547356672	20	4767
2026-01-09 01:32:34.23	323.83	38.99	-30.4	-32.8	12.3	5.15e-04	0	43	0	548405248	20	4755
2026-01-09 01:32:35.52	323.29	39.10	-30.0	-31.6	13.3	2.36e-05	0	43	0	550502400	20	4326
2026-01-09 01:32:36.24	322.98	39.17	-29.9	-31.6	13.7	5.48e-04	0	43	0	552599552	19	4410
2026-01-09 01:32:37.53	322.43	39.28	-30.0	-31.6	13.3	1.10e-03	0	43	0	554696704	20	4324
2026-01-09 01:32:38.24	322.12	39.34	-29.9	-31.1	13.6	1.52e-05	0	43	0	555745280	20	4175
2026-01-09 01:32:39.54	321.56	39.45	-30.1	-31.9	13.1	1.64e-03	0	43	0	558891008	20	4412
2026-01-09 01:32:40.26	321.25	39.51	-30.6	-32.7	12.0	1.85e-04	0	43	0	559939584	21	4589
2026-01-09 01:32:41.55	320.69	39.61	-30.6	-32.8	12.2	3.78e-04	0	43	0	562036736	21	4625
2026-01-09 01:32:42.27	320.37	39.66	-30.4	-32.7	12.5	4.99e-04	0	43	0	564133888	20	4694
2026-01-09 01:32:43.56	319.80	39.76	-29.8	-31.1	13.5	1.28e-03	0	43	0	566231040	20	4164
2026-01-09 01:32:44.29	319.48	39.82	-29.6	-30.5	14.0	3.43e-05	0	43	0	567279616	20	3977
2026-01-09 01:32:45.58	318.90	39.91	-29.9	-31.7	13.6	5.93e-04	0	43	0	569376768	19	4434
2026-01-09 01:32:46.29	318.59	39.96	-29.9	-31.7	13.6	3.50e-05	0	43	0	571473920	19	4439
2026-01-09 01:32:47.59	318.00	40.05	-30.1	-31.8	13.2	2.59e-05	0	43	0	573571072	20	4391
2026-01-09 01:32:48.31	317.68	40.10	-30.4	-32.6	12.7	2.82e-05	0	43	0	574619648	20	4637
2026-01-09 01:32:49.60	317.09	40.18	-29.9	-31.4	13.5	4.67e-04	0	43	0	577765376	20	4240
2026-01-09 01:32:50.33	316.76	40.23	-29.8	-31.4	13.8	1.06e-05	0	43	0	578813952	19	4327
2026-01-09 01:32:51.63	316.17	40.31	-30.0	-31.5	13.3	6.71e-04	0	43	0	580911104	20	4277
2026-01-09 01:32:52.34	315.84	40.35	-30.2	-32.1	12.9	1.60e-05	0	43	0	583008256	20	4476
2026-01-09 01:32:53.64	315.25	40.43	-30.4	-32.6	12.6	1.17e-04	0	43	0	585105408	20	4660
2026-01-09 01:32:54.36	314.91	40.47	-29.9	-31.3	13.5	1.72e-03	0	43	0	586153984	20	4218
2026-01-09 01:32:55.65	314.32	40.53	-29.4	-30.3	14.5	7.00e-07	0	43	0	588251136	19	4025
2026-01-09 01:32:56.37	313.98	40.57	-29.6	-30.8	14.3	0.00e+00	0	43	0	590348288	19	4154
2026-01-09 01:32:57.66	313.38	40.63	-30.1	-31.8	13.3	1.82e-03	0	43	0	592445440	20	4361
2026-01-09 01:32:58.38	313.04	40.67	-30.2	-32.0	13.0	1.62e-03	0	43	0	593494016	20	4459
2026-01-09 01:32:59.68	312.43	40.73	-30.3	-32.3	12.9	2.97e-04	0	43	0	596639744	20	4537
2026-01-09 01:33:00.41	312.09	40.76	-30.6	-32.5	12.4	4.74e-04	0	43	0	597688320	21	4508
2026-01-09 01:33:01.70	311.48	40.81	-29.9	-31.1	13.7	1.25e-03	0	43	0	599785472	20	4143
2026-01-09 01:33:02.41	311.15	40.84	-29.4	-30.4	14.5	1.62e-04	0	43	0	601882624	19	4023
2026-01-09 01:33:03.70	310.54	40.88	-29.0	-30.0	15.1	2.16e-03	0	43	0	603979776	18	3997
2026-01-09 01:33:04.42	310.19	40.91	-29.4	-31.0	14.5	2.11e-03	0	43	0	605028352	18	4285
2026-01-09 01:33:05.72	309.58	40.95	-29.7	-31.2	14.0	3.16e-04	0	43	0	607125504	19	4280
2026-01-09 01:33:06.44	309.23	40.97	-29.7	-31.2	13.9	2.19e-03	0	43	0	609222656	19	4287
2026-01-09 01:33:07.74	308.61	41.01	-29.9	-31.1	13.7	2.44e-03	0	43	0	611319808	20	4157
2026-01-09 01:33:08.45	308.27	41.02	-29.7	-30.6	14.0	3.16e-04	0	43	0	612368384	20	3989
2026-01-09 01:33:09.74	307.66	41.05	-29.1	-30.0	15.0	2.02e-04	0	43	0	615514112	18	4003
2026-01-09 01:33:10.46	307.31	41.07	-28.9	-29.6	15.2	1.61e-03	0	43	0	616562688	18	3907
2026-01-09 01:33:11.76	306.69	41.09	-28.9	-29.5	15.3	1.28e-04	0	43	0	618659840	18	3887
2026-01-09 01:33:12.47	306.34	41.10	-29.4	-30.8	14.5	1.87e-03	0	43	0	620756992	18	4249
2026-01-09 01:33:13.76	305.72	41.12	-29.7	-31.1	14.1	2.20e-06	0	43	0	622854144	19	4229
2026-01-09 01:33:14.49	305.37	41.13	-29.8	-31.4	14.1	8.31e-05	0	43	0	623902720	19	4320
2026-01-09 01:33:15.79	304.75	41.14	-30.1	-31.8	13.2	1.17e-04	0	43	0	625999872	20	4388
2026-01-09 01:33:16.51	304.40	41.14	-30.1	-31.7	13.3	1.70e-03	0	43	0	628097024	20	4349
2026-01-09 01:33:17.81	303.77	41.15	-29.6	-30.4	14.1	6.10e-06	0	43	0	630194176	20	3938
2026-01-09 01:33:18.52	303.43	41.15	-29.6	-31.0	14.1	9.06e-04	0	43	0	631242752	19	4195
2026-01-09 01:33:19.82	302.80	41.15	-30.2	-32.0	13.1	1.14e-05	0	43	0	634388480	20	4424
2026-01-09 01:33:20.53	302.46	41.15	-30.2	-32.1	12.9	6.63e-05	0	43	0	635437056	20	4474
2026-01-09 01:33:21.83	301.83	41.14	-29.8	-31.0	13.6	7.03e-04	0	43	0	637534208	20	4140
2026-01-09 01:33:22.55	301.49	41.14	-29.8	-31.1	13.6	4.11e-04	0	43	0	639631360	20	4147
2026-01-09 01:33:23.84	300.86	41.12	-30.2	-32.1	13.0	1.22e-05	0	43	0	641728512	20	4476
2026-01-09 01:33:24.56	300.52	41.12	-30.7	-33.1	11.9	4.26e-04	0	43	0	642777088	21	4732
2026-01-09 01:33:25.86	299.89	41.10	-30.8	-32.8	11.8	1.06e-03	0	43	0	645922816	22	4533
2026-01-09 01:33:26.58	299.55	41.09	-30.6	-32.1	12.3	4.29e-04	0	43	0	646971392	22	4293
2026-01-09 01:33:27.87	298.93	41.06	-30.7	-32.6	12.1	4.26e-04	0	43	0	649068544	22	4468
2026-01-09 01:33:28.60	298.58	41.05	-30.9	-33.7	11.6	2.08e-03	0	43	0	650117120	21	4933
2026-01-09 01:33:29.90	297.95	41.02	-31.3	-34.4	10.9	1.92e-03	0	43	0	653262848	22	5118
2026-01-09 01:33:30.62	297.61	41.00	-31.3	-33.9	10.7	7.91e-03	0	43	0	654311424	23	4869
2026-01-09 01:33:31.91	296.99	40.96	-31.7	-36.2	8.3	4.08e-02	0	43	0	656408576	24	6006
2026-01-09 01:33:32.63	296.65	40.94	-32.3	-36.9	8.0	3.98e-02	0	43	0	658505728	24	6156
2026-01-09 01:33:33.92	296.04	40.90	-32.0	-36.1	8.9	2.51e-02	0	43	0	660602880	23	5805
2026-01-09 01:33:34.64	295.69	40.87	-31.7	-34.7	9.9	2.26e-02	0	43	0	661651456	24	5073
2026-01-09 01:33:35.92	295.09	40.83	-32.2	-36.3	8.3	3.54e-02	0	43	0	663748608	24	5801
2026-01-09 01:33:36.64	294.75	40.80	-32.2	-36.3	8.5	4.10e-02	0	43	0	665845760	24	5827
2026-01-09 01:33:37.93	294.14	40.75	-32.3	-37.1	8.0	4.99e-02	0	43	0	667942912	24	6210
2026-01-09 01:33:38.65	293.80	40.71	-32.0	-35.9	9.0	5.51e-02	0	43	0	668991488	24	5604
2026-01-09 01:33:39.94	293.20	40.66	-32.2	-36.6	8.2	7.57e-02	0	43	0	672137216	24	5979
2026-01-09 01:33:40.67	292.85	40.62	-32.0	-35.8	8.9	3.48e-02	0	43	0	673185792	24	5578
2026-01-09 01:33:41.96	292.25	40.56	-32.0	-35.9	8.9	2.39e-02	0	43	0	675282944	24	5626
2026-01-09 01:33:42.68	291.92	40.52	-32.2	-36.5	8.4	3.17e-02	0	43	0	677380096	24	5919
2026-01-09 01:33:43.98	291.32	40.45	-32.7	-38.9	6.1	6.46e-02	0	43	0	679477248	25	7317
2026-01-09 01:33:44.70	290.98	40.41	-32.9	-39.5	6.0	2.89e-01	0	43	0	680525824	25	7685
2026-01-09 01:33:45.99	290.39	40.33	-32.6	-37.9	6.9	2.10e-01	0	43	0	682622976	25	6622
2026-01-09 01:33:46.71	290.06	40.29	-32.4	-37.4	7.4	1.59e-01	0	43	0	684720128	25	6337
2026-01-09 01:33:48.00	289.47	40.21	-32.1	-36.5	8.3	8.10e-02	0	43	0	686817280	24	5936
2026-01-09 01:33:48.72	289.14	40.17	-32.0	-35.8	8.9	3.21e-02	0	43	0	687865856	24	5614
2026-01-09 01:33:50.02	288.56	40.08	-31.9	-35.5	9.2	1.40e-02	0	43	0	691011584	24	5484
2026-01-09 01:33:50.74	288.23	40.03	-31.9	-35.4	9.2	1.75e-02	0	43	0	692060160	24	5417
2026-01-09 01:33:52.03	287.65	39.94	-32.3	-37.4	7.8	1.07e-01	0	43	0	694157312	24	6447
2026-01-09 01:33:52.75	287.33	39.89	-32.5	-37.6	7.1	9.78e-02	0	43	0	696254464	25	6461
2026-01-09 01:33:54.04	286.76	39.80	-32.5	-38.2	6.6	1.34e-01	0	43	0	698351616	25	6882
2026-01-09 01:33:54.75	286.44	39.74	-32.3	-37.3	7.2	1.18e-01	0	43	0	699400192	25	6389
2026-01-09 01:33:56.04	285.87	39.64	-32.0	-35.9	8.3	1.20e-01	0	43	0	701497344	25	5601
2026-01-09 01:33:56.76	285.56	39.59	-31.6	-34.8	9.5	3.60e-02	0	43	0	703594496	24	5157
2026-01-09 01:33:58.05	284.99	39.48	-31.4	-34.5	10.1	4.81e-03	0	43	0	705691648	23	5151
2026-01-09 01:33:58.77	284.68	39.42	-31.7	-35.6	9.3	1.00e-02	0	43	0	706740224	23	5582
2026-01-09 01:34:00.06	284.12	39.32	-31.4	-34.3	10.4	6.76e-03	0	43	0	709885952	23	5014
2026-01-09 01:34:00.78	283.81	39.26	-31.4	-34.4	10.4	2.53e-03	0	43	0	710934528	23	5050
2026-01-09 01:34:02.06	283.26	39.14	-31.3	-33.6	10.5	1.22e-02	0	43	0	713031680	24	4673
2026-01-09 01:34:02.78	282.96	39.08	-32.1	-36.2	8.6	1.48e-02	0	43	0	715128832	24	5770
2026-01-09 01:34:04.07	282.41	38.96	-32.1	-35.5	8.6	5.72e-02	0	43	0	717225984	25	5344
2026-01-09 01:34:04.80	282.10	38.90	-31.8	-35.0	9.6	1.84e-02	0	43	0	718274560	24	5192
2026-01-09 01:34:06.09	281.56	38.78	-31.4	-34.1	10.7	5.64e-03	0	43	0	720371712	23	4885
2026-01-09 01:34:06.81	281.27	38.71	-31.3	-34.2	11.1	3.51e-03	0	43	0	722468864	22	4992
2026-01-09 01:34:08.10	280.73	38.58	-31.2	-33.8	11.4	1.12e-03	0	43	0	724566016	22	4848
2026-01-09 01:34:08.81	280.44	38.52	-31.4	-34.4	10.9	1.28e-03	0	43	0	725614592	22	5079
2026-01-09 01:34:10.10	279.91	38.39	-31.5	-34.6	10.8	1.20e-03	0	43	0	728760320	22	5167
2026-01-09 01:34:10.82	279.62	38.32	-30.8	-32.5	12.5	3.07e-04	0	43	0	729808896	22	4412
2026-01-09 01:34:12.12	279.10	38.18	-31.1	-33.5	11.6	1.17e-03	0	43	0	731906048	22	4750
2026-01-09 01:34:12.83	278.81	38.11	-31.3	-34.1	11.1	1.39e-03	0	43	0	732954624	22	4959
2026-01-09 01:34:14.12	278.30	37.98	-30.9	-33.0	11.8	6.53e-04	0	43	0	736100352	22	4568
2026-01-09 01:34:14.84	278.01	37.90	-30.3	-32.3	12.8	1.17e-04	0	43	0	737148928	20	4523
2026-01-09 01:34:16.13	277.50	37.76	-29.6	-30.9	14.1	1.78e-03	0	43	0	739246080	19	4185
2026-01-09 01:34:16.84	277.23	37.69	-29.1	-29.6	14.8	0.00e+00	0	43	0	741343232	19	3824
2026-01-09 01:34:18.13	276.73	37.55	-28.7	-29.6	15.5	1.62e-03	0	43	0	743440384	17	4011
2026-01-09 01:34:18.85	276.45	37.47	-29.0	-30.0	15.0	1.50e-06	0	43	0	744488960	18	4017
2026-01-09 01:34:20.14	275.95	37.32	-29.7	-31.3	13.8	3.00e-06	0	43	0	747634688	19	4340
2026-01-09 01:34:20.85	275.68	37.24	-30.0	-31.6	13.1	1.85e-03	0	43	0	748683264	20	4336
2026-01-09 01:34:22.14	275.20	37.10	-30.2	-32.3	12.7	5.79e-05	0	43	0	750780416	20	4561
2026-01-09 01:34:22.85	274.93	37.02	-30.2	-32.3	12.8	8.54e-05	0	43	0	751828992	20	4568
2026-01-09 01:34:24.13	274.45	36.87	-30.2	-32.2	12.8	2.46e-03	0	43	0	754974720	20	4527
2026-01-09 01:34:24.88	274.18	36.78	-30.0	-31.6	13.3	2.10e-03	0	43	0	756023296	20	4318
2026-01-09 01:34:26.16	273.71	36.63	-29.8	-31.1	13.6	1.07e-04	0	43	0	758120448	20	4155
2026-01-09 01:34:26.88	273.44	36.54	-29.8	-31.5	13.7	1.37e-05	0	43	0	760217600	19	4366
2026-01-09 01:34:28.17	272.98	36.39	-30.1	-31.8	13.1	6.81e-04	0	43	0	762314752	20	4369
2026-01-09 01:34:28.89	272.72	36.30	-30.2	-32.2	12.8	2.67e-05	0	43	0	763363328	20	4514
2026-01-09 01:34:30.18	272.26	36.15	-30.2	-31.6	12.9	4.98e-04	0	43	0	765460480	21	4240
2026-01-09 01:34:30.90	272.01	36.06	-30.2	-32.2	12.8	6.76e-04	0	42	0	767557632	20	4505
2026-01-09 01:34:32.19	271.55	35.90	-30.1	-31.8	13.0	3.12e-05	0	43	0	769654784	20	4385
2026-01-09 01:34:32.91	271.30	35.81	-29.8	-31.6	13.6	1.48e-03	0	43	0	770703360	19	4394
2026-01-09 01:34:34.20	270.86	35.65	-29.7	-31.1	14.0	1.33e-03	0	43	0	773849088	19	4243
2026-01-09 01:34:34.91	270.61	35.57	-29.5	-30.5	14.3	3.00e-06	0	43	0	774897664	19	4074
2026-01-09 01:34:36.20	270.17	35.40	-29.5	-31.0	14.4	2.36e-04	0	43	0	776994816	18	4290
2026-01-09 01:34:36.92	269.93	35.31	-29.8	-31.4	13.7	2.20e-06	0	43	0	779091968	19	4338
2026-01-09 01:34:38.21	269.50	35.15	-30.9	-33.4	11.8	3.43e-05	0	43	0	781189120	21	4842
2026-01-09 01:34:38.92	269.26	35.06	-31.3	-34.4	10.6	3.96e-03	0	43	0	782237696	22	5116
2026-01-09 01:34:40.22	268.83	34.89	-30.7	-33.0	12.0	4.96e-04	0	43	0	784334848	21	4693
2026-01-09 01:34:40.94	268.60	34.80	-30.4	-31.9	12.6	4.11e-04	0	43	0	786432000	21	4316
2026-01-09 01:34:42.21	268.18	34.64	-30.3	-32.2	12.6	3.31e-04	0	43	0	788529152	20	4508
2026-01-09 01:34:42.93	267.95	34.55	-30.5	-32.3	12.5	2.16e-03	0	43	0	789577728	21	4426
2026-01-09 01:34:44.23	267.54	34.38	-30.3	-31.9	12.6	5.01e-04	0	43	0	792723456	21	4323
2026-01-09 01:34:44.95	267.31	34.28	-30.5	-32.3	12.3	2.33e-03	0	43	0	793772032	21	4463
2026-01-09 01:34:46.24	266.90	34.11	-30.4	-32.8	12.4	1.14e-04	0	43	0	795869184	20	4703
2026-01-09 01:34:46.96	266.68	34.02	-30.6	-32.8	12.0	1.64e-04	0	43	0	797966336	21	4623
2026-01-09 01:34:48.25	266.28	33.85	-30.5	-32.6	12.3	3.67e-03	0	43	0	800063488	21	4548
2026-01-09 01:34:48.96	266.06	33.76	-30.7	-33.1	11.9	2.98e-03	0	43	0	801112064	21	4721
2026-01-09 01:34:50.26	265.66	33.58	-30.7	-33.1	12.0	3.86e-04	0	43	0	803209216	21	4724
2026-01-09 01:34:50.98	265.45	33.49	-30.9	-33.5	11.6	2.28e-03	0	43	0	805306368	21	4888
2026-01-09 01:34:52.27	265.06	33.32	-31.2	-34.0	11.0	1.59e-03	0	43	0	807403520	22	4990
2026-01-09 01:34:52.99	264.85	33.22	-31.2	-34.2	10.7	2.38e-03	0	43	0	808452096	22	5083
2026-01-09 01:34:54.27	264.47	33.05	-31.2	-34.3	10.7	3.77e-03	0	43	0	811597824	22	5108
2026-01-09 01:34:54.99	264.26	32.95	-31.2	-34.0	10.9	5.34e-03	0	43	0	812646400	22	4993
2026-01-09 01:34:56.29	263.88	32.78	-30.9	-33.0	11.6	7.83e-04	0	43	0	814743552	22	4620
2026-01-09 01:34:57.01	263.68	32.68	-31.0	-33.6	11.2	3.57e-03	0	43	0	816840704	22	4810
2026-01-09 01:34:58.30	263.31	32.51	-31.5	-34.6	10.1	3.50e-03	0	43	0	818937856	23	5170
2026-01-09 01:34:59.02	263.11	32.41	-31.4	-34.5	10.1	1.10e-02	0	43	0	819986432	23	5092
2026-01-09 01:35:00.32	262.74	32.24	-31.0	-33.5	11.2	3.52e-03	0	43	0	822083584	22	4792
2026-01-09 01:35:01.04	262.54	32.14	-30.8	-33.3	11.7	8.12e-04	0	43	0	824180736	21	4819
2026-01-09 01:35:02.32	262.19	31.97	-30.9	-33.5	11.6	7.54e-04	0	43	0	826277888	21	4901
2026-01-09 01:35:03.04	261.99	31.87	-30.9	-33.1	11.6	5.12e-03	0	43	0	827326464	22	4648
2026-01-09 01:35:04.33	261.64	31.69	-30.5	-32.4	12.3	4.21e-04	0	43	0	830472192	21	4487
2026-01-09 01:35:05.05	261.45	31.60	-30.7	-32.8	12.1	2.24e-03	0	43	0	831520768	21	4637
2026-01-09 01:35:06.35	261.10	31.42	-30.7	-32.8	12.1	2.21e-04	0	43	0	833617920	21	4621
2026-01-09 01:35:07.06	260.92	31.32	-30.6	-32.6	12.1	1.65e-03	0	43	0	834666496	21	4558
2026-01-09 01:35:08.35	260.58	31.15	-30.5	-32.5	12.2	1.82e-03	0	43	0	837812224	21	4522
2026-01-09 01:35:09.07	260.39	31.05	-30.4	-32.6	12.5	1.49e-03	0	43	0	838860800	20	4652
2026-01-09 01:35:10.37	260.06	30.87	-31.0	-33.8	11.4	6.05e-04	0	43	0	840957952	21	5005
2026-01-09 01:35:11.09	259.87	30.78	-31.2	-34.0	10.8	3.07e-03	0	43	0	843055104	22	4963
2026-01-09 01:35:12.38	259.55	30.60	-31.6	-34.9	9.9	6.62e-03	0	43	0	845152256	23	5265
2026-01-09 01:35:13.10	259.37	30.50	-31.9	-36.0	9.0	1.63e-02	0	43	0	846200832	23	5801
2026-01-09 01:35:14.38	259.05	30.33	-32.2	-36.8	7.9	4.12e-02	0	43	0	849346560	24	6143
2026-01-09 01:35:15.09	258.87	30.23	-32.3	-37.3	7.6	5.96e-02	0	43	0	850395136	24	6397
2026-01-09 01:35:16.38	258.56	30.06	-31.9	-35.6	8.8	4.49e-02	0	43	0	852492288	24	5514
2026-01-09 01:35:17.10	258.38	29.96	-31.6	-34.9	9.8	2.90e-02	0	43	0	853540864	23	5257
2026-01-09 01:35:18.39	258.07	29.79	-31.4	-34.9	10.1	8.52e-03	0	43	0	856686592	22	5377
2026-01-09 01:35:19.12	257.90	29.69	-31.2	-34.2	10.6	3.77e-03	0	43	0	857735168	22	5087
2026-01-09 01:35:20.41	257.59	29.51	-31.2	-34.3	10.6	3.57e-03	0	43	0	859832320	22	5095
2026-01-09 01:35:21.12	257.43	29.42	-31.2	-34.2	10.6	2.67e-03	0	43	0	861929472	22	5077
2026-01-09 01:35:22.42	257.12	29.24	-31.0	-33.5	11.2	1.50e-03	0	43	0	864026624	22	4799
2026-01-09 01:35:23.13	256.96	29.14	-30.7	-32.5	11.8	1.03e-03	0	43	0	865075200	22	4451
2026-01-09 01:35:24.43	256.66	28.97	-30.5	-32.9	12.2	2.45e-04	0	43	0	867172352	20	4769
2026-01-09 01:35:25.14	256.50	28.87	-30.4	-32.3	12.4	1.33e-04	0	43	0	869269504	21	4460
2026-01-09 01:35:26.44	256.21	28.70	-30.7	-33.2	11.7	2.03e-03	0	43	0	871366656	21	4787
2026-01-09 01:35:27.16	256.05	28.60	-30.6	-32.9	11.9	5.01e-04	0	43	0	872415232	21	4666
2026-01-09 01:35:28.45	255.76	28.43	-30.4	-32.1	12.4	1.35e-04	0	43	0	875560960	21	4396
2026-01-09 01:35:29.17	255.61	28.33	-30.2	-31.6	12.7	1.02e-04	0	43	0	876609536	21	4228
2026-01-09 01:35:30.47	255.32	28.16	-30.2	-32.2	12.7	4.73e-05	0	43	0	878706688	20	4512
2026-01-09 01:35:31.19	255.17	28.06	-30.0	-31.6	13.1	4.42e-05	0	43	0	880803840	20	4331
2026-01-09 01:35:32.48	254.89	27.89	-30.2	-32.0	12.9	1.09e-03	0	43	0	882900992	20	4446
2026-01-09 01:35:33.20	254.74	27.79	-30.3	-32.5	12.5	6.02e-05	0	43	0	883949568	20	4614
2026-01-09 01:35:34.49	254.47	27.62	-30.5	-32.5	12.2	1.23e-04	0	43	0	886046720	21	4521
2026-01-09 01:35:35.22	254.32	27.52	-30.7	-33.1	11.7	5.10e-04	0	43	0	888143872	21	4741
2026-01-09 01:35:36.51	254.05	27.35	-31.0	-33.5	11.1	1.13e-03	0	43	0	890241024	22	4813
2026-01-09 01:35:37.23	253.91	27.26	-31.3	-34.4	10.4	1.92e-03	0	43	0	891289600	22	5157
2026-01-09 01:35:38.52	253.64	27.09	-30.5	-32.0	12.1	9.57e-04	0	43	0	894435328	22	4290
2026-01-09 01:35:39.24	253.50	26.99	-30.6	-32.2	12.0	2.94e-04	0	43	0	895483904	22	4340
2026-01-09 01:35:40.54	253.24	26.82	-30.3	-31.4	12.5	1.65e-04	0	43	0	897581056	22	4101
2026-01-09 01:35:41.25	253.10	26.73	-30.3	-32.0	12.5	1.42e-04	0	43	0	899678208	21	4366
2026-01-09 01:35:42.55	252.84	26.55	-30.0	-31.7	13.0	2.30e-03	0	43	0	901775360	20	4353
2026-01-09 01:35:43.27	252.70	26.46	-29.7	-30.9	13.5	3.35e-05	0	43	0	902823936	20	4101
2026-01-09 01:35:44.57	252.45	26.29	-29.9	-31.7	13.3	2.43e-03	0	43	0	905969664	19	4457
2026-01-09 01:35:45.29	252.32	26.20	-29.9	-31.4	13.1	2.05e-05	0	43	0	907018240	20	4264
2026-01-09 01:35:46.59	252.07	26.03	-29.6	-30.4	13.8	1.80e-04	0	43	0	909115392	20	3955
2026-01-09 01:35:47.31	251.93	25.93	-29.7	-31.4	13.6	2.13e-03	0	43	0	910163968	19	4351
2026-01-09 01:35:48.60	251.69	25.77	-30.1	-31.8	12.9	1.67e-05	0	43	0	913309696	20	4406
2026-01-09 01:35:49.31	251.56	25.67	-29.9	-31.4	13.2	4.95e-05	0	43	0	914358272	20	4278
2026-01-09 01:35:50.60	251.32	25.51	-29.9	-31.2	13.3	2.14e-03	0	43	0	916455424	20	4207
2026-01-09 01:35:51.32	251.19	25.42	-30.0	-31.7	13.0	1.68e-03	0	43	0	918552576	20	4376
2026-01-09 01:35:52.62	250.96	25.25	-30.1	-31.9	12.8	5.18e-05	0	43	0	920649728	20	4425
2026-01-09 01:35:53.33	250.83	25.16	-30.2	-32.2	12.5	6.25e-05	0	43	0	921698304	20	4546
2026-01-09 01:35:54.62	250.60	24.99	-30.6	-32.9	11.7	2.15e-04	0	43	0	923795456	21	4709
2026-01-09 01:35:55.34	250.48	24.90	-30.4	-32.3	12.1	3.78e-04	0	43	0	925892608	21	4479
2026-01-09 01:35:56.63	250.25	24.74	-30.6	-33.0	11.7	9.85e-04	0	43	0	927989760	21	4736
2026-01-09 01:35:57.35	250.13	24.65	-30.7	-33.2	11.5	5.31e-04	0	43	0	929038336	21	4810
2026-01-09 01:35:58.64	249.90	24.48	-30.6	-32.8	11.8	8.33e-04	0	43	0	932184064	21	4669
2026-01-09 01:35:59.36	249.78	24.39	-30.6	-33.0	11.6	6.97e-04	0	43	0	933232640	21	4746
2026-01-09 01:36:00.65	249.56	24.23	-30.9	-33.8	11.1	4.16e-03	0	43	0	935329792	21	5038
2026-01-09 01:36:01.39	249.44	24.14	-30.9	-33.8	11.1	2.67e-03	0	43	0	937426944	21	5048
2026-01-09 01:36:02.68	249.22	23.97	-30.8	-33.5	11.3	1.03e-03	0	43	0	939524096	21	4915
2026-01-09 01:36:03.40	249.11	23.89	-30.9	-33.9	10.9	1.15e-03	0	43	0	940572672	21	5087
2026-01-09 01:36:04.68	248.90	23.73	-30.7	-33.1	11.6	2.56e-03	0	43	0	942669824	21	4761
2026-01-09 01:36:05.40	248.78	23.64	-30.8	-33.6	11.2	4.78e-03	0	43	0	944766976	21	4969
2026-01-09 01:36:06.70	248.57	23.48	-30.5	-32.6	11.9	2.16e-03	0	43	0	946864128	21	4574
2026-01-09 01:36:07.42	248.46	23.39	-30.4	-32.7	12.3	9.09e-04	0	43	0	947912704	20	4720
2026-01-09 01:36:08.71	248.25	23.23	-30.2	-32.1	12.6	3.58e-03	0	43	0	951058432	20	4504
2026-01-09 01:36:09.43	248.14	23.14	-30.0	-31.7	12.9	3.16e-03	0	43	0	952107008	20	4376
2026-01-09 01:36:10.72	247.94	22.98	-29.7	-30.7	13.6	4.69e-04	0	43	0	954204160	20	4056
2026-01-09 01:36:11.44	247.82	22.89	-30.1	-32.0	12.7	3.03e-03	0	43	0	956301312	20	4441
2026-01-09 01:36:12.73	247.63	22.74	-30.6	-33.0	11.7	6.70e-04	0	43	0	958398464	21	4708
2026-01-09 01:36:13.45	247.52	22.65	-30.0	-31.6	13.0	6.20e-04	0	43	0	959447040	20	4334
2026-01-09 01:36:14.74	247.32	22.49	-30.3	-32.3	12.4	3.54e-03	0	43	0	961544192	20	4578
2026-01-09 01:36:15.46	247.21	22.41	-30.4	-32.7	12.2	2.67e-03	0	43	0	963641344	20	4691
2026-01-09 01:36:16.75	247.02	22.25	-30.1	-32.0	12.7	1.25e-03	0	43	0	965738496	20	4455
2026-01-09 01:36:17.47	246.92	22.16	-30.0	-31.7	12.8	3.54e-03	0	43	0	966787072	20	4355
2026-01-09 01:36:18.76	246.73	22.01	-29.9	-32.0	13.0	2.23e-03	0	43	0	969932800	19	4558
2026-01-09 01:36:19.48	246.62	21.92	-30.0	-32.1	13.0	3.29e-04	0	43	0	970981376	19	4587
2026-01-09 01:36:20.77	246.44	21.77	-29.7	-31.2	13.5	9.22e-04	0	43	0	973078528	19	4302
2026-01-09 01:36:21.48	246.34	21.69	-29.7	-31.4	13.4	1.25e-03	0	43	0	975175680	19	4347
2026-01-09 01:36:22.77	246.15	21.54	-29.7	-31.2	13.6	1.22e-05	0	43	0	977272832	19	4294
2026-01-09 01:36:23.48	246.05	21.45	-29.9	-31.8	13.1	1.53e-03	0	43	0	978321408	19	4479
2026-01-09 01:36:24.78	245.87	21.30	-30.2	-32.2	12.5	9.76e-05	0	43	0	980418560	20	4542
2026-01-09 01:36:25.50	245.77	21.21	-30.6	-32.9	11.8	5.03e-04	0	43	0	982515712	21	4668
2026-01-09 01:36:26.79	245.59	21.06	-31.1	-33.9	10.6	1.91e-03	0	43	0	984612864	22	4965
2026-01-09 01:36:27.51	245.50	20.98	-31.2	-34.3	10.2	5.58e-03	0	43	0	985661440	22	5140
2026-01-09 01:36:28.80	245.32	20.83	-31.5	-35.1	10.0	5.69e-03	0	43	0	988807168	22	5492
2026-01-09 01:36:29.52	245.22	20.75	-31.3	-34.0	10.2	7.03e-03	0	43	0	989855744	23	4923
2026-01-09 01:36:30.82	245.05	20.60	-31.4	-34.2	10.0	7.41e-03	0	43	0	991952896	23	5018
2026-01-09 01:36:31.53	244.96	20.52	-31.5	-35.1	9.8	9.09e-03	0	43	0	993001472	22	5471
2026-01-09 01:36:32.83	244.79	20.37	-31.1	-34.0	10.5	6.93e-03	0	43	0	996147200	22	5013
2026-01-09 01:36:33.56	244.69	20.28	-31.1	-33.8	10.7	4.00e-03	0	43	0	997195776	22	4931
2026-01-09 01:36:34.85	244.52	20.14	-31.0	-33.5	10.9	3.31e-03	0	43	0	999292928	22	4804
2026-01-09 01:36:35.57	244.43	20.06	-30.7	-33.2	11.5	3.23e-03	0	43	0	1001390080	21	4783
2026-01-09 01:36:36.86	244.27	19.91	-30.6	-32.8	11.9	4.75e-04	0	43	0	1003487232	21	4653
2026-01-09 01:36:37.59	244.18	19.83	-30.4	-32.4	12.0	4.07e-04	0	43	0	1004535808	21	4499
2026-01-09 01:36:38.88	244.01	19.68	-30.4	-32.3	12.1	1.84e-03	0	43	0	1007681536	21	4477
2026-01-09 01:36:39.59	243.92	19.60	-30.4	-32.8	12.1	2.37e-03	0	43	0	1008730112	20	4727
2026-01-09 01:36:40.89	243.76	19.46	-30.3	-32.4	12.2	1.28e-04	0	43	0	1010827264	20	4615
2026-01-09 01:36:41.62	243.67	19.38	-30.5	-32.5	11.9	5.22e-04	0	43	0	1012924416	21	4560
2026-01-09 01:36:42.92	243.52	19.23	-30.4	-32.8	11.9	3.30e-04	0	43	0	1015021568	20	4732
2026-01-09 01:36:43.64	243.43	19.15	-30.5	-32.4	11.9	1.77e-03	0	43	0	1016070144	21	4522
2026-01-09 01:36:44.93	243.27	19.01	-30.5	-32.7	11.7	5.91e-04	0	43	0	1018167296	21	4626
2026-01-09 01:36:45.65	243.19	18.93	-30.5	-32.5	11.8	4.99e-04	0	43	0	1020264448	21	4559
2026-01-09 01:36:46.94	243.04	18.79	-30.4	-32.9	12.0	3.97e-04	0	43	0	1022361600	20	4765
2026-01-09 01:36:47.66	242.95	18.71	-30.3	-32.4	12.3	1.81e-04	0	43	0	1023410176	20	4602
2026-01-09 01:36:48.95	242.80	18.57	-30.0	-31.7	12.7	1.19e-04	0	43	0	1026555904	20	4369
2026-01-09 01:36:49.67	242.72	18.49	-29.8	-31.2	13.1	5.32e-04	0	43	0	1027604480	20	4211
2026-01-09 01:36:50.97	242.57	18.35	-29.7	-31.3	13.4	3.81e-05	0	43	0	1029701632	19	4321
2026-01-09 01:36:51.69	242.49	18.28	-29.7	-31.1	13.5	6.80e-06	0	43	0	1031798784	19	4278
2026-01-09 01:36:52.97	242.34	18.14	-29.4	-30.4	14.0	6.10e-06	0	43	0	1033895936	19	4055
2026-01-09 01:36:53.70	242.26	18.06	-29.3	-30.3	14.1	3.70e-04	0	43	0	1034944512	19	4024
2026-01-09 01:36:55.00	242.11	17.92	-29.6	-31.1	13.4	3.80e-06	0	43	0	1037041664	19	4274
2026-01-09 01:36:55.71	242.04	17.85	-29.8	-31.6	13.2	1.14e-05	0	43	0	1039138816	19	4413
2026-01-09 01:36:57.01	241.89	17.71	-30.0	-31.5	12.9	4.27e-05	0	43	0	1041235968	20	4326
2026-01-09 01:36:57.72	241.82	17.64	-30.0	-31.7	12.7	8.01e-05	0	43	0	1042284544	20	4368
2026-01-09 01:36:59.02	241.67	17.50	-30.3	-32.5	12.1	1.01e-03	0	43	0	1045430272	20	4653
2026-01-09 01:36:59.74	241.60	17.42	-30.4	-32.8	11.9	2.63e-04	0	43	0	1046478848	20	4737
2026-01-09 01:37:01.03	241.46	17.29	-30.4	-32.4	11.9	5.18e-04	0	43	0	1048576000	21	4516
2026-01-09 01:37:01.74	241.38	17.21	-30.3	-32.0	12.1	3.38e-04	0	43	0	1049624576	21	4389
2026-01-09 01:37:03.04	241.25	17.08	-30.1	-32.1	12.3	2.73e-03	0	43	0	1052770304	20	4512
2026-01-09 01:37:03.76	241.17	17.00	-30.0	-31.9	12.4	1.98e-04	0	43	0	1053818880	20	4475
2026-01-09 01:37:05.06	241.04	16.87	-30.1	-31.9	12.5	1.41e-04	0	43	0	1055916032	20	4446
2026-01-09 01:37:05.78	240.96	16.80	-30.1	-32.4	11.7	9.38e-05	0	43	0	1058013184	19	4708
2026-01-09 01:37:07.07	240.83	16.66	-30.2	-32.2	12.3	1.60e-03	0	43	0	1060110336	20	4560
2026-01-09 01:37:07.79	240.76	16.59	-30.0	-31.8	11.3	1.42e-04	0	43	0	1061158912	20	4425
2026-01-09 01:37:09.08	240.63	16.46	-30.2	-32.3	12.2	3.78e-03	0	43	0	1064304640	20	4582
2026-01-09 01:37:09.80	240.55	16.39	-30.2	-32.4	12.0	1.47e-04	0	43	0	1065353216	20	4609
2026-01-09 01:37:11.09	240.43	16.26	-30.2	-32.3	12.2	4.33e-03	0	43	0	1067450368	20	4587
2026-01-09 01:37:11.81	240.36	16.18	-30.2	-32.3	12.2	1.84e-04	0	43	0	1069547520	20	4591
2026-01-09 01:37:13.10	240.23	16.05	-30.3	-32.6	12.0	2.33e-03	0	43	0	1071644672	20	4690
2026-01-09 01:37:13.82	240.16	15.98	-30.3	-32.5	12.0	3.15e-04	0	43	0	1072693248	20	4662
2026-01-09 01:37:15.12	240.03	15.85	-30.1	-32.0	12.4	1.63e-04	0	43	0	1074790400	20	4474
2026-01-09 01:37:15.84	239.96	15.78	-30.1	-32.0	12.3	1.30e-04	0	43	0	1076887552	20	4500
2026-01-09 01:37:17.13	239.84	15.65	-30.1	-31.9	12.5	3.14e-03	0	43	0	1078984704	20	4464
2026-01-09 01:37:17.84	239.77	15.58	-30.3	-32.6	12.0	3.04e-03	0	43	0	1080033280	20	4692
2026-01-09 01:37:19.13	239.65	15.46	-30.3	-32.7	11.9	1.41e-03	0	43	0	1083179008	20	4749
2026-01-09 01:37:19.85	239.58	15.38	-30.3	-32.6	12.0	4.61e-04	0	43	0	1084227584	20	4704
2026-01-09 01:37:21.14	239.46	15.26	-30.9	-34.1	10.6	2.44e-03	0	43	0	1086324736	21	5209
2026-01-09 01:37:21.86	239.40	15.19	-31.1	-34.2	10.0	7.31e-03	0	43	0	1088421888	22	5154
2026-01-09 01:37:23.14	239.28	15.06	-31.0	-33.8	10.6	3.51e-03	0	43	0	1090519040	22	4959
2026-01-09 01:37:23.86	239.21	14.99	-30.9	-33.4	10.7	4.36e-03	0	43	0	1091567616	22	4812
2026-01-09 01:37:25.14	239.10	14.87	-31.1	-34.1	10.1	7.24e-03	0	43	0	1093664768	22	5109
2026-01-09 01:37:25.86	239.03	14.80	-31.2	-34.6	9.8	9.84e-03	0	43	0	1095761920	22	5327
2026-01-09 01:37:27.15	238.92	14.68	-30.7	-33.5	11.0	3.42e-03	0	43	0	1097859072	21	4933
2026-01-09 01:37:27.87	238.85	14.61	-30.8	-33.6	10.8	2.28e-03	0	43	0	1098907648	21	4977
2026-01-09 01:37:29.17	238.74	14.48	-30.6	-33.3	11.0	2.20e-03	0	43	0	1102053376	21	4872
2026-01-09 01:37:29.89	238.68	14.42	-30.7	-33.4	11.0	1.78e-03	0	43	0	1103101952	21	4903
2026-01-09 01:37:31.18	238.56	14.29	-31.1	-34.3	9.9	1.28e-02	0	43	0	1105199104	22	5189
2026-01-09 01:37:31.90	238.50	14.23	-30.7	-33.0	11.0	9.49e-03	0	43	0	1106247680	22	4676
2026-01-09 01:37:33.18	238.39	14.11	-31.0	-33.8	10.3	6.10e-03	0	43	0	1109393408	22	4992
2026-01-09 01:37:33.90	238.33	14.04	-30.9	-34.0	10.6	4.36e-03	0	43	0	1110441984	21	5147
2026-01-09 01:37:35.20	238.22	13.92	-30.6	-32.6	11.1	5.17e-03	0	43	0	1112539136	22	4522
2026-01-09 01:37:35.92	238.16	13.85	-30.8	-33.4	10.5	6.31e-03	0	43	0	1114636288	22	4821
2026-01-09 01:37:37.21	238.05	13.73	-30.8	-33.2	10.6	1.12e-02	0	43	0	1116733440	22	4733
2026-01-09 01:37:37.93	237.99	13.66	-30.5	-32.8	11.3	6.06e-03	0	43	0	1117782016	21	4693
2026-01-09 01:37:39.22	237.89	13.54	-30.8	-33.7	10.8	9.06e-04	0	43	0	1120927744	21	5027
2026-01-09 01:37:39.94	237.83	13.48	-30.4	-32.5	11.5	2.43e-03	0	43	0	1121976320	21	4599
2026-01-09 01:37:41.23	237.72	13.36	-30.6	-33.2	11.1	4.40e-03	0	43	0	1124073472	21	4842
2026-01-09 01:37:41.95	237.66	13.29	-30.7	-33.4	10.8	5.00e-03	0	43	0	1125122048	21	4945
2026-01-09 01:37:43.25	237.56	13.17	-30.4	-32.7	11.5	5.90e-04	0	43	0	1128267776	21	4657
2026-01-09 01:37:43.96	237.50	13.11	-30.3	-32.2	11.7	1.08e-03	0	43	0	1129316352	21	4487
2026-01-09 01:37:45.25	237.40	12.99	-30.5	-33.0	11.0	4.53e-03	0	43	0	1131413504	21	4787
2026-01-09 01:37:45.97	237.34	12.93	-30.5	-33.1	11.1	2.17e-03	0	43	0	1133510656	21	4827
2026-01-09 01:37:47.26	237.24	12.81	-30.4	-32.6	11.4	2.18e-03	0	43	0	1135607808	21	4620
2026-01-09 01:37:47.98	237.19	12.75	-30.2	-32.4	11.9	3.32e-03	0	43	0	1136656384	20	4664
2026-01-09 01:37:49.27	237.09	12.63	-30.0	-32.0	12.2	2.42e-04	0	43	0	1139802112	20	4505
2026-01-09 01:37:49.98	237.03	12.57	-30.3	-32.9	11.6	3.40e-03	0	43	0	1140850688	20	4829
2026-01-09 01:37:51.28	236.93	12.45	-30.1	-32.3	12.0	2.89e-03	0	43	0	1142947840	20	4612
2026-01-09 01:37:52.00	236.88	12.39	-30.5	-33.4	11.4	5.13e-04	0	43	0	1143996416	20	5013
2026-01-09 01:37:53.29	236.78	12.27	-30.6	-33.2	11.0	2.07e-03	0	43	0	1147142144	21	4875
2026-01-09 01:37:54.01	236.73	12.21	-30.4	-33.0	11.5	4.55e-03	0	43	0	1148190720	20	4878
2026-01-09 01:37:55.30	236.63	12.10	-30.7	-33.7	10.5	2.10e-03	0	43	0	1150287872	21	5063
2026-01-09 01:37:56.02	236.58	12.03	-30.6	-33.1	11.0	6.94e-03	0	43	0	1152385024	21	4806
2026-01-09 01:37:57.31	236.48	11.92	-30.6	-33.4	10.9	2.23e-03	0	43	0	1154482176	21	4937
2026-01-09 01:37:58.03	236.43	11.86	-30.7	-33.6	10.6	6.00e-03	0	43	0	1155530752	21	5009
2026-01-09 01:37:59.33	236.33	11.75	-30.6	-33.3	10.9	1.62e-03	0	43	0	1157627904	21	4905
2026-01-09 01:38:00.05	236.28	11.68	-30.8	-34.0	10.3	5.56e-03	0	43	0	1159725056	21	5194
2026-01-09 01:38:01.35	236.19	11.57	-30.6	-33.3	10.8	3.15e-03	0	43	0	1161822208	21	4922
2026-01-09 01:38:02.06	236.14	11.51	-30.6	-33.1	10.9	4.64e-03	0	43	0	1162870784	21	4843
2026-01-09 01:38:03.35	236.05	11.40	-30.7	-33.6	10.6	1.28e-03	0	43	0	1166016512	21	5018
2026-01-09 01:38:04.07	235.99	11.34	-30.5	-33.0	11.0	3.17e-03	0	43	0	1167065088	21	4797
2026-01-09 01:38:05.37	235.90	11.23	-30.6	-33.3	10.6	2.64e-03	0	43	0	1169162240	21	4900
2026-01-09 01:38:06.09	235.85	11.17	-30.7	-33.5	10.6	5.42e-03	0	43	0	1171259392	21	4995
2026-01-09 01:38:07.38	235.76	11.06	-30.9	-34.2	10.1	4.42e-03	0	43	0	1173356544	21	5291
2026-01-09 01:38:08.09	235.71	11.00	-30.9	-34.0	9.8	1.36e-02	0	43	0	1174405120	22	5102
2026-01-09 01:38:09.38	235.63	10.89	-30.6	-33.4	10.6	3.20e-03	0	43	0	1176502272	21	4980
2026-01-09 01:38:10.10	235.58	10.83	-30.5	-33.0	11.0	3.81e-03	0	43	0	1178599424	21	4817
2026-01-09 01:38:11.40	235.49	10.72	-30.6	-33.4	10.7	2.28e-03	0	43	0	1180696576	21	4945
2026-01-09 01:38:12.11	235.44	10.66	-30.8	-34.1	10.2	6.26e-03	0	43	0	1181745152	21	5226
2026-01-09 01:38:13.40	235.36	10.55	-31.0	-34.6	9.7	1.24e-02	0	43	0	1184890880	21	5478
2026-01-09 01:38:14.12	235.31	10.49	-31.0	-34.3	9.6	1.21e-02	0	43	0	1185939456	22	5266
2026-01-09 01:38:15.42	235.22	10.38	-30.9	-34.3	9.8	7.26e-03	0	43	0	1188036608	21	5356
2026-01-09 01:38:16.13	235.17	10.33	-31.0	-34.4	9.5	1.11e-02	0	43	0	1190133760	22	5324
2026-01-09 01:38:17.43	235.09	10.22	-31.2	-35.0	8.9	2.65e-02	0	43	0	1192230912	22	5578
2026-01-09 01:38:18.15	235.04	10.16	-31.3	-35.3	8.8	2.73e-02	0	43	0	1193279488	22	5751
2026-01-09 01:38:19.45	234.96	10.05	-31.3	-35.3	8.8	2.29e-02	0	43	0	1195376640	22	5731
2026-01-09 01:38:20.16	234.91	9.99	-31.4	-36.0	8.3	3.46e-02	0	43	0	1197473792	22	6080
2026-01-09 01:38:21.46	234.83	9.89	-31.2	-35.1	8.8	5.44e-02	0	43	0	1199570944	22	5648
2026-01-09 01:38:22.18	234.79	9.83	-31.3	-35.5	8.6	2.91e-02	0	43	0	1200619520	22	5843
2026-01-09 01:38:23.47	234.70	9.73	-31.4	-35.8	8.3	5.26e-02	0	43	0	1203765248	22	5980
2026-01-09 01:38:24.19	234.66	9.67	-31.4	-35.8	8.3	4.80e-02	0	43	0	1204813824	22	5982
2026-01-09 01:38:25.48	234.58	9.56	-31.6	-36.2	7.6	7.38e-02	0	43	0	1206910976	23	6137
2026-01-09 01:38:26.20	234.53	9.51	-31.5	-35.9	7.9	8.39e-02	0	43	0	1207959552	23	5952
2026-01-09 01:38:27.50	234.45	9.40	-31.3	-35.6	8.5	4.02e-02	0	43	0	1211105280	22	5896
2026-01-09 01:38:28.21	234.41	9.35	-31.1	-34.9	9.0	2.86e-02	0	43	0	1212153856	22	5561
2026-01-09 01:38:29.51	234.33	9.24	-30.9	-34.5	9.7	1.76e-02	0	43	0	1214251008	21	5437
2026-01-09 01:38:30.23	234.29	9.19	-30.8	-34.3	9.8	1.16e-02	0	43	0	1216348160	21	5379
2026-01-09 01:38:31.52	234.21	9.08	-30.8	-34.4	9.9	8.80e-03	0	43	0	1218445312	21	5388
2026-01-09 01:38:32.24	234.17	9.03	-30.7	-33.7	10.3	7.13e-03	0	43	0	1219493888	21	5117
2026-01-09 01:38:33.53	234.09	8.92	-30.6	-33.6	10.3	4.96e-03	0	43	0	1222639616	21	5071
2026-01-09 01:38:34.25	234.05	8.87	-30.6	-33.5	10.4	4.29e-03	0	43	0	1223688192	21	5030
2026-01-09 01:38:35.54	233.97	8.77	-30.5	-33.2	10.6	4.95e-03	0	43	0	1225785344	21	4927
2026-01-09 01:38:36.26	233.93	8.71	-30.7	-33.8	10.1	4.33e-03	0	43	0	1227882496	21	5160
2026-01-09 01:38:37.55	233.85	8.61	-30.5	-33.3	10.3	8.86e-03	0	43	0	1229979648	21	4975
2026-01-09 01:38:38.27	233.81	8.56	-30.5	-33.6	10.4	2.73e-03	0	43	0	1231028224	20	5185
2026-01-09 01:38:39.56	233.74	8.46	-30.4	-33.4	10.8	2.75e-03	0	43	0	1233125376	20	5084
2026-01-09 01:38:40.28	233.70	8.40	-30.5	-33.6	10.2	2.46e-03	0	43	0	1235222528	20	5188
2026-01-09 01:38:41.58	233.62	8.30	-30.4	-33.4	10.8	3.12e-03	0	43	0	1237319680	20	5098
2026-01-09 01:38:42.30	233.58	8.24	-30.4	-32.8	10.8	3.01e-03	0	43	0	1238368256	21	4757
2026-01-09 01:38:43.59	233.51	8.15	-30.3	-33.1	10.9	5.54e-03	0	43	0	1241513984	20	4986
2026-01-09 01:38:44.31	233.47	8.09	-30.4	-33.4	10.7	3.73e-03	0	43	0	1242562560	20	5107
2026-01-09 01:38:45.60	233.40	7.99	-30.4	-33.5	10.7	3.66e-03	0	43	0	1244659712	20	5159
2026-01-09 01:38:46.32	233.36	7.94	-30.7	-34.0	10.0	5.14e-03	0	43	0	1246756864	21	5247
2026-01-09 01:38:47.61	233.29	7.84	-30.6	-33.6	10.2	1.02e-02	0	43	0	1248854016	21	5089
2026-01-09 01:38:48.33	233.25	7.79	-30.5	-33.7	10.5	4.94e-03	0	43	0	1249902592	20	5220
2026-01-09 01:38:49.64	233.18	7.69	-30.5	-33.4	10.3	6.75e-03	0	43	0	1251999744	21	5031
2026-01-09 01:38:50.35	233.14	7.63	-30.6	-33.8	10.0	5.84e-03	0	43	0	1254096896	21	5182
2026-01-09 01:38:51.64	233.07	7.54	-30.7	-33.9	9.9	1.31e-02	0	43	0	1256194048	21	5236
2026-01-09 01:38:52.36	233.03	7.48	-30.6	-33.8	10.0	8.56e-03	0	43	0	1257242624	21	5194
2026-01-09 01:38:53.65	232.96	7.39	-30.7	-33.9	9.9	1.21e-02	0	43	0	1260388352	21	5240
2026-01-09 01:38:54.37	232.92	7.33	-30.7	-34.2	9.6	9.53e-03	0	43	0	1261436928	21	5359
2026-01-09 01:38:55.65	232.85	7.24	-30.7	-34.0	9.7	1.46e-02	0	43	0	1263534080	21	5270
2026-01-09 01:38:56.37	232.82	7.19	-30.7	-34.0	9.7	1.19e-02	0	43	0	1264582656	21	5296
2026-01-09 01:38:57.66	232.75	7.09	-32.7	-45.1	3.8	1.27e+00	0	43	104	1266679808	25	14934
2026-01-09 01:38:58.38	232.71	7.04	-33.0	-45.6	3.8	1.49e+00	0	43	104	1266679808	25	15430

#Closed at: 2026-01-09 01:38:59
#Recorded file [1266 MB]: D:/data/31010_260109_042741.dat