passes_logs/2026/01/09/R2M6_AANII_01/R2M6_AANII_01__20260109_023838_NOAA_21_JPSS-2_rec.log

#Pass ID: 20260109_023838_NOAA 21 (JPSS-2)
#Satellite: NOAA 21 (JPSS-2)
#Configuration: NOAA 21
#almurnet v.1.7.20240730
#Start time: 2026-01-09 02:42:50

#Version: 2.2.20231116
#Station: R2M6_AANII_01
#Location: 30.233357 lon 59.946436 lat
#TLE: 1 54234U 22150A   26008.45757862  .00000119  00000+0  77172-4 0  9996
#TLE: 2 54234  98.7494 309.4367 0000894 328.2777  31.8345 14.19533328163889

#Time	Az	El	Level	Level2	SNR	BER	BlckErr	Temp	State	Recorded	gain1	gain2
2026-01-09 02:42:50.20	325.01	19.01	-33.4	-43.2	3.8	8.46e-01	0	43	0	0	26	11162
2026-01-09 02:42:51.18	324.77	19.02	-34.0	-45.7	3.8	1.49e+00	0	43	104	0	28	13977
2026-01-09 02:42:52.18	324.53	19.03	-34.0	-45.8	3.8	1.49e+00	0	43	104	0	28	14015
2026-01-09 02:42:53.18	324.29	19.04	-34.1	-46.0	3.8	1.49e+00	0	43	104	0	28	14166
2026-01-09 02:42:54.18	324.05	19.05	-34.1	-46.0	3.8	1.49e+00	0	43	104	0	28	14190
2026-01-09 02:42:55.19	323.81	19.06	-34.1	-46.0	3.8	1.49e+00	0	43	104	0	28	14247
2026-01-09 02:42:56.19	323.57	19.06	-34.1	-46.0	3.8	1.49e+00	0	43	104	0	28	14223
2026-01-09 02:42:57.19	323.33	19.07	-34.1	-46.0	3.8	1.49e+00	0	43	104	0	28	14258
2026-01-09 02:42:58.19	323.09	19.08	-34.1	-46.0	3.8	1.49e+00	0	43	104	0	28	14189
2026-01-09 02:42:59.18	322.85	19.08	-34.1	-46.0	3.8	1.49e+00	0	43	104	0	28	14201
2026-01-09 02:43:00.18	322.60	19.09	-34.1	-46.0	3.8	1.49e+00	0	43	104	0	28	14206
2026-01-09 02:43:01.17	322.37	19.09	-34.0	-46.0	3.8	1.49e+00	0	43	104	0	28	14212
2026-01-09 02:43:02.17	322.12	19.10	-34.1	-46.0	3.8	1.49e+00	0	43	104	0	28	14194
2026-01-09 02:43:03.17	321.88	19.10	-34.1	-45.9	3.8	1.49e+00	0	43	104	0	28	14121
2026-01-09 02:43:04.17	321.64	19.11	-34.1	-45.9	3.8	1.49e+00	0	43	104	0	28	14139
2026-01-09 02:43:05.16	321.40	19.11	-34.0	-45.9	3.8	1.49e+00	0	43	104	0	28	14110
2026-01-09 02:43:06.15	321.16	19.11	-34.1	-46.0	3.8	1.49e+00	0	43	104	0	28	14210
2026-01-09 02:43:07.16	320.92	19.12	-34.1	-46.0	3.8	1.49e+00	0	44	104	0	28	14178
2026-01-09 02:43:08.16	320.67	19.12	-34.0	-45.9	3.8	1.49e+00	0	43	104	0	28	14121
2026-01-09 02:43:09.16	320.43	19.12	-34.0	-45.9	3.8	1.49e+00	0	43	104	0	28	14093
2026-01-09 02:43:10.16	320.19	19.12	-34.0	-45.9	3.8	1.49e+00	0	43	104	0	28	14111
2026-01-09 02:43:11.17	319.95	19.12	-34.0	-45.8	3.8	1.49e+00	0	43	104	0	28	14059
2026-01-09 02:43:12.17	319.70	19.12	-34.0	-45.8	3.8	1.49e+00	0	43	104	0	28	14053
2026-01-09 02:43:13.18	319.46	19.12	-34.0	-45.8	3.8	1.49e+00	0	43	104	0	28	13989
2026-01-09 02:43:14.18	319.22	19.12	-34.0	-45.7	3.8	1.49e+00	0	43	104	0	28	13929
2026-01-09 02:43:15.19	318.97	19.11	-33.9	-45.7	3.8	1.49e+00	0	43	104	0	28	13909
2026-01-09 02:43:16.18	318.73	19.11	-33.9	-45.6	3.8	1.49e+00	0	43	104	0	28	13910
2026-01-09 02:43:17.18	318.49	19.11	-34.0	-46.2	3.8	1.49e+00	0	43	104	0	27	14798
2026-01-09 02:43:18.19	318.25	19.10	-32.8	-44.8	3.8	1.49e+00	0	43	104	0	27	14355
2026-01-09 02:43:19.18	318.01	19.10	-33.8	-45.9	3.9	1.49e+00	0	43	104	0	27	14542
2026-01-09 02:43:20.19	317.76	19.09	-33.7	-45.7	3.8	1.49e+00	0	43	104	0	27	14291
2026-01-09 02:43:21.20	317.52	19.09	-33.6	-45.3	3.7	1.49e+00	0	43	104	0	27	13841
2026-01-09 02:43:22.20	317.28	19.08	-33.5	-45.3	3.8	1.49e+00	0	43	104	0	27	13968
2026-01-09 02:43:23.21	317.03	19.08	-33.5	-45.3	3.8	1.49e+00	0	43	104	0	27	13977
2026-01-09 02:43:24.22	316.79	19.07	-33.5	-45.7	3.8	1.49e+00	0	43	104	0	26	14695
2026-01-09 02:43:25.23	316.55	19.06	-33.5	-45.5	3.8	1.49e+00	0	43	104	0	26	14465
2026-01-09 02:43:26.23	316.30	19.05	-33.4	-45.4	3.8	1.49e+00	0	43	104	0	26	14277
2026-01-09 02:43:27.22	316.07	19.05	-33.4	-45.4	3.8	1.49e+00	0	43	104	0	26	14232
2026-01-09 02:43:28.23	315.82	19.04	-33.5	-45.4	3.8	1.49e+00	0	43	104	0	26	14301
2026-01-09 02:43:29.22	315.58	19.03	-33.4	-45.5	3.8	1.49e+00	0	43	104	0	26	14357
2026-01-09 02:43:30.23	315.34	19.02	-33.5	-45.5	3.8	1.49e+00	0	43	104	0	26	14415
2026-01-09 02:43:31.23	315.10	19.01	-33.4	-45.5	3.8	1.49e+00	0	43	104	0	26	14418
2026-01-09 02:43:32.23	314.86	18.99	-33.4	-45.4	3.8	1.49e+00	0	43	104	0	26	14210
2026-01-09 02:43:33.24	314.62	18.98	-33.4	-45.2	3.8	1.49e+00	0	43	104	0	26	14049
2026-01-09 02:43:34.24	314.38	18.97	-33.4	-45.4	3.8	1.49e+00	0	43	104	0	26	14194
2026-01-09 02:43:35.23	314.14	18.96	-33.4	-45.5	3.8	1.49e+00	0	43	104	0	26	14473
2026-01-09 02:43:36.24	313.90	18.94	-33.4	-45.3	3.8	1.49e+00	0	43	104	0	26	14089
2026-01-09 02:43:37.25	313.66	18.93	-33.3	-44.2	3.8	1.49e+00	0	43	104	0	26	12667
2026-01-09 02:43:38.25	313.42	18.92	-33.1	-42.6	3.9	1.48e+00	0	43	104	0	26	10763
2026-01-09 02:43:39.25	313.18	18.90	-32.9	-41.2	4.5	1.42e+00	0	43	104	0	25	9322
2026-01-09 02:43:40.24	312.94	18.89	-32.7	-40.7	4.1	1.47e+00	0	43	104	0	25	9017
2026-01-09 02:43:41.25	312.70	18.87	-32.3	-38.6	5.9	4.70e-01	0	43	0	0	24	7373
2026-01-09 02:43:42.25	312.46	18.85	-31.6	-36.3	7.7	1.33e-01	0	43	0	3145728	23	6184
2026-01-09 02:43:43.25	312.22	18.84	-30.9	-34.3	9.6	2.40e-02	0	43	0	6291456	22	5324
2026-01-09 02:43:44.25	311.99	18.82	-30.2	-33.0	10.8	3.33e-03	0	43	0	9437184	21	4937
2026-01-09 02:43:45.25	311.75	18.80	-30.2	-33.3	10.9	5.85e-03	0	43	0	12582912	20	5160
2026-01-09 02:43:46.26	311.51	18.78	-30.3	-33.7	10.6	7.29e-03	0	43	0	15728640	20	5308
2026-01-09 02:43:47.27	311.27	18.76	-30.2	-33.5	10.8	2.77e-03	0	43	0	18874368	20	5245
2026-01-09 02:43:48.28	311.03	18.75	-30.2	-33.4	10.8	6.22e-03	0	43	0	22020096	20	5201
2026-01-09 02:43:49.27	310.80	18.73	-30.2	-33.3	10.9	6.35e-03	0	43	0	25165824	20	5164
2026-01-09 02:43:50.27	310.56	18.71	-30.1	-33.3	11.0	1.99e-03	0	43	0	28311552	20	5159
2026-01-09 02:43:51.27	310.33	18.68	-30.1	-33.0	11.1	6.18e-03	0	43	0	31457280	20	5066
2026-01-09 02:43:52.28	310.09	18.66	-29.6	-32.1	12.0	4.38e-03	0	43	0	34603008	19	4846
2026-01-09 02:43:53.27	309.86	18.64	-29.0	-30.8	12.9	1.14e-04	0	43	0	37748736	19	4418
2026-01-09 02:43:54.27	309.62	18.62	-28.5	-30.4	13.7	3.58e-03	0	43	0	40894464	17	4514
2026-01-09 02:43:55.27	309.39	18.60	-27.9	-29.7	14.4	0.00e+00	0	43	0	44040192	16	4402
2026-01-09 02:43:56.28	309.15	18.57	-27.6	-28.8	15.0	0.00e+00	0	43	0	47185920	16	4147
2026-01-09 02:43:57.28	308.92	18.55	-27.1	-28.8	15.4	3.41e-03	0	43	0	49283072	14	4377
2026-01-09 02:43:58.28	308.68	18.53	-27.0	-28.7	15.4	3.78e-03	0	43	0	52428800	14	4334
2026-01-09 02:43:59.28	308.45	18.50	-27.2	-29.1	15.2	0.00e+00	0	43	0	55574528	14	4446
2026-01-09 02:44:00.28	308.22	18.48	-27.2	-29.0	15.2	0.00e+00	0	43	0	58720256	14	4435
2026-01-09 02:44:01.27	307.99	18.45	-27.2	-29.1	15.2	0.00e+00	0	43	0	61865984	14	4468
2026-01-09 02:44:02.26	307.76	18.43	-27.4	-29.0	14.9	0.00e+00	0	43	0	65011712	15	4326
2026-01-09 02:44:03.27	307.53	18.40	-27.1	-28.8	15.3	3.95e-03	0	43	0	68157440	14	4386
2026-01-09 02:44:04.26	307.30	18.37	-26.9	-28.4	15.6	3.58e-03	0	43	0	71303168	14	4258
2026-01-09 02:44:05.27	307.07	18.34	-26.8	-28.0	15.7	0.00e+00	0	43	0	74448896	14	4165
2026-01-09 02:44:06.28	306.83	18.32	-26.8	-28.5	15.7	0.00e+00	0	43	0	77594624	13	4410
2026-01-09 02:44:07.29	306.60	18.29	-26.7	-28.5	15.7	3.73e-03	0	43	0	80740352	13	4403
2026-01-09 02:44:08.30	306.37	18.26	-26.6	-28.2	15.9	4.50e-06	0	43	0	83886080	13	4326
2026-01-09 02:44:09.29	306.14	18.23	-26.7	-28.3	15.8	2.95e-03	0	43	0	87031808	13	4361
2026-01-09 02:44:10.30	305.91	18.20	-26.7	-28.4	15.8	0.00e+00	0	43	0	90177536	13	4376
2026-01-09 02:44:11.31	305.68	18.17	-26.8	-28.5	15.7	0.00e+00	0	43	0	93323264	13	4411
2026-01-09 02:44:12.31	305.46	18.14	-26.8	-28.7	15.6	1.70e-03	0	43	0	96468992	13	4456
2026-01-09 02:44:13.31	305.23	18.11	-26.9	-28.9	15.5	3.04e-03	0	43	0	99614720	13	4533
2026-01-09 02:44:14.32	305.00	18.08	-27.0	-28.6	15.4	0.00e+00	0	43	0	102760448	14	4327
2026-01-09 02:44:15.33	304.77	18.05	-26.9	-28.9	15.5	0.00e+00	0	43	0	105906176	13	4511
2026-01-09 02:44:16.33	304.55	18.01	-26.9	-28.7	15.5	0.00e+00	0	43	0	109051904	13	4475
2026-01-09 02:44:17.33	304.32	17.98	-26.9	-28.7	15.6	1.21e-03	0	43	0	112197632	13	4472
2026-01-09 02:44:18.33	304.10	17.95	-26.9	-28.9	15.5	7.18e-04	0	43	0	115343360	13	4534
2026-01-09 02:44:19.32	303.87	17.91	-27.0	-28.5	15.5	0.00e+00	0	43	0	118489088	14	4304
2026-01-09 02:44:20.33	303.65	17.88	-26.9	-28.4	15.5	0.00e+00	0	43	0	121634816	14	4275
2026-01-09 02:44:21.34	303.42	17.85	-26.9	-28.9	15.5	0.00e+00	0	43	0	124780544	13	4535
2026-01-09 02:44:22.35	303.20	17.81	-26.9	-28.8	15.5	0.00e+00	0	43	0	127926272	13	4488
2026-01-09 02:44:23.35	302.98	17.78	-26.9	-28.9	15.5	1.97e-03	0	43	0	131072000	13	4508
2026-01-09 02:44:24.36	302.75	17.74	-26.8	-28.6	15.6	2.04e-03	0	43	0	134217728	13	4438
2026-01-09 02:44:25.36	302.53	17.70	-26.8	-28.7	15.6	0.00e+00	0	43	0	137363456	13	4467
2026-01-09 02:44:26.37	302.31	17.67	-27.0	-28.5	15.4	0.00e+00	0	43	0	140509184	14	4295
2026-01-09 02:44:27.37	302.09	17.63	-26.9	-28.7	15.5	1.65e-04	0	43	0	143654912	13	4474
2026-01-09 02:44:28.37	301.87	17.59	-26.9	-28.9	15.5	0.00e+00	0	43	0	146800640	13	4507
2026-01-09 02:44:29.36	301.65	17.56	-27.0	-28.6	15.3	1.75e-05	0	43	0	149946368	14	4329
2026-01-09 02:44:30.37	301.43	17.52	-27.2	-28.9	15.2	2.66e-04	0	43	0	153092096	14	4423
2026-01-09 02:44:31.38	301.21	17.48	-27.3	-29.3	15.0	0.00e+00	0	43	0	156237824	14	4539
2026-01-09 02:44:32.37	301.00	17.44	-27.2	-29.0	15.1	3.02e-04	0	43	0	159383552	14	4433
2026-01-09 02:44:33.38	300.78	17.40	-27.1	-28.9	15.2	2.12e-04	0	43	0	162529280	14	4399
2026-01-09 02:44:34.38	300.56	17.37	-27.1	-28.8	15.3	0.00e+00	0	43	0	165675008	14	4366
2026-01-09 02:44:35.38	300.35	17.33	-27.0	-28.6	15.4	0.00e+00	0	43	0	168820736	14	4316
2026-01-09 02:44:36.38	300.13	17.29	-27.0	-28.6	15.3	0.00e+00	0	43	0	171966464	14	4332
2026-01-09 02:44:37.39	299.92	17.25	-27.0	-28.6	15.3	0.00e+00	0	43	0	175112192	14	4330
2026-01-09 02:44:38.40	299.70	17.20	-26.9	-28.4	15.4	0.00e+00	0	43	0	178257920	14	4271
2026-01-09 02:44:39.39	299.49	17.16	-26.9	-28.9	15.4	0.00e+00	0	43	0	181403648	13	4520
2026-01-09 02:44:40.40	299.27	17.12	-26.9	-28.9	15.4	0.00e+00	0	43	0	184549376	13	4535
2026-01-09 02:44:41.40	299.06	17.08	-26.9	-28.9	15.4	0.00e+00	0	43	0	187695104	13	4527
2026-01-09 02:44:42.40	298.85	17.04	-27.0	-28.6	15.3	7.00e-07	0	43	0	190840832	14	4325
2026-01-09 02:44:43.38	298.64	17.00	-27.0	-29.0	15.4	0.00e+00	0	43	0	193986560	13	4558
2026-01-09 02:44:44.38	298.43	16.96	-27.1	-28.7	15.3	3.86e-04	0	43	0	197132288	14	4351
2026-01-09 02:44:45.39	298.22	16.91	-27.2	-29.0	15.1	8.14e-04	0	43	0	200278016	14	4424
2026-01-09 02:44:46.39	298.01	16.87	-27.1	-28.9	15.1	0.00e+00	0	43	0	203423744	14	4411
2026-01-09 02:44:47.40	297.80	16.83	-26.9	-28.4	15.4	8.44e-04	0	43	0	206569472	14	4276
2026-01-09 02:44:48.40	297.60	16.78	-26.8	-28.7	15.5	5.45e-04	0	43	0	209715200	13	4460
2026-01-09 02:44:49.39	297.39	16.74	-26.7	-28.4	15.7	0.00e+00	0	43	0	212860928	13	4375
2026-01-09 02:44:50.39	297.18	16.69	-26.8	-28.6	15.6	0.00e+00	0	43	0	216006656	13	4426
2026-01-09 02:44:51.40	296.98	16.65	-26.8	-28.6	15.6	0.00e+00	0	43	0	219152384	13	4430
2026-01-09 02:44:52.40	296.77	16.60	-26.8	-28.6	15.5	0.00e+00	0	43	0	222298112	13	4428
2026-01-09 02:44:53.40	296.57	16.56	-26.9	-28.8	15.4	0.00e+00	0	43	0	225443840	13	4503
2026-01-09 02:44:54.40	296.36	16.51	-27.1	-28.7	15.2	0.00e+00	0	43	0	228589568	14	4369
2026-01-09 02:44:55.40	296.16	16.47	-27.3	-29.2	15.0	0.00e+00	0	43	0	231735296	14	4493
2026-01-09 02:44:56.41	295.95	16.42	-27.4	-29.5	14.8	0.00e+00	0	43	0	234881024	14	4598
2026-01-09 02:44:57.41	295.75	16.37	-27.2	-29.1	15.0	0.00e+00	0	43	0	238026752	14	4467
2026-01-09 02:44:58.40	295.55	16.33	-27.2	-29.0	15.1	7.00e-07	0	43	0	241172480	14	4435
2026-01-09 02:44:59.40	295.35	16.28	-27.1	-28.8	15.2	1.51e-03	0	43	0	244318208	14	4385
2026-01-09 02:45:00.39	295.15	16.23	-27.1	-28.7	15.2	0.00e+00	0	43	0	247463936	14	4367
2026-01-09 02:45:01.39	294.95	16.19	-27.0	-28.5	15.3	0.00e+00	0	43	0	250609664	14	4299
2026-01-09 02:45:02.39	294.75	16.14	-26.8	-28.6	15.5	0.00e+00	0	43	0	252706816	13	4446
2026-01-09 02:45:03.40	294.55	16.09	-26.8	-28.7	15.5	2.03e-03	0	43	0	255852544	13	4455
2026-01-09 02:45:04.40	294.35	16.04	-26.7	-28.4	15.6	0.00e+00	0	43	0	260046848	13	4386
2026-01-09 02:45:05.40	294.16	15.99	-26.8	-28.7	15.5	0.00e+00	0	43	0	263192576	13	4463
2026-01-09 02:45:06.41	293.96	15.95	-26.9	-29.0	15.3	0.00e+00	0	43	0	266338304	13	4543
2026-01-09 02:45:07.42	293.76	15.90	-27.2	-29.0	15.1	1.50e-06	0	43	0	269484032	14	4429
2026-01-09 02:45:08.43	293.56	15.85	-27.4	-29.4	14.8	7.00e-07	0	43	0	272629760	14	4572
2026-01-09 02:45:09.42	293.37	15.80	-27.5	-29.2	14.6	0.00e+00	0	43	0	275775488	15	4395
2026-01-09 02:45:10.42	293.18	15.75	-27.5	-29.2	14.6	0.00e+00	0	43	0	277872640	15	4394
2026-01-09 02:45:11.43	292.98	15.70	-27.5	-29.3	14.6	0.00e+00	0	43	0	281018368	15	4427
2026-01-09 02:45:12.43	292.79	15.65	-27.5	-29.4	14.5	0.00e+00	0	43	0	284164096	15	4434
2026-01-09 02:45:13.43	292.60	15.60	-27.6	-29.4	14.5	0.00e+00	0	43	0	287309824	15	4463
2026-01-09 02:45:14.44	292.40	15.55	-27.6	-29.5	14.4	1.50e-06	0	43	0	290455552	15	4479
2026-01-09 02:45:15.44	292.21	15.49	-27.7	-29.8	14.3	7.00e-07	0	43	0	293601280	15	4572
2026-01-09 02:45:16.44	292.02	15.44	-27.7	-29.8	14.2	1.50e-06	0	43	0	296747008	15	4585
2026-01-09 02:45:17.44	291.83	15.39	-27.9	-30.1	14.1	1.50e-06	0	43	0	299892736	15	4657
2026-01-09 02:45:18.44	291.64	15.34	-27.9	-30.2	14.0	2.20e-06	0	43	0	303038464	15	4707
2026-01-09 02:45:19.43	291.46	15.29	-27.8	-29.9	14.2	0.00e+00	0	43	0	306184192	15	4612
2026-01-09 02:45:20.44	291.27	15.24	-27.8	-29.9	14.2	1.50e-06	0	43	0	309329920	15	4588
2026-01-09 02:45:21.45	291.08	15.19	-27.7	-29.7	14.2	3.80e-06	0	43	0	312475648	15	4541
2026-01-09 02:45:22.46	290.89	15.13	-27.6	-29.4	14.4	1.50e-06	0	43	0	315621376	15	4463
2026-01-09 02:45:23.47	290.70	15.08	-27.6	-29.6	14.3	0.00e+00	0	43	0	318767104	15	4506
2026-01-09 02:45:24.47	290.52	15.03	-27.6	-29.5	14.4	7.00e-07	0	43	0	321912832	15	4469
2026-01-09 02:45:25.47	290.34	14.97	-27.4	-29.1	14.6	0.00e+00	0	43	0	325058560	15	4370
2026-01-09 02:45:26.47	290.15	14.92	-27.4	-29.6	14.6	3.91e-03	0	43	0	328204288	14	4612
2026-01-09 02:45:27.47	289.97	14.87	-27.4	-29.6	14.6	0.00e+00	0	43	0	331350016	14	4609
2026-01-09 02:45:28.47	289.79	14.81	-27.6	-29.5	14.4	7.00e-07	0	43	0	334495744	15	4490
2026-01-09 02:45:29.46	289.61	14.76	-27.8	-29.9	14.1	0.00e+00	0	43	0	337641472	15	4618
2026-01-09 02:45:30.46	289.43	14.71	-27.8	-29.9	14.1	4.40e-03	0	43	0	340787200	15	4603
2026-01-09 02:45:31.45	289.25	14.66	-27.7	-29.8	14.2	1.59e-04	0	43	0	343932928	15	4577
2026-01-09 02:45:32.46	289.07	14.60	-27.7	-29.7	14.2	2.20e-06	0	43	0	347078656	15	4553
2026-01-09 02:45:33.46	288.89	14.55	-27.8	-29.9	14.1	1.50e-06	0	43	0	350224384	15	4609
2026-01-09 02:45:34.47	288.71	14.49	-27.8	-30.0	14.0	1.50e-06	0	43	0	353370112	15	4653
2026-01-09 02:45:35.48	288.53	14.44	-27.9	-30.3	13.9	3.79e-03	0	43	0	356515840	15	4738
2026-01-09 02:45:36.48	288.35	14.38	-28.2	-30.4	13.7	3.87e-03	0	43	0	359661568	16	4641
2026-01-09 02:45:37.48	288.18	14.33	-28.0	-29.9	14.0	2.20e-06	0	43	0	362807296	16	4476
2026-01-09 02:45:38.48	288.00	14.27	-27.6	-29.6	14.3	7.00e-07	0	43	0	365953024	15	4499
2026-01-09 02:45:39.48	287.83	14.22	-27.5	-29.7	14.5	0.00e+00	0	43	0	369098752	14	4663
2026-01-09 02:45:40.48	287.65	14.16	-27.5	-29.8	14.5	2.20e-06	0	43	0	372244480	14	4679
2026-01-09 02:45:41.49	287.48	14.11	-27.5	-29.4	14.4	3.76e-03	0	43	0	375390208	15	4454
2026-01-09 02:45:42.50	287.30	14.05	-27.7	-29.7	14.3	3.62e-03	0	43	0	378535936	15	4532
2026-01-09 02:45:43.50	287.13	13.99	-27.8	-29.9	14.1	3.32e-04	0	43	0	381681664	15	4618
2026-01-09 02:45:44.51	286.96	13.94	-27.9	-30.2	13.9	7.00e-07	0	43	0	384827392	15	4701
2026-01-09 02:45:45.52	286.78	13.88	-27.9	-30.3	13.8	4.64e-03	0	43	0	387973120	15	4745
2026-01-09 02:45:46.53	286.61	13.83	-27.8	-30.0	14.0	5.47e-04	0	43	0	391118848	15	4654
2026-01-09 02:45:47.53	286.44	13.77	-27.8	-30.0	14.0	4.77e-03	0	43	0	394264576	15	4648
2026-01-09 02:45:48.54	286.27	13.71	-27.8	-29.9	14.1	4.49e-03	0	43	0	397410304	15	4615
2026-01-09 02:45:49.54	286.10	13.66	-27.9	-30.2	13.9	2.68e-04	0	43	0	400556032	15	4707
2026-01-09 02:45:50.55	285.93	13.60	-27.8	-30.1	14.0	4.60e-03	0	43	0	403701760	15	4661
2026-01-09 02:45:51.55	285.77	13.54	-27.6	-29.5	14.3	4.15e-03	0	43	0	406847488	15	4480
2026-01-09 02:45:52.55	285.60	13.49	-27.4	-29.1	14.5	4.35e-04	0	43	0	409993216	15	4386
2026-01-09 02:45:53.56	285.43	13.43	-26.8	-29.0	14.4	4.24e-03	0	43	0	413138944	14	4630
2026-01-09 02:45:54.56	285.27	13.37	-27.3	-29.3	14.7	0.00e+00	0	43	0	416284672	14	4545
2026-01-09 02:45:55.57	285.10	13.31	-27.3	-29.5	14.0	2.59e-03	0	43	0	419430400	14	4594
2026-01-09 02:45:56.58	284.93	13.26	-27.2	-29.2	14.6	4.75e-03	0	43	0	422576128	14	4498
2026-01-09 02:45:57.59	284.77	13.20	-27.0	-28.7	15.0	4.57e-03	0	43	0	425721856	14	4353
2026-01-09 02:45:58.59	284.61	13.14	-27.1	-28.8	14.9	9.82e-04	0	43	0	428867584	14	4404
2026-01-09 02:45:59.60	284.44	13.08	-27.1	-28.9	14.9	7.00e-07	0	43	0	432013312	14	4406
2026-01-09 02:46:00.61	284.28	13.02	-27.1	-28.9	14.9	0.00e+00	0	43	0	435159040	14	4412
2026-01-09 02:46:01.61	284.12	12.97	-27.1	-28.9	14.9	7.06e-04	0	43	0	438304768	14	4414
2026-01-09 02:46:02.62	283.96	12.91	-27.2	-29.2	14.7	4.02e-03	0	43	0	441450496	14	4500
2026-01-09 02:46:03.63	283.80	12.85	-27.4	-29.5	14.5	4.62e-03	0	43	0	444596224	14	4594
2026-01-09 02:46:04.63	283.64	12.79	-27.5	-29.3	14.4	0.00e+00	0	43	0	447741952	15	4443
2026-01-09 02:46:05.63	283.48	12.74	-27.8	-30.1	13.9	5.09e-04	0	43	0	450887680	15	4679
2026-01-09 02:46:06.64	283.32	12.68	-27.9	-30.3	13.8	4.50e-06	0	43	0	454033408	15	4737
2026-01-09 02:46:07.65	283.16	12.62	-28.2	-30.4	13.6	7.09e-04	0	43	0	457179136	16	4652
2026-01-09 02:46:08.65	283.01	12.56	-28.3	-30.7	13.4	1.00e-03	0	43	0	460324864	16	4757
2026-01-09 02:46:09.65	282.85	12.50	-28.3	-30.7	13.4	1.06e-05	0	43	0	463470592	16	4745
2026-01-09 02:46:10.66	282.70	12.44	-28.8	-31.3	12.7	2.18e-03	0	43	0	466616320	17	4841
2026-01-09 02:46:11.67	282.54	12.38	-28.6	-31.0	12.9	2.35e-03	0	43	0	469762048	17	4716
2026-01-09 02:46:12.68	282.38	12.32	-28.5	-30.7	13.1	2.44e-05	0	43	0	472907776	17	4643
2026-01-09 02:46:13.69	282.23	12.27	-29.0	-31.5	12.3	2.48e-03	0	43	0	476053504	18	4783
2026-01-09 02:46:14.70	282.08	12.21	-28.9	-31.3	12.4	2.71e-03	0	43	0	479199232	18	4715
2026-01-09 02:46:15.71	281.92	12.15	-28.8	-31.5	12.6	1.27e-04	0	43	0	482344960	17	4903
2026-01-09 02:46:16.71	281.77	12.09	-28.9	-31.6	12.5	2.64e-03	0	43	0	485490688	17	4937
2026-01-09 02:46:17.72	281.62	12.03	-28.6	-31.0	12.9	2.68e-03	0	43	0	488636416	17	4737
2026-01-09 02:46:18.73	281.47	11.97	-28.5	-30.8	13.0	3.50e-05	0	43	0	491782144	17	4667
2026-01-09 02:46:19.73	281.32	11.91	-28.4	-31.0	13.2	2.36e-05	0	43	0	494927872	16	4826
2026-01-09 02:46:20.74	281.17	11.85	-28.3	-30.8	13.3	2.50e-03	0	43	0	498073600	16	4779
2026-01-09 02:46:21.75	281.02	11.79	-28.4	-30.9	13.2	2.44e-05	0	43	0	501219328	16	4819
2026-01-09 02:46:22.75	280.87	11.73	-28.4	-30.9	13.3	2.26e-03	0	43	0	504365056	16	4806
2026-01-09 02:46:23.75	280.72	11.67	-28.3	-30.7	13.3	2.11e-03	0	43	0	507510784	16	4751
2026-01-09 02:46:24.76	280.58	11.61	-28.3	-30.8	13.3	1.75e-05	0	43	0	510656512	16	4768
2026-01-09 02:46:25.77	280.43	11.56	-28.5	-30.7	13.0	3.12e-05	0	43	0	513802240	17	4639
2026-01-09 02:46:26.77	280.28	11.50	-28.8	-31.3	12.7	7.70e-05	0	43	0	516947968	17	4854
2026-01-09 02:46:27.78	280.14	11.44	-28.6	-31.1	12.8	8.16e-05	0	43	0	520093696	17	4752
2026-01-09 02:46:28.79	279.99	11.38	-28.4	-30.5	13.1	3.58e-05	0	43	0	523239424	17	4578
2026-01-09 02:46:29.79	279.85	11.32	-28.3	-30.8	13.3	1.37e-05	0	43	0	526385152	16	4765
2026-01-09 02:46:30.80	279.70	11.26	-28.3	-30.7	13.3	1.83e-05	0	43	0	529530880	16	4738
2026-01-09 02:46:31.81	279.56	11.20	-28.3	-30.6	13.4	1.60e-05	0	43	0	532676608	16	4732
2026-01-09 02:46:32.81	279.42	11.14	-28.4	-31.0	13.1	2.44e-05	0	43	0	535822336	16	4833
2026-01-09 02:46:33.82	279.28	11.08	-28.3	-30.2	13.3	3.12e-05	0	43	0	538968064	17	4490
2026-01-09 02:46:34.83	279.13	11.02	-28.5	-31.2	13.0	3.50e-05	0	43	0	542113792	16	4915
2026-01-09 02:46:35.83	278.99	10.96	-28.4	-30.4	13.2	3.81e-05	0	43	0	545259520	17	4532
2026-01-09 02:46:36.84	278.85	10.90	-28.1	-30.2	13.6	1.22e-05	0	43	0	548405248	16	4581
2026-01-09 02:46:37.85	278.71	10.84	-27.7	-29.9	13.9	6.80e-06	0	43	0	551550976	15	4621
2026-01-09 02:46:38.86	278.57	10.78	-27.7	-29.8	14.0	3.00e-06	0	43	0	554696704	15	4584
2026-01-09 02:46:39.87	278.43	10.72	-27.7	-29.9	13.9	7.60e-06	0	43	0	557842432	15	4606
2026-01-09 02:46:40.87	278.30	10.66	-27.7	-29.8	13.9	3.00e-06	0	43	0	560988160	15	4578
2026-01-09 02:46:41.88	278.16	10.60	-27.7	-29.9	13.9	3.00e-06	0	43	0	564133888	15	4630
2026-01-09 02:46:42.87	278.03	10.54	-27.7	-29.9	13.9	6.80e-06	0	43	0	567279616	15	4616
2026-01-09 02:46:43.88	277.89	10.48	-27.8	-30.1	13.7	2.20e-06	0	43	0	570425344	15	4694
2026-01-09 02:46:44.87	277.76	10.42	-27.7	-29.9	13.8	7.60e-06	0	43	0	573571072	15	4637
2026-01-09 02:46:45.88	277.62	10.36	-27.7	-29.9	13.8	3.80e-06	0	43	0	576716800	15	4629
2026-01-09 02:46:46.89	277.48	10.30	-27.8	-30.0	13.8	2.20e-06	0	43	0	579862528	15	4650
2026-01-09 02:46:47.90	277.35	10.24	-27.9	-30.3	13.6	6.10e-06	0	43	0	583008256	15	4738
2026-01-09 02:46:48.91	277.22	10.18	-27.1	-29.5	13.6	6.80e-06	0	43	0	586153984	15	4791
2026-01-09 02:46:49.91	277.08	10.12	-28.0	-30.5	11.8	5.30e-06	0	43	0	589299712	15	4823
2026-01-09 02:46:50.92	276.95	10.06	-28.2	-30.5	11.4	1.98e-05	0	43	0	592445440	16	4682
2026-01-09 02:46:51.92	276.82	10.00	-28.3	-30.9	13.1	2.05e-05	0	43	0	595591168	16	4807
2026-01-09 02:46:52.93	276.69	9.94	-28.3	-30.8	13.1	1.75e-05	0	43	0	598736896	16	4801
2026-01-09 02:46:53.94	276.56	9.88	-28.3	-30.9	13.1	2.97e-05	0	43	0	601882624	16	4805
2026-01-09 02:46:54.94	276.43	9.82	-28.3	-30.8	13.2	3.05e-05	0	43	0	605028352	16	4775
2026-01-09 02:46:55.95	276.30	9.76	-28.3	-30.7	13.2	2.44e-05	0	43	0	608174080	16	4755
2026-01-09 02:46:56.95	276.17	9.70	-28.3	-30.7	13.2	1.03e-03	0	43	0	611319808	16	4771
2026-01-09 02:46:57.96	276.04	9.64	-28.4	-30.9	13.1	2.59e-05	0	43	0	614465536	16	4817
2026-01-09 02:46:58.97	275.91	9.58	-28.2	-30.6	13.2	3.35e-05	0	43	0	617611264	16	4728
2026-01-09 02:46:59.97	275.79	9.52	-28.1	-30.4	13.4	1.83e-05	0	43	0	620756992	16	4656
2026-01-09 02:47:00.98	275.66	9.46	-28.1	-30.3	13.4	1.06e-05	0	43	0	623902720	16	4644
2026-01-09 02:47:01.99	275.53	9.40	-27.9	-30.4	13.5	3.77e-03	0	43	0	627048448	15	4800
2026-01-09 02:47:03.00	275.41	9.34	-28.2	-30.5	13.3	3.65e-03	0	43	0	630194176	16	4678
2026-01-09 02:47:04.00	275.28	9.28	-28.1	-30.2	13.5	9.10e-06	0	43	0	633339904	16	4613
2026-01-09 02:47:05.01	275.16	9.22	-27.9	-30.2	13.6	1.14e-05	0	43	0	636485632	15	4738
2026-01-09 02:47:06.02	275.03	9.16	-28.0	-30.5	13.4	4.82e-03	0	43	0	639631360	15	4834
2026-01-09 02:47:07.03	274.91	9.10	-27.9	-30.3	13.5	3.75e-04	0	43	0	642777088	15	4748
2026-01-09 02:47:08.03	274.79	9.04	-27.9	-30.4	13.4	4.71e-03	0	43	0	645922816	15	4795
2026-01-09 02:47:09.03	274.66	8.98	-28.2	-30.4	13.3	4.33e-03	0	43	0	649068544	16	4671
2026-01-09 02:47:10.03	274.54	8.92	-28.2	-30.5	11.9	2.09e-03	0	43	0	652214272	16	4696
2026-01-09 02:47:11.04	274.42	8.86	-28.3	-30.7	12.1	4.23e-03	0	43	0	655360000	16	4765
2026-01-09 02:47:12.05	274.30	8.80	-28.3	-30.7	13.1	4.10e-03	0	43	0	658505728	16	4771
2026-01-09 02:47:13.06	274.18	8.74	-28.4	-31.1	12.9	7.16e-04	0	43	0	661651456	16	4891
2026-01-09 02:47:14.06	274.06	8.68	-28.5	-31.2	12.8	4.24e-03	0	43	0	664797184	16	4945
2026-01-09 02:47:15.07	273.94	8.62	-28.6	-31.0	12.6	4.53e-03	0	43	0	667942912	17	4742
2026-01-09 02:47:16.08	273.82	8.56	-28.7	-31.4	12.4	3.55e-03	0	43	0	671088640	17	4878
2026-01-09 02:47:17.09	273.70	8.50	-28.7	-31.4	12.3	4.99e-03	0	43	0	674234368	17	4884
2026-01-09 02:47:18.09	273.58	8.45	-28.8	-31.4	12.3	4.90e-03	0	43	0	677380096	17	4898
2026-01-09 02:47:19.10	273.46	8.39	-28.8	-31.6	12.2	1.73e-03	0	43	0	680525824	17	4961
2026-01-09 02:47:20.11	273.35	8.33	-28.8	-31.6	12.2	8.69e-03	0	43	0	683671552	17	4944
2026-01-09 02:47:21.11	273.23	8.27	-28.8	-31.6	12.2	2.54e-04	0	43	0	686817280	17	4967
2026-01-09 02:47:22.13	273.11	8.21	-28.8	-31.5	12.3	3.49e-03	0	43	0	689963008	17	4911
2026-01-09 02:47:23.13	273.00	8.15	-28.8	-31.6	12.2	3.73e-03	0	43	0	693108736	17	4967
2026-01-09 02:47:24.14	272.88	8.09	-28.6	-31.2	12.4	5.63e-03	0	43	0	696254464	17	4836
2026-01-09 02:47:25.15	272.77	8.03	-28.7	-31.3	12.4	5.10e-03	0	43	0	699400192	17	4858
2026-01-09 02:47:26.15	272.65	7.97	-28.8	-31.7	12.1	3.29e-03	0	43	0	702545920	17	4994
2026-01-09 02:47:27.16	272.54	7.91	-28.3	-30.4	12.9	8.01e-05	0	43	0	705691648	17	4573
2026-01-09 02:47:28.16	272.43	7.85	-28.1	-30.4	13.2	2.85e-03	0	43	0	708837376	16	4669
2026-01-09 02:47:29.17	272.31	7.79	-27.9	-30.5	13.2	3.96e-05	0	43	0	711983104	15	4832
2026-01-09 02:47:30.17	272.20	7.73	-27.9	-30.4	13.2	1.75e-04	0	43	0	715128832	15	4811
2026-01-09 02:47:31.17	272.09	7.67	-27.9	-30.5	13.3	2.03e-03	0	43	0	718274560	15	4834
2026-01-09 02:47:32.18	271.98	7.61	-27.8	-30.3	13.4	1.73e-03	0	43	0	721420288	15	4758
2026-01-09 02:47:33.18	271.87	7.55	-27.9	-30.3	13.3	1.22e-05	0	43	0	724566016	15	4768
2026-01-09 02:47:34.19	271.76	7.50	-28.0	-30.6	13.1	2.97e-05	0	43	0	727711744	15	4879
2026-01-09 02:47:35.20	271.65	7.44	-28.2	-30.5	13.1	1.52e-05	0	43	0	730857472	16	4697
2026-01-09 02:47:36.20	271.54	7.38	-28.3	-30.9	12.8	5.49e-05	0	43	0	734003200	16	4844
2026-01-09 02:47:37.21	271.43	7.32	-28.4	-31.1	12.7	2.00e-03	0	43	0	737148928	16	4909
2026-01-09 02:47:38.21	271.32	7.26	-28.6	-31.0	12.4	2.32e-03	0	43	0	740294656	17	4782
2026-01-09 02:47:39.22	271.21	7.20	-28.7	-31.4	12.2	2.19e-04	0	43	0	743440384	17	4911
2026-01-09 02:47:40.22	271.10	7.14	-28.7	-31.4	12.1	2.71e-04	0	43	0	746586112	17	4909
2026-01-09 02:47:41.23	270.99	7.08	-30.6	-34.4	10.1	1.30e-03	0	43	0	749731840	20	5632
2026-01-09 02:47:42.23	270.89	7.02	-32.9	-45.0	3.8	1.49e+00	0	43	104	749731840	25	14601
2026-01-09 02:47:43.24	270.78	6.96	-33.2	-45.3	3.8	1.49e+00	0	43	104	749731840	26	14434

#Closed at: 2026-01-09 02:47:43
#Recorded file [749 MB]: D:/data/31010_260109_054341.dat