passes_logs/2025/01/21/planumMaritime01/planumMaritime01__20250121_081232_NOAA_18_rec.log

#Pass ID: 20250121_081232_NOAA 18
#Satellite: NOAA 18
#Configuration: NOAA 18
#Start time: 2025-01-21 08:12:37.927687

#LorettStation: 1.0.0 05.05.2024
#Station: planumMaritime01
#Location: 37.49445 lon 55.92918 lat
#TLE: 1 28654U 05018A   25020.18862715  .00000449  00000+0  26167-3 0  9997
#TLE: 2 28654  98.8558 101.1913 0014575 164.8261 195.3351 14.13491567 13918

#Time	Az	El	Level	SNR
2025-01-21 08:12:40.081594	26.7	10.2	-61.7	0.0
2025-01-21 08:12:41.205377	26.8	10.3	-60.6	0.0
2025-01-21 08:12:42.328846	26.9	10.4	-60.9	0.0
2025-01-21 08:12:43.451793	27.0	10.4	-60.8	0.0
2025-01-21 08:12:44.574676	27.0	10.5	-63.3	0.0
2025-01-21 08:12:45.698384	27.1	10.6	-60.5	0.0
2025-01-21 08:12:46.830987	27.2	10.7	-60.1	0.0
2025-01-21 08:12:47.951005	27.3	10.8	-61.7	0.0
2025-01-21 08:12:49.076825	27.4	10.9	-63.9	0.0
2025-01-21 08:12:50.201363	27.4	11.0	-61.3	0.0
2025-01-21 08:12:51.325463	27.5	11.1	-60.6	0.0
2025-01-21 08:12:52.447832	27.6	11.2	-60.2	0.0
2025-01-21 08:12:53.572901	27.7	11.3	-60.9	0.0
2025-01-21 08:12:54.697234	27.8	11.4	-60.2	0.0
2025-01-21 08:12:55.822083	27.8	11.5	-60.6	0.0
2025-01-21 08:12:56.945489	27.9	11.5	-64.9	0.0
2025-01-21 08:12:58.068996	28.0	11.6	-62.0	0.0
2025-01-21 08:12:59.190718	28.1	11.7	-62.3	0.0
2025-01-21 08:13:00.312940	28.2	11.8	-61.3	0.0
2025-01-21 08:13:01.436047	28.3	11.9	-61.5	0.0
2025-01-21 08:13:02.559006	28.4	12.0	-63.1	0.0
2025-01-21 08:13:03.682827	28.4	12.1	-64.5	0.0
2025-01-21 08:13:04.806574	28.5	12.2	-61.0	0.0
2025-01-21 08:13:05.931105	28.6	12.3	-63.8	0.0
2025-01-21 08:13:07.054006	28.7	12.4	-63.4	0.0
2025-01-21 08:13:08.175855	28.8	12.5	-64.2	0.0
2025-01-21 08:13:09.300086	28.9	12.6	-65.7	0.0
2025-01-21 08:13:10.422818	29.0	12.7	-62.1	0.0
2025-01-21 08:13:11.545270	29.1	12.8	-61.9	0.0
2025-01-21 08:13:12.669753	29.1	12.9	-61.3	0.0
2025-01-21 08:13:13.795621	29.2	13.0	-62.3	0.0
2025-01-21 08:13:14.918584	29.3	13.1	-62.0	0.0
2025-01-21 08:13:16.041560	29.4	13.2	-61.1	0.0
2025-01-21 08:13:17.165421	29.5	13.3	-61.4	0.0
2025-01-21 08:13:18.289070	29.6	13.4	-61.1	0.0
2025-01-21 08:13:19.414171	29.7	13.5	-61.9	0.0
2025-01-21 08:13:20.538194	29.8	13.6	-61.7	0.0
2025-01-21 08:13:21.664650	29.9	13.7	-60.7	0.0
2025-01-21 08:13:22.787754	30.0	13.8	-62.1	0.0
2025-01-21 08:13:23.913339	30.1	13.9	-61.3	0.0
2025-01-21 08:13:25.035552	30.2	14.0	-61.5	0.0
2025-01-21 08:13:26.159574	30.3	14.1	-62.5	0.0
2025-01-21 08:13:27.282530	30.4	14.2	-60.8	0.0
2025-01-21 08:13:28.407268	30.5	14.3	-57.9	0.0
2025-01-21 08:13:29.529741	30.6	14.4	-62.8	0.0
2025-01-21 08:13:30.651331	30.7	14.5	-64.0	0.0
2025-01-21 08:13:31.773663	30.8	14.6	-63.5	0.0
2025-01-21 08:13:32.896756	30.9	14.7	-58.3	0.0
2025-01-21 08:13:34.022366	31.0	14.8	-59.8	0.0
2025-01-21 08:13:35.146508	31.1	14.9	-60.7	0.0
2025-01-21 08:13:36.272939	31.2	15.0	-59.6	0.0
2025-01-21 08:13:37.393019	31.3	15.2	-60.4	0.0
2025-01-21 08:13:38.517393	31.4	15.3	-61.0	0.0
2025-01-21 08:13:39.640293	31.5	15.4	-64.6	0.0
2025-01-21 08:13:40.763770	31.6	15.5	-60.4	0.0
2025-01-21 08:13:41.888557	31.7	15.6	-61.0	0.0
2025-01-21 08:13:43.012830	31.8	15.7	-64.8	0.0
2025-01-21 08:13:44.135701	31.9	15.8	-61.4	0.0
2025-01-21 08:13:45.258504	32.0	15.9	-62.3	0.0
2025-01-21 08:13:46.380600	32.1	16.0	-62.3	0.0
2025-01-21 08:13:47.505750	32.3	16.1	-64.8	0.0
2025-01-21 08:13:48.630798	32.4	16.2	-61.1	0.0
2025-01-21 08:13:49.752205	32.5	16.3	-60.8	0.0
2025-01-21 08:13:50.874318	32.6	16.5	-64.5	0.0
2025-01-21 08:13:51.999888	32.7	16.6	-63.2	0.0
2025-01-21 08:13:53.123674	32.8	16.7	-61.5	0.0
2025-01-21 08:13:54.248161	32.9	16.8	-63.3	0.0
2025-01-21 08:13:55.372553	33.1	16.9	-63.3	0.0
2025-01-21 08:13:56.495019	33.2	17.0	-63.0	0.0
2025-01-21 08:13:57.617960	33.3	17.1	-64.2	0.0
2025-01-21 08:13:58.742060	33.4	17.2	-61.5	0.0
2025-01-21 08:13:59.866864	33.5	17.4	-63.3	0.0
2025-01-21 08:14:00.987786	33.7	17.5	-61.3	0.0
2025-01-21 08:14:02.113208	33.8	17.6	-60.3	0.0
2025-01-21 08:14:03.237346	33.9	17.7	-60.9	0.0
2025-01-21 08:14:04.361231	34.0	17.8	-62.5	0.0
2025-01-21 08:14:05.482784	34.1	17.9	-58.0	0.0
2025-01-21 08:14:06.606736	34.3	18.1	-58.7	0.0
2025-01-21 08:14:07.730756	34.4	18.2	-59.1	0.0
2025-01-21 08:14:08.853811	34.5	18.3	-58.2	0.0
2025-01-21 08:14:09.978909	34.7	18.4	-58.0	0.0
2025-01-21 08:14:11.101426	34.8	18.5	-59.9	0.0
2025-01-21 08:14:12.222372	34.9	18.6	-62.6	0.0
2025-01-21 08:14:13.346770	35.0	18.8	-59.1	0.0
2025-01-21 08:14:14.470114	35.2	18.9	-60.8	0.0
2025-01-21 08:14:15.595141	35.3	19.0	-58.5	0.0
2025-01-21 08:14:16.720671	35.4	19.1	-59.9	0.0
2025-01-21 08:14:17.845828	35.6	19.3	-60.6	0.0
2025-01-21 08:14:18.970399	35.7	19.4	-60.7	0.0
2025-01-21 08:14:20.092562	35.9	19.5	-62.3	0.0
2025-01-21 08:14:21.216890	36.0	19.6	-58.9	0.0
2025-01-21 08:14:22.342591	36.1	19.7	-60.3	0.0
2025-01-21 08:14:23.464737	36.3	19.9	-59.4	0.0
2025-01-21 08:14:24.588947	36.4	20.0	-61.2	0.0
2025-01-21 08:14:25.712405	36.6	20.1	-60.8	0.0
2025-01-21 08:14:26.836356	36.7	20.2	-61.0	0.0
2025-01-21 08:14:27.960778	36.8	20.4	-61.0	0.0
2025-01-21 08:14:29.084640	37.0	20.5	-59.4	0.0
2025-01-21 08:14:30.207807	37.1	20.6	-58.8	0.0
2025-01-21 08:14:31.330891	37.3	20.7	-60.0	0.0
2025-01-21 08:14:32.454785	37.4	20.9	-61.2	0.0
2025-01-21 08:14:33.578545	37.6	21.0	-58.9	0.0
2025-01-21 08:14:34.704473	37.7	21.1	-60.6	0.0
2025-01-21 08:14:35.827303	37.9	21.3	-59.8	0.0
2025-01-21 08:14:36.950006	38.0	21.4	-59.9	0.0
2025-01-21 08:14:38.072574	38.2	21.5	-59.9	0.0
2025-01-21 08:14:39.197924	38.4	21.6	-59.9	0.0
2025-01-21 08:14:40.319780	38.5	21.8	-60.3	0.0
2025-01-21 08:14:41.441624	38.7	21.9	-66.2	0.0
2025-01-21 08:14:42.565616	38.8	22.0	-68.0	0.0
2025-01-21 08:14:43.690799	39.0	22.2	-64.8	0.0
2025-01-21 08:14:44.813676	39.2	22.3	-65.3	0.0
2025-01-21 08:14:45.936514	39.3	22.4	-66.5	0.0
2025-01-21 08:14:47.059937	39.5	22.6	-65.7	0.0
2025-01-21 08:14:48.182723	39.7	22.7	-66.1	0.0
2025-01-21 08:14:49.305285	39.8	22.8	-69.2	0.0
2025-01-21 08:14:50.429573	40.0	23.0	-68.3	0.0
2025-01-21 08:14:51.554735	40.2	23.1	-69.2	0.0
2025-01-21 08:14:52.676854	40.3	23.2	-68.1	0.0
2025-01-21 08:14:53.800698	40.5	23.4	-68.8	0.0
2025-01-21 08:14:54.924583	40.7	23.5	-69.1	0.0
2025-01-21 08:14:56.048071	40.9	23.6	-67.9	0.0
2025-01-21 08:14:57.171950	41.1	23.8	-66.9	0.0
2025-01-21 08:14:58.296239	41.2	23.9	-67.6	0.0
2025-01-21 08:14:59.418105	41.4	24.1	-65.6	0.0
2025-01-21 08:15:00.540339	41.6	24.2	-61.9	0.0
2025-01-21 08:15:01.664221	41.8	24.3	-63.0	0.0
2025-01-21 08:15:02.786912	42.0	24.5	-63.1	0.0
2025-01-21 08:15:03.911753	42.2	24.6	-65.4	0.0
2025-01-21 08:15:05.036044	42.3	24.7	-64.7	0.0
2025-01-21 08:15:06.158531	42.5	24.9	-63.6	0.0
2025-01-21 08:15:07.284834	42.7	25.0	-65.0	0.0
2025-01-21 08:15:08.411058	42.9	25.2	-69.0	0.0
2025-01-21 08:15:09.536905	43.1	25.3	-69.9	0.0
2025-01-21 08:15:10.660030	43.3	25.5	-69.6	0.0
2025-01-21 08:15:11.781791	43.5	25.6	-68.4	0.0
2025-01-21 08:15:12.902789	43.7	25.7	-67.6	0.0
2025-01-21 08:15:14.026437	43.9	25.9	-68.4	0.0
2025-01-21 08:15:15.148833	44.1	26.0	-69.3	0.0
2025-01-21 08:15:16.273555	44.3	26.2	-70.1	0.0
2025-01-21 08:15:17.396453	44.6	26.3	-68.3	0.0
2025-01-21 08:15:18.520965	44.8	26.5	-71.9	0.0
2025-01-21 08:15:19.645477	45.0	26.6	-67.5	0.0
2025-01-21 08:15:20.769785	45.2	26.7	-70.0	0.0
2025-01-21 08:15:21.891770	45.4	26.9	-69.6	0.0
2025-01-21 08:15:23.018242	45.6	27.0	-68.8	0.0
2025-01-21 08:15:24.141668	45.9	27.2	-68.2	0.0
2025-01-21 08:15:25.264111	46.1	27.3	-68.3	0.0
2025-01-21 08:15:26.386166	46.3	27.5	-71.1	0.0
2025-01-21 08:15:27.508005	46.5	27.6	-66.8	0.0
2025-01-21 08:15:28.631904	46.8	27.8	-68.4	0.0
2025-01-21 08:15:29.755076	47.0	27.9	-68.0	0.0
2025-01-21 08:15:30.876385	47.2	28.1	-70.8	0.0
2025-01-21 08:15:31.998869	47.5	28.2	-68.4	0.0
2025-01-21 08:15:33.121891	47.7	28.4	-68.0	0.0
2025-01-21 08:15:34.244661	47.9	28.5	-68.2	0.0
2025-01-21 08:15:35.370372	48.2	28.7	-68.9	0.0
2025-01-21 08:15:36.492491	48.4	28.8	-67.9	0.0
2025-01-21 08:15:37.615430	48.7	29.0	-68.1	0.0
2025-01-21 08:15:38.738692	48.9	29.1	-68.3	0.0
2025-01-21 08:15:39.863134	49.2	29.3	-67.7	0.0
2025-01-21 08:15:40.985652	49.4	29.4	-69.9	0.0
2025-01-21 08:15:42.111787	49.7	29.6	-68.9	0.0
2025-01-21 08:15:43.234974	49.9	29.7	-64.0	0.0
2025-01-21 08:15:44.357235	50.2	29.9	-66.7	0.0
2025-01-21 08:15:45.480292	50.5	30.0	-69.2	0.0
2025-01-21 08:15:46.601035	50.7	30.2	-69.0	0.0
2025-01-21 08:15:47.724617	51.0	30.3	-69.0	0.0
2025-01-21 08:15:48.846823	51.3	30.5	-69.0	0.0
2025-01-21 08:15:49.968890	51.5	30.6	-69.5	0.0
2025-01-21 08:15:51.091783	51.8	30.8	-69.0	0.0
2025-01-21 08:15:52.216379	52.1	30.9	-65.4	0.0
2025-01-21 08:15:53.339081	52.4	31.1	-64.0	0.0
2025-01-21 08:15:54.462064	52.6	31.2	-69.8	0.0
2025-01-21 08:15:55.586679	52.9	31.4	-69.6	0.0
2025-01-21 08:15:56.710389	53.2	31.6	-70.0	0.0
2025-01-21 08:15:57.832754	53.5	31.7	-69.7	0.0
2025-01-21 08:15:58.955650	53.8	31.9	-70.3	0.0
2025-01-21 08:16:00.080794	54.1	32.0	-70.0	0.0
2025-01-21 08:16:01.203993	54.4	32.2	-69.3	0.0
2025-01-21 08:16:02.327504	54.7	32.3	-70.0	0.0
2025-01-21 08:16:03.450866	55.0	32.5	-69.9	0.0
2025-01-21 08:16:04.575292	55.3	32.6	-69.9	0.0
2025-01-21 08:16:05.697131	55.6	32.8	-70.6	0.0
2025-01-21 08:16:06.818583	55.9	32.9	-69.4	0.0
2025-01-21 08:16:07.942749	56.3	33.1	-71.6	0.0
2025-01-21 08:16:09.066011	56.6	33.2	-71.2	0.0
2025-01-21 08:16:10.189778	56.9	33.4	-71.8	0.0
2025-01-21 08:16:11.313863	57.2	33.5	-71.6	0.0
2025-01-21 08:16:12.438830	57.6	33.7	-72.0	0.0
2025-01-21 08:16:13.559104	57.9	33.8	-72.4	0.0
2025-01-21 08:16:14.682561	58.2	34.0	-71.2	0.0
2025-01-21 08:16:15.806641	58.6	34.1	-72.9	0.0
2025-01-21 08:16:16.931785	58.9	34.3	-70.9	0.0
2025-01-21 08:16:18.053850	59.2	34.4	-73.6	0.0
2025-01-21 08:16:19.177258	59.6	34.6	-73.4	0.0
2025-01-21 08:16:20.301635	59.9	34.7	-72.4	0.0
2025-01-21 08:16:21.425215	60.3	34.9	-73.9	0.0
2025-01-21 08:16:22.551199	60.6	35.0	-74.0	0.0
2025-01-21 08:16:23.673473	61.0	35.2	-74.0	0.0
2025-01-21 08:16:24.795481	61.4	35.3	-74.6	0.0
2025-01-21 08:16:25.918504	61.7	35.5	-73.6	0.0
2025-01-21 08:16:27.039328	62.1	35.6	-74.5	0.0
2025-01-21 08:16:28.163994	62.5	35.8	-75.1	0.0
2025-01-21 08:16:29.288865	62.8	35.9	-74.2	0.0
2025-01-21 08:16:30.412773	63.2	36.0	-75.5	0.0
2025-01-21 08:16:31.536461	63.6	36.2	-75.0	0.0
2025-01-21 08:16:32.657480	64.0	36.3	-76.1	0.0
2025-01-21 08:16:33.781191	64.4	36.5	-74.0	0.0
2025-01-21 08:16:34.907301	64.8	36.6	-75.8	0.0
2025-01-21 08:16:36.032086	65.2	36.7	-75.6	0.0
2025-01-21 08:16:37.156924	65.6	36.9	-76.6	0.0
2025-01-21 08:16:38.280545	66.0	37.0	-75.6	0.0
2025-01-21 08:16:39.403823	66.4	37.2	-76.1	0.0
2025-01-21 08:16:40.526382	66.8	37.3	-75.2	0.0
2025-01-21 08:16:41.649565	67.2	37.4	-75.8	0.0
2025-01-21 08:16:42.774327	67.6	37.6	-74.4	0.0
2025-01-21 08:16:43.897976	68.0	37.7	-75.5	0.0
2025-01-21 08:16:45.022117	68.5	37.8	-75.9	0.0
2025-01-21 08:16:46.147727	68.9	37.9	-74.6	0.0
2025-01-21 08:16:47.269729	69.3	38.1	-74.0	0.0
2025-01-21 08:16:48.390808	69.7	38.2	-75.2	0.0
2025-01-21 08:16:49.513705	70.2	38.3	-75.1	0.0
2025-01-21 08:16:50.635765	70.6	38.5	-75.4	0.0
2025-01-21 08:16:51.760155	71.1	38.6	-75.8	0.0
2025-01-21 08:16:52.884100	71.5	38.7	-73.7	0.0
2025-01-21 08:16:54.009046	71.9	38.8	-74.4	0.0
2025-01-21 08:16:55.131960	72.4	38.9	-74.7	0.0
2025-01-21 08:16:56.256606	72.9	39.1	-75.6	0.0
2025-01-21 08:16:57.379545	73.3	39.2	-73.3	0.0
2025-01-21 08:16:58.504020	73.8	39.3	-75.8	0.0
2025-01-21 08:16:59.629710	74.2	39.4	-75.1	0.0
2025-01-21 08:17:00.753619	74.7	39.5	-75.4	0.0
2025-01-21 08:17:01.876490	75.2	39.6	-74.6	0.0
2025-01-21 08:17:02.998986	75.7	39.7	-74.9	0.0
2025-01-21 08:17:04.122464	76.1	39.8	-75.0	0.0
2025-01-21 08:17:05.245471	76.6	39.9	-75.5	0.0
2025-01-21 08:17:06.370032	77.1	40.0	-74.8	0.0
2025-01-21 08:17:07.493124	77.6	40.1	-75.3	0.0
2025-01-21 08:17:08.615852	78.1	40.2	-74.7	0.0
2025-01-21 08:17:09.737278	78.6	40.3	-74.4	0.0
2025-01-21 08:17:10.859649	79.1	40.4	-75.8	0.0
2025-01-21 08:17:11.982854	79.6	40.5	-75.5	0.0
2025-01-21 08:17:13.108045	80.1	40.6	-75.4	0.0
2025-01-21 08:17:14.230796	80.6	40.7	-76.0	0.0
2025-01-21 08:17:15.354509	81.1	40.8	-75.2	0.0
2025-01-21 08:17:16.477126	81.6	40.8	-75.1	0.0
2025-01-21 08:17:17.600151	82.1	40.9	-75.0	0.0
2025-01-21 08:17:18.722917	82.6	41.0	-75.1	0.0
2025-01-21 08:17:19.845883	83.1	41.1	-74.5	0.0
2025-01-21 08:17:20.970220	83.6	41.1	-75.3	0.0
2025-01-21 08:17:22.091786	84.1	41.2	-75.6	0.0
2025-01-21 08:17:23.217397	84.7	41.3	-75.3	0.0
2025-01-21 08:17:24.340339	85.2	41.3	-74.7	0.0
2025-01-21 08:17:25.462681	85.7	41.4	-73.8	0.0
2025-01-21 08:17:26.587038	86.3	41.5	-73.0	0.0
2025-01-21 08:17:27.710827	86.8	41.5	-73.8	0.0
2025-01-21 08:17:28.834517	87.3	41.6	-74.0	0.0
2025-01-21 08:17:29.957250	87.8	41.6	-74.4	0.0
2025-01-21 08:17:31.079697	88.4	41.7	-74.1	0.0
2025-01-21 08:17:32.204805	88.9	41.7	-73.8	0.0
2025-01-21 08:17:33.327208	89.5	41.8	-74.1	0.0
2025-01-21 08:17:34.450404	90.0	41.8	-73.1	0.0
2025-01-21 08:17:35.572582	90.5	41.8	-72.8	0.0
2025-01-21 08:17:36.696281	91.1	41.9	-73.7	0.0
2025-01-21 08:17:37.820117	91.6	41.9	-73.8	0.0
2025-01-21 08:17:38.942565	92.2	41.9	-74.2	0.0
2025-01-21 08:17:40.065366	92.7	42.0	-72.8	0.0
2025-01-21 08:17:41.186704	93.3	42.0	-75.5	0.0
2025-01-21 08:17:42.311994	93.8	42.0	-75.8	0.0
2025-01-21 08:17:43.432957	94.4	42.0	-74.8	0.0
2025-01-21 08:17:44.554914	94.9	42.1	-74.9	0.0
2025-01-21 08:17:45.678646	95.5	42.1	-75.0	0.0
2025-01-21 08:17:46.798983	96.0	42.1	-74.7	0.0
2025-01-21 08:17:47.923276	96.6	42.1	-74.3	0.0
2025-01-21 08:17:49.046441	97.1	42.1	-74.2	0.0
2025-01-21 08:17:50.170024	97.7	42.1	-75.3	0.0
2025-01-21 08:17:51.294163	98.2	42.1	-74.1	0.0
2025-01-21 08:17:52.418836	98.8	42.1	-70.9	0.0
2025-01-21 08:17:53.543736	99.3	42.1	-73.5	0.0
2025-01-21 08:17:54.666639	99.9	42.1	-72.6	0.0
2025-01-21 08:17:55.791646	100.4	42.1	-73.0	0.0
2025-01-21 08:17:56.915231	101.0	42.0	-72.5	0.0
2025-01-21 08:17:58.038583	101.5	42.0	-70.4	0.0
2025-01-21 08:17:59.163990	102.1	42.0	-72.7	0.0
2025-01-21 08:18:00.289261	102.6	42.0	-70.9	0.0
2025-01-21 08:18:01.412277	103.2	41.9	-75.0	0.0
2025-01-21 08:18:02.535050	103.7	41.9	-70.7	0.0
2025-01-21 08:18:03.658805	104.3	41.9	-70.4	0.0
2025-01-21 08:18:04.781839	104.8	41.8	-69.3	0.0
2025-01-21 08:18:05.906423	105.3	41.8	-70.4	0.0
2025-01-21 08:18:07.027399	105.9	41.8	-73.1	0.0
2025-01-21 08:18:08.150963	106.4	41.7	-72.8	0.0
2025-01-21 08:18:09.273087	107.0	41.7	-73.2	0.0
2025-01-21 08:18:10.396109	107.5	41.6	-74.3	0.0
2025-01-21 08:18:11.521447	108.0	41.6	-74.0	0.0
2025-01-21 08:18:12.645556	108.6	41.5	-71.1	0.0
2025-01-21 08:18:13.766859	109.1	41.5	-70.1	0.0
2025-01-21 08:18:14.889172	109.6	41.4	-69.8	0.0
2025-01-21 08:18:16.012815	110.1	41.3	-72.0	0.0
2025-01-21 08:18:17.136893	110.7	41.3	-68.9	0.0
2025-01-21 08:18:18.257505	111.2	41.2	-68.5	0.0
2025-01-21 08:18:19.380644	111.7	41.1	-69.8	0.0
2025-01-21 08:18:20.503023	112.2	41.1	-69.3	0.0
2025-01-21 08:18:21.627085	112.7	41.0	-71.2	0.0
2025-01-21 08:18:22.751936	113.3	40.9	-72.8	0.0
2025-01-21 08:18:23.874865	113.8	40.8	-70.5	0.0
2025-01-21 08:18:24.997070	114.3	40.7	-70.3	0.0
2025-01-21 08:18:26.121298	114.8	40.6	-70.5	0.0
2025-01-21 08:18:27.244580	115.3	40.6	-74.4	0.0
2025-01-21 08:18:28.367966	115.8	40.5	-70.1	0.0
2025-01-21 08:18:29.488567	116.3	40.4	-71.2	0.0
2025-01-21 08:18:30.612746	116.8	40.3	-69.2	0.0
2025-01-21 08:18:31.737863	117.3	40.2	-68.7	0.0
2025-01-21 08:18:32.861665	117.8	40.1	-70.4	0.0
2025-01-21 08:18:33.984550	118.3	40.0	-68.0	0.0
2025-01-21 08:18:35.107831	118.7	39.9	-71.3	0.0
2025-01-21 08:18:36.229507	119.2	39.8	-69.5	0.0
2025-01-21 08:18:37.354757	119.7	39.7	-72.1	0.0
2025-01-21 08:18:38.477875	120.2	39.6	-72.9	0.0
2025-01-21 08:18:39.600204	120.7	39.5	-73.9	0.0
2025-01-21 08:18:40.722949	121.1	39.4	-72.2	0.0
2025-01-21 08:18:41.846902	121.6	39.2	-70.9	0.0
2025-01-21 08:18:42.967920	122.0	39.1	-70.3	0.0
2025-01-21 08:18:44.091594	122.5	39.0	-69.6	0.0
2025-01-21 08:18:45.216086	123.0	38.9	-70.9	0.0
2025-01-21 08:18:46.338916	123.4	38.8	-71.1	0.0
2025-01-21 08:18:47.461343	123.9	38.7	-69.9	0.0
2025-01-21 08:18:48.584977	124.3	38.5	-71.0	0.0
2025-01-21 08:18:49.710332	124.8	38.4	-69.9	0.0
2025-01-21 08:18:50.832795	125.2	38.3	-70.3	0.0
2025-01-21 08:18:51.957373	125.6	38.2	-71.1	0.0
2025-01-21 08:18:53.080372	126.1	38.0	-70.8	0.0
2025-01-21 08:18:54.203150	126.5	37.9	-73.1	0.0
2025-01-21 08:18:55.325356	126.9	37.8	-72.5	0.0
2025-01-21 08:18:56.450298	127.3	37.6	-72.4	0.0
2025-01-21 08:18:57.572498	127.8	37.5	-72.5	0.0
2025-01-21 08:18:58.698000	128.2	37.4	-71.8	0.0
2025-01-21 08:18:59.821249	128.6	37.2	-73.2	0.0
2025-01-21 08:19:00.943516	129.0	37.1	-73.9	0.0
2025-01-21 08:19:02.067078	129.4	37.0	-73.5	0.0
2025-01-21 08:19:03.190493	129.8	36.8	-73.0	0.0
2025-01-21 08:19:04.313788	130.2	36.7	-74.7	0.0
2025-01-21 08:19:05.437718	130.6	36.5	-74.2	0.0
2025-01-21 08:19:06.561970	131.0	36.4	-74.2	0.0
2025-01-21 08:19:07.682949	131.4	36.3	-75.2	0.0
2025-01-21 08:19:08.804683	131.8	36.1	-74.2	0.0
2025-01-21 08:19:09.927496	132.2	36.0	-75.3	0.0
2025-01-21 08:19:11.052788	132.5	35.8	-74.3	0.0
2025-01-21 08:19:12.175960	132.9	35.7	-74.0	0.0
2025-01-21 08:19:13.299266	133.3	35.5	-75.1	0.0
2025-01-21 08:19:14.421631	133.7	35.4	-75.4	0.0
2025-01-21 08:19:15.543305	134.0	35.2	-76.5	0.0
2025-01-21 08:19:16.668418	134.4	35.1	-76.7	0.0
2025-01-21 08:19:17.791429	134.7	34.9	-76.4	0.0
2025-01-21 08:19:18.917000	135.1	34.8	-75.9	0.0
2025-01-21 08:19:20.038136	135.5	34.6	-75.8	0.0
2025-01-21 08:19:21.159371	135.8	34.5	-76.5	0.0
2025-01-21 08:19:22.283343	136.1	34.3	-76.5	0.0
2025-01-21 08:19:23.404213	136.5	34.2	-76.2	0.0
2025-01-21 08:19:24.524942	136.8	34.0	-76.9	0.0
2025-01-21 08:19:25.649828	137.2	33.9	-77.2	0.0
2025-01-21 08:19:26.771862	137.5	33.7	-77.1	0.0
2025-01-21 08:19:27.895024	137.8	33.6	-76.7	0.0
2025-01-21 08:19:29.018663	138.2	33.4	-76.8	0.0
2025-01-21 08:19:30.140715	138.5	33.3	-76.8	0.0
2025-01-21 08:19:31.264415	138.8	33.1	-77.6	0.0
2025-01-21 08:19:32.387525	139.1	33.0	-77.2	0.0
2025-01-21 08:19:33.511314	139.5	32.8	-78.2	0.0
2025-01-21 08:19:34.634928	139.8	32.7	-78.1	0.0
2025-01-21 08:19:35.757995	140.1	32.5	-77.1	0.0
2025-01-21 08:19:36.880544	140.4	32.4	-77.9	0.0
2025-01-21 08:19:38.003651	140.7	32.2	-78.2	0.0
2025-01-21 08:19:39.124900	141.0	32.1	-77.8	0.0
2025-01-21 08:19:40.248768	141.3	31.9	-77.6	0.0
2025-01-21 08:19:41.373009	141.6	31.7	-77.7	0.0
2025-01-21 08:19:42.497257	141.9	31.6	-77.7	0.0
2025-01-21 08:19:43.619532	142.2	31.4	-78.2	0.0
2025-01-21 08:19:44.742673	142.5	31.3	-78.1	0.0
2025-01-21 08:19:45.864631	142.7	31.1	-78.4	0.0
2025-01-21 08:19:46.987235	143.0	31.0	-78.3	0.0
2025-01-21 08:19:48.108818	143.3	30.8	-78.2	0.0
2025-01-21 08:19:49.230023	143.6	30.7	-78.0	0.0
2025-01-21 08:19:50.351585	143.9	30.5	-78.3	0.0
2025-01-21 08:19:51.474569	144.1	30.4	-78.6	0.0
2025-01-21 08:19:52.596545	144.4	30.2	-78.3	0.0
2025-01-21 08:19:53.717809	144.7	30.1	-77.9	0.0
2025-01-21 08:19:54.838969	144.9	29.9	-78.4	0.0
2025-01-21 08:19:55.962005	145.2	29.7	-78.4	0.0
2025-01-21 08:19:57.086575	145.5	29.6	-78.4	0.0
2025-01-21 08:19:58.212926	145.7	29.4	-78.8	0.0
2025-01-21 08:19:59.334660	146.0	29.3	-78.6	0.0
2025-01-21 08:20:00.458549	146.2	29.1	-78.0	0.0
2025-01-21 08:20:01.582949	146.5	29.0	-78.7	0.0
2025-01-21 08:20:02.706657	146.7	28.8	-78.3	0.0
2025-01-21 08:20:03.832027	147.0	28.7	-78.5	0.0
2025-01-21 08:20:04.956582	147.2	28.5	-78.6	0.0
2025-01-21 08:20:06.081781	147.5	28.4	-78.2	0.0
2025-01-21 08:20:07.204691	147.7	28.2	-78.7	0.0
2025-01-21 08:20:08.327363	147.9	28.1	-78.9	0.0
2025-01-21 08:20:09.448986	148.2	27.9	-78.8	0.0
2025-01-21 08:20:10.573202	148.4	27.8	-79.2	0.0
2025-01-21 08:20:11.694833	148.6	27.6	-78.4	0.0
2025-01-21 08:20:12.816754	148.9	27.5	-78.5	0.0
2025-01-21 08:20:13.940179	149.1	27.3	-78.5	0.0
2025-01-21 08:20:15.061653	149.3	27.2	-78.4	0.0
2025-01-21 08:20:16.185683	149.6	27.0	-78.4	0.0
2025-01-21 08:20:17.307810	149.8	26.9	-78.6	0.0
2025-01-21 08:20:18.428399	150.0	26.7	-78.5	0.0
2025-01-21 08:20:19.550732	150.2	26.6	-78.6	0.0
2025-01-21 08:20:20.673199	150.4	26.4	-78.2	0.0
2025-01-21 08:20:21.793753	150.6	26.3	-78.2	0.4
2025-01-21 08:20:22.916310	150.9	26.2	-78.8	0.1
2025-01-21 08:20:24.038881	151.1	26.0	-78.6	1.1
2025-01-21 08:20:25.160695	151.3	25.9	-78.4	0.2
2025-01-21 08:20:26.283584	151.5	25.7	-78.3	0.0
2025-01-21 08:20:27.406646	151.7	25.6	-78.5	1.5
2025-01-21 08:20:28.530633	151.9	25.4	-78.7	0.0
2025-01-21 08:20:29.654279	152.1	25.3	-78.7	1.4
2025-01-21 08:20:30.776195	152.3	25.1	-78.1	0.4
2025-01-21 08:20:31.899551	152.5	25.0	-78.3	0.0
2025-01-21 08:20:33.024327	152.7	24.9	-78.0	0.0
2025-01-21 08:20:34.148594	152.9	24.7	-78.1	1.3
2025-01-21 08:20:35.272868	153.1	24.6	-78.2	0.0
2025-01-21 08:20:36.395494	153.2	24.4	-78.4	0.0
2025-01-21 08:20:37.519048	153.4	24.3	-78.1	1.5
2025-01-21 08:20:38.638678	153.6	24.1	-78.3	0.0
2025-01-21 08:20:39.760378	153.8	24.0	-78.0	1.1
2025-01-21 08:20:40.883612	154.0	23.9	-78.2	0.0
2025-01-21 08:20:42.006036	154.2	23.7	-78.1	0.2
2025-01-21 08:20:43.129618	154.4	23.6	-78.0	0.0
2025-01-21 08:20:44.253388	154.5	23.5	-78.4	0.0
2025-01-21 08:20:45.377040	154.7	23.3	-78.3	0.0
2025-01-21 08:20:46.499291	154.9	23.2	-78.6	0.1
2025-01-21 08:20:47.623455	155.1	23.0	-78.6	0.0
2025-01-21 08:20:48.747067	155.2	22.9	-78.8	0.0
2025-01-21 08:20:49.870361	155.4	22.8	-78.4	0.5
2025-01-21 08:20:50.995425	155.6	22.6	-78.3	0.0
2025-01-21 08:20:52.119689	155.7	22.5	-78.2	0.0
2025-01-21 08:20:53.241571	155.9	22.4	-78.4	0.0
2025-01-21 08:20:54.364865	156.1	22.2	-78.3	0.0
2025-01-21 08:20:55.492022	156.2	22.1	-78.3	0.0
2025-01-21 08:20:56.615598	156.4	22.0	-78.4	0.0
2025-01-21 08:20:57.738973	156.6	21.8	-78.6	0.0
2025-01-21 08:20:58.861582	156.7	21.7	-78.5	0.0
2025-01-21 08:20:59.982352	156.9	21.6	-77.8	0.0
2025-01-21 08:21:01.105746	157.0	21.4	-78.2	0.0
2025-01-21 08:21:02.226816	157.2	21.3	-78.0	0.0
2025-01-21 08:21:03.350828	157.4	21.2	-77.9	0.0
2025-01-21 08:21:04.475301	157.5	21.0	-78.2	0.0
2025-01-21 08:21:05.597083	157.7	20.9	-77.8	0.0
2025-01-21 08:21:06.718391	157.8	20.8	-78.1	0.0
2025-01-21 08:21:07.843565	158.0	20.7	-77.7	0.0
2025-01-21 08:21:08.966892	158.1	20.5	-78.0	0.0
2025-01-21 08:21:10.089039	158.3	20.4	-77.8	0.0
2025-01-21 08:21:11.211774	158.4	20.3	-77.9	0.0
2025-01-21 08:21:12.334717	158.6	20.1	-77.7	0.0
2025-01-21 08:21:13.458789	158.7	20.0	-77.9	0.0
2025-01-21 08:21:14.581732	158.8	19.9	-77.6	0.0
2025-01-21 08:21:15.704785	159.0	19.8	-77.6	0.0
2025-01-21 08:21:16.828937	159.1	19.6	-77.9	0.0
2025-01-21 08:21:17.950011	159.3	19.5	-77.5	0.0
2025-01-21 08:21:19.074656	159.4	19.4	-77.8	0.0
2025-01-21 08:21:20.197233	159.5	19.3	-77.7	0.0
2025-01-21 08:21:21.321344	159.7	19.2	-77.2	0.0
2025-01-21 08:21:22.443802	159.8	19.0	-78.0	0.0
2025-01-21 08:21:23.566032	160.0	18.9	-77.6	0.0
2025-01-21 08:21:24.689705	160.1	18.8	-77.2	0.0
2025-01-21 08:21:25.816569	160.2	18.7	-77.3	0.0
2025-01-21 08:21:26.941870	160.4	18.5	-77.3	0.0
2025-01-21 08:21:28.065980	160.5	18.4	-77.3	0.0
2025-01-21 08:21:29.189715	160.6	18.3	-77.7	0.0
2025-01-21 08:21:30.311841	160.7	18.2	-77.2	0.0
2025-01-21 08:21:31.434101	160.9	18.1	-76.9	0.0
2025-01-21 08:21:32.557428	161.0	17.9	-77.1	0.0
2025-01-21 08:21:33.682970	161.1	17.8	-77.1	0.0
2025-01-21 08:21:34.806817	161.2	17.7	-76.9	0.0
2025-01-21 08:21:35.930458	161.4	17.6	-76.9	0.0
2025-01-21 08:21:37.051300	161.5	17.5	-76.9	0.0
2025-01-21 08:21:38.171950	161.6	17.4	-77.0	0.0
2025-01-21 08:21:39.297856	161.7	17.2	-77.0	0.0
2025-01-21 08:21:40.420293	161.9	17.1	-76.8	0.0
2025-01-21 08:21:41.544144	162.0	17.0	-76.4	0.0
2025-01-21 08:21:42.666732	162.1	16.9	-76.8	0.0
2025-01-21 08:21:43.788969	162.2	16.8	-76.3	0.0
2025-01-21 08:21:44.912896	162.3	16.7	-76.6	0.0
2025-01-21 08:21:46.035496	162.4	16.6	-76.5	0.0
2025-01-21 08:21:47.157393	162.6	16.4	-76.2	0.0
2025-01-21 08:21:48.281524	162.7	16.3	-76.4	0.0
2025-01-21 08:21:49.404754	162.8	16.2	-76.0	0.0
2025-01-21 08:21:50.526028	162.9	16.1	-76.4	0.0
2025-01-21 08:21:51.648336	163.0	16.0	-75.7	0.0
2025-01-21 08:21:52.769918	163.1	15.9	-76.2	0.0
2025-01-21 08:21:53.895581	163.2	15.8	-76.1	0.0
2025-01-21 08:21:55.018291	163.3	15.7	-75.9	0.0
2025-01-21 08:21:56.141689	163.5	15.6	-75.8	0.0
2025-01-21 08:21:57.264123	163.6	15.4	-75.7	0.0
2025-01-21 08:21:58.389214	163.7	15.3	-76.1	0.0
2025-01-21 08:21:59.515274	163.8	15.2	-76.0	0.0
2025-01-21 08:22:00.636118	163.9	15.1	-75.8	0.0
2025-01-21 08:22:01.760279	164.0	15.0	-75.7	0.0
2025-01-21 08:22:02.884127	164.1	14.9	-76.1	0.0
2025-01-21 08:22:04.007364	164.2	14.8	-75.6	0.0
2025-01-21 08:22:05.130125	164.3	14.7	-75.6	0.0
2025-01-21 08:22:06.253388	164.4	14.6	-75.4	0.0
2025-01-21 08:22:07.375484	164.5	14.5	-75.5	0.0
2025-01-21 08:22:08.498462	164.6	14.4	-76.0	0.0
2025-01-21 08:22:09.623710	164.7	14.3	-75.6	0.0
2025-01-21 08:22:10.747800	164.8	14.2	-76.1	0.0
2025-01-21 08:22:11.868808	164.9	14.1	-76.1	0.0
2025-01-21 08:22:12.992614	165.0	13.9	-75.5	0.0
2025-01-21 08:22:14.115422	165.1	13.8	-75.6	0.0
2025-01-21 08:22:15.239862	165.2	13.7	-75.8	0.0
2025-01-21 08:22:16.361986	165.3	13.6	-75.9	0.0
2025-01-21 08:22:17.485686	165.4	13.5	-75.1	0.0
2025-01-21 08:22:18.609252	165.5	13.4	-75.0	0.0
2025-01-21 08:22:19.731011	165.6	13.3	-74.8	0.0
2025-01-21 08:22:20.857556	165.7	13.2	-74.8	0.0
2025-01-21 08:22:21.980873	165.8	13.1	-74.7	0.0
2025-01-21 08:22:23.106204	165.9	13.0	-75.0	0.0
2025-01-21 08:22:24.227270	165.9	12.9	-75.2	0.0
2025-01-21 08:22:25.349760	166.0	12.8	-74.7	0.0
2025-01-21 08:22:26.473852	166.1	12.7	-74.7	0.0
2025-01-21 08:22:27.598203	166.2	12.6	-75.0	0.0
2025-01-21 08:22:28.720812	166.3	12.5	-74.8	0.0
2025-01-21 08:22:29.843819	166.4	12.4	-75.0	0.0
2025-01-21 08:22:30.966644	166.5	12.3	-75.7	0.0
2025-01-21 08:22:32.089629	166.6	12.2	-75.1	0.0
2025-01-21 08:22:33.213605	166.7	12.1	-74.8	0.0
2025-01-21 08:22:34.337418	166.7	12.0	-75.0	0.0
2025-01-21 08:22:35.461766	166.8	11.9	-74.7	0.0
2025-01-21 08:22:36.584769	166.9	11.8	-74.6	0.0
2025-01-21 08:22:37.710754	167.0	11.7	-74.8	0.0
2025-01-21 08:22:38.831705	167.1	11.7	-74.8	0.0
2025-01-21 08:22:39.957341	167.2	11.6	-75.0	0.0
2025-01-21 08:22:41.081034	167.3	11.5	-75.4	0.0
2025-01-21 08:22:42.204978	167.3	11.4	-74.6	0.0
2025-01-21 08:22:43.328906	167.4	11.3	-74.9	0.0
2025-01-21 08:22:44.451775	167.5	11.2	-75.2	0.0
2025-01-21 08:22:45.575013	167.6	11.1	-75.1	0.0
2025-01-21 08:22:46.698027	167.7	11.0	-76.7	0.0
2025-01-21 08:22:47.820145	167.7	10.9	-78.0	0.0
2025-01-21 08:22:48.942859	167.8	10.8	-77.4	0.0
2025-01-21 08:22:50.065934	167.9	10.7	-76.9	0.0
2025-01-21 08:22:51.189726	168.0	10.6	-77.9	0.0
2025-01-21 08:22:52.313360	168.1	10.5	-80.2	0.0
2025-01-21 08:22:53.435765	168.1	10.4	-80.8	0.0
2025-01-21 08:22:54.559542	168.2	10.3	-81.2	0.0
2025-01-21 08:22:55.683928	168.3	10.2	-81.1	0.0
2025-01-21 08:22:56.804675	168.4	10.2	-81.3	0.0
2025-01-21 08:22:57.926946	168.5	10.1	-81.2	0.0
#Closed at: 2025-01-21 08:12:32.931195