passes_logs/2025/01/21/planumMaritime01/planumMaritime01__20250121_095316_NOAA_18_rec.log

#Pass ID: 20250121_095316_NOAA 18
#Satellite: NOAA 18
#Configuration: NOAA 18
#Start time: 2025-01-21 09:53:21.573697

#LorettStation: 1.0.0 05.05.2024
#Station: planumMaritime01
#Location: 37.49445 lon 55.92918 lat
#TLE: 1 28654U 05018A   25020.18862715  .00000449  00000+0  26167-3 0  9997
#TLE: 2 28654  98.8558 101.1913 0014575 164.8261 195.3351 14.13491567 13918

#Time	Az	El	Level	SNR
2025-01-21 09:53:23.732152	8.5	10.2	-70.0	0.0
2025-01-21 09:53:24.856314	8.4	10.3	-66.5	0.0
2025-01-21 09:53:25.978870	8.3	10.4	-63.6	0.0
2025-01-21 09:53:27.100830	8.3	10.5	-68.2	0.0
2025-01-21 09:53:28.226215	8.2	10.5	-66.0	0.0
2025-01-21 09:53:29.347895	8.1	10.6	-67.8	0.0
2025-01-21 09:53:30.471024	8.1	10.7	-69.2	0.0
2025-01-21 09:53:31.594850	8.0	10.8	-70.0	0.0
2025-01-21 09:53:32.717510	7.9	10.9	-68.1	0.0
2025-01-21 09:53:33.839953	7.9	11.0	-68.7	0.0
2025-01-21 09:53:34.963314	7.8	11.1	-66.9	0.0
2025-01-21 09:53:36.086823	7.7	11.2	-66.1	0.0
2025-01-21 09:53:37.209115	7.7	11.3	-69.0	0.0
2025-01-21 09:53:38.334374	7.6	11.4	-67.7	0.0
2025-01-21 09:53:39.457688	7.5	11.5	-69.2	0.0
2025-01-21 09:53:40.580788	7.5	11.6	-69.5	0.0
2025-01-21 09:53:41.704879	7.4	11.7	-68.8	0.0
2025-01-21 09:53:42.828830	7.3	11.8	-67.7	0.0
2025-01-21 09:53:43.951644	7.3	11.9	-65.2	0.0
2025-01-21 09:53:45.074003	7.2	12.0	-68.4	0.0
2025-01-21 09:53:46.196775	7.1	12.1	-68.9	0.0
2025-01-21 09:53:47.318604	7.0	12.2	-68.2	0.0
2025-01-21 09:53:48.443691	7.0	12.3	-68.7	0.0
2025-01-21 09:53:49.566410	6.9	12.4	-67.8	0.0
2025-01-21 09:53:50.690246	6.8	12.5	-67.3	0.0
2025-01-21 09:53:51.812975	6.7	12.6	-69.9	0.0
2025-01-21 09:53:52.938757	6.7	12.7	-68.0	0.0
2025-01-21 09:53:54.063870	6.6	12.8	-69.7	0.0
2025-01-21 09:53:55.187264	6.5	12.9	-68.7	0.0
2025-01-21 09:53:56.312911	6.4	13.0	-69.5	0.0
2025-01-21 09:53:57.434091	6.4	13.1	-69.7	0.0
2025-01-21 09:53:58.559288	6.3	13.2	-69.8	0.0
2025-01-21 09:53:59.683180	6.2	13.3	-69.4	0.0
2025-01-21 09:54:00.805920	6.1	13.4	-68.7	0.0
2025-01-21 09:54:01.931236	6.0	13.5	-67.6	0.0
2025-01-21 09:54:03.053860	6.0	13.6	-68.9	0.0
2025-01-21 09:54:04.176758	5.9	13.7	-67.1	0.0
2025-01-21 09:54:05.300744	5.8	13.8	-67.1	0.0
2025-01-21 09:54:06.424706	5.7	13.9	-67.8	0.0
2025-01-21 09:54:07.546964	5.6	14.0	-67.8	0.0
2025-01-21 09:54:08.666822	5.5	14.1	-67.3	0.0
2025-01-21 09:54:09.790667	5.5	14.2	-67.8	0.0
2025-01-21 09:54:10.914081	5.4	14.3	-67.4	0.0
2025-01-21 09:54:12.038217	5.3	14.4	-66.0	0.0
2025-01-21 09:54:13.161211	5.2	14.5	-67.5	0.0
2025-01-21 09:54:14.284495	5.1	14.7	-66.5	0.0
2025-01-21 09:54:15.407863	5.0	14.8	-68.0	0.0
2025-01-21 09:54:16.531879	4.9	14.9	-67.4	0.0
2025-01-21 09:54:17.656913	4.8	15.0	-66.9	0.0
2025-01-21 09:54:18.779906	4.8	15.1	-66.5	0.0
2025-01-21 09:54:19.902403	4.7	15.2	-65.2	0.0
2025-01-21 09:54:21.027653	4.6	15.3	-68.5	0.0
2025-01-21 09:54:22.154385	4.5	15.4	-67.2	0.0
2025-01-21 09:54:23.277455	4.4	15.5	-68.1	0.0
2025-01-21 09:54:24.400889	4.3	15.6	-66.1	0.0
2025-01-21 09:54:25.526491	4.2	15.7	-67.9	0.0
2025-01-21 09:54:26.651454	4.1	15.9	-67.6	0.0
2025-01-21 09:54:27.773687	4.0	16.0	-68.6	0.0
2025-01-21 09:54:28.897624	3.9	16.1	-68.3	0.0
2025-01-21 09:54:30.021229	3.8	16.2	-67.4	0.0
2025-01-21 09:54:31.142547	3.7	16.3	-67.7	0.0
2025-01-21 09:54:32.264894	3.6	16.4	-67.7	0.0
2025-01-21 09:54:33.388581	3.5	16.5	-69.9	0.0
2025-01-21 09:54:34.513378	3.4	16.7	-68.6	0.0
2025-01-21 09:54:35.635491	3.3	16.8	-67.9	0.0
2025-01-21 09:54:36.761318	3.2	16.9	-68.9	0.0
2025-01-21 09:54:37.883580	3.1	17.0	-68.8	0.0
2025-01-21 09:54:39.007874	3.0	17.1	-69.3	0.0
2025-01-21 09:54:40.129591	2.9	17.2	-68.9	0.0
2025-01-21 09:54:41.253996	2.8	17.4	-68.9	0.0
2025-01-21 09:54:42.377031	2.7	17.5	-69.6	0.0
2025-01-21 09:54:43.499804	2.6	17.6	-69.5	0.0
2025-01-21 09:54:44.623706	2.5	17.7	-68.1	0.0
2025-01-21 09:54:45.746808	2.4	17.8	-69.2	0.0
2025-01-21 09:54:46.868697	2.3	18.0	-69.9	0.0
2025-01-21 09:54:47.992221	2.1	18.1	-69.3	0.0
2025-01-21 09:54:49.116328	2.0	18.2	-69.6	0.0
2025-01-21 09:54:50.238999	1.9	18.3	-69.7	0.0
2025-01-21 09:54:51.360974	1.8	18.4	-71.4	0.0
2025-01-21 09:54:52.484253	1.7	18.6	-70.1	0.0
2025-01-21 09:54:53.606954	1.6	18.7	-70.1	0.0
2025-01-21 09:54:54.728627	1.5	18.8	-70.6	0.0
2025-01-21 09:54:55.850940	1.3	18.9	-69.6	0.0
2025-01-21 09:54:56.974302	1.2	19.1	-70.5	0.0
2025-01-21 09:54:58.096838	1.1	19.2	-67.8	0.0
2025-01-21 09:54:59.218877	1.0	19.3	-69.7	0.0
2025-01-21 09:55:00.341822	0.9	19.4	-70.8	0.0
2025-01-21 09:55:01.464499	0.7	19.6	-70.6	0.0
2025-01-21 09:55:02.590900	0.6	19.7	-69.0	0.0
2025-01-21 09:55:03.716011	0.5	19.8	-69.8	0.0
2025-01-21 09:55:04.837834	0.4	19.9	-68.8	0.0
2025-01-21 09:55:05.961145	0.2	20.1	-68.4	0.0
2025-01-21 09:55:07.086302	0.1	20.2	-70.8	0.0
2025-01-21 09:55:08.207350	360.0	20.3	-69.9	0.0
2025-01-21 09:55:09.330908	359.9	20.5	-71.1	0.0
2025-01-21 09:55:10.451706	359.7	20.6	-70.7	0.0
2025-01-21 09:55:11.573699	359.6	20.7	-72.6	0.0
2025-01-21 09:55:12.695474	359.5	20.9	-69.9	0.0
2025-01-21 09:55:13.817902	359.3	21.0	-71.1	0.0
2025-01-21 09:55:14.939597	359.2	21.1	-72.5	0.0
2025-01-21 09:55:16.064848	359.1	21.3	-71.9	0.0
2025-01-21 09:55:17.188472	358.9	21.4	-73.3	0.0
2025-01-21 09:55:18.311250	358.8	21.5	-70.0	0.0
2025-01-21 09:55:19.433011	358.6	21.7	-73.4	0.0
2025-01-21 09:55:20.556891	358.5	21.8	-68.6	0.0
2025-01-21 09:55:21.680777	358.4	21.9	-73.1	0.0
2025-01-21 09:55:22.803141	358.2	22.1	-73.6	0.0
2025-01-21 09:55:23.928673	358.1	22.2	-70.5	0.0
2025-01-21 09:55:25.050678	357.9	22.3	-70.4	0.0
2025-01-21 09:55:26.172818	357.8	22.5	-70.9	0.0
2025-01-21 09:55:27.296884	357.6	22.6	-70.1	0.0
2025-01-21 09:55:28.422372	357.5	22.8	-71.0	0.0
2025-01-21 09:55:29.545224	357.3	22.9	-67.7	0.0
2025-01-21 09:55:30.667866	357.2	23.0	-68.7	0.0
2025-01-21 09:55:31.790700	357.0	23.2	-69.1	0.0
2025-01-21 09:55:32.914232	356.8	23.3	-71.3	0.0
2025-01-21 09:55:34.036165	356.7	23.5	-71.1	0.0
2025-01-21 09:55:35.161130	356.5	23.6	-72.8	0.0
2025-01-21 09:55:36.285713	356.4	23.7	-71.7	0.0
2025-01-21 09:55:37.408371	356.2	23.9	-70.2	0.0
2025-01-21 09:55:38.531252	356.0	24.0	-67.2	0.0
2025-01-21 09:55:39.655384	355.9	24.2	-65.5	0.0
2025-01-21 09:55:40.777976	355.7	24.3	-72.2	0.0
2025-01-21 09:55:41.903100	355.5	24.5	-73.1	0.0
2025-01-21 09:55:43.026956	355.4	24.6	-70.2	0.0
2025-01-21 09:55:44.149612	355.2	24.8	-71.4	0.0
2025-01-21 09:55:45.275172	355.0	24.9	-71.8	0.0
2025-01-21 09:55:46.399493	354.8	25.1	-69.3	0.0
2025-01-21 09:55:47.522636	354.7	25.2	-72.6	0.0
2025-01-21 09:55:48.643506	354.5	25.3	-72.2	0.0
2025-01-21 09:55:49.767109	354.3	25.5	-70.6	0.0
2025-01-21 09:55:50.890884	354.1	25.6	-70.0	0.0
2025-01-21 09:55:52.012938	353.9	25.8	-68.6	0.0
2025-01-21 09:55:53.136447	353.8	25.9	-70.3	0.0
2025-01-21 09:55:54.258518	353.6	26.1	-71.9	0.0
2025-01-21 09:55:55.381622	353.4	26.3	-72.2	0.0
2025-01-21 09:55:56.505679	353.2	26.4	-70.6	0.0
2025-01-21 09:55:57.629384	353.0	26.6	-72.0	0.0
2025-01-21 09:55:58.751718	352.8	26.7	-70.4	0.0
2025-01-21 09:55:59.875910	352.6	26.9	-66.9	0.0
2025-01-21 09:56:00.999938	352.4	27.0	-71.6	0.0
2025-01-21 09:56:02.123685	352.2	27.2	-70.6	0.0
2025-01-21 09:56:03.246909	352.0	27.3	-69.7	0.0
2025-01-21 09:56:04.370592	351.8	27.5	-70.6	0.0
2025-01-21 09:56:05.493428	351.6	27.6	-70.8	0.0
2025-01-21 09:56:06.614480	351.4	27.8	-71.9	0.0
2025-01-21 09:56:07.736870	351.2	28.0	-70.7	0.0
2025-01-21 09:56:08.862427	351.0	28.1	-70.2	0.0
2025-01-21 09:56:09.987159	350.7	28.3	-71.2	0.0
2025-01-21 09:56:11.110137	350.5	28.4	-72.0	0.0
2025-01-21 09:56:12.231644	350.3	28.6	-72.5	0.0
2025-01-21 09:56:13.356542	350.1	28.7	-72.3	0.0
2025-01-21 09:56:14.481189	349.9	28.9	-73.1	0.0
2025-01-21 09:56:15.602942	349.6	29.1	-72.9	0.0
2025-01-21 09:56:16.726895	349.4	29.2	-73.1	0.0
2025-01-21 09:56:17.851035	349.2	29.4	-74.1	0.0
2025-01-21 09:56:18.972903	348.9	29.5	-74.2	0.0
2025-01-21 09:56:20.097670	348.7	29.7	-75.0	0.0
2025-01-21 09:56:21.220819	348.5	29.9	-74.4	0.0
2025-01-21 09:56:22.345484	348.2	30.0	-74.3	0.0
2025-01-21 09:56:23.468972	348.0	30.2	-75.0	0.0
2025-01-21 09:56:24.589922	347.7	30.4	-73.1	0.0
2025-01-21 09:56:25.712098	347.5	30.5	-74.4	0.0
2025-01-21 09:56:26.834783	347.2	30.7	-73.8	0.0
2025-01-21 09:56:27.956585	347.0	30.8	-75.1	0.0
2025-01-21 09:56:29.081085	346.7	31.0	-76.0	0.0
2025-01-21 09:56:30.204150	346.5	31.2	-75.1	0.0
2025-01-21 09:56:31.327383	346.2	31.3	-72.5	0.0
2025-01-21 09:56:32.450351	345.9	31.5	-73.0	0.0
2025-01-21 09:56:33.574016	345.7	31.7	-73.0	0.0
2025-01-21 09:56:34.696675	345.4	31.8	-75.0	0.0
2025-01-21 09:56:35.821907	345.1	32.0	-75.3	0.0
2025-01-21 09:56:36.946727	344.9	32.2	-75.5	0.0
2025-01-21 09:56:38.069650	344.6	32.3	-75.6	0.0
2025-01-21 09:56:39.190974	344.3	32.5	-76.5	0.0
2025-01-21 09:56:40.313375	344.0	32.7	-76.7	0.0
2025-01-21 09:56:41.437493	343.7	32.8	-75.9	0.0
2025-01-21 09:56:42.560594	343.4	33.0	-76.1	0.0
2025-01-21 09:56:43.683313	343.1	33.2	-75.8	0.0
2025-01-21 09:56:44.806977	342.9	33.3	-74.6	0.0
2025-01-21 09:56:45.930976	342.6	33.5	-76.6	0.0
2025-01-21 09:56:47.053726	342.3	33.7	-77.1	0.0
2025-01-21 09:56:48.174725	341.9	33.8	-77.3	0.0
2025-01-21 09:56:49.297602	341.6	34.0	-77.3	0.0
2025-01-21 09:56:50.419279	341.3	34.2	-77.6	0.0
2025-01-21 09:56:51.541455	341.0	34.3	-78.7	0.0
2025-01-21 09:56:52.663825	340.7	34.5	-78.8	0.0
2025-01-21 09:56:53.786334	340.4	34.7	-78.0	0.0
2025-01-21 09:56:54.906422	340.0	34.8	-78.9	0.0
2025-01-21 09:56:56.029041	339.7	35.0	-78.2	0.0
2025-01-21 09:56:57.152563	339.4	35.2	-79.7	0.0
2025-01-21 09:56:58.273908	339.1	35.3	-79.0	0.0
2025-01-21 09:56:59.396659	338.7	35.5	-78.9	0.0
2025-01-21 09:57:00.518987	338.4	35.6	-77.4	0.0
2025-01-21 09:57:01.640937	338.0	35.8	-78.1	0.0
2025-01-21 09:57:02.762853	337.7	36.0	-77.7	0.0
2025-01-21 09:57:03.886668	337.3	36.1	-77.1	0.0
2025-01-21 09:57:05.011023	337.0	36.3	-78.9	0.0
2025-01-21 09:57:06.134058	336.6	36.5	-78.8	0.0
2025-01-21 09:57:07.257324	336.3	36.6	-78.7	0.0
2025-01-21 09:57:08.379267	335.9	36.8	-78.9	0.0
2025-01-21 09:57:09.503892	335.5	37.0	-78.8	0.0
2025-01-21 09:57:10.628707	335.1	37.1	-78.5	0.0
2025-01-21 09:57:11.752190	334.8	37.3	-77.4	0.0
2025-01-21 09:57:12.874398	334.4	37.4	-78.0	0.0
2025-01-21 09:57:13.997712	334.0	37.6	-77.2	0.0
2025-01-21 09:57:15.122406	333.6	37.7	-77.8	0.0
2025-01-21 09:57:16.245352	333.2	37.9	-77.4	0.0
2025-01-21 09:57:17.368860	332.8	38.1	-78.4	0.0
2025-01-21 09:57:18.490800	332.4	38.2	-78.1	0.0
2025-01-21 09:57:19.615005	332.0	38.4	-78.4	0.0
2025-01-21 09:57:20.737752	331.6	38.5	-78.1	0.0
2025-01-21 09:57:21.860463	331.2	38.7	-78.3	0.0
2025-01-21 09:57:22.984131	330.8	38.8	-78.4	0.0
2025-01-21 09:57:24.104982	330.4	39.0	-78.6	0.0
2025-01-21 09:57:25.226428	329.9	39.1	-77.8	0.0
2025-01-21 09:57:26.347009	329.5	39.3	-78.9	0.0
2025-01-21 09:57:27.472696	329.1	39.4	-79.0	0.0
2025-01-21 09:57:28.594825	328.6	39.6	-78.7	0.0
2025-01-21 09:57:29.720378	328.2	39.7	-78.5	0.0
2025-01-21 09:57:30.842877	327.8	39.9	-78.6	0.0
2025-01-21 09:57:31.967932	327.3	40.0	-78.7	0.0
2025-01-21 09:57:33.091196	326.9	40.1	-77.0	0.0
2025-01-21 09:57:34.213563	326.4	40.3	-78.1	0.0
2025-01-21 09:57:35.336085	325.9	40.4	-77.6	0.0
2025-01-21 09:57:36.459653	325.5	40.5	-78.5	0.0
2025-01-21 09:57:37.581221	325.0	40.7	-77.9	0.0
2025-01-21 09:57:38.704705	324.5	40.8	-78.1	0.0
2025-01-21 09:57:39.826758	324.1	40.9	-78.2	0.0
2025-01-21 09:57:40.951979	323.6	41.1	-77.8	0.0
2025-01-21 09:57:42.073399	323.1	41.2	-77.3	0.0
2025-01-21 09:57:43.197175	322.6	41.3	-77.5	0.0
2025-01-21 09:57:44.320747	322.1	41.4	-78.0	0.0
2025-01-21 09:57:45.445431	321.6	41.6	-78.1	0.0
2025-01-21 09:57:46.568772	321.1	41.7	-77.8	0.0
2025-01-21 09:57:47.692751	320.6	41.8	-77.5	0.0
2025-01-21 09:57:48.814482	320.1	41.9	-78.1	0.0
2025-01-21 09:57:49.936455	319.6	42.0	-77.4	0.0
2025-01-21 09:57:51.058956	319.1	42.1	-78.0	0.0
2025-01-21 09:57:52.179981	318.6	42.2	-77.7	0.0
2025-01-21 09:57:53.303864	318.1	42.4	-77.5	0.0
2025-01-21 09:57:54.426429	317.5	42.5	-78.5	0.0
2025-01-21 09:57:55.550491	317.0	42.6	-78.4	0.0
2025-01-21 09:57:56.672929	316.5	42.7	-76.8	0.0
2025-01-21 09:57:57.795924	316.0	42.8	-79.2	0.0
2025-01-21 09:57:58.919438	315.4	42.8	-79.2	0.0
2025-01-21 09:58:00.044843	314.9	42.9	-78.7	0.0
2025-01-21 09:58:01.168845	314.3	43.0	-79.0	0.0
2025-01-21 09:58:02.294620	313.8	43.1	-79.2	0.0
2025-01-21 09:58:03.418488	313.2	43.2	-78.9	0.0
2025-01-21 09:58:04.540616	312.7	43.3	-79.3	0.0
2025-01-21 09:58:05.665069	312.1	43.3	-79.5	0.0
2025-01-21 09:58:06.785682	311.6	43.4	-79.3	0.0
2025-01-21 09:58:07.909100	311.0	43.5	-78.3	0.0
2025-01-21 09:58:09.032805	310.5	43.6	-79.2	0.0
2025-01-21 09:58:10.157235	309.9	43.6	-79.3	0.0
2025-01-21 09:58:11.279886	309.3	43.7	-78.8	0.0
2025-01-21 09:58:12.401970	308.8	43.7	-78.8	0.0
2025-01-21 09:58:13.524962	308.2	43.8	-78.9	0.0
2025-01-21 09:58:14.647801	307.6	43.9	-79.8	0.0
2025-01-21 09:58:15.770217	307.1	43.9	-78.3	0.0
2025-01-21 09:58:16.894204	306.5	44.0	-79.8	0.0
2025-01-21 09:58:18.017491	305.9	44.0	-79.6	0.0
2025-01-21 09:58:19.140141	305.3	44.0	-79.2	0.0
2025-01-21 09:58:20.260651	304.7	44.1	-79.7	0.0
2025-01-21 09:58:21.385000	304.2	44.1	-79.3	0.0
2025-01-21 09:58:22.507102	303.6	44.1	-79.9	0.0
2025-01-21 09:58:23.633713	303.0	44.2	-79.8	0.0
2025-01-21 09:58:24.758643	302.4	44.2	-80.1	0.0
2025-01-21 09:58:25.881291	301.8	44.2	-79.6	0.0
2025-01-21 09:58:27.003259	301.2	44.2	-79.9	0.0
2025-01-21 09:58:28.126161	300.6	44.2	-79.8	0.0
2025-01-21 09:58:29.248246	300.1	44.3	-79.6	0.0
2025-01-21 09:58:30.371563	299.5	44.3	-79.3	0.0
2025-01-21 09:58:31.495228	298.9	44.3	-79.2	0.0
2025-01-21 09:58:32.617877	298.3	44.3	-79.5	0.0
2025-01-21 09:58:33.742708	297.7	44.3	-79.9	0.0
2025-01-21 09:58:34.868081	297.1	44.3	-79.6	0.0
2025-01-21 09:58:35.990743	296.5	44.2	-79.2	0.0
2025-01-21 09:58:37.112044	295.9	44.2	-79.8	0.0
2025-01-21 09:58:38.233641	295.4	44.2	-80.3	0.0
2025-01-21 09:58:39.356467	294.8	44.2	-80.2	0.0
2025-01-21 09:58:40.481908	294.2	44.2	-79.9	0.0
2025-01-21 09:58:41.605300	293.6	44.1	-80.1	0.0
2025-01-21 09:58:42.729426	293.0	44.1	-79.5	0.0
2025-01-21 09:58:43.852330	292.4	44.1	-79.8	0.0
2025-01-21 09:58:44.974989	291.9	44.0	-80.0	0.0
2025-01-21 09:58:46.099497	291.3	44.0	-79.5	0.0
2025-01-21 09:58:47.222673	290.7	44.0	-80.1	0.0
2025-01-21 09:58:48.345633	290.1	43.9	-79.9	0.0
2025-01-21 09:58:49.467439	289.5	43.9	-80.1	0.0
2025-01-21 09:58:50.591822	289.0	43.8	-80.3	0.0
2025-01-21 09:58:51.713721	288.4	43.8	-80.0	0.0
2025-01-21 09:58:52.834399	287.8	43.7	-79.9	0.0
2025-01-21 09:58:53.955396	287.3	43.6	-79.9	0.0
2025-01-21 09:58:55.078429	286.7	43.6	-79.0	0.0
2025-01-21 09:58:56.201822	286.1	43.5	-79.0	0.0
2025-01-21 09:58:57.327925	285.6	43.4	-79.1	0.0
2025-01-21 09:58:58.450761	285.0	43.4	-79.1	0.0
2025-01-21 09:58:59.574135	284.5	43.3	-79.4	0.0
2025-01-21 09:59:00.696632	283.9	43.2	-79.4	0.0
2025-01-21 09:59:01.818621	283.4	43.1	-79.8	0.0
2025-01-21 09:59:02.939905	282.8	43.0	-79.5	0.0
2025-01-21 09:59:04.063667	282.3	43.0	-79.7	0.0
2025-01-21 09:59:05.187797	281.7	42.9	-79.7	0.0
2025-01-21 09:59:06.309593	281.2	42.8	-80.2	0.0
2025-01-21 09:59:07.434369	280.7	42.7	-79.8	0.0
2025-01-21 09:59:08.556916	280.1	42.6	-80.2	0.0
2025-01-21 09:59:09.681578	279.6	42.5	-79.8	0.0
2025-01-21 09:59:10.804178	279.1	42.4	-80.1	0.0
2025-01-21 09:59:11.927349	278.6	42.3	-80.2	0.0
2025-01-21 09:59:13.051068	278.0	42.2	-80.1	0.0
2025-01-21 09:59:14.175114	277.5	42.0	-80.1	0.0
2025-01-21 09:59:15.298828	277.0	41.9	-80.2	0.0
2025-01-21 09:59:16.422591	276.5	41.8	-80.4	0.0
2025-01-21 09:59:17.545839	276.0	41.7	-80.1	0.0
2025-01-21 09:59:18.670546	275.5	41.6	-80.4	0.0
2025-01-21 09:59:19.792805	275.0	41.5	-80.4	0.0
2025-01-21 09:59:20.916516	274.5	41.3	-80.0	0.0
2025-01-21 09:59:22.040659	274.0	41.2	-80.1	0.0
2025-01-21 09:59:23.165066	273.5	41.1	-80.1	0.0
2025-01-21 09:59:24.286775	273.0	41.0	-80.2	0.0
2025-01-21 09:59:25.410501	272.6	40.8	-79.8	0.0
2025-01-21 09:59:26.534004	272.1	40.7	-80.2	0.0
2025-01-21 09:59:27.658045	271.6	40.6	-80.2	0.0
2025-01-21 09:59:28.782270	271.2	40.4	-80.1	0.0
2025-01-21 09:59:29.905580	270.7	40.3	-80.2	0.0
2025-01-21 09:59:31.028867	270.2	40.1	-80.2	0.0
2025-01-21 09:59:32.150088	269.8	40.0	-80.2	0.0
2025-01-21 09:59:33.271227	269.3	39.9	-80.1	0.0
2025-01-21 09:59:34.395172	268.9	39.7	-80.4	0.0
2025-01-21 09:59:35.518119	268.4	39.6	-80.1	0.0
2025-01-21 09:59:36.639802	268.0	39.4	-79.7	0.0
2025-01-21 09:59:37.763113	267.6	39.3	-80.3	0.0
2025-01-21 09:59:38.885996	267.1	39.1	-79.7	0.0
2025-01-21 09:59:40.008718	266.7	39.0	-79.9	0.0
2025-01-21 09:59:41.131713	266.3	38.8	-80.2	0.0
2025-01-21 09:59:42.254144	265.9	38.7	-80.1	0.0
2025-01-21 09:59:43.378182	265.5	38.5	-79.5	0.0
2025-01-21 09:59:44.501826	265.0	38.4	-79.6	0.0
2025-01-21 09:59:45.625935	264.6	38.2	-79.7	0.0
2025-01-21 09:59:46.749729	264.2	38.1	-79.8	0.0
2025-01-21 09:59:47.869970	263.8	37.9	-80.1	0.0
2025-01-21 09:59:48.994630	263.4	37.7	-80.0	0.0
2025-01-21 09:59:50.120881	263.1	37.6	-79.8	0.0
2025-01-21 09:59:51.242832	262.7	37.4	-79.8	0.0
2025-01-21 09:59:52.367124	262.3	37.3	-79.7	0.0
2025-01-21 09:59:53.489261	261.9	37.1	-79.5	0.0
2025-01-21 09:59:54.612589	261.5	36.9	-79.8	0.0
2025-01-21 09:59:55.735961	261.1	36.8	-80.2	0.0
2025-01-21 09:59:56.860769	260.8	36.6	-80.2	0.0
2025-01-21 09:59:57.984034	260.4	36.5	-80.1	0.0
2025-01-21 09:59:59.106837	260.1	36.3	-80.0	0.0
2025-01-21 10:00:00.228184	259.7	36.1	-79.8	0.0
2025-01-21 10:00:01.352159	259.3	36.0	-79.3	0.0
2025-01-21 10:00:02.474952	259.0	35.8	-79.6	0.0
2025-01-21 10:00:03.599443	258.6	35.6	-79.6	0.0
2025-01-21 10:00:04.722635	258.3	35.5	-79.2	0.0
2025-01-21 10:00:05.843791	258.0	35.3	-78.7	0.0
2025-01-21 10:00:06.966756	257.6	35.1	-79.0	0.0
2025-01-21 10:00:08.090190	257.3	35.0	-78.4	0.0
2025-01-21 10:00:09.212606	257.0	34.8	-78.7	0.0
2025-01-21 10:00:10.335578	256.6	34.6	-78.9	0.0
2025-01-21 10:00:11.459801	256.3	34.5	-79.0	0.0
2025-01-21 10:00:12.582978	256.0	34.3	-79.2	0.0
2025-01-21 10:00:13.705742	255.7	34.1	-79.2	0.0
2025-01-21 10:00:14.829918	255.4	34.0	-79.2	0.0
2025-01-21 10:00:15.951432	255.0	33.8	-78.9	0.0
2025-01-21 10:00:17.074372	254.7	33.6	-78.8	0.0
2025-01-21 10:00:18.196721	254.4	33.5	-78.9	0.0
2025-01-21 10:00:19.320605	254.1	33.3	-78.6	0.0
2025-01-21 10:00:20.443302	253.8	33.1	-78.8	0.0
2025-01-21 10:00:21.566677	253.5	33.0	-78.9	0.0
2025-01-21 10:00:22.689893	253.2	32.8	-78.9	0.0
2025-01-21 10:00:23.812430	253.0	32.6	-79.1	0.0
2025-01-21 10:00:24.933940	252.7	32.5	-79.0	0.0
2025-01-21 10:00:26.056528	252.4	32.3	-78.7	0.0
2025-01-21 10:00:27.179862	252.1	32.1	-79.0	0.0
2025-01-21 10:00:28.301180	251.8	32.0	-78.6	0.0
2025-01-21 10:00:29.425689	251.6	31.8	-78.9	0.0
2025-01-21 10:00:30.549911	251.3	31.6	-79.2	0.0
2025-01-21 10:00:31.671073	251.0	31.5	-79.0	0.0
2025-01-21 10:00:32.796803	250.7	31.3	-79.2	0.0
2025-01-21 10:00:33.920798	250.5	31.1	-79.1	0.0
2025-01-21 10:00:35.044177	250.2	31.0	-78.8	0.0
2025-01-21 10:00:36.167162	250.0	30.8	-77.9	0.0
2025-01-21 10:00:37.290337	249.7	30.6	-79.4	0.0
2025-01-21 10:00:38.413866	249.5	30.5	-79.5	0.0
2025-01-21 10:00:39.539078	249.2	30.3	-79.5	0.0
2025-01-21 10:00:40.660825	249.0	30.1	-79.3	0.0
2025-01-21 10:00:41.783276	248.7	30.0	-79.7	0.0
2025-01-21 10:00:42.905597	248.5	29.8	-79.5	0.0
2025-01-21 10:00:44.027446	248.2	29.6	-79.2	0.0
2025-01-21 10:00:45.151566	248.0	29.5	-79.3	0.0
2025-01-21 10:00:46.274223	247.8	29.3	-79.4	0.0
2025-01-21 10:00:47.399173	247.5	29.2	-79.1	0.0
2025-01-21 10:00:48.521590	247.3	29.0	-79.3	0.0
2025-01-21 10:00:49.645525	247.1	28.8	-79.5	0.0
2025-01-21 10:00:50.767371	246.8	28.7	-79.4	0.0
2025-01-21 10:00:51.890442	246.6	28.5	-79.2	0.0
2025-01-21 10:00:53.015042	246.4	28.4	-79.5	0.0
2025-01-21 10:00:54.134803	246.2	28.2	-78.8	0.0
2025-01-21 10:00:55.259102	246.0	28.0	-78.9	0.0
2025-01-21 10:00:56.382923	245.7	27.9	-79.3	0.0
2025-01-21 10:00:57.505785	245.5	27.7	-79.0	0.0
2025-01-21 10:00:58.628897	245.3	27.6	-78.7	0.0
2025-01-21 10:00:59.752396	245.1	27.4	-79.0	0.0
2025-01-21 10:01:00.875174	244.9	27.2	-79.3	0.0
2025-01-21 10:01:01.996927	244.7	27.1	-79.4	0.0
2025-01-21 10:01:03.118645	244.5	26.9	-79.2	0.0
2025-01-21 10:01:04.239926	244.3	26.8	-79.7	0.0
2025-01-21 10:01:05.365073	244.1	26.6	-79.7	0.0
2025-01-21 10:01:06.487268	243.9	26.5	-79.8	0.0
2025-01-21 10:01:07.611441	243.7	26.3	-80.0	0.0
2025-01-21 10:01:08.734606	243.5	26.2	-79.5	0.0
2025-01-21 10:01:09.856921	243.3	26.0	-79.6	0.0
2025-01-21 10:01:10.980426	243.1	25.9	-80.0	0.0
2025-01-21 10:01:12.102632	242.9	25.7	-79.9	0.0
2025-01-21 10:01:13.224491	242.8	25.6	-79.3	0.0
2025-01-21 10:01:14.347834	242.6	25.4	-80.0	0.0
2025-01-21 10:01:15.472728	242.4	25.3	-79.3	0.0
2025-01-21 10:01:16.597281	242.2	25.1	-79.3	0.0
2025-01-21 10:01:17.723370	242.0	25.0	-78.7	0.0
2025-01-21 10:01:18.844994	241.9	24.8	-78.3	0.0
2025-01-21 10:01:19.970348	241.7	24.7	-79.0	0.0
2025-01-21 10:01:21.093889	241.5	24.5	-79.1	0.0
2025-01-21 10:01:22.216515	241.3	24.4	-78.8	0.0
2025-01-21 10:01:23.341434	241.2	24.2	-79.3	0.0
2025-01-21 10:01:24.464729	241.0	24.1	-79.7	0.0
2025-01-21 10:01:25.590331	240.8	23.9	-78.9	0.0
2025-01-21 10:01:26.714518	240.7	23.8	-80.1	0.0
2025-01-21 10:01:27.839190	240.5	23.6	-79.7	0.0
2025-01-21 10:01:28.965915	240.3	23.5	-79.3	0.0
2025-01-21 10:01:30.087904	240.2	23.3	-78.7	0.0
2025-01-21 10:01:31.210750	240.0	23.2	-78.9	0.0
2025-01-21 10:01:32.333911	239.9	23.1	-78.6	0.0
2025-01-21 10:01:33.458284	239.7	22.9	-79.1	0.0
2025-01-21 10:01:34.584480	239.5	22.8	-79.1	0.0
2025-01-21 10:01:35.708554	239.4	22.6	-79.1	0.0
2025-01-21 10:01:36.830486	239.2	22.5	-79.3	0.0
2025-01-21 10:01:37.954469	239.1	22.4	-78.9	0.0
2025-01-21 10:01:39.078324	238.9	22.2	-79.4	0.0
2025-01-21 10:01:40.201522	238.8	22.1	-79.7	0.0
2025-01-21 10:01:41.323806	238.6	21.9	-79.2	0.0
2025-01-21 10:01:42.446738	238.5	21.8	-79.1	0.0
2025-01-21 10:01:43.568806	238.3	21.7	-79.4	0.0
2025-01-21 10:01:44.691012	238.2	21.5	-79.7	0.0
2025-01-21 10:01:45.814676	238.1	21.4	-79.6	0.0
2025-01-21 10:01:46.937609	237.9	21.3	-79.7	0.0
2025-01-21 10:01:48.060809	237.8	21.1	-79.5	0.0
2025-01-21 10:01:49.185712	237.6	21.0	-79.6	0.0
2025-01-21 10:01:50.309049	237.5	20.9	-79.9	0.0
2025-01-21 10:01:51.432661	237.4	20.7	-79.3	0.0
2025-01-21 10:01:52.555642	237.2	20.6	-79.6	0.0
2025-01-21 10:01:53.678131	237.1	20.5	-79.1	0.0
2025-01-21 10:01:54.800336	237.0	20.3	-78.8	0.0
2025-01-21 10:01:55.925019	236.8	20.2	-78.9	0.0
2025-01-21 10:01:57.049487	236.7	20.1	-79.1	0.0
2025-01-21 10:01:58.173255	236.6	19.9	-78.9	0.0
2025-01-21 10:01:59.296826	236.5	19.8	-79.0	0.0
2025-01-21 10:02:00.421052	236.3	19.7	-79.0	0.0
2025-01-21 10:02:01.544574	236.2	19.5	-79.0	0.0
2025-01-21 10:02:02.666755	236.1	19.4	-79.4	0.0
2025-01-21 10:02:03.790729	236.0	19.3	-78.9	0.0
2025-01-21 10:02:04.912751	235.8	19.2	-78.8	0.0
2025-01-21 10:02:06.036601	235.7	19.0	-79.0	0.0
2025-01-21 10:02:07.160050	235.6	18.9	-78.7	0.0
2025-01-21 10:02:08.284920	235.5	18.8	-78.8	0.0
2025-01-21 10:02:09.408591	235.3	18.7	-78.5	0.0
2025-01-21 10:02:10.529216	235.2	18.5	-78.2	0.0
2025-01-21 10:02:11.654033	235.1	18.4	-78.9	0.0
2025-01-21 10:02:12.779278	235.0	18.3	-78.1	0.0
2025-01-21 10:02:13.900830	234.9	18.2	-78.3	0.0
2025-01-21 10:02:15.021470	234.8	18.0	-78.6	0.0
2025-01-21 10:02:16.144496	234.7	17.9	-78.1	0.0
2025-01-21 10:02:17.268830	234.5	17.8	-77.8	0.0
2025-01-21 10:02:18.392259	234.4	17.7	-78.7	0.0
2025-01-21 10:02:19.514425	234.3	17.6	-78.2	0.0
2025-01-21 10:02:20.637813	234.2	17.4	-77.8	0.0
2025-01-21 10:02:21.762677	234.1	17.3	-78.2	0.0
2025-01-21 10:02:22.885844	234.0	17.2	-78.4	0.0
2025-01-21 10:02:24.011577	233.9	17.1	-77.9	0.0
2025-01-21 10:02:25.134621	233.8	17.0	-77.8	0.0
2025-01-21 10:02:26.257796	233.7	16.8	-78.1	0.0
2025-01-21 10:02:27.382812	233.6	16.7	-78.1	0.0
2025-01-21 10:02:28.505733	233.5	16.6	-78.0	0.0
2025-01-21 10:02:29.628411	233.4	16.5	-77.7	0.0
2025-01-21 10:02:30.752798	233.3	16.4	-78.0	0.0
2025-01-21 10:02:31.875465	233.2	16.3	-77.9	0.0
2025-01-21 10:02:32.999114	233.1	16.1	-77.3	0.0
2025-01-21 10:02:34.122557	233.0	16.0	-77.4	0.0
2025-01-21 10:02:35.244468	232.9	15.9	-77.9	0.0
2025-01-21 10:02:36.368816	232.8	15.8	-77.8	0.0
2025-01-21 10:02:37.491643	232.7	15.7	-77.4	0.0
2025-01-21 10:02:38.614624	232.6	15.6	-77.6	0.0
2025-01-21 10:02:39.738034	232.5	15.5	-77.4	0.0
2025-01-21 10:02:40.861923	232.4	15.4	-77.0	0.0
2025-01-21 10:02:41.983834	232.3	15.2	-76.3	0.0
2025-01-21 10:02:43.106643	232.2	15.1	-76.2	0.0
2025-01-21 10:02:44.231355	232.1	15.0	-77.4	0.0
2025-01-21 10:02:45.355791	232.0	14.9	-77.2	0.0
2025-01-21 10:02:46.479045	231.9	14.8	-77.7	0.0
2025-01-21 10:02:47.601554	231.8	14.7	-77.3	0.0
2025-01-21 10:02:48.723323	231.8	14.6	-77.4	0.0
2025-01-21 10:02:49.848841	231.7	14.5	-76.8	0.0
2025-01-21 10:02:50.973337	231.6	14.4	-77.0	0.0
2025-01-21 10:02:52.095367	231.5	14.3	-77.1	0.0
2025-01-21 10:02:53.218572	231.4	14.2	-75.8	0.0
2025-01-21 10:02:54.340328	231.3	14.0	-76.9	0.0
2025-01-21 10:02:55.464536	231.2	13.9	-75.2	0.0
2025-01-21 10:02:56.588481	231.1	13.8	-77.3	0.0
2025-01-21 10:02:57.712225	231.1	13.7	-75.2	0.0
2025-01-21 10:02:58.833887	231.0	13.6	-76.9	0.0
2025-01-21 10:02:59.954650	230.9	13.5	-76.6	0.0
2025-01-21 10:03:01.076651	230.8	13.4	-76.7	0.0
2025-01-21 10:03:02.199096	230.7	13.3	-77.1	0.0
2025-01-21 10:03:03.322865	230.6	13.2	-76.4	0.0
2025-01-21 10:03:04.447507	230.6	13.1	-76.1	0.0
2025-01-21 10:03:05.568868	230.5	13.0	-76.3	0.0
2025-01-21 10:03:06.691587	230.4	12.9	-76.7	0.0
2025-01-21 10:03:07.815322	230.3	12.8	-75.2	0.0
2025-01-21 10:03:08.939301	230.2	12.7	-76.9	0.0
2025-01-21 10:03:10.062120	230.2	12.6	-76.0	0.0
2025-01-21 10:03:11.185960	230.1	12.5	-76.4	0.0
2025-01-21 10:03:12.307720	230.0	12.4	-76.2	0.0
2025-01-21 10:03:13.431185	229.9	12.3	-76.7	0.0
2025-01-21 10:03:14.556417	229.9	12.2	-77.0	0.0
2025-01-21 10:03:15.677819	229.8	12.1	-76.7	0.0
2025-01-21 10:03:16.800068	229.7	12.0	-76.8	0.0
2025-01-21 10:03:17.923295	229.6	11.9	-76.6	0.0
2025-01-21 10:03:19.045887	229.6	11.8	-76.3	0.0
2025-01-21 10:03:20.171092	229.5	11.7	-76.7	0.0
2025-01-21 10:03:21.293836	229.4	11.6	-76.9	0.0
2025-01-21 10:03:22.417558	229.3	11.5	-76.4	0.0
2025-01-21 10:03:23.541515	229.3	11.4	-76.3	0.0
2025-01-21 10:03:24.664288	229.2	11.3	-76.4	0.0
2025-01-21 10:03:25.788763	229.1	11.2	-76.3	0.0
2025-01-21 10:03:26.913446	229.1	11.1	-76.4	0.0
2025-01-21 10:03:28.034676	229.0	11.0	-76.5	0.0
2025-01-21 10:03:29.157516	228.9	10.9	-79.0	0.0
2025-01-21 10:03:30.282703	228.8	10.8	-79.5	0.0
2025-01-21 10:03:31.405862	228.8	10.7	-79.3	0.0
2025-01-21 10:03:32.529971	228.7	10.6	-80.1	0.0
2025-01-21 10:03:33.654221	228.6	10.5	-80.9	0.0
2025-01-21 10:03:34.777740	228.6	10.4	-81.2	0.0
2025-01-21 10:03:35.900973	228.5	10.3	-81.4	0.0
2025-01-21 10:03:37.022586	228.4	10.3	-82.2	0.0
2025-01-21 10:03:38.145622	228.4	10.2	-82.6	0.0
2025-01-21 10:03:39.267573	228.3	10.1	-82.6	0.0
2025-01-21 10:03:40.391509	228.2	10.0	-81.9	0.0
#Closed at: 2025-01-21 09:53:16.576923