passes_logs/2025/01/21/planumMaritime01/planumMaritime01__20250121_070637_METOP-C_rec.log

#Pass ID: 20250121_070637_METOP-C
#Satellite: METOP-C
#Configuration: METOP-C
#Start time: 2025-01-21 07:06:42.620173

#LorettStation: 1.0.0 05.05.2024
#Station: planumMaritime01
#Location: 37.49445 lon 55.92918 lat
#TLE: 1 43689U 18087A   25020.14939866  .00000329  00000+0  17051-3 0  9999
#TLE: 2 43689  98.6957  82.5647 0001655 154.9564 205.1694 14.21484791321946

#Time	Az	El	Level	SNR
2025-01-21 07:06:44.784913	24.7	10.2	-66.0	0.0
2025-01-21 07:06:45.910034	24.8	10.3	-62.2	0.0
2025-01-21 07:06:47.033538	24.8	10.4	-63.5	0.0
2025-01-21 07:06:48.158341	24.9	10.5	-66.1	0.0
2025-01-21 07:06:49.282989	25.0	10.6	-65.9	0.0
2025-01-21 07:06:50.406137	25.0	10.6	-65.7	0.0
2025-01-21 07:06:51.527186	25.1	10.7	-65.8	0.0
2025-01-21 07:06:52.649714	25.2	10.8	-64.0	0.0
2025-01-21 07:06:53.773024	25.2	10.9	-63.4	0.0
2025-01-21 07:06:54.897005	25.3	11.0	-64.9	0.0
2025-01-21 07:06:56.019453	25.4	11.1	-65.7	0.0
2025-01-21 07:06:57.141989	25.5	11.2	-61.2	0.0
2025-01-21 07:06:58.264785	25.5	11.3	-59.8	0.0
2025-01-21 07:06:59.387557	25.6	11.4	-60.1	0.0
2025-01-21 07:07:00.510220	25.7	11.5	-65.2	0.0
2025-01-21 07:07:01.634655	25.7	11.6	-60.5	0.0
2025-01-21 07:07:02.758889	25.8	11.7	-64.7	0.0
2025-01-21 07:07:03.882503	25.9	11.8	-63.8	0.0
2025-01-21 07:07:05.006962	26.0	11.9	-64.6	0.0
2025-01-21 07:07:06.131266	26.0	12.0	-65.8	0.0
2025-01-21 07:07:07.255673	26.1	12.1	-65.0	0.0
2025-01-21 07:07:08.377374	26.2	12.2	-65.9	0.0
2025-01-21 07:07:09.500811	26.2	12.3	-64.5	0.0
2025-01-21 07:07:10.625934	26.3	12.4	-58.8	0.0
2025-01-21 07:07:11.749767	26.4	12.5	-61.3	0.0
2025-01-21 07:07:12.871448	26.5	12.6	-65.7	0.0
2025-01-21 07:07:13.993442	26.5	12.7	-65.8	0.0
2025-01-21 07:07:15.118198	26.6	12.8	-63.6	0.0
2025-01-21 07:07:16.242970	26.7	12.9	-61.0	0.0
2025-01-21 07:07:17.365993	26.8	13.0	-64.5	0.0
2025-01-21 07:07:18.488480	26.9	13.1	-66.5	0.0
2025-01-21 07:07:19.610829	26.9	13.2	-62.1	0.0
2025-01-21 07:07:20.733564	27.0	13.3	-67.0	0.0
2025-01-21 07:07:21.856425	27.1	13.4	-67.0	0.0
2025-01-21 07:07:22.979918	27.2	13.5	-64.8	0.0
2025-01-21 07:07:24.101998	27.3	13.7	-67.9	0.0
2025-01-21 07:07:25.225500	27.3	13.8	-68.3	0.0
2025-01-21 07:07:26.347889	27.4	13.9	-63.2	0.0
2025-01-21 07:07:27.473015	27.5	14.0	-64.1	0.0
2025-01-21 07:07:28.598415	27.6	14.1	-65.7	0.0
2025-01-21 07:07:29.721041	27.7	14.2	-63.6	0.0
2025-01-21 07:07:30.843110	27.7	14.3	-60.4	0.0
2025-01-21 07:07:31.966689	27.8	14.4	-60.8	0.0
2025-01-21 07:07:33.091067	27.9	14.5	-65.0	0.0
2025-01-21 07:07:34.214348	28.0	14.6	-62.7	0.0
2025-01-21 07:07:35.337968	28.1	14.7	-65.3	0.0
2025-01-21 07:07:36.459371	28.2	14.8	-68.0	0.0
2025-01-21 07:07:37.582328	28.3	15.0	-66.8	0.0
2025-01-21 07:07:38.707091	28.4	15.1	-65.4	0.0
2025-01-21 07:07:39.828140	28.4	15.2	-63.7	0.0
2025-01-21 07:07:40.949312	28.5	15.3	-65.5	0.0
2025-01-21 07:07:42.072613	28.6	15.4	-69.0	0.0
2025-01-21 07:07:43.196163	28.7	15.5	-63.2	0.0
2025-01-21 07:07:44.319692	28.8	15.6	-68.3	0.0
2025-01-21 07:07:45.442945	28.9	15.7	-67.8	0.0
2025-01-21 07:07:46.566242	29.0	15.9	-69.6	0.0
2025-01-21 07:07:47.690154	29.1	16.0	-66.4	0.0
2025-01-21 07:07:48.814978	29.2	16.1	-69.6	0.0
2025-01-21 07:07:49.936679	29.3	16.2	-68.9	0.0
2025-01-21 07:07:51.059032	29.4	16.3	-69.3	0.0
2025-01-21 07:07:52.181297	29.5	16.4	-69.5	0.0
2025-01-21 07:07:53.304614	29.6	16.6	-69.6	0.0
2025-01-21 07:07:54.428731	29.7	16.7	-69.8	0.0
2025-01-21 07:07:55.552613	29.8	16.8	-69.4	0.0
2025-01-21 07:07:56.677532	29.9	16.9	-68.2	0.0
2025-01-21 07:07:57.799839	30.0	17.0	-70.6	0.0
2025-01-21 07:07:58.920894	30.1	17.2	-68.9	0.0
2025-01-21 07:08:00.043305	30.2	17.3	-69.7	0.0
2025-01-21 07:08:01.167219	30.3	17.4	-70.5	0.0
2025-01-21 07:08:02.289622	30.4	17.5	-70.4	0.0
2025-01-21 07:08:03.411833	30.5	17.6	-68.8	0.0
2025-01-21 07:08:04.534277	30.6	17.8	-69.3	0.0
2025-01-21 07:08:05.658965	30.7	17.9	-69.9	0.0
2025-01-21 07:08:06.781714	30.8	18.0	-70.7	0.0
2025-01-21 07:08:07.904930	30.9	18.1	-67.4	0.0
2025-01-21 07:08:09.029050	31.0	18.3	-69.9	0.0
2025-01-21 07:08:10.150298	31.1	18.4	-69.2	0.0
2025-01-21 07:08:11.273932	31.2	18.5	-70.4	0.0
2025-01-21 07:08:12.397215	31.3	18.6	-68.2	0.0
2025-01-21 07:08:13.520737	31.4	18.8	-66.3	0.0
2025-01-21 07:08:14.642456	31.5	18.9	-65.7	0.0
2025-01-21 07:08:15.767087	31.7	19.0	-67.4	0.0
2025-01-21 07:08:16.889632	31.8	19.1	-69.0	0.0
2025-01-21 07:08:18.012495	31.9	19.3	-68.4	0.0
2025-01-21 07:08:19.137454	32.0	19.4	-67.5	0.0
2025-01-21 07:08:20.258806	32.1	19.5	-67.3	0.0
2025-01-21 07:08:21.382342	32.2	19.7	-66.7	0.0
2025-01-21 07:08:22.505725	32.4	19.8	-67.9	0.0
2025-01-21 07:08:23.630694	32.5	19.9	-68.2	0.0
2025-01-21 07:08:24.754104	32.6	20.1	-68.4	0.0
2025-01-21 07:08:25.877765	32.7	20.2	-68.8	0.0
2025-01-21 07:08:27.001776	32.8	20.3	-65.9	0.0
2025-01-21 07:08:28.123987	33.0	20.5	-67.4	0.0
2025-01-21 07:08:29.248146	33.1	20.6	-67.7	0.0
2025-01-21 07:08:30.371602	33.2	20.7	-67.9	0.0
2025-01-21 07:08:31.495322	33.4	20.9	-64.1	0.0
2025-01-21 07:08:32.618678	33.5	21.0	-66.9	0.0
2025-01-21 07:08:33.741623	33.6	21.1	-67.8	0.0
2025-01-21 07:08:34.869885	33.7	21.3	-69.2	0.0
2025-01-21 07:08:35.992028	33.9	21.4	-65.4	0.0
2025-01-21 07:08:37.115573	34.0	21.6	-65.9	0.0
2025-01-21 07:08:38.241214	34.1	21.7	-67.4	0.0
2025-01-21 07:08:39.365817	34.3	21.8	-67.7	0.0
2025-01-21 07:08:40.488057	34.4	22.0	-66.8	0.0
2025-01-21 07:08:41.612187	34.5	22.1	-67.1	0.0
2025-01-21 07:08:42.735447	34.7	22.3	-66.4	0.0
2025-01-21 07:08:43.860224	34.8	22.4	-66.8	0.0
2025-01-21 07:08:44.982734	35.0	22.6	-65.0	0.0
2025-01-21 07:08:46.105971	35.1	22.7	-67.2	0.0
2025-01-21 07:08:47.230569	35.3	22.9	-67.4	0.0
2025-01-21 07:08:48.353139	35.4	23.0	-67.4	0.0
2025-01-21 07:08:49.478680	35.5	23.1	-68.4	0.0
2025-01-21 07:08:50.604244	35.7	23.3	-67.7	0.0
2025-01-21 07:08:51.726999	35.8	23.4	-67.5	0.0
2025-01-21 07:08:52.850317	36.0	23.6	-68.2	0.0
2025-01-21 07:08:53.974856	36.1	23.7	-67.8	0.0
2025-01-21 07:08:55.097407	36.3	23.9	-64.3	0.0
2025-01-21 07:08:56.220705	36.5	24.0	-67.6	0.0
2025-01-21 07:08:57.345972	36.6	24.2	-65.0	0.0
2025-01-21 07:08:58.471156	36.8	24.3	-65.4	0.0
2025-01-21 07:08:59.594440	36.9	24.5	-65.5	0.0
2025-01-21 07:09:00.717685	37.1	24.7	-63.7	0.0
2025-01-21 07:09:01.839113	37.3	24.8	-65.2	0.0
2025-01-21 07:09:02.962187	37.4	25.0	-65.3	0.0
2025-01-21 07:09:04.084467	37.6	25.1	-65.2	0.0
2025-01-21 07:09:05.206693	37.7	25.3	-65.3	0.0
2025-01-21 07:09:06.330221	37.9	25.4	-66.1	0.0
2025-01-21 07:09:07.454651	38.1	25.6	-66.0	0.0
2025-01-21 07:09:08.578657	38.3	25.7	-64.8	0.0
2025-01-21 07:09:09.701460	38.4	25.9	-64.5	0.0
2025-01-21 07:09:10.828114	38.6	26.1	-69.3	0.0
2025-01-21 07:09:11.952599	38.8	26.2	-70.4	0.0
2025-01-21 07:09:13.078362	39.0	26.4	-70.0	0.0
2025-01-21 07:09:14.201004	39.1	26.5	-70.5	0.0
2025-01-21 07:09:15.323290	39.3	26.7	-69.7	0.0
2025-01-21 07:09:16.449374	39.5	26.9	-69.7	0.0
2025-01-21 07:09:17.572765	39.7	27.0	-70.8	0.0
2025-01-21 07:09:18.696044	39.9	27.2	-68.9	0.0
2025-01-21 07:09:19.817124	40.1	27.4	-69.6	0.0
2025-01-21 07:09:20.941864	40.3	27.5	-70.9	0.0
2025-01-21 07:09:22.064023	40.5	27.7	-71.4	0.0
2025-01-21 07:09:23.187358	40.7	27.9	-71.3	0.0
2025-01-21 07:09:24.311898	40.9	28.0	-71.9	0.0
2025-01-21 07:09:25.435339	41.1	28.2	-72.2	0.0
2025-01-21 07:09:26.559585	41.3	28.4	-72.4	0.0
2025-01-21 07:09:27.682819	41.5	28.5	-72.0	0.0
2025-01-21 07:09:28.808043	41.7	28.7	-70.4	0.0
2025-01-21 07:09:29.935055	41.9	28.9	-72.5	0.0
2025-01-21 07:09:31.057085	42.1	29.1	-71.6	0.0
2025-01-21 07:09:32.179397	42.3	29.2	-71.5	0.0
2025-01-21 07:09:33.304226	42.5	29.4	-71.9	0.0
2025-01-21 07:09:34.426901	42.7	29.6	-71.5	0.0
2025-01-21 07:09:35.549883	43.0	29.8	-72.5	0.0
2025-01-21 07:09:36.672632	43.2	29.9	-72.7	0.0
2025-01-21 07:09:37.797914	43.4	30.1	-72.1	0.0
2025-01-21 07:09:38.921279	43.6	30.3	-72.5	0.0
2025-01-21 07:09:40.043542	43.9	30.5	-73.0	0.0
2025-01-21 07:09:41.166629	44.1	30.6	-72.7	0.0
2025-01-21 07:09:42.291410	44.3	30.8	-72.0	0.0
2025-01-21 07:09:43.416120	44.6	31.0	-73.1	0.0
2025-01-21 07:09:44.540654	44.8	31.2	-72.5	0.0
2025-01-21 07:09:45.661908	45.0	31.3	-71.8	0.0
2025-01-21 07:09:46.784292	45.3	31.5	-72.5	0.0
2025-01-21 07:09:47.908010	45.5	31.7	-72.1	0.0
2025-01-21 07:09:49.031369	45.8	31.9	-71.7	0.0
2025-01-21 07:09:50.155857	46.0	32.1	-72.3	0.0
2025-01-21 07:09:51.279045	46.3	32.3	-72.6	0.0
2025-01-21 07:09:52.404718	46.6	32.4	-71.8	0.0
2025-01-21 07:09:53.526506	46.8	32.6	-71.8	0.0
2025-01-21 07:09:54.650908	47.1	32.8	-72.1	0.0
2025-01-21 07:09:55.773675	47.3	33.0	-72.5	0.0
2025-01-21 07:09:56.897966	47.6	33.2	-71.5	0.0
2025-01-21 07:09:58.024092	47.9	33.4	-72.4	0.0
2025-01-21 07:09:59.147354	48.2	33.6	-71.9	0.0
2025-01-21 07:10:00.273049	48.4	33.7	-71.7	0.0
2025-01-21 07:10:01.397001	48.7	33.9	-71.9	0.0
2025-01-21 07:10:02.518125	49.0	34.1	-71.5	2.2
2025-01-21 07:10:03.642515	49.3	34.3	-72.2	0.0
2025-01-21 07:10:04.766865	49.6	34.5	-72.1	1.1
2025-01-21 07:10:05.889696	49.9	34.7	-71.9	1.4
2025-01-21 07:10:07.013167	50.2	34.9	-72.3	3.0
2025-01-21 07:10:08.136250	50.5	35.1	-71.7	0.0
2025-01-21 07:10:09.260179	50.8	35.2	-71.7	0.0
2025-01-21 07:10:10.381954	51.1	35.4	-71.8	0.0
2025-01-21 07:10:11.506220	51.4	35.6	-71.8	1.4
2025-01-21 07:10:12.631401	51.7	35.8	-70.7	0.6
2025-01-21 07:10:13.755484	52.1	36.0	-70.8	4.7
2025-01-21 07:10:14.879162	52.4	36.2	-71.0	3.0
2025-01-21 07:10:16.002135	52.7	36.4	-71.3	3.2
2025-01-21 07:10:17.125900	53.0	36.6	-71.3	0.0
2025-01-21 07:10:18.249719	53.4	36.8	-71.0	0.0
2025-01-21 07:10:19.372692	53.7	37.0	-70.5	0.0
2025-01-21 07:10:20.499771	54.1	37.1	-70.7	4.1
2025-01-21 07:10:21.622058	54.4	37.3	-70.8	2.5
2025-01-21 07:10:22.744881	54.8	37.5	-70.7	1.4
2025-01-21 07:10:23.869089	55.1	37.7	-70.9	2.5
2025-01-21 07:10:24.992111	55.5	37.9	-71.3	0.0
2025-01-21 07:10:26.118323	55.8	38.1	-70.5	0.0
2025-01-21 07:10:27.241739	56.2	38.3	-70.6	0.0
2025-01-21 07:10:28.361843	56.6	38.5	-70.6	2.8
2025-01-21 07:10:29.484227	57.0	38.7	-70.9	0.0
2025-01-21 07:10:30.608327	57.3	38.9	-70.8	1.3
2025-01-21 07:10:31.729054	57.7	39.0	-70.2	0.0
2025-01-21 07:10:32.852795	58.1	39.2	-70.1	0.0
2025-01-21 07:10:33.974828	58.5	39.4	-69.9	0.0
2025-01-21 07:10:35.098011	58.9	39.6	-70.0	0.0
2025-01-21 07:10:36.221208	59.3	39.8	-70.0	0.0
2025-01-21 07:10:37.345774	59.7	40.0	-69.8	0.0
2025-01-21 07:10:38.468710	60.1	40.2	-69.8	1.6
2025-01-21 07:10:39.591042	60.6	40.3	-70.0	0.0
2025-01-21 07:10:40.713674	61.0	40.5	-69.9	2.1
2025-01-21 07:10:41.837366	61.4	40.7	-69.5	0.0
2025-01-21 07:10:42.959051	61.8	40.9	-70.6	2.8
2025-01-21 07:10:44.084644	62.3	41.1	-70.4	0.0
2025-01-21 07:10:45.205935	62.7	41.3	-70.0	0.0
2025-01-21 07:10:46.327851	63.2	41.4	-70.2	0.0
2025-01-21 07:10:47.453197	63.6	41.6	-70.0	1.7
2025-01-21 07:10:48.576128	64.1	41.8	-70.6	0.4
2025-01-21 07:10:49.700962	64.5	42.0	-70.4	0.0
2025-01-21 07:10:50.824750	65.0	42.1	-70.7	0.0
2025-01-21 07:10:51.948648	65.5	42.3	-70.1	0.0
2025-01-21 07:10:53.072439	66.0	42.5	-70.1	0.0
2025-01-21 07:10:54.194384	66.4	42.7	-70.0	0.0
2025-01-21 07:10:55.319656	66.9	42.8	-69.1	0.0
2025-01-21 07:10:56.444826	67.4	43.0	-69.8	0.0
2025-01-21 07:10:57.569433	67.9	43.2	-70.2	0.0
2025-01-21 07:10:58.693887	68.4	43.3	-70.1	0.1
2025-01-21 07:10:59.817970	68.9	43.5	-70.2	0.0
2025-01-21 07:11:00.942547	69.4	43.7	-70.0	0.0
2025-01-21 07:11:02.064039	70.0	43.8	-68.9	2.5
2025-01-21 07:11:03.187905	70.5	44.0	-69.7	0.0
2025-01-21 07:11:04.312158	71.0	44.1	-69.8	5.0
2025-01-21 07:11:05.433540	71.5	44.3	-69.6	0.0
2025-01-21 07:11:06.557107	72.1	44.4	-69.2	0.0
2025-01-21 07:11:07.681536	72.6	44.6	-68.6	0.0
2025-01-21 07:11:08.801544	73.2	44.7	-68.2	1.7
2025-01-21 07:11:09.925322	73.7	44.9	-68.8	0.1
2025-01-21 07:11:11.047621	74.3	45.0	-68.8	3.3
2025-01-21 07:11:12.172606	74.8	45.2	-69.1	1.2
2025-01-21 07:11:13.294797	75.4	45.3	-67.9	0.0
2025-01-21 07:11:14.418926	76.0	45.4	-67.7	0.7
2025-01-21 07:11:15.541032	76.6	45.6	-67.6	0.0
2025-01-21 07:11:16.663823	77.1	45.7	-68.7	0.0
2025-01-21 07:11:17.786347	77.7	45.8	-67.5	0.0
2025-01-21 07:11:18.909708	78.3	45.9	-68.3	1.4
2025-01-21 07:11:20.033680	78.9	46.1	-67.0	0.0
2025-01-21 07:11:21.155227	79.5	46.2	-68.8	0.0
2025-01-21 07:11:22.279518	80.1	46.3	-68.3	2.6
2025-01-21 07:11:23.404679	80.7	46.4	-68.0	3.6
2025-01-21 07:11:24.532283	81.4	46.5	-67.8	1.2
2025-01-21 07:11:25.654717	82.0	46.6	-67.9	0.6
2025-01-21 07:11:26.777956	82.6	46.7	-67.8	0.0
2025-01-21 07:11:27.901887	83.2	46.8	-68.0	4.5
2025-01-21 07:11:29.026448	83.9	46.9	-67.0	0.0
2025-01-21 07:11:30.150385	84.5	47.0	-67.9	1.4
2025-01-21 07:11:31.272321	85.1	47.1	-67.9	1.9
2025-01-21 07:11:32.395907	85.8	47.2	-68.2	1.3
2025-01-21 07:11:33.520029	86.4	47.3	-67.6	0.5
2025-01-21 07:11:34.644242	87.1	47.3	-66.8	0.0
2025-01-21 07:11:35.767964	87.7	47.4	-66.0	0.0
2025-01-21 07:11:36.890919	88.4	47.5	-66.9	3.0
2025-01-21 07:11:38.015076	89.0	47.6	-66.4	0.0
2025-01-21 07:11:39.137780	89.7	47.6	-66.9	4.1
2025-01-21 07:11:40.259827	90.3	47.7	-65.4	0.0
2025-01-21 07:11:41.383424	91.0	47.7	-66.6	0.0
2025-01-21 07:11:42.508500	91.7	47.8	-66.9	0.0
2025-01-21 07:11:43.633238	92.3	47.8	-64.9	0.0
2025-01-21 07:11:44.757665	93.0	47.9	-66.0	0.0
2025-01-21 07:11:45.881940	93.7	47.9	-66.5	0.0
2025-01-21 07:11:47.003577	94.4	47.9	-66.0	0.0
2025-01-21 07:11:48.125712	95.0	48.0	-66.5	0.0
2025-01-21 07:11:49.248621	95.7	48.0	-67.2	0.0
2025-01-21 07:11:50.372523	96.4	48.0	-66.2	0.0
2025-01-21 07:11:51.496013	97.1	48.0	-65.9	0.0
2025-01-21 07:11:52.619512	97.8	48.0	-65.2	0.0
2025-01-21 07:11:53.743028	98.4	48.0	-66.2	0.0
2025-01-21 07:11:54.865964	99.1	48.0	-65.8	0.0
2025-01-21 07:11:55.988990	99.8	48.0	-65.8	0.0
2025-01-21 07:11:57.112472	100.5	48.0	-66.5	0.0
2025-01-21 07:11:58.234157	101.1	48.0	-66.1	0.0
2025-01-21 07:11:59.359893	101.8	48.0	-66.0	0.0
2025-01-21 07:12:00.484145	102.5	48.0	-65.9	0.0
2025-01-21 07:12:01.608112	103.2	48.0	-65.5	0.0
2025-01-21 07:12:02.732485	103.9	47.9	-65.2	0.0
2025-01-21 07:12:03.854052	104.5	47.9	-65.1	0.0
2025-01-21 07:12:04.977217	105.2	47.9	-64.9	0.0
2025-01-21 07:12:06.099592	105.9	47.8	-65.2	0.0
2025-01-21 07:12:07.223490	106.6	47.8	-65.5	0.0
2025-01-21 07:12:08.346428	107.2	47.7	-65.9	0.0
2025-01-21 07:12:09.471199	107.9	47.7	-65.9	0.0
2025-01-21 07:12:10.595151	108.6	47.6	-65.1	0.0
2025-01-21 07:12:11.718376	109.2	47.6	-65.4	0.0
2025-01-21 07:12:12.843605	109.9	47.5	-65.2	0.0
2025-01-21 07:12:13.967739	110.5	47.5	-65.5	0.0
2025-01-21 07:12:15.090532	111.2	47.4	-65.6	0.0
2025-01-21 07:12:16.213802	111.8	47.3	-66.3	0.0
2025-01-21 07:12:17.337816	112.5	47.2	-66.4	0.0
2025-01-21 07:12:18.461670	113.1	47.1	-66.2	0.0
2025-01-21 07:12:19.586533	113.8	47.1	-64.9	0.0
2025-01-21 07:12:20.709004	114.4	47.0	-65.2	0.0
2025-01-21 07:12:21.830545	115.0	46.9	-66.5	0.0
2025-01-21 07:12:22.954545	115.7	46.8	-64.4	0.0
2025-01-21 07:12:24.076299	116.3	46.7	-65.3	0.0
2025-01-21 07:12:25.197765	116.9	46.6	-64.9	0.0
2025-01-21 07:12:26.323343	117.5	46.5	-65.6	0.0
2025-01-21 07:12:27.447925	118.1	46.4	-65.6	0.0
2025-01-21 07:12:28.573196	118.8	46.2	-65.5	0.0
2025-01-21 07:12:29.697298	119.4	46.1	-65.9	0.0
2025-01-21 07:12:30.821876	120.0	46.0	-64.4	0.0
2025-01-21 07:12:31.944632	120.6	45.9	-64.9	0.0
2025-01-21 07:12:33.069834	121.2	45.8	-65.7	0.0
2025-01-21 07:12:34.192959	121.7	45.6	-66.0	0.0
2025-01-21 07:12:35.317585	122.3	45.5	-65.5	0.0
2025-01-21 07:12:36.441814	122.9	45.4	-64.0	0.0
2025-01-21 07:12:37.567398	123.5	45.2	-66.5	0.0
2025-01-21 07:12:38.689954	124.0	45.1	-65.4	0.0
2025-01-21 07:12:39.812603	124.6	44.9	-66.4	0.0
2025-01-21 07:12:40.936136	125.2	44.8	-66.2	0.0
2025-01-21 07:12:42.058762	125.7	44.6	-66.7	0.0
2025-01-21 07:12:43.179955	126.3	44.5	-65.8	0.0
2025-01-21 07:12:44.303981	126.8	44.3	-66.1	0.0
2025-01-21 07:12:45.426242	127.3	44.2	-66.0	0.0
2025-01-21 07:12:46.550050	127.9	44.0	-66.5	0.0
2025-01-21 07:12:47.695820	128.4	43.9	-66.1	0.0
2025-01-21 07:12:48.818305	128.9	43.7	-66.7	0.0
2025-01-21 07:12:49.940075	129.4	43.6	-66.4	0.0
2025-01-21 07:12:51.063444	129.9	43.4	-66.1	0.0
2025-01-21 07:12:52.186928	130.5	43.2	-66.7	0.0
2025-01-21 07:12:53.314502	131.0	43.1	-66.7	0.0
2025-01-21 07:12:54.438735	131.5	42.9	-67.3	0.0
2025-01-21 07:12:55.561729	131.9	42.7	-66.9	0.0
2025-01-21 07:12:56.684482	132.4	42.6	-66.3	0.0
2025-01-21 07:12:57.806067	132.9	42.4	-67.4	0.0
2025-01-21 07:12:58.929679	133.4	42.2	-67.9	0.0
2025-01-21 07:13:00.052695	133.9	42.0	-67.1	0.0
2025-01-21 07:13:01.175908	134.3	41.9	-67.1	0.0
2025-01-21 07:13:02.298893	134.8	41.7	-67.9	0.0
2025-01-21 07:13:03.422485	135.2	41.5	-67.9	0.0
2025-01-21 07:13:04.546661	135.7	41.3	-68.4	0.0
2025-01-21 07:13:05.672072	136.1	41.1	-68.6	0.0
2025-01-21 07:13:06.793105	136.6	41.0	-68.2	0.0
2025-01-21 07:13:07.917449	137.0	40.8	-68.8	0.0
2025-01-21 07:13:09.038865	137.4	40.6	-70.2	0.0
2025-01-21 07:13:10.160812	137.9	40.4	-68.8	0.0
2025-01-21 07:13:11.283350	138.3	40.2	-69.2	0.0
2025-01-21 07:13:12.406679	138.7	40.0	-69.7	0.0
2025-01-21 07:13:13.532041	139.1	39.8	-69.6	0.0
2025-01-21 07:13:14.654975	139.5	39.7	-70.2	0.0
2025-01-21 07:13:15.780281	139.9	39.5	-70.0	0.0
2025-01-21 07:13:16.902785	140.3	39.3	-69.5	0.0
2025-01-21 07:13:18.027092	140.7	39.1	-70.5	0.0
2025-01-21 07:13:19.149689	141.1	38.9	-69.6	0.0
2025-01-21 07:13:20.273109	141.5	38.7	-71.8	0.0
2025-01-21 07:13:21.396458	141.9	38.5	-71.9	0.0
2025-01-21 07:13:22.519961	142.2	38.3	-71.5	0.0
2025-01-21 07:13:23.643250	142.6	38.1	-71.0	0.0
2025-01-21 07:13:24.767176	143.0	37.9	-71.8	0.0
2025-01-21 07:13:25.891990	143.3	37.8	-72.1	0.0
2025-01-21 07:13:27.015870	143.7	37.6	-72.0	0.0
2025-01-21 07:13:28.141460	144.1	37.4	-72.5	0.0
2025-01-21 07:13:29.265716	144.4	37.2	-72.4	0.0
2025-01-21 07:13:30.389642	144.8	37.0	-73.7	0.0
2025-01-21 07:13:31.512939	145.1	36.8	-72.8	0.0
2025-01-21 07:13:32.633586	145.4	36.6	-72.2	0.0
2025-01-21 07:13:33.757434	145.8	36.4	-73.2	0.0
2025-01-21 07:13:34.878661	146.1	36.2	-72.7	0.0
2025-01-21 07:13:36.002151	146.4	36.0	-73.3	0.0
2025-01-21 07:13:37.125804	146.7	35.8	-73.4	0.0
2025-01-21 07:13:38.251152	147.1	35.6	-73.8	0.0
2025-01-21 07:13:39.374170	147.4	35.5	-73.8	0.0
2025-01-21 07:13:40.499071	147.7	35.3	-73.3	0.0
2025-01-21 07:13:41.623733	148.0	35.1	-73.9	0.0
2025-01-21 07:13:42.746858	148.3	34.9	-73.6	0.0
2025-01-21 07:13:43.869666	148.6	34.7	-73.5	0.0
2025-01-21 07:13:44.993066	148.9	34.5	-72.5	0.0
2025-01-21 07:13:46.116169	149.2	34.3	-73.7	0.0
2025-01-21 07:13:47.237389	149.5	34.1	-73.3	0.0
2025-01-21 07:13:48.359724	149.8	33.9	-73.4	0.0
2025-01-21 07:13:49.483096	150.1	33.8	-73.7	0.0
2025-01-21 07:13:50.609121	150.3	33.6	-74.3	0.0
2025-01-21 07:13:51.732843	150.6	33.4	-72.9	0.0
2025-01-21 07:13:52.854800	150.9	33.2	-72.8	0.0
2025-01-21 07:13:53.978881	151.2	33.0	-71.4	0.0
2025-01-21 07:13:55.100958	151.4	32.8	-72.7	0.0
2025-01-21 07:13:56.224648	151.7	32.6	-72.6	0.0
2025-01-21 07:13:57.347049	152.0	32.4	-72.1	0.0
2025-01-21 07:13:58.469339	152.2	32.3	-72.2	0.0
2025-01-21 07:13:59.592487	152.5	32.1	-71.9	0.0
2025-01-21 07:14:00.713756	152.7	31.9	-71.9	0.0
2025-01-21 07:14:01.837505	153.0	31.7	-72.0	0.0
2025-01-21 07:14:02.960946	153.2	31.5	-71.7	0.0
2025-01-21 07:14:04.084743	153.5	31.3	-70.8	0.0
2025-01-21 07:14:05.207253	153.7	31.2	-71.7	0.0
2025-01-21 07:14:06.330857	154.0	31.0	-71.9	0.0
2025-01-21 07:14:07.454852	154.2	30.8	-70.5	0.0
2025-01-21 07:14:08.577739	154.5	30.6	-71.5	0.0
2025-01-21 07:14:09.699489	154.7	30.4	-72.7	0.0
2025-01-21 07:14:10.825082	154.9	30.3	-70.9	0.0
2025-01-21 07:14:11.948118	155.1	30.1	-68.8	0.0
2025-01-21 07:14:13.071803	155.4	29.9	-70.5	0.0
2025-01-21 07:14:14.193792	155.6	29.7	-72.2	0.0
2025-01-21 07:14:15.315707	155.8	29.6	-72.8	0.0
2025-01-21 07:14:16.437887	156.0	29.4	-72.4	0.0
2025-01-21 07:14:17.559986	156.2	29.2	-68.3	0.0
2025-01-21 07:14:18.683773	156.5	29.0	-72.8	0.0
2025-01-21 07:14:19.805417	156.7	28.9	-69.7	0.0
2025-01-21 07:14:20.930074	156.9	28.7	-68.8	0.0
2025-01-21 07:14:22.054320	157.1	28.5	-72.7	0.0
2025-01-21 07:14:23.177244	157.3	28.3	-66.6	0.0
2025-01-21 07:14:24.300812	157.5	28.2	-72.1	0.0
2025-01-21 07:14:25.423222	157.7	28.0	-68.1	0.0
2025-01-21 07:14:26.546685	157.9	27.8	-70.9	0.0
2025-01-21 07:14:27.670062	158.1	27.7	-70.9	0.0
2025-01-21 07:14:28.794185	158.3	27.5	-69.3	0.0
2025-01-21 07:14:29.917376	158.5	27.3	-70.1	0.0
2025-01-21 07:14:31.038768	158.7	27.2	-70.4	0.0
2025-01-21 07:14:32.161471	158.9	27.0	-71.1	0.0
2025-01-21 07:14:33.285941	159.0	26.8	-70.2	0.0
2025-01-21 07:14:34.411800	159.2	26.7	-70.9	0.0
2025-01-21 07:14:35.535901	159.4	26.5	-69.8	0.0
2025-01-21 07:14:36.656726	159.6	26.3	-70.6	0.0
2025-01-21 07:14:37.778795	159.8	26.2	-69.8	0.0
2025-01-21 07:14:38.901889	160.0	26.0	-70.5	0.0
2025-01-21 07:14:40.026680	160.1	25.9	-69.6	0.0
2025-01-21 07:14:41.148462	160.3	25.7	-69.4	0.0
2025-01-21 07:14:42.272124	160.5	25.5	-70.7	0.0
2025-01-21 07:14:43.394375	160.7	25.4	-70.4	0.0
2025-01-21 07:14:44.517618	160.8	25.2	-69.6	0.0
2025-01-21 07:14:45.639672	161.0	25.1	-70.7	0.0
2025-01-21 07:14:46.763490	161.2	24.9	-70.7	0.0
2025-01-21 07:14:47.886897	161.3	24.8	-69.6	0.0
2025-01-21 07:14:49.013099	161.5	24.6	-70.6	0.0
2025-01-21 07:14:50.136514	161.6	24.4	-70.3	0.0
2025-01-21 07:14:51.260236	161.8	24.3	-71.0	0.0
2025-01-21 07:14:52.383741	162.0	24.1	-71.8	0.0
2025-01-21 07:14:53.507718	162.1	24.0	-70.7	0.0
2025-01-21 07:14:54.630061	162.3	23.8	-71.5	0.0
2025-01-21 07:14:55.752439	162.4	23.7	-70.9	0.0
2025-01-21 07:14:56.874957	162.6	23.5	-70.6	0.0
2025-01-21 07:14:57.996515	162.7	23.4	-70.9	0.0
2025-01-21 07:14:59.118813	162.9	23.2	-71.7	0.0
2025-01-21 07:15:00.243468	163.0	23.1	-71.4	0.0
2025-01-21 07:15:01.368247	163.2	22.9	-71.1	0.0
2025-01-21 07:15:02.490499	163.3	22.8	-71.6	0.0
2025-01-21 07:15:03.613786	163.5	22.6	-70.2	0.0
2025-01-21 07:15:04.735753	163.6	22.5	-70.5	0.0
2025-01-21 07:15:05.857838	163.7	22.3	-71.7	0.0
2025-01-21 07:15:06.980859	163.9	22.2	-71.7	0.0
2025-01-21 07:15:08.104167	164.0	22.1	-71.9	0.0
2025-01-21 07:15:09.227590	164.2	21.9	-71.9	0.0
2025-01-21 07:15:10.350243	164.3	21.8	-72.3	0.0
2025-01-21 07:15:11.473702	164.4	21.6	-71.5	0.0
2025-01-21 07:15:12.598897	164.6	21.5	-71.7	0.0
2025-01-21 07:15:13.721909	164.7	21.3	-72.0	0.0
2025-01-21 07:15:14.845784	164.8	21.2	-71.7	0.0
2025-01-21 07:15:15.967792	165.0	21.1	-71.7	0.0
2025-01-21 07:15:17.092121	165.1	20.9	-72.3	0.0
2025-01-21 07:15:18.216962	165.2	20.8	-71.4	0.0
2025-01-21 07:15:19.340628	165.4	20.7	-72.6	0.0
2025-01-21 07:15:20.463965	165.5	20.5	-72.9	0.0
2025-01-21 07:15:21.587915	165.6	20.4	-72.3	0.0
2025-01-21 07:15:22.711085	165.7	20.2	-72.4	0.0
2025-01-21 07:15:23.833181	165.9	20.1	-72.6	0.0
2025-01-21 07:15:24.960177	166.0	20.0	-73.0	0.0
2025-01-21 07:15:26.082781	166.1	19.8	-72.4	0.0
2025-01-21 07:15:27.205569	166.2	19.7	-73.3	0.0
2025-01-21 07:15:28.327955	166.3	19.6	-72.5	0.0
2025-01-21 07:15:29.452805	166.5	19.4	-72.7	0.0
2025-01-21 07:15:30.575848	166.6	19.3	-73.4	0.0
2025-01-21 07:15:31.699790	166.7	19.2	-73.2	0.0
2025-01-21 07:15:32.821566	166.8	19.0	-72.9	0.0
2025-01-21 07:15:33.945668	166.9	18.9	-73.6	0.0
2025-01-21 07:15:35.068929	167.0	18.8	-72.9	0.0
2025-01-21 07:15:36.192542	167.1	18.7	-73.6	0.0
2025-01-21 07:15:37.316873	167.3	18.5	-73.0	0.0
2025-01-21 07:15:38.439468	167.4	18.4	-73.2	0.0
2025-01-21 07:15:39.565129	167.5	18.3	-73.6	0.0
2025-01-21 07:15:40.688248	167.6	18.1	-73.6	0.0
2025-01-21 07:15:41.811334	167.7	18.0	-73.5	0.0
2025-01-21 07:15:42.935328	167.8	17.9	-73.9	0.0
2025-01-21 07:15:44.058218	167.9	17.8	-73.5	0.0
2025-01-21 07:15:45.182455	168.0	17.6	-72.8	0.0
2025-01-21 07:15:46.305094	168.1	17.5	-73.5	0.0
2025-01-21 07:15:47.428851	168.2	17.4	-73.4	0.0
2025-01-21 07:15:48.552064	168.3	17.3	-73.6	0.0
2025-01-21 07:15:49.675106	168.4	17.2	-73.5	0.0
2025-01-21 07:15:50.798612	168.5	17.0	-73.4	0.0
2025-01-21 07:15:51.923151	168.6	16.9	-73.3	0.0
2025-01-21 07:15:53.046369	168.7	16.8	-73.6	0.0
2025-01-21 07:15:54.169833	168.8	16.7	-73.1	0.0
2025-01-21 07:15:55.294891	168.9	16.6	-73.0	0.0
2025-01-21 07:15:56.419167	169.0	16.4	-73.4	0.0
2025-01-21 07:15:57.540780	169.1	16.3	-73.7	0.0
2025-01-21 07:15:58.662895	169.2	16.2	-73.4	0.0
2025-01-21 07:15:59.786547	169.3	16.1	-73.9	0.0
2025-01-21 07:16:00.908187	169.4	16.0	-73.9	0.0
2025-01-21 07:16:02.035037	169.5	15.8	-73.3	0.0
2025-01-21 07:16:03.158774	169.6	15.7	-73.7	0.0
2025-01-21 07:16:04.283075	169.7	15.6	-73.2	0.0
2025-01-21 07:16:05.407264	169.8	15.5	-73.5	0.0
2025-01-21 07:16:06.530624	169.9	15.4	-73.6	0.0
2025-01-21 07:16:07.653875	170.0	15.3	-73.5	0.0
2025-01-21 07:16:08.777869	170.0	15.2	-73.1	0.0
2025-01-21 07:16:09.900964	170.1	15.0	-73.7	0.0
2025-01-21 07:16:11.024782	170.2	14.9	-73.0	0.0
2025-01-21 07:16:12.146145	170.3	14.8	-73.2	0.0
2025-01-21 07:16:13.267279	170.4	14.7	-73.1	0.0
2025-01-21 07:16:14.390735	170.5	14.6	-72.9	0.0
2025-01-21 07:16:15.515822	170.6	14.5	-72.5	0.0
2025-01-21 07:16:16.638923	170.7	14.4	-73.0	0.0
2025-01-21 07:16:17.761261	170.7	14.3	-73.1	0.0
2025-01-21 07:16:18.884854	170.8	14.2	-72.7	0.0
2025-01-21 07:16:20.006952	170.9	14.0	-73.0	0.0
2025-01-21 07:16:21.129854	171.0	13.9	-72.7	0.0
2025-01-21 07:16:22.253218	171.1	13.8	-72.7	0.0
2025-01-21 07:16:23.376088	171.2	13.7	-72.7	0.0
2025-01-21 07:16:24.498750	171.2	13.6	-71.9	0.0
2025-01-21 07:16:25.623846	171.3	13.5	-72.7	0.0
2025-01-21 07:16:26.747326	171.4	13.4	-72.4	0.0
2025-01-21 07:16:27.871203	171.5	13.3	-72.5	0.0
2025-01-21 07:16:28.994812	171.6	13.2	-72.0	0.0
2025-01-21 07:16:30.116784	171.6	13.1	-72.2	0.0
2025-01-21 07:16:31.239724	171.7	13.0	-72.1	0.0
2025-01-21 07:16:32.362982	171.8	12.9	-72.0	0.0
2025-01-21 07:16:33.486687	171.9	12.8	-72.8	0.0
2025-01-21 07:16:34.611087	171.9	12.7	-72.7	0.0
2025-01-21 07:16:35.734340	172.0	12.6	-72.2	0.0
2025-01-21 07:16:36.858438	172.1	12.5	-72.2	0.0
2025-01-21 07:16:37.980795	172.2	12.4	-71.8	0.0
2025-01-21 07:16:39.103924	172.2	12.3	-72.2	0.0
2025-01-21 07:16:40.228797	172.3	12.2	-71.7	0.0
2025-01-21 07:16:41.350857	172.4	12.1	-72.1	0.0
2025-01-21 07:16:42.473119	172.5	12.0	-71.8	0.0
2025-01-21 07:16:43.596051	172.5	11.9	-71.8	0.0
2025-01-21 07:16:44.721636	172.6	11.8	-71.5	0.0
2025-01-21 07:16:45.845634	172.7	11.7	-70.9	0.0
2025-01-21 07:16:46.969181	172.7	11.6	-71.5	0.0
2025-01-21 07:16:48.092440	172.8	11.5	-72.2	0.0
2025-01-21 07:16:49.217875	172.9	11.4	-72.2	0.0
2025-01-21 07:16:50.341532	173.0	11.3	-70.9	0.0
2025-01-21 07:16:51.464899	173.0	11.2	-71.4	0.0
2025-01-21 07:16:52.588149	173.1	11.1	-70.9	0.0
2025-01-21 07:16:53.712038	173.2	11.0	-73.3	0.0
2025-01-21 07:16:54.833800	173.2	10.9	-68.1	0.0
2025-01-21 07:16:55.956811	173.3	10.8	-65.9	0.0
2025-01-21 07:16:57.079311	173.4	10.7	-71.4	0.0
2025-01-21 07:16:58.202636	173.4	10.6	-76.0	0.0
2025-01-21 07:16:59.327762	173.5	10.5	-70.3	0.0
2025-01-21 07:17:00.452174	173.6	10.4	-66.8	0.0
2025-01-21 07:17:01.576644	173.6	10.3	-66.3	0.0
2025-01-21 07:17:02.699688	173.7	10.2	-66.7	0.0
2025-01-21 07:17:03.823311	173.8	10.1	-66.9	0.0
2025-01-21 07:17:04.944650	173.8	10.0	-69.6	0.0
#Closed at: 2025-01-21 07:06:37.623200