passes_logs/2025/01/21/planumMaritime01/planumMaritime01__20250121_172520_METEOR-M2_3_rec.log

#Pass ID: 20250121_172520_METEOR-M2 3
#Satellite: METEOR-M2 3
#Configuration: METEOR-M2 3
#Start time: 2025-01-21 17:25:25.556424

#LorettStation: 1.0.0 05.05.2024
#Station: planumMaritime01
#Location: 37.49445 lon 55.92918 lat
#TLE: 1 57166U 23091A   25021.15623468  .00000084  00000+0  55759-4 0  9991
#TLE: 2 57166  98.6840  79.5439 0003509 203.5188 156.5830 14.23970854 81643

#Time	Az	El	Level	SNR
2025-01-21 17:25:27.713346	147.9	10.2	-76.6	0.0
2025-01-21 17:25:28.836775	147.9	10.3	-76.3	0.0
2025-01-21 17:25:29.960900	147.8	10.4	-75.3	0.0
2025-01-21 17:25:31.082752	147.8	10.5	-76.9	0.0
2025-01-21 17:25:32.206683	147.8	10.6	-76.5	0.0
2025-01-21 17:25:33.330304	147.7	10.7	-76.0	0.0
2025-01-21 17:25:34.451643	147.7	10.8	-74.3	0.0
2025-01-21 17:25:35.576345	147.7	10.9	-75.1	0.0
2025-01-21 17:25:36.699980	147.6	11.0	-75.9	0.0
2025-01-21 17:25:37.825644	147.6	11.1	-75.7	0.0
2025-01-21 17:25:38.947124	147.6	11.2	-76.4	0.0
2025-01-21 17:25:40.072042	147.5	11.3	-75.7	0.0
2025-01-21 17:25:41.198546	147.5	11.4	-75.7	0.0
2025-01-21 17:25:42.321223	147.5	11.5	-75.1	0.0
2025-01-21 17:25:43.443770	147.4	11.6	-75.3	0.0
2025-01-21 17:25:44.566769	147.4	11.7	-74.8	0.0
2025-01-21 17:25:45.690145	147.4	11.8	-75.7	0.0
2025-01-21 17:25:46.813480	147.3	11.9	-75.3	0.0
2025-01-21 17:25:47.934308	147.3	12.0	-75.8	0.0
2025-01-21 17:25:49.058738	147.3	12.1	-76.0	0.0
2025-01-21 17:25:50.183363	147.2	12.2	-75.8	0.0
2025-01-21 17:25:51.304177	147.2	12.3	-76.0	0.0
2025-01-21 17:25:52.425962	147.2	12.5	-76.2	0.0
2025-01-21 17:25:53.548370	147.1	12.6	-75.9	0.0
2025-01-21 17:25:54.669693	147.1	12.7	-76.1	0.0
2025-01-21 17:25:55.792043	147.1	12.8	-75.4	0.0
2025-01-21 17:25:56.913940	147.0	12.9	-75.8	0.0
2025-01-21 17:25:58.038471	147.0	13.0	-74.6	0.0
2025-01-21 17:25:59.162756	147.0	13.1	-74.3	0.0
2025-01-21 17:26:00.286368	146.9	13.2	-75.3	0.0
2025-01-21 17:26:01.411383	146.9	13.3	-74.9	0.0
2025-01-21 17:26:02.534760	146.8	13.4	-75.8	0.0
2025-01-21 17:26:03.658418	146.8	13.6	-75.1	0.0
2025-01-21 17:26:04.781734	146.8	13.7	-75.0	0.0
2025-01-21 17:26:05.905767	146.7	13.8	-75.3	0.0
2025-01-21 17:26:07.028380	146.7	13.9	-75.6	0.0
2025-01-21 17:26:08.150648	146.7	14.0	-75.2	0.0
2025-01-21 17:26:09.275475	146.6	14.1	-75.3	0.0
2025-01-21 17:26:10.398513	146.6	14.2	-75.4	0.0
2025-01-21 17:26:11.521490	146.5	14.4	-75.7	0.0
2025-01-21 17:26:12.645310	146.5	14.5	-75.3	0.0
2025-01-21 17:26:13.768780	146.5	14.6	-75.8	0.0
2025-01-21 17:26:14.893364	146.4	14.7	-75.5	0.0
2025-01-21 17:26:16.014642	146.4	14.8	-76.8	0.0
2025-01-21 17:26:17.138054	146.3	14.9	-75.8	0.0
2025-01-21 17:26:18.262288	146.3	15.1	-76.5	0.0
2025-01-21 17:26:19.384178	146.2	15.2	-76.7	0.0
2025-01-21 17:26:20.508196	146.2	15.3	-76.8	0.0
2025-01-21 17:26:21.631666	146.2	15.4	-76.2	0.0
2025-01-21 17:26:22.755991	146.1	15.6	-76.5	0.0
2025-01-21 17:26:23.879516	146.1	15.7	-76.6	0.0
2025-01-21 17:26:25.003624	146.0	15.8	-76.5	0.0
2025-01-21 17:26:26.126672	146.0	15.9	-75.6	0.0
2025-01-21 17:26:27.250261	145.9	16.0	-76.6	0.0
2025-01-21 17:26:28.374639	145.9	16.2	-76.0	0.0
2025-01-21 17:26:29.496582	145.8	16.3	-76.2	0.0
2025-01-21 17:26:30.619585	145.8	16.4	-76.0	0.0
2025-01-21 17:26:31.741475	145.7	16.5	-75.1	0.0
2025-01-21 17:26:32.865927	145.7	16.7	-76.1	0.0
2025-01-21 17:26:33.989690	145.7	16.8	-75.8	0.0
2025-01-21 17:26:35.114609	145.6	16.9	-76.4	0.0
2025-01-21 17:26:36.237566	145.6	17.1	-76.4	0.0
2025-01-21 17:26:37.361514	145.5	17.2	-76.4	0.0
2025-01-21 17:26:38.485799	145.5	17.3	-76.6	0.0
2025-01-21 17:26:39.606917	145.4	17.5	-76.0	0.0
2025-01-21 17:26:40.732820	145.4	17.6	-76.2	0.0
2025-01-21 17:26:41.857254	145.3	17.7	-75.8	0.0
2025-01-21 17:26:42.983046	145.2	17.9	-76.4	0.0
2025-01-21 17:26:44.106765	145.2	18.0	-76.0	0.0
2025-01-21 17:26:45.231730	145.1	18.1	-75.7	0.0
2025-01-21 17:26:46.356287	145.1	18.3	-75.5	0.0
2025-01-21 17:26:47.481901	145.0	18.4	-75.4	0.0
2025-01-21 17:26:48.605366	145.0	18.5	-75.8	0.0
2025-01-21 17:26:49.729465	144.9	18.7	-75.8	0.0
2025-01-21 17:26:50.852026	144.9	18.8	-76.0	0.0
2025-01-21 17:26:51.979621	144.8	19.0	-76.1	0.0
2025-01-21 17:26:53.105466	144.8	19.1	-75.2	0.0
2025-01-21 17:26:54.231145	144.7	19.2	-75.7	0.0
2025-01-21 17:26:55.353712	144.6	19.4	-76.5	0.0
2025-01-21 17:26:56.479198	144.6	19.5	-75.9	0.0
2025-01-21 17:26:57.602185	144.5	19.7	-75.5	0.0
2025-01-21 17:26:58.725445	144.5	19.8	-75.3	0.0
2025-01-21 17:26:59.849538	144.4	20.0	-75.5	0.0
2025-01-21 17:27:00.973817	144.4	20.1	-75.4	0.0
2025-01-21 17:27:02.096780	144.3	20.2	-74.8	0.0
2025-01-21 17:27:03.221899	144.2	20.4	-75.0	0.0
2025-01-21 17:27:04.345365	144.2	20.5	-76.5	0.0
2025-01-21 17:27:05.466627	144.1	20.7	-75.8	0.0
2025-01-21 17:27:06.592533	144.0	20.8	-75.7	0.0
2025-01-21 17:27:07.714864	144.0	21.0	-75.8	0.0
2025-01-21 17:27:08.836459	143.9	21.1	-75.6	0.0
2025-01-21 17:27:09.960789	143.8	21.3	-76.2	0.0
2025-01-21 17:27:11.084748	143.8	21.4	-76.6	0.0
2025-01-21 17:27:12.207565	143.7	21.6	-76.3	0.0
2025-01-21 17:27:13.329677	143.6	21.8	-75.9	0.0
2025-01-21 17:27:14.452909	143.6	21.9	-76.1	0.0
2025-01-21 17:27:15.576593	143.5	22.1	-76.6	0.0
2025-01-21 17:27:16.699237	143.4	22.2	-75.6	0.0
2025-01-21 17:27:17.820325	143.4	22.4	-75.7	0.0
2025-01-21 17:27:18.943696	143.3	22.5	-75.7	0.0
2025-01-21 17:27:20.064167	143.2	22.7	-76.1	0.0
2025-01-21 17:27:21.186434	143.2	22.9	-77.0	0.0
2025-01-21 17:27:22.310285	143.1	23.0	-76.9	0.0
2025-01-21 17:27:23.433517	143.0	23.2	-77.5	0.0
2025-01-21 17:27:24.556408	142.9	23.4	-76.7	0.0
2025-01-21 17:27:25.679066	142.9	23.5	-75.5	0.0
2025-01-21 17:27:26.802562	142.8	23.7	-77.0	0.0
2025-01-21 17:27:27.926674	142.7	23.9	-76.6	0.0
2025-01-21 17:27:29.051886	142.6	24.0	-76.0	0.0
2025-01-21 17:27:30.175810	142.5	24.2	-76.2	0.0
2025-01-21 17:27:31.301391	142.5	24.4	-76.3	0.0
2025-01-21 17:27:32.422876	142.4	24.5	-76.0	0.0
2025-01-21 17:27:33.545571	142.3	24.7	-76.8	0.0
2025-01-21 17:27:34.668570	142.2	24.9	-76.4	0.0
2025-01-21 17:27:35.793066	142.1	25.1	-75.9	0.0
2025-01-21 17:27:36.916436	142.0	25.2	-76.3	0.0
2025-01-21 17:27:38.039618	142.0	25.4	-76.7	0.0
2025-01-21 17:27:39.164951	141.9	25.6	-75.8	0.0
2025-01-21 17:27:40.289469	141.8	25.8	-76.0	0.0
2025-01-21 17:27:41.411725	141.7	26.0	-76.8	0.0
2025-01-21 17:27:42.535860	141.6	26.1	-76.6	0.0
2025-01-21 17:27:43.657072	141.5	26.3	-76.7	0.0
2025-01-21 17:27:44.781018	141.4	26.5	-76.0	0.0
2025-01-21 17:27:45.907621	141.3	26.7	-75.4	0.0
2025-01-21 17:27:47.029484	141.2	26.9	-75.5	0.0
2025-01-21 17:27:48.150693	141.1	27.1	-75.6	0.0
2025-01-21 17:27:49.273940	141.0	27.3	-74.7	0.0
2025-01-21 17:27:50.398083	140.9	27.5	-75.1	0.0
2025-01-21 17:27:51.520711	140.8	27.7	-74.8	0.0
2025-01-21 17:27:52.644745	140.7	27.8	-75.4	0.0
2025-01-21 17:27:53.768946	140.6	28.0	-75.1	0.0
2025-01-21 17:27:54.892101	140.5	28.2	-75.7	0.0
2025-01-21 17:27:56.015623	140.4	28.4	-75.1	0.0
2025-01-21 17:27:57.138644	140.3	28.6	-75.2	0.0
2025-01-21 17:27:58.261241	140.2	28.8	-74.9	0.0
2025-01-21 17:27:59.383978	140.1	29.0	-74.6	0.0
2025-01-21 17:28:00.507509	140.0	29.2	-74.7	0.0
2025-01-21 17:28:01.629916	139.9	29.4	-73.7	0.0
2025-01-21 17:28:02.752482	139.8	29.6	-74.9	0.0
2025-01-21 17:28:03.872539	139.7	29.8	-74.9	0.0
2025-01-21 17:28:04.998116	139.5	30.1	-73.4	0.0
2025-01-21 17:28:06.120279	139.4	30.3	-73.0	0.0
2025-01-21 17:28:07.242554	139.3	30.5	-73.5	0.0
2025-01-21 17:28:08.365556	139.2	30.7	-75.1	0.0
2025-01-21 17:28:09.489798	139.1	30.9	-73.3	0.0
2025-01-21 17:28:10.614359	138.9	31.1	-74.8	0.0
2025-01-21 17:28:11.736591	138.8	31.3	-72.1	0.0
2025-01-21 17:28:12.859579	138.7	31.6	-72.5	0.0
2025-01-21 17:28:13.983022	138.6	31.8	-71.1	0.0
2025-01-21 17:28:15.106317	138.4	32.0	-72.9	0.0
2025-01-21 17:28:16.229582	138.3	32.2	-71.4	0.0
2025-01-21 17:28:17.354764	138.2	32.4	-70.5	0.0
2025-01-21 17:28:18.478122	138.0	32.7	-70.5	0.0
2025-01-21 17:28:19.600641	137.9	32.9	-69.8	0.0
2025-01-21 17:28:20.724991	137.7	33.1	-71.2	0.0
2025-01-21 17:28:21.847513	137.6	33.3	-69.8	0.0
2025-01-21 17:28:22.971906	137.5	33.6	-69.7	0.0
2025-01-21 17:28:24.095594	137.3	33.8	-69.4	0.0
2025-01-21 17:28:25.218801	137.2	34.0	-69.1	0.0
2025-01-21 17:28:26.343544	137.0	34.3	-68.9	0.0
2025-01-21 17:28:27.468329	136.9	34.5	-69.0	0.0
2025-01-21 17:28:28.592563	136.7	34.8	-68.1	0.0
2025-01-21 17:28:29.717988	136.5	35.0	-68.0	0.0
2025-01-21 17:28:30.841554	136.4	35.2	-68.6	0.0
2025-01-21 17:28:31.965084	136.2	35.5	-69.1	0.0
2025-01-21 17:28:33.088496	136.1	35.7	-69.6	0.0
2025-01-21 17:28:34.210630	135.9	36.0	-70.9	0.0
2025-01-21 17:28:35.335189	135.7	36.2	-71.0	0.0
2025-01-21 17:28:36.457794	135.5	36.5	-69.5	0.0
2025-01-21 17:28:37.581264	135.4	36.7	-67.7	0.0
2025-01-21 17:28:38.704207	135.2	37.0	-67.8	0.0
2025-01-21 17:28:39.827906	135.0	37.2	-68.1	0.0
2025-01-21 17:28:40.951626	134.8	37.5	-68.2	0.0
2025-01-21 17:28:42.072634	134.6	37.8	-69.1	0.0
2025-01-21 17:28:43.195588	134.4	38.0	-70.1	0.0
2025-01-21 17:28:44.318927	134.2	38.3	-69.7	0.0
2025-01-21 17:28:45.441917	134.1	38.5	-70.6	0.0
2025-01-21 17:28:46.564750	133.9	38.8	-69.7	0.0
2025-01-21 17:28:47.690696	133.6	39.1	-71.3	0.0
2025-01-21 17:28:48.815080	133.4	39.3	-68.9	0.0
2025-01-21 17:28:49.939709	133.2	39.6	-68.6	0.0
2025-01-21 17:28:51.062137	133.0	39.9	-69.7	0.0
2025-01-21 17:28:52.186627	132.8	40.2	-71.8	0.0
2025-01-21 17:28:53.309587	132.6	40.4	-68.2	0.0
2025-01-21 17:28:54.432020	132.3	40.7	-69.0	0.0
2025-01-21 17:28:55.554398	132.1	41.0	-68.2	0.0
2025-01-21 17:28:56.679096	131.9	41.3	-67.6	0.0
2025-01-21 17:28:57.803452	131.6	41.6	-68.7	0.0
2025-01-21 17:28:58.928199	131.4	41.8	-71.5	0.0
2025-01-21 17:29:00.052783	131.2	42.1	-69.3	0.0
2025-01-21 17:29:01.175426	130.9	42.4	-70.9	0.0
2025-01-21 17:29:02.299556	130.7	42.7	-70.3	0.0
2025-01-21 17:29:03.422776	130.4	43.0	-68.3	0.0
2025-01-21 17:29:04.546456	130.1	43.3	-70.4	0.0
2025-01-21 17:29:05.667933	129.9	43.6	-70.0	0.0
2025-01-21 17:29:06.791231	129.6	43.9	-68.8	0.0
2025-01-21 17:29:07.917814	129.3	44.2	-69.0	0.0
2025-01-21 17:29:09.041118	129.0	44.5	-68.2	0.0
2025-01-21 17:29:10.163676	128.7	44.8	-69.1	0.0
2025-01-21 17:29:11.287664	128.4	45.1	-71.3	0.0
2025-01-21 17:29:12.412163	128.1	45.4	-70.0	0.0
2025-01-21 17:29:13.535643	127.8	45.7	-70.8	0.0
2025-01-21 17:29:14.658031	127.5	46.0	-70.4	0.0
2025-01-21 17:29:15.780072	127.2	46.3	-69.8	0.0
2025-01-21 17:29:16.904430	126.9	46.6	-72.6	0.0
2025-01-21 17:29:18.027723	126.5	46.9	-71.2	0.0
2025-01-21 17:29:19.151951	126.2	47.2	-71.3	0.0
2025-01-21 17:29:20.275167	125.8	47.5	-72.7	0.0
2025-01-21 17:29:21.396603	125.5	47.8	-72.1	0.0
2025-01-21 17:29:22.519966	125.1	48.1	-72.9	0.0
2025-01-21 17:29:23.643613	124.7	48.5	-70.5	0.0
2025-01-21 17:29:24.766353	124.4	48.8	-70.1	0.0
2025-01-21 17:29:25.886627	124.0	49.1	-72.5	0.0
2025-01-21 17:29:27.009674	123.6	49.4	-71.4	0.0
2025-01-21 17:29:28.133341	123.2	49.7	-76.2	0.0
2025-01-21 17:29:29.256261	122.8	50.0	-74.6	0.0
2025-01-21 17:29:30.380745	122.4	50.4	-74.1	0.0
2025-01-21 17:29:31.505881	121.9	50.7	-74.2	0.0
2025-01-21 17:29:32.626485	121.5	51.0	-73.4	0.0
2025-01-21 17:29:33.749142	121.1	51.3	-75.8	0.0
2025-01-21 17:29:34.869962	120.6	51.6	-75.7	0.0
2025-01-21 17:29:35.992262	120.1	52.0	-74.6	0.0
2025-01-21 17:29:37.116872	119.7	52.3	-73.4	0.0
2025-01-21 17:29:38.237539	119.2	52.6	-74.2	0.0
2025-01-21 17:29:39.359169	118.7	52.9	-75.2	0.0
2025-01-21 17:29:40.481781	118.2	53.2	-71.9	0.0
2025-01-21 17:29:41.606166	117.7	53.6	-74.6	0.0
2025-01-21 17:29:42.727173	117.1	53.9	-74.4	0.0
2025-01-21 17:29:43.849804	116.6	54.2	-75.2	0.0
2025-01-21 17:29:44.972080	116.0	54.5	-75.5	0.0
2025-01-21 17:29:46.096346	115.5	54.8	-76.1	0.0
2025-01-21 17:29:47.219415	114.9	55.2	-77.6	0.0
2025-01-21 17:29:48.343752	114.3	55.5	-76.0	0.0
2025-01-21 17:29:49.470584	113.7	55.8	-76.5	0.0
2025-01-21 17:29:50.594304	113.1	56.1	-76.1	0.0
2025-01-21 17:29:51.716914	112.4	56.4	-76.6	0.0
2025-01-21 17:29:52.842620	111.8	56.7	-75.9	0.0
2025-01-21 17:29:53.965791	111.1	57.0	-76.5	0.0
2025-01-21 17:29:55.086537	110.4	57.3	-76.2	0.0
2025-01-21 17:29:56.209849	109.7	57.6	-76.8	0.0
2025-01-21 17:29:57.331132	109.0	57.9	-76.1	0.0
2025-01-21 17:29:58.455805	108.3	58.2	-76.8	0.0
2025-01-21 17:29:59.577615	107.6	58.5	-76.6	0.0
2025-01-21 17:30:00.699220	106.8	58.8	-77.0	0.0
2025-01-21 17:30:01.822752	106.0	59.1	-76.9	0.0
2025-01-21 17:30:02.945329	105.2	59.4	-77.2	0.0
2025-01-21 17:30:04.069623	104.4	59.7	-78.4	0.0
2025-01-21 17:30:05.191477	103.6	60.0	-78.2	0.0
2025-01-21 17:30:06.316500	102.7	60.2	-77.6	0.0
2025-01-21 17:30:07.439512	101.9	60.5	-77.1	0.0
2025-01-21 17:30:08.561028	101.0	60.8	-77.3	0.0
2025-01-21 17:30:09.685659	100.1	61.0	-77.7	0.0
2025-01-21 17:30:10.810240	99.2	61.3	-78.2	0.0
2025-01-21 17:30:11.932176	98.2	61.5	-77.8	0.0
2025-01-21 17:30:13.056674	97.3	61.8	-76.6	0.0
2025-01-21 17:30:14.181381	96.3	62.0	-77.0	0.0
2025-01-21 17:30:15.304448	95.3	62.2	-78.2	0.0
2025-01-21 17:30:16.428674	94.3	62.4	-78.1	0.0
2025-01-21 17:30:17.552078	93.3	62.7	-77.1	0.0
2025-01-21 17:30:18.674580	92.2	62.9	-77.8	0.0
2025-01-21 17:30:19.799210	91.1	63.1	-77.3	0.0
2025-01-21 17:30:20.922689	90.1	63.3	-77.8	0.0
2025-01-21 17:30:22.047219	89.0	63.4	-78.4	0.0
2025-01-21 17:30:23.168782	87.8	63.6	-78.0	0.0
2025-01-21 17:30:24.292170	86.7	63.8	-77.4	0.0
2025-01-21 17:30:25.415601	85.5	63.9	-78.5	0.0
2025-01-21 17:30:26.540623	84.4	64.1	-78.3	0.0
2025-01-21 17:30:27.662799	83.2	64.2	-77.6	0.0
2025-01-21 17:30:28.784271	82.0	64.4	-78.1	0.0
2025-01-21 17:30:29.906571	80.8	64.5	-78.3	0.0
2025-01-21 17:30:31.027886	79.6	64.6	-78.2	0.0
2025-01-21 17:30:32.149383	78.3	64.7	-77.4	0.0
2025-01-21 17:30:33.269105	77.1	64.8	-77.9	0.0
2025-01-21 17:30:34.392773	75.8	64.8	-77.9	0.0
2025-01-21 17:30:35.515700	74.6	64.9	-78.4	0.0
2025-01-21 17:30:36.639773	73.3	65.0	-78.2	0.0
2025-01-21 17:30:37.763145	72.0	65.0	-77.5	0.0
2025-01-21 17:30:38.887682	70.8	65.0	-77.5	0.0
2025-01-21 17:30:40.011085	69.5	65.1	-77.0	0.0
2025-01-21 17:30:41.133717	68.2	65.1	-77.1	0.0
2025-01-21 17:30:42.259132	66.9	65.1	-77.1	0.0
2025-01-21 17:30:43.383001	65.6	65.1	-78.5	0.0
2025-01-21 17:30:44.507643	64.4	65.0	-77.9	0.0
2025-01-21 17:30:45.628869	63.1	65.0	-77.3	0.0
2025-01-21 17:30:46.752852	61.8	65.0	-77.8	0.0
2025-01-21 17:30:47.876718	60.5	64.9	-77.6	0.0
2025-01-21 17:30:48.999826	59.3	64.8	-78.0	0.0
2025-01-21 17:30:50.122025	58.0	64.8	-78.1	0.0
2025-01-21 17:30:51.244566	56.8	64.7	-78.5	0.0
2025-01-21 17:30:52.369076	55.6	64.6	-78.5	0.0
2025-01-21 17:30:53.492228	54.3	64.5	-77.8	0.0
2025-01-21 17:30:54.614957	53.1	64.3	-78.4	0.0
2025-01-21 17:30:55.736556	51.9	64.2	-78.2	0.0
2025-01-21 17:30:56.859256	50.8	64.1	-77.1	0.0
2025-01-21 17:30:57.984573	49.6	63.9	-78.1	0.0
2025-01-21 17:30:59.107806	48.4	63.8	-78.7	0.0
2025-01-21 17:31:00.229097	47.3	63.6	-78.6	0.0
2025-01-21 17:31:01.350819	46.2	63.4	-78.9	0.0
2025-01-21 17:31:02.476586	45.1	63.2	-78.6	0.0
2025-01-21 17:31:03.600469	44.0	63.1	-79.3	0.0
2025-01-21 17:31:04.722302	42.9	62.9	-78.9	0.0
2025-01-21 17:31:05.843837	41.9	62.6	-78.4	0.0
2025-01-21 17:31:06.966930	40.9	62.4	-78.5	0.0
2025-01-21 17:31:08.091435	39.9	62.2	-77.9	0.0
2025-01-21 17:31:09.214016	38.9	62.0	-77.6	0.0
2025-01-21 17:31:10.335677	37.9	61.7	-78.2	0.0
2025-01-21 17:31:11.456930	36.9	61.5	-77.8	0.0
2025-01-21 17:31:12.579820	36.0	61.3	-78.3	0.0
2025-01-21 17:31:13.702829	35.1	61.0	-78.5	0.0
2025-01-21 17:31:14.825022	34.2	60.8	-78.7	0.0
2025-01-21 17:31:15.946693	33.3	60.5	-78.4	0.0
2025-01-21 17:31:17.070956	32.4	60.2	-78.8	0.0
2025-01-21 17:31:18.191755	31.6	59.9	-78.3	0.0
2025-01-21 17:31:19.315727	30.8	59.7	-78.3	0.0
2025-01-21 17:31:20.438565	30.0	59.4	-78.0	0.0
2025-01-21 17:31:21.561348	29.2	59.1	-78.0	0.0
2025-01-21 17:31:22.684652	28.4	58.8	-78.0	0.0
2025-01-21 17:31:23.808981	27.6	58.5	-78.1	0.0
2025-01-21 17:31:24.931011	26.9	58.2	-78.5	0.0
2025-01-21 17:31:26.054259	26.2	57.9	-76.7	0.0
2025-01-21 17:31:27.179124	25.5	57.6	-76.5	0.0
2025-01-21 17:31:28.300241	24.8	57.3	-78.3	0.0
2025-01-21 17:31:29.422052	24.1	57.0	-78.2	0.0
2025-01-21 17:31:30.546017	23.4	56.7	-77.7	0.0
2025-01-21 17:31:31.666901	22.8	56.4	-78.0	0.0
2025-01-21 17:31:32.791175	22.2	56.1	-76.7	0.0
2025-01-21 17:31:33.915591	21.5	55.8	-76.5	0.0
2025-01-21 17:31:35.037846	20.9	55.5	-76.5	0.0
2025-01-21 17:31:36.160385	20.3	55.2	-77.1	0.0
2025-01-21 17:31:37.281839	19.8	54.8	-76.9	0.0
2025-01-21 17:31:38.404544	19.2	54.5	-76.2	0.0
2025-01-21 17:31:39.527544	18.6	54.2	-75.6	0.0
2025-01-21 17:31:40.652277	18.1	53.9	-76.5	0.0
2025-01-21 17:31:41.777071	17.6	53.6	-73.8	0.0
2025-01-21 17:31:42.901296	17.1	53.3	-72.7	0.0
2025-01-21 17:31:44.023562	16.5	52.9	-73.4	0.0
2025-01-21 17:31:45.144797	16.1	52.6	-73.8	0.0
2025-01-21 17:31:46.266705	15.6	52.3	-72.9	0.0
2025-01-21 17:31:47.389390	15.1	52.0	-72.8	0.0
2025-01-21 17:31:48.510867	14.6	51.7	-71.7	0.0
2025-01-21 17:31:49.634418	14.2	51.3	-72.2	0.0
2025-01-21 17:31:50.756031	13.7	51.0	-74.0	0.0
2025-01-21 17:31:51.878491	13.3	50.7	-73.4	0.0
2025-01-21 17:31:53.002342	12.9	50.4	-72.3	0.0
2025-01-21 17:31:54.126088	12.5	50.1	-72.3	0.0
2025-01-21 17:31:55.249380	12.0	49.7	-71.5	0.0
2025-01-21 17:31:56.372800	11.6	49.4	-72.3	0.0
2025-01-21 17:31:57.495273	11.3	49.1	-71.2	0.0
2025-01-21 17:31:58.617925	10.9	48.8	-72.4	0.0
2025-01-21 17:31:59.739961	10.5	48.5	-72.3	0.0
2025-01-21 17:32:00.862537	10.1	48.2	-70.1	0.0
2025-01-21 17:32:01.988612	9.8	47.9	-69.1	0.0
2025-01-21 17:32:03.110124	9.4	47.6	-69.2	0.0
2025-01-21 17:32:04.232910	9.1	47.2	-69.9	0.0
2025-01-21 17:32:05.355301	8.7	46.9	-69.5	0.0
2025-01-21 17:32:06.478067	8.4	46.6	-69.3	0.0
2025-01-21 17:32:07.600919	8.1	46.3	-71.6	0.0
2025-01-21 17:32:08.723721	7.8	46.0	-70.5	0.0
2025-01-21 17:32:09.847863	7.4	45.7	-72.2	0.0
2025-01-21 17:32:10.971957	7.1	45.4	-71.3	0.0
2025-01-21 17:32:12.094348	6.8	45.1	-70.0	0.0
2025-01-21 17:32:13.216457	6.5	44.8	-70.7	0.0
2025-01-21 17:32:14.340154	6.2	44.5	-70.7	0.0
2025-01-21 17:32:15.463395	6.0	44.2	-72.7	0.0
2025-01-21 17:32:16.587621	5.7	43.9	-73.7	0.0
2025-01-21 17:32:17.711361	5.4	43.6	-70.0	0.0
2025-01-21 17:32:18.832570	5.1	43.3	-71.5	0.0
2025-01-21 17:32:19.957065	4.9	43.0	-72.4	0.0
2025-01-21 17:32:21.079550	4.6	42.8	-73.9	0.0
2025-01-21 17:32:22.203695	4.4	42.5	-72.1	0.0
2025-01-21 17:32:23.328834	4.1	42.2	-71.3	0.0
2025-01-21 17:32:24.451776	3.9	41.9	-72.2	0.0
2025-01-21 17:32:25.575608	3.6	41.6	-68.7	0.0
2025-01-21 17:32:26.697504	3.4	41.3	-67.3	0.0
2025-01-21 17:32:27.820217	3.2	41.1	-67.8	0.0
2025-01-21 17:32:28.944301	2.9	40.8	-67.8	0.0
2025-01-21 17:32:30.066638	2.7	40.5	-71.2	0.0
2025-01-21 17:32:31.191518	2.5	40.2	-67.9	0.0
2025-01-21 17:32:32.314049	2.3	40.0	-72.6	0.0
2025-01-21 17:32:33.434631	2.0	39.7	-73.4	0.0
2025-01-21 17:32:34.558022	1.8	39.4	-71.5	0.0
2025-01-21 17:32:35.683461	1.6	39.1	-71.5	0.0
2025-01-21 17:32:36.807590	1.4	38.9	-70.2	0.0
2025-01-21 17:32:37.930498	1.2	38.6	-68.4	0.0
2025-01-21 17:32:39.054773	1.0	38.3	-70.5	0.0
2025-01-21 17:32:40.177367	0.8	38.1	-69.4	0.0
2025-01-21 17:32:41.299844	0.6	37.8	-70.0	0.0
2025-01-21 17:32:42.422651	0.5	37.6	-69.6	0.0
2025-01-21 17:32:43.543911	0.3	37.3	-67.8	0.0
2025-01-21 17:32:44.664058	0.1	37.1	-68.7	0.0
2025-01-21 17:32:45.786590	359.9	36.8	-68.0	0.0
2025-01-21 17:32:46.909838	359.7	36.6	-67.2	0.0
2025-01-21 17:32:48.031118	359.6	36.3	-66.5	0.0
2025-01-21 17:32:49.152686	359.4	36.1	-70.5	0.0
2025-01-21 17:32:50.275071	359.2	35.8	-68.0	0.0
2025-01-21 17:32:51.399739	359.1	35.6	-70.3	0.0
2025-01-21 17:32:52.521357	358.9	35.3	-66.3	0.0
2025-01-21 17:32:53.643328	358.7	35.1	-69.8	0.0
2025-01-21 17:32:54.766257	358.6	34.8	-69.2	0.0
2025-01-21 17:32:55.889564	358.4	34.6	-70.4	0.0
2025-01-21 17:32:57.012664	358.3	34.4	-69.3	0.0
2025-01-21 17:32:58.135723	358.1	34.1	-70.4	0.0
2025-01-21 17:32:59.259514	358.0	33.9	-66.0	0.0
2025-01-21 17:33:00.382323	357.8	33.7	-70.5	0.0
2025-01-21 17:33:01.504475	357.7	33.4	-65.8	0.0
2025-01-21 17:33:02.627014	357.6	33.2	-65.6	0.0
2025-01-21 17:33:03.748067	357.4	33.0	-65.5	0.0
2025-01-21 17:33:04.870130	357.3	32.8	-67.6	0.0
2025-01-21 17:33:05.992516	357.1	32.5	-68.7	0.0
2025-01-21 17:33:07.117714	357.0	32.3	-67.6	0.0
2025-01-21 17:33:08.240905	356.9	32.1	-67.6	0.0
2025-01-21 17:33:09.364255	356.7	31.9	-68.8	0.0
2025-01-21 17:33:10.485797	356.6	31.6	-68.6	0.0
2025-01-21 17:33:11.606389	356.5	31.4	-64.9	0.0
2025-01-21 17:33:12.731029	356.4	31.2	-64.7	0.0
2025-01-21 17:33:13.853822	356.2	31.0	-65.2	0.0
2025-01-21 17:33:14.977343	356.1	30.8	-65.5	0.0
2025-01-21 17:33:16.100885	356.0	30.6	-66.0	0.0
2025-01-21 17:33:17.225233	355.9	30.4	-64.0	0.0
2025-01-21 17:33:18.347972	355.8	30.2	-67.3	0.0
2025-01-21 17:33:19.470953	355.6	30.0	-65.0	0.0
2025-01-21 17:33:20.595215	355.5	29.7	-66.8	0.0
2025-01-21 17:33:21.718120	355.4	29.5	-69.9	0.0
2025-01-21 17:33:22.838747	355.3	29.3	-67.0	0.0
2025-01-21 17:33:23.960186	355.2	29.1	-63.7	0.0
2025-01-21 17:33:25.081627	355.1	28.9	-66.0	0.0
2025-01-21 17:33:26.201469	355.0	28.7	-66.1	0.0
2025-01-21 17:33:27.325611	354.9	28.5	-64.8	0.0
2025-01-21 17:33:28.449238	354.8	28.3	-70.4	0.0
2025-01-21 17:33:29.571678	354.7	28.1	-69.9	0.0
2025-01-21 17:33:30.694864	354.6	28.0	-71.7	0.0
2025-01-21 17:33:31.817145	354.5	27.8	-66.3	0.0
2025-01-21 17:33:32.939597	354.4	27.6	-69.8	0.0
2025-01-21 17:33:34.065989	354.3	27.4	-65.3	0.0
2025-01-21 17:33:35.189038	354.2	27.2	-64.6	0.0
2025-01-21 17:33:36.310802	354.1	27.0	-71.0	0.0
2025-01-21 17:33:37.434235	354.0	26.8	-69.0	0.0
2025-01-21 17:33:38.556665	353.9	26.6	-62.5	0.0
2025-01-21 17:33:39.677698	353.8	26.4	-62.8	0.0
2025-01-21 17:33:40.800421	353.7	26.3	-62.7	0.0
2025-01-21 17:33:41.922731	353.6	26.1	-62.3	0.0
2025-01-21 17:33:43.044635	353.5	25.9	-62.1	0.0
2025-01-21 17:33:44.169662	353.5	25.7	-62.5	0.0
2025-01-21 17:33:45.291426	353.4	25.5	-61.7	0.0
2025-01-21 17:33:46.413080	353.3	25.4	-64.2	0.0
2025-01-21 17:33:47.535375	353.2	25.2	-64.5	0.0
2025-01-21 17:33:48.657765	353.1	25.0	-64.0	0.0
2025-01-21 17:33:49.779545	353.0	24.8	-64.6	0.0
2025-01-21 17:33:50.904398	352.9	24.7	-63.6	0.0
2025-01-21 17:33:52.027728	352.9	24.5	-64.3	0.0
2025-01-21 17:33:53.149854	352.8	24.3	-72.1	0.0
2025-01-21 17:33:54.273883	352.7	24.2	-66.8	0.0
2025-01-21 17:33:55.397694	352.6	24.0	-72.9	0.0
2025-01-21 17:33:56.522100	352.6	23.8	-72.4	0.0
2025-01-21 17:33:57.645741	352.5	23.7	-73.3	0.0
2025-01-21 17:33:58.768228	352.4	23.5	-73.3	0.0
2025-01-21 17:33:59.891535	352.3	23.3	-73.0	0.0
2025-01-21 17:34:01.014839	352.3	23.2	-63.6	0.0
2025-01-21 17:34:02.136516	352.2	23.0	-65.3	0.0
2025-01-21 17:34:03.259097	352.1	22.8	-63.8	0.0
2025-01-21 17:34:04.380041	352.0	22.7	-62.9	0.0
2025-01-21 17:34:05.502621	352.0	22.5	-70.8	0.0
2025-01-21 17:34:06.622776	351.9	22.4	-71.2	0.0
2025-01-21 17:34:07.747044	351.8	22.2	-65.7	0.0
2025-01-21 17:34:08.870418	351.8	22.0	-71.7	0.0
2025-01-21 17:34:09.992405	351.7	21.9	-71.3	0.0
2025-01-21 17:34:11.114849	351.6	21.7	-70.0	0.0
2025-01-21 17:34:12.238546	351.6	21.6	-70.0	0.0
2025-01-21 17:34:13.363726	351.5	21.4	-61.2	0.0
2025-01-21 17:34:14.488315	351.4	21.3	-61.6	0.0
2025-01-21 17:34:15.610820	351.4	21.1	-65.1	0.0
2025-01-21 17:34:16.731612	351.3	21.0	-68.9	0.0
2025-01-21 17:34:17.852781	351.2	20.8	-69.3	0.0
2025-01-21 17:34:18.974838	351.2	20.7	-69.5	0.0
2025-01-21 17:34:20.097800	351.1	20.5	-63.9	0.0
2025-01-21 17:34:21.218053	351.1	20.4	-61.6	0.0
2025-01-21 17:34:22.342780	351.0	20.2	-63.8	0.0
2025-01-21 17:34:23.466093	350.9	20.1	-61.7	0.0
2025-01-21 17:34:24.588660	350.9	19.9	-68.8	0.0
2025-01-21 17:34:25.711348	350.8	19.8	-69.6	0.0
2025-01-21 17:34:26.836293	350.8	19.7	-68.2	0.0
2025-01-21 17:34:27.957260	350.7	19.5	-69.3	0.0
2025-01-21 17:34:29.080693	350.6	19.4	-63.4	0.0
2025-01-21 17:34:30.202538	350.6	19.2	-63.1	0.0
2025-01-21 17:34:31.326197	350.5	19.1	-66.7	0.0
2025-01-21 17:34:32.449050	350.5	19.0	-65.3	0.0
2025-01-21 17:34:33.573324	350.4	18.8	-62.6	0.0
2025-01-21 17:34:34.696538	350.4	18.7	-68.2	0.0
2025-01-21 17:34:35.819385	350.3	18.5	-64.1	0.0
2025-01-21 17:34:36.943981	350.3	18.4	-62.1	0.0
2025-01-21 17:34:38.065530	350.2	18.3	-61.5	0.0
2025-01-21 17:34:39.188990	350.2	18.1	-68.0	0.0
2025-01-21 17:34:40.313081	350.1	18.0	-67.9	0.0
2025-01-21 17:34:41.434982	350.1	17.9	-61.3	0.0
2025-01-21 17:34:42.557983	350.0	17.7	-62.9	0.0
2025-01-21 17:34:43.681059	350.0	17.6	-63.1	0.0
2025-01-21 17:34:44.802044	349.9	17.5	-61.5	0.0
2025-01-21 17:34:45.926455	349.9	17.3	-60.4	0.0
2025-01-21 17:34:47.049012	349.8	17.2	-64.8	0.0
2025-01-21 17:34:48.170671	349.8	17.1	-64.3	0.0
2025-01-21 17:34:49.294385	349.7	17.0	-60.3	0.0
2025-01-21 17:34:50.418545	349.7	16.8	-63.0	0.0
2025-01-21 17:34:51.542548	349.6	16.7	-63.0	0.0
2025-01-21 17:34:52.666310	349.6	16.6	-67.3	0.0
2025-01-21 17:34:53.789826	349.5	16.4	-61.0	0.0
2025-01-21 17:34:54.911458	349.5	16.3	-62.0	0.0
2025-01-21 17:34:56.035608	349.4	16.2	-68.8	0.0
2025-01-21 17:34:57.158052	349.4	16.1	-62.8	0.0
2025-01-21 17:34:58.282648	349.4	15.9	-61.6	0.0
2025-01-21 17:34:59.405390	349.3	15.8	-63.2	0.0
2025-01-21 17:35:00.529814	349.3	15.7	-62.3	0.0
2025-01-21 17:35:01.655565	349.2	15.6	-61.6	0.0
2025-01-21 17:35:02.778334	349.2	15.5	-61.5	0.0
2025-01-21 17:35:03.902113	349.1	15.3	-64.1	0.0
2025-01-21 17:35:05.025267	349.1	15.2	-64.5	0.0
2025-01-21 17:35:06.148560	349.1	15.1	-63.1	0.0
2025-01-21 17:35:07.272076	349.0	15.0	-65.6	0.0
2025-01-21 17:35:08.395776	349.0	14.9	-70.4	0.0
2025-01-21 17:35:09.518108	348.9	14.7	-63.6	0.0
2025-01-21 17:35:10.642094	348.9	14.6	-65.4	0.0
2025-01-21 17:35:11.764382	348.9	14.5	-69.5	0.0
2025-01-21 17:35:12.887777	348.8	14.4	-66.5	0.0
2025-01-21 17:35:14.011401	348.8	14.3	-63.2	0.0
2025-01-21 17:35:15.132788	348.7	14.2	-65.3	0.0
2025-01-21 17:35:16.254821	348.7	14.0	-64.1	0.0
2025-01-21 17:35:17.377686	348.7	13.9	-62.4	0.0
2025-01-21 17:35:18.501363	348.6	13.8	-62.5	0.0
2025-01-21 17:35:19.625447	348.6	13.7	-63.9	0.0
2025-01-21 17:35:20.751076	348.5	13.6	-63.6	0.0
2025-01-21 17:35:21.874620	348.5	13.5	-63.2	0.0
2025-01-21 17:35:22.997934	348.5	13.4	-65.9	0.0
2025-01-21 17:35:24.122076	348.4	13.3	-65.0	0.0
2025-01-21 17:35:25.245708	348.4	13.2	-66.1	0.0
2025-01-21 17:35:26.369715	348.4	13.0	-65.1	0.0
2025-01-21 17:35:27.492527	348.3	12.9	-62.5	0.0
2025-01-21 17:35:28.618642	348.3	12.8	-71.2	0.0
2025-01-21 17:35:29.740881	348.3	12.7	-64.7	0.0
2025-01-21 17:35:30.866948	348.2	12.6	-65.2	0.0
2025-01-21 17:35:31.989643	348.2	12.5	-71.9	0.0
2025-01-21 17:35:33.113232	348.2	12.4	-66.6	0.0
2025-01-21 17:35:34.235606	348.1	12.3	-66.1	0.0
2025-01-21 17:35:35.356993	348.1	12.2	-69.4	0.0
2025-01-21 17:35:36.480790	348.1	12.1	-70.5	0.0
2025-01-21 17:35:37.602237	348.0	12.0	-67.5	0.0
2025-01-21 17:35:38.725605	348.0	11.9	-66.6	0.0
2025-01-21 17:35:39.849948	348.0	11.8	-63.6	0.0
2025-01-21 17:35:40.974546	347.9	11.7	-67.9	0.0
2025-01-21 17:35:42.098936	347.9	11.6	-65.1	0.0
2025-01-21 17:35:43.221143	347.9	11.5	-66.3	0.0
2025-01-21 17:35:44.346631	347.8	11.4	-66.2	0.0
2025-01-21 17:35:45.469551	347.8	11.2	-62.8	0.0
2025-01-21 17:35:46.590990	347.8	11.1	-63.3	0.0
2025-01-21 17:35:47.713860	347.7	11.0	-64.1	0.0
2025-01-21 17:35:48.837129	347.7	10.9	-68.3	0.0
2025-01-21 17:35:49.957811	347.7	10.8	-70.1	0.0
2025-01-21 17:35:51.081274	347.7	10.7	-73.1	0.0
2025-01-21 17:35:52.201839	347.6	10.6	-75.3	0.0
2025-01-21 17:35:53.324385	347.6	10.5	-77.8	0.0
2025-01-21 17:35:54.447977	347.6	10.4	-79.0	0.0
2025-01-21 17:35:55.568430	347.5	10.3	-78.5	0.0
2025-01-21 17:35:56.692059	347.5	10.3	-79.4	0.0
2025-01-21 17:35:57.815370	347.5	10.2	-79.9	0.0
2025-01-21 17:35:58.939309	347.5	10.1	-79.7	0.0
2025-01-21 17:36:00.060184	347.4	10.0	-81.3	0.0
#Closed at: 2025-01-21 17:25:20.559059