passes_logs/2025/01/21/planumMaritime01/planumMaritime01__20250121_183642_METOP-C_rec.log

#Pass ID: 20250121_183642_METOP-C
#Satellite: METOP-C
#Configuration: METOP-C
#Start time: 2025-01-21 18:36:47.910024

#LorettStation: 1.0.0 05.05.2024
#Station: planumMaritime01
#Location: 37.49445 lon 55.92918 lat
#TLE: 1 43689U 18087A   25021.13484048  .00000355  00000+0  18225-3 0  9999
#TLE: 2 43689  98.6955  83.5353 0001694 153.0622 207.0643 14.21485654322087

#Time	Az	El	Level	SNR
2025-01-21 18:36:50.083553	181.1	10.2	-76.0	0.0
2025-01-21 18:36:51.205369	181.1	10.3	-75.9	0.0
2025-01-21 18:36:52.329308	181.2	10.4	-76.0	0.0
2025-01-21 18:36:53.453318	181.2	10.5	-76.1	0.0
2025-01-21 18:36:54.578430	181.3	10.6	-76.3	0.0
2025-01-21 18:36:55.700985	181.3	10.7	-76.4	0.0
2025-01-21 18:36:56.824895	181.4	10.8	-76.3	0.0
2025-01-21 18:36:57.949865	181.4	10.9	-76.5	0.0
2025-01-21 18:36:59.073562	181.5	11.0	-76.3	0.0
2025-01-21 18:37:00.198236	181.5	11.1	-76.6	0.0
2025-01-21 18:37:01.323638	181.6	11.2	-76.5	0.0
2025-01-21 18:37:02.448720	181.6	11.3	-76.3	0.0
2025-01-21 18:37:03.571918	181.7	11.4	-76.3	0.0
2025-01-21 18:37:04.694793	181.8	11.5	-76.3	0.0
2025-01-21 18:37:05.817293	181.8	11.6	-76.8	0.0
2025-01-21 18:37:06.939120	181.9	11.7	-76.9	0.0
2025-01-21 18:37:08.063821	181.9	11.8	-76.4	0.0
2025-01-21 18:37:09.186586	182.0	11.9	-76.4	0.0
2025-01-21 18:37:10.307915	182.0	12.0	-76.6	0.0
2025-01-21 18:37:11.433338	182.1	12.1	-76.5	0.0
2025-01-21 18:37:12.556629	182.2	12.2	-76.4	0.0
2025-01-21 18:37:13.679774	182.2	12.3	-76.7	0.0
2025-01-21 18:37:14.800376	182.3	12.4	-76.1	0.0
2025-01-21 18:37:15.925290	182.3	12.5	-75.6	0.0
2025-01-21 18:37:17.046792	182.4	12.6	-75.9	0.0
2025-01-21 18:37:18.168817	182.5	12.7	-76.7	0.0
2025-01-21 18:37:19.294947	182.5	12.8	-76.0	0.0
2025-01-21 18:37:20.418234	182.6	12.9	-76.6	0.0
2025-01-21 18:37:21.543650	182.6	13.0	-76.2	0.0
2025-01-21 18:37:22.667269	182.7	13.1	-76.0	0.0
2025-01-21 18:37:23.789548	182.8	13.2	-77.1	0.0
2025-01-21 18:37:24.911144	182.8	13.3	-76.8	0.0
2025-01-21 18:37:26.034988	182.9	13.5	-76.9	0.0
2025-01-21 18:37:27.158395	183.0	13.6	-76.5	0.0
2025-01-21 18:37:28.279349	183.0	13.7	-76.7	0.0
2025-01-21 18:37:29.403563	183.1	13.8	-77.2	0.0
2025-01-21 18:37:30.527650	183.2	13.9	-77.1	0.0
2025-01-21 18:37:31.653310	183.2	14.0	-77.0	0.0
2025-01-21 18:37:32.774623	183.3	14.1	-76.2	0.0
2025-01-21 18:37:33.899400	183.4	14.2	-77.1	0.0
2025-01-21 18:37:35.023036	183.4	14.3	-76.5	0.0
2025-01-21 18:37:36.144294	183.5	14.5	-76.4	0.0
2025-01-21 18:37:37.268056	183.6	14.6	-76.6	0.0
2025-01-21 18:37:38.391671	183.6	14.7	-77.1	0.0
2025-01-21 18:37:39.515447	183.7	14.8	-76.7	0.0
2025-01-21 18:37:40.637114	183.8	14.9	-76.7	0.0
2025-01-21 18:37:41.762459	183.8	15.0	-76.7	0.0
2025-01-21 18:37:42.887240	183.9	15.1	-76.7	0.0
2025-01-21 18:37:44.011443	184.0	15.3	-76.8	0.0
2025-01-21 18:37:45.134683	184.1	15.4	-77.3	0.0
2025-01-21 18:37:46.257505	184.1	15.5	-77.4	0.0
2025-01-21 18:37:47.381036	184.2	15.6	-76.8	0.0
2025-01-21 18:37:48.504757	184.3	15.7	-76.9	0.0
2025-01-21 18:37:49.627455	184.4	15.9	-77.0	0.0
2025-01-21 18:37:50.751165	184.4	16.0	-76.5	0.0
2025-01-21 18:37:51.872738	184.5	16.1	-76.7	0.0
2025-01-21 18:37:52.995270	184.6	16.2	-76.5	0.0
2025-01-21 18:37:54.117495	184.7	16.3	-76.9	0.0
2025-01-21 18:37:55.238495	184.7	16.5	-76.7	0.0
2025-01-21 18:37:56.362291	184.8	16.6	-76.6	0.0
2025-01-21 18:37:57.485019	184.9	16.7	-76.9	0.0
2025-01-21 18:37:58.607229	185.0	16.8	-76.7	0.0
2025-01-21 18:37:59.731702	185.1	16.9	-77.0	0.0
2025-01-21 18:38:00.854888	185.1	17.1	-77.2	0.0
2025-01-21 18:38:01.976915	185.2	17.2	-77.2	0.0
2025-01-21 18:38:03.100699	185.3	17.3	-76.9	0.0
2025-01-21 18:38:04.224619	185.4	17.5	-77.0	0.0
2025-01-21 18:38:05.348480	185.5	17.6	-77.4	0.0
2025-01-21 18:38:06.472109	185.5	17.7	-76.9	0.0
2025-01-21 18:38:07.593591	185.6	17.8	-77.2	0.0
2025-01-21 18:38:08.715333	185.7	18.0	-76.8	0.0
2025-01-21 18:38:09.838163	185.8	18.1	-76.9	0.0
2025-01-21 18:38:10.960144	185.9	18.2	-77.2	0.0
2025-01-21 18:38:12.082760	186.0	18.4	-77.2	0.0
2025-01-21 18:38:13.207036	186.1	18.5	-77.4	0.0
2025-01-21 18:38:14.330364	186.2	18.6	-77.1	0.0
2025-01-21 18:38:15.453223	186.2	18.8	-77.1	0.0
2025-01-21 18:38:16.576910	186.3	18.9	-77.1	0.0
2025-01-21 18:38:17.698754	186.4	19.0	-77.2	0.0
2025-01-21 18:38:18.823189	186.5	19.2	-77.4	0.0
2025-01-21 18:38:19.945843	186.6	19.3	-77.3	0.0
2025-01-21 18:38:21.069789	186.7	19.4	-77.3	0.0
2025-01-21 18:38:22.192260	186.8	19.6	-77.5	0.0
2025-01-21 18:38:23.316882	186.9	19.7	-77.1	0.0
2025-01-21 18:38:24.440091	187.0	19.8	-77.3	0.0
2025-01-21 18:38:25.563074	187.1	20.0	-77.1	0.0
2025-01-21 18:38:26.686656	187.2	20.1	-77.6	0.0
2025-01-21 18:38:27.809369	187.3	20.3	-77.4	0.0
2025-01-21 18:38:28.932219	187.4	20.4	-77.3	0.0
2025-01-21 18:38:30.056114	187.5	20.5	-77.7	0.0
2025-01-21 18:38:31.179857	187.6	20.7	-77.2	0.0
2025-01-21 18:38:32.302613	187.7	20.8	-77.4	0.0
2025-01-21 18:38:33.425501	187.8	21.0	-77.7	0.0
2025-01-21 18:38:34.546977	187.9	21.1	-77.7	0.0
2025-01-21 18:38:35.670614	188.0	21.3	-77.2	0.0
2025-01-21 18:38:36.792081	188.1	21.4	-77.5	0.0
2025-01-21 18:38:37.916442	188.2	21.6	-78.0	0.0
2025-01-21 18:38:39.038178	188.3	21.7	-77.5	0.0
2025-01-21 18:38:40.162445	188.4	21.9	-77.4	0.0
2025-01-21 18:38:41.286467	188.5	22.0	-77.6	0.0
2025-01-21 18:38:42.408680	188.6	22.1	-77.6	0.0
2025-01-21 18:38:43.533540	188.8	22.3	-77.5	0.0
2025-01-21 18:38:44.659033	188.9	22.5	-77.5	0.0
2025-01-21 18:38:45.783018	189.0	22.6	-77.7	0.0
2025-01-21 18:38:46.908874	189.1	22.8	-77.3	0.0
2025-01-21 18:38:48.032122	189.2	22.9	-77.4	0.0
2025-01-21 18:38:49.155299	189.3	23.1	-77.7	0.0
2025-01-21 18:38:50.279184	189.4	23.2	-77.7	0.0
2025-01-21 18:38:51.402137	189.6	23.4	-77.8	0.0
2025-01-21 18:38:52.526315	189.7	23.5	-77.8	0.0
2025-01-21 18:38:53.651343	189.8	23.7	-77.4	0.0
2025-01-21 18:38:54.773616	189.9	23.9	-77.7	0.0
2025-01-21 18:38:55.898513	190.1	24.0	-77.8	0.0
2025-01-21 18:38:57.022588	190.2	24.2	-78.0	0.0
2025-01-21 18:38:58.144950	190.3	24.3	-78.0	0.0
2025-01-21 18:38:59.268490	190.4	24.5	-77.4	0.0
2025-01-21 18:39:00.391368	190.6	24.7	-77.2	0.0
2025-01-21 18:39:01.514881	190.7	24.8	-77.5	0.0
2025-01-21 18:39:02.638368	190.8	25.0	-78.1	0.0
2025-01-21 18:39:03.762699	191.0	25.2	-77.9	0.0
2025-01-21 18:39:04.886587	191.1	25.3	-78.5	0.0
2025-01-21 18:39:06.012286	191.2	25.5	-77.6	0.0
2025-01-21 18:39:07.134426	191.4	25.7	-78.0	0.0
2025-01-21 18:39:08.257750	191.5	25.8	-77.7	0.0
2025-01-21 18:39:09.381248	191.7	26.0	-77.9	0.0
2025-01-21 18:39:10.504038	191.8	26.2	-78.0	0.0
2025-01-21 18:39:11.626410	191.9	26.3	-77.9	0.0
2025-01-21 18:39:12.749969	192.1	26.5	-78.4	0.0
2025-01-21 18:39:13.872647	192.2	26.7	-78.1	0.0
2025-01-21 18:39:14.997868	192.4	26.9	-78.0	0.0
2025-01-21 18:39:16.120287	192.5	27.0	-78.2	0.0
2025-01-21 18:39:17.243122	192.7	27.2	-77.9	0.0
2025-01-21 18:39:18.366478	192.8	27.4	-78.1	0.0
2025-01-21 18:39:19.489471	193.0	27.6	-77.8	0.0
2025-01-21 18:39:20.614031	193.1	27.8	-78.2	0.0
2025-01-21 18:39:21.738089	193.3	27.9	-78.0	0.0
2025-01-21 18:39:22.861306	193.5	28.1	-77.8	0.0
2025-01-21 18:39:23.984971	193.6	28.3	-77.8	0.0
2025-01-21 18:39:25.106027	193.8	28.5	-78.1	0.0
2025-01-21 18:39:26.228334	193.9	28.7	-78.5	0.0
2025-01-21 18:39:27.351201	194.1	28.9	-78.0	0.0
2025-01-21 18:39:28.476326	194.3	29.1	-78.4	0.0
2025-01-21 18:39:29.600428	194.5	29.2	-78.6	0.0
2025-01-21 18:39:30.724394	194.6	29.4	-78.6	0.0
2025-01-21 18:39:31.849277	194.8	29.6	-78.6	0.0
2025-01-21 18:39:32.971051	195.0	29.8	-78.9	0.0
2025-01-21 18:39:34.094195	195.2	30.0	-78.8	0.0
2025-01-21 18:39:35.217525	195.3	30.2	-78.7	0.0
2025-01-21 18:39:36.340304	195.5	30.4	-78.7	0.0
2025-01-21 18:39:37.464377	195.7	30.6	-78.5	0.0
2025-01-21 18:39:38.587952	195.9	30.8	-78.7	0.0
2025-01-21 18:39:39.710726	196.1	31.0	-78.7	0.0
2025-01-21 18:39:40.834776	196.3	31.2	-78.3	0.0
2025-01-21 18:39:41.959170	196.5	31.4	-78.3	0.0
2025-01-21 18:39:43.085335	196.7	31.6	-78.5	0.0
2025-01-21 18:39:44.208691	196.9	31.8	-78.4	0.0
2025-01-21 18:39:45.331492	197.1	32.0	-78.6	0.0
2025-01-21 18:39:46.453818	197.3	32.2	-78.5	0.0
2025-01-21 18:39:47.579491	197.5	32.4	-78.4	0.0
2025-01-21 18:39:48.702577	197.7	32.6	-78.3	0.0
2025-01-21 18:39:49.824523	197.9	32.8	-78.3	0.3
2025-01-21 18:39:50.949411	198.1	33.0	-78.0	0.0
2025-01-21 18:39:52.072017	198.3	33.2	-78.4	0.0
2025-01-21 18:39:53.196110	198.6	33.4	-78.6	0.0
2025-01-21 18:39:54.319491	198.8	33.6	-78.3	0.0
2025-01-21 18:39:55.442905	199.0	33.8	-78.5	0.1
2025-01-21 18:39:56.566027	199.2	34.1	-78.4	0.0
2025-01-21 18:39:57.689371	199.5	34.3	-78.3	0.2
2025-01-21 18:39:58.813125	199.7	34.5	-78.1	1.5
2025-01-21 18:39:59.937289	199.9	34.7	-77.9	2.1
2025-01-21 18:40:01.059594	200.2	34.9	-77.8	1.4
2025-01-21 18:40:02.182442	200.4	35.1	-77.8	2.5
2025-01-21 18:40:03.307716	200.7	35.3	-77.4	3.3
2025-01-21 18:40:04.429843	200.9	35.6	-77.1	4.3
2025-01-21 18:40:05.554527	201.2	35.8	-77.3	4.6
2025-01-21 18:40:06.677383	201.4	36.0	-77.4	4.6
2025-01-21 18:40:07.800769	201.7	36.2	-77.3	4.8
2025-01-21 18:40:08.926252	201.9	36.4	-77.4	5.4
2025-01-21 18:40:10.050298	202.2	36.7	-77.4	5.2
2025-01-21 18:40:11.174441	202.5	36.9	-77.5	5.9
2025-01-21 18:40:12.296862	202.8	37.1	-77.4	4.3
2025-01-21 18:40:13.419482	203.0	37.3	-77.3	5.4
2025-01-21 18:40:14.543421	203.3	37.6	-77.5	5.5
2025-01-21 18:40:15.667132	203.6	37.8	-77.3	5.1
2025-01-21 18:40:16.792553	203.9	38.0	-77.1	6.0
2025-01-21 18:40:17.918458	204.2	38.2	-76.8	4.9
2025-01-21 18:40:19.040084	204.5	38.5	-77.0	4.9
2025-01-21 18:40:20.165130	204.8	38.7	-76.7	6.5
2025-01-21 18:40:21.289579	205.1	38.9	-76.9	6.9
2025-01-21 18:40:22.412367	205.4	39.2	-76.8	7.0
2025-01-21 18:40:23.537346	205.7	39.4	-77.0	7.3
2025-01-21 18:40:24.659118	206.0	39.6	-76.4	5.7
2025-01-21 18:40:25.782477	206.4	39.9	-76.6	6.5
2025-01-21 18:40:26.905812	206.7	40.1	-76.4	6.1
2025-01-21 18:40:28.030544	207.0	40.3	-76.5	6.3
2025-01-21 18:40:29.152495	207.4	40.6	-76.2	6.3
2025-01-21 18:40:30.274655	207.7	40.8	-76.8	6.7
2025-01-21 18:40:31.396721	208.0	41.0	-76.6	7.3
2025-01-21 18:40:32.520225	208.4	41.3	-76.5	7.5
2025-01-21 18:40:33.641706	208.8	41.5	-76.1	7.1
2025-01-21 18:40:34.763334	209.1	41.7	-76.3	7.9
2025-01-21 18:40:35.886057	209.5	42.0	-75.9	7.9
2025-01-21 18:40:37.010100	209.9	42.2	-76.0	8.0
2025-01-21 18:40:38.135309	210.2	42.5	-75.9	7.5
2025-01-21 18:40:39.257371	210.6	42.7	-76.3	7.6
2025-01-21 18:40:40.381060	211.0	42.9	-76.1	7.1
2025-01-21 18:40:41.503307	211.4	43.2	-75.8	7.1
2025-01-21 18:40:42.626234	211.8	43.4	-76.1	8.2
2025-01-21 18:40:43.751473	212.2	43.6	-75.9	7.9
2025-01-21 18:40:44.875266	212.6	43.9	-75.7	8.5
2025-01-21 18:40:46.000087	213.1	44.1	-76.0	8.9
2025-01-21 18:40:47.123035	213.5	44.4	-75.7	8.8
2025-01-21 18:40:48.245186	213.9	44.6	-75.6	9.9
2025-01-21 18:40:49.368452	214.4	44.8	-75.8	9.8
2025-01-21 18:40:50.492848	214.8	45.1	-75.6	10.6
2025-01-21 18:40:51.617069	215.3	45.3	-75.8	10.0
2025-01-21 18:40:52.739495	215.7	45.5	-75.9	9.3
2025-01-21 18:40:53.863624	216.2	45.8	-76.0	10.2
2025-01-21 18:40:54.988524	216.6	46.0	-75.9	10.2
2025-01-21 18:40:56.111911	217.1	46.2	-75.5	9.8
2025-01-21 18:40:57.234480	217.6	46.5	-75.5	9.9
2025-01-21 18:40:58.358235	218.1	46.7	-75.6	10.6
2025-01-21 18:40:59.483166	218.6	46.9	-75.4	10.2
2025-01-21 18:41:00.606346	219.1	47.1	-75.1	10.3
2025-01-21 18:41:01.731344	219.6	47.4	-75.0	11.5
2025-01-21 18:41:02.854744	220.1	47.6	-75.1	11.5
2025-01-21 18:41:03.978379	220.7	47.8	-75.2	11.5
2025-01-21 18:41:05.101878	221.2	48.0	-74.8	11.5
2025-01-21 18:41:06.223671	221.8	48.3	-74.9	11.3
2025-01-21 18:41:07.347854	222.3	48.5	-74.9	11.9
2025-01-21 18:41:08.470674	222.9	48.7	-75.1	12.4
2025-01-21 18:41:09.596889	223.4	48.9	-74.7	11.4
2025-01-21 18:41:10.720068	224.0	49.1	-74.9	12.3
2025-01-21 18:41:11.843350	224.6	49.3	-74.6	9.1
2025-01-21 18:41:12.965996	225.2	49.6	-74.8	11.8
2025-01-21 18:41:14.087592	225.8	49.8	-75.3	11.8
2025-01-21 18:41:15.210286	226.4	50.0	-75.1	12.3
2025-01-21 18:41:16.333297	227.0	50.2	-74.8	11.3
2025-01-21 18:41:17.456271	227.6	50.4	-74.9	12.1
2025-01-21 18:41:18.579346	228.3	50.6	-75.1	11.4
2025-01-21 18:41:19.702482	228.9	50.8	-74.9	12.2
2025-01-21 18:41:20.824155	229.6	50.9	-75.0	11.6
2025-01-21 18:41:21.947240	230.2	51.1	-75.0	12.3
2025-01-21 18:41:23.072270	230.9	51.3	-75.1	12.3
2025-01-21 18:41:24.195538	231.6	51.5	-75.1	12.1
2025-01-21 18:41:25.320086	232.2	51.7	-75.0	12.2
2025-01-21 18:41:26.448370	232.9	51.9	-75.1	11.7
2025-01-21 18:41:27.571218	233.6	52.0	-75.0	11.8
2025-01-21 18:41:28.695869	234.3	52.2	-75.2	12.2
2025-01-21 18:41:29.817923	235.1	52.4	-75.3	11.4
2025-01-21 18:41:30.939640	235.8	52.5	-74.9	11.2
2025-01-21 18:41:32.062031	236.5	52.7	-74.9	12.2
2025-01-21 18:41:33.185197	237.2	52.8	-74.4	11.9
2025-01-21 18:41:34.309771	238.0	53.0	-74.6	12.2
2025-01-21 18:41:35.434315	238.7	53.1	-74.7	11.9
2025-01-21 18:41:36.556186	239.5	53.2	-74.7	12.3
2025-01-21 18:41:37.680516	240.3	53.4	-74.8	12.6
2025-01-21 18:41:38.805312	241.0	53.5	-74.5	12.9
2025-01-21 18:41:39.927354	241.8	53.6	-74.7	12.4
2025-01-21 18:41:41.050113	242.6	53.8	-74.5	13.0
2025-01-21 18:41:42.172209	243.4	53.9	-74.1	12.7
2025-01-21 18:41:43.293725	244.2	54.0	-74.4	12.6
2025-01-21 18:41:44.417897	245.0	54.1	-74.3	12.9
2025-01-21 18:41:45.543352	245.8	54.2	-74.4	12.7
2025-01-21 18:41:46.664943	246.6	54.3	-74.6	12.4
2025-01-21 18:41:47.787633	247.4	54.3	-74.5	12.4
2025-01-21 18:41:48.912286	248.3	54.4	-74.8	12.6
2025-01-21 18:41:50.035306	249.1	54.5	-74.8	12.7
2025-01-21 18:41:51.158788	249.9	54.6	-74.6	12.4
2025-01-21 18:41:52.283023	250.8	54.6	-74.8	12.3
2025-01-21 18:41:53.405418	251.6	54.7	-74.8	12.3
2025-01-21 18:41:54.527952	252.4	54.7	-74.4	11.8
2025-01-21 18:41:55.649922	253.3	54.8	-74.8	11.7
2025-01-21 18:41:56.772759	254.1	54.8	-74.9	12.2
2025-01-21 18:41:57.897129	255.0	54.9	-74.7	12.1
2025-01-21 18:41:59.020895	255.8	54.9	-74.8	11.0
2025-01-21 18:42:00.142699	256.7	54.9	-74.8	12.4
2025-01-21 18:42:01.268421	257.5	54.9	-74.4	11.5
2025-01-21 18:42:02.392297	258.4	54.9	-74.8	12.3
2025-01-21 18:42:03.515177	259.3	54.9	-74.7	12.0
2025-01-21 18:42:04.637792	260.1	54.9	-74.8	12.1
2025-01-21 18:42:05.759902	261.0	54.9	-74.9	11.9
2025-01-21 18:42:06.884420	261.8	54.9	-74.7	11.4
2025-01-21 18:42:08.010793	262.7	54.9	-75.1	12.1
2025-01-21 18:42:09.134912	263.5	54.8	-74.8	12.0
2025-01-21 18:42:10.260451	264.4	54.8	-74.8	11.7
2025-01-21 18:42:11.382451	265.2	54.8	-74.9	11.5
2025-01-21 18:42:12.504722	266.1	54.7	-74.8	11.2
2025-01-21 18:42:13.628599	266.9	54.7	-75.0	10.3
2025-01-21 18:42:14.749644	267.7	54.6	-75.5	11.2
2025-01-21 18:42:15.871863	268.6	54.5	-75.4	11.3
2025-01-21 18:42:16.995516	269.4	54.5	-75.1	10.9
2025-01-21 18:42:18.117509	270.2	54.4	-75.0	10.5
2025-01-21 18:42:19.239730	271.0	54.3	-75.0	11.0
2025-01-21 18:42:20.363884	271.9	54.2	-75.1	10.3
2025-01-21 18:42:21.488673	272.7	54.1	-75.0	9.6
2025-01-21 18:42:22.612906	273.5	54.0	-74.6	8.7
2025-01-21 18:42:23.735998	274.3	53.9	-75.1	9.6
2025-01-21 18:42:24.858953	275.1	53.8	-75.2	9.6
2025-01-21 18:42:25.981679	275.9	53.7	-75.3	9.2
2025-01-21 18:42:27.104180	276.6	53.6	-75.0	9.6
2025-01-21 18:42:28.227283	277.4	53.4	-75.4	9.8
2025-01-21 18:42:29.350184	278.2	53.3	-75.4	9.5
2025-01-21 18:42:30.474161	278.9	53.2	-75.5	9.3
2025-01-21 18:42:31.596319	279.7	53.0	-75.2	8.8
2025-01-21 18:42:32.720698	280.4	52.9	-75.7	8.3
2025-01-21 18:42:33.842820	281.2	52.7	-75.8	9.2
2025-01-21 18:42:34.966087	281.9	52.6	-75.4	8.4
2025-01-21 18:42:36.088916	282.6	52.4	-75.2	8.9
2025-01-21 18:42:37.210867	283.3	52.3	-74.9	7.3
2025-01-21 18:42:38.333072	284.1	52.1	-75.0	7.8
2025-01-21 18:42:39.455674	284.8	51.9	-75.1	7.7
2025-01-21 18:42:40.578128	285.4	51.8	-74.9	6.0
2025-01-21 18:42:41.701322	286.1	51.6	-75.1	5.5
2025-01-21 18:42:42.824092	286.8	51.4	-75.4	6.7
2025-01-21 18:42:43.949105	287.5	51.2	-75.3	6.0
2025-01-21 18:42:45.071626	288.1	51.0	-75.4	7.0
2025-01-21 18:42:46.196127	288.8	50.8	-75.3	6.5
2025-01-21 18:42:47.319047	289.4	50.6	-75.5	5.6
2025-01-21 18:42:48.442165	290.1	50.5	-75.5	5.7
2025-01-21 18:42:49.565485	290.7	50.3	-75.2	3.4
2025-01-21 18:42:50.687834	291.3	50.1	-75.3	5.8
2025-01-21 18:42:51.812905	291.9	49.9	-75.6	4.4
2025-01-21 18:42:52.935331	292.5	49.6	-76.1	5.2
2025-01-21 18:42:54.057098	293.1	49.4	-75.8	3.4
2025-01-21 18:42:55.179107	293.7	49.2	-76.1	3.9
2025-01-21 18:42:56.304367	294.3	49.0	-76.4	4.3
2025-01-21 18:42:57.428730	294.9	48.8	-76.3	4.0
2025-01-21 18:42:58.552396	295.4	48.6	-76.4	3.9
2025-01-21 18:42:59.675282	296.0	48.4	-76.3	3.1
2025-01-21 18:43:00.800778	296.5	48.1	-76.5	2.5
2025-01-21 18:43:01.924641	297.1	47.9	-76.9	2.9
2025-01-21 18:43:03.045905	297.6	47.7	-76.6	1.2
2025-01-21 18:43:04.168451	298.1	47.5	-76.0	0.0
2025-01-21 18:43:05.291846	298.6	47.3	-76.6	0.0
2025-01-21 18:43:06.414545	299.1	47.0	-76.5	0.0
2025-01-21 18:43:07.537785	299.6	46.8	-76.4	0.0
2025-01-21 18:43:08.659572	300.1	46.6	-76.6	0.0
2025-01-21 18:43:09.781727	300.6	46.3	-76.4	0.0
2025-01-21 18:43:10.904079	301.1	46.1	-75.9	0.0
2025-01-21 18:43:12.025531	301.6	45.9	-76.4	0.0
2025-01-21 18:43:13.147001	302.0	45.7	-76.1	0.0
2025-01-21 18:43:14.268896	302.5	45.4	-75.9	0.0
2025-01-21 18:43:15.392434	303.0	45.2	-75.3	0.0
2025-01-21 18:43:16.514638	303.4	45.0	-75.9	0.0
2025-01-21 18:43:17.637583	303.8	44.7	-76.1	0.0
2025-01-21 18:43:18.759940	304.3	44.5	-75.2	0.0
2025-01-21 18:43:19.882547	304.7	44.2	-75.7	0.0
2025-01-21 18:43:21.004969	305.1	44.0	-76.1	0.0
2025-01-21 18:43:22.129027	305.5	43.8	-75.5	0.0
2025-01-21 18:43:23.253172	305.9	43.5	-75.5	0.0
2025-01-21 18:43:24.376533	306.4	43.3	-76.2	0.0
2025-01-21 18:43:25.499207	306.7	43.1	-75.7	0.0
2025-01-21 18:43:26.622715	307.1	42.8	-76.6	0.0
2025-01-21 18:43:27.748173	307.5	42.6	-76.2	0.0
2025-01-21 18:43:28.870066	307.9	42.4	-76.3	0.0
2025-01-21 18:43:29.994315	308.3	42.1	-77.0	0.0
2025-01-21 18:43:31.118979	308.7	41.9	-75.8	0.0
2025-01-21 18:43:32.243505	309.0	41.7	-75.4	0.0
2025-01-21 18:43:33.368274	309.4	41.4	-74.5	0.0
2025-01-21 18:43:34.492656	309.7	41.2	-74.6	0.0
2025-01-21 18:43:35.614995	310.1	40.9	-75.1	0.0
2025-01-21 18:43:36.739189	310.4	40.7	-76.7	0.0
2025-01-21 18:43:37.861887	310.8	40.5	-75.2	0.0
2025-01-21 18:43:38.984982	311.1	40.2	-75.5	0.0
2025-01-21 18:43:40.107835	311.4	40.0	-75.1	0.0
2025-01-21 18:43:41.229588	311.8	39.8	-74.0	0.0
2025-01-21 18:43:42.353290	312.1	39.6	-75.0	0.0
2025-01-21 18:43:43.477454	312.4	39.3	-75.9	0.0
2025-01-21 18:43:44.600183	312.7	39.1	-76.1	0.0
2025-01-21 18:43:45.723658	313.0	38.9	-75.4	0.0
2025-01-21 18:43:46.846730	313.3	38.6	-75.8	0.0
2025-01-21 18:43:47.968119	313.6	38.4	-76.1	0.0
2025-01-21 18:43:49.090048	313.9	38.2	-75.6	0.0
2025-01-21 18:43:50.211897	314.2	38.0	-77.0	0.0
2025-01-21 18:43:51.335218	314.5	37.7	-76.8	0.0
2025-01-21 18:43:52.458186	314.8	37.5	-76.3	0.0
2025-01-21 18:43:53.582882	315.0	37.3	-76.7	0.0
2025-01-21 18:43:54.704671	315.3	37.1	-76.4	0.0
2025-01-21 18:43:55.825738	315.6	36.8	-75.8	0.0
2025-01-21 18:43:56.947514	315.9	36.6	-76.1	0.0
2025-01-21 18:43:58.070749	316.1	36.4	-76.9	0.0
2025-01-21 18:43:59.194188	316.4	36.2	-77.1	0.0
2025-01-21 18:44:00.316785	316.6	35.9	-76.1	0.0
2025-01-21 18:44:01.442861	316.9	35.7	-76.6	0.0
2025-01-21 18:44:02.569140	317.2	35.5	-76.7	0.0
2025-01-21 18:44:03.693429	317.4	35.3	-76.9	0.0
2025-01-21 18:44:04.817885	317.6	35.1	-76.5	0.0
2025-01-21 18:44:05.940200	317.9	34.9	-75.6	0.0
2025-01-21 18:44:07.063870	318.1	34.6	-75.9	0.0
2025-01-21 18:44:08.187590	318.4	34.4	-76.9	0.0
2025-01-21 18:44:09.312335	318.6	34.2	-76.6	0.0
2025-01-21 18:44:10.434116	318.8	34.0	-76.7	0.0
2025-01-21 18:44:11.557868	319.1	33.8	-75.6	0.0
2025-01-21 18:44:12.682283	319.3	33.6	-73.5	0.0
2025-01-21 18:44:13.806073	319.5	33.4	-74.1	0.0
2025-01-21 18:44:14.929936	319.7	33.2	-73.5	0.0
2025-01-21 18:44:16.052035	319.9	33.0	-72.8	0.0
2025-01-21 18:44:17.175085	320.1	32.8	-70.9	0.0
2025-01-21 18:44:18.298268	320.4	32.6	-70.1	0.0
2025-01-21 18:44:19.419965	320.6	32.4	-71.6	0.0
2025-01-21 18:44:20.543224	320.8	32.2	-72.0	0.0
2025-01-21 18:44:21.666100	321.0	32.0	-75.0	0.0
2025-01-21 18:44:22.790744	321.2	31.8	-75.5	0.0
2025-01-21 18:44:23.916937	321.4	31.6	-74.1	0.0
2025-01-21 18:44:25.040112	321.6	31.4	-75.4	0.0
2025-01-21 18:44:26.164255	321.8	31.2	-72.6	0.0
2025-01-21 18:44:27.288200	321.9	31.0	-75.3	0.0
2025-01-21 18:44:28.409748	322.1	30.8	-74.3	0.0
2025-01-21 18:44:29.533807	322.3	30.6	-72.9	0.0
2025-01-21 18:44:30.658177	322.5	30.4	-71.4	0.0
2025-01-21 18:44:31.780707	322.7	30.2	-72.2	0.0
2025-01-21 18:44:32.901182	322.9	30.0	-74.8	0.0
2025-01-21 18:44:34.022100	323.0	29.8	-74.1	0.0
2025-01-21 18:44:35.143436	323.2	29.6	-75.6	0.0
2025-01-21 18:44:36.269921	323.4	29.4	-75.0	0.0
2025-01-21 18:44:37.394762	323.6	29.2	-74.6	0.0
2025-01-21 18:44:38.518039	323.7	29.1	-71.8	0.0
2025-01-21 18:44:39.643309	323.9	28.9	-72.1	0.0
2025-01-21 18:44:40.768076	324.1	28.7	-73.8	0.0
2025-01-21 18:44:41.891346	324.2	28.5	-73.1	0.0
2025-01-21 18:44:43.015451	324.4	28.3	-74.4	0.0
2025-01-21 18:44:44.139761	324.6	28.1	-74.7	0.0
2025-01-21 18:44:45.262893	324.7	28.0	-71.6	0.0
2025-01-21 18:44:46.387412	324.9	27.8	-74.6	0.0
2025-01-21 18:44:47.513402	325.0	27.6	-72.0	0.0
2025-01-21 18:44:48.635186	325.2	27.4	-74.7	0.0
2025-01-21 18:44:49.758217	325.3	27.2	-74.4	0.0
2025-01-21 18:44:50.881503	325.5	27.1	-73.7	0.0
2025-01-21 18:44:52.008142	325.6	26.9	-75.4	0.0
2025-01-21 18:44:53.133309	325.8	26.7	-73.0	0.0
2025-01-21 18:44:54.257768	325.9	26.5	-74.3	0.0
2025-01-21 18:44:55.384381	326.1	26.4	-74.3	0.0
2025-01-21 18:44:56.506663	326.2	26.2	-73.7	0.0
2025-01-21 18:44:57.628783	326.4	26.0	-74.9	0.0
2025-01-21 18:44:58.750203	326.5	25.9	-75.0	0.0
2025-01-21 18:44:59.872509	326.6	25.7	-75.8	0.0
2025-01-21 18:45:00.997910	326.8	25.5	-74.6	0.0
2025-01-21 18:45:02.121957	326.9	25.4	-75.4	0.0
2025-01-21 18:45:03.243295	327.0	25.2	-73.3	0.0
2025-01-21 18:45:04.366840	327.2	25.0	-75.8	0.0
2025-01-21 18:45:05.490091	327.3	24.9	-72.3	0.0
2025-01-21 18:45:06.613800	327.4	24.7	-74.9	0.0
2025-01-21 18:45:07.736150	327.6	24.5	-74.7	0.0
2025-01-21 18:45:08.858577	327.7	24.4	-74.9	0.0
2025-01-21 18:45:09.983442	327.8	24.2	-75.4	0.0
2025-01-21 18:45:11.106818	327.9	24.1	-76.1	0.0
2025-01-21 18:45:12.229280	328.1	23.9	-74.5	0.0
2025-01-21 18:45:13.351718	328.2	23.7	-75.5	0.0
2025-01-21 18:45:14.475109	328.3	23.6	-68.3	0.0
2025-01-21 18:45:15.598322	328.4	23.4	-75.4	0.0
2025-01-21 18:45:16.723120	328.6	23.3	-70.4	0.0
2025-01-21 18:45:17.845277	328.7	23.1	-74.4	0.0
2025-01-21 18:45:18.971302	328.8	23.0	-72.8	0.0
2025-01-21 18:45:20.094799	328.9	22.8	-75.5	0.0
2025-01-21 18:45:21.216524	329.0	22.7	-76.1	0.0
2025-01-21 18:45:22.338062	329.1	22.5	-74.7	0.0
2025-01-21 18:45:23.460330	329.2	22.4	-73.8	0.0
2025-01-21 18:45:24.583389	329.4	22.2	-76.2	0.0
2025-01-21 18:45:25.707625	329.5	22.1	-70.7	0.0
2025-01-21 18:45:26.831100	329.6	21.9	-68.6	0.0
2025-01-21 18:45:27.955290	329.7	21.8	-70.5	0.0
2025-01-21 18:45:29.080138	329.8	21.6	-70.7	0.0
2025-01-21 18:45:30.203232	329.9	21.5	-69.4	0.0
2025-01-21 18:45:31.328015	330.0	21.3	-69.9	0.0
2025-01-21 18:45:32.452029	330.1	21.2	-71.6	0.0
2025-01-21 18:45:33.575767	330.2	21.0	-74.3	0.0
2025-01-21 18:45:34.699342	330.3	20.9	-70.6	0.0
2025-01-21 18:45:35.822215	330.4	20.8	-71.6	0.0
2025-01-21 18:45:36.945337	330.5	20.6	-73.9	0.0
2025-01-21 18:45:38.067826	330.6	20.5	-71.1	0.0
2025-01-21 18:45:39.191604	330.7	20.3	-72.5	0.0
2025-01-21 18:45:40.314894	330.8	20.2	-71.3	0.0
2025-01-21 18:45:41.438528	330.9	20.0	-71.9	0.0
2025-01-21 18:45:42.561405	331.0	19.9	-71.3	0.0
2025-01-21 18:45:43.685713	331.1	19.8	-75.1	0.0
2025-01-21 18:45:44.808482	331.2	19.6	-74.1	0.0
2025-01-21 18:45:45.931763	331.3	19.5	-74.8	0.0
2025-01-21 18:45:47.057800	331.4	19.4	-72.0	0.0
2025-01-21 18:45:48.182565	331.5	19.2	-72.9	0.0
2025-01-21 18:45:49.305821	331.6	19.1	-69.9	0.0
2025-01-21 18:45:50.427637	331.7	19.0	-70.5	0.0
2025-01-21 18:45:51.548512	331.8	18.8	-70.4	0.0
2025-01-21 18:45:52.671561	331.9	18.7	-69.7	0.0
2025-01-21 18:45:53.795348	331.9	18.6	-70.0	0.0
2025-01-21 18:45:54.917853	332.0	18.4	-69.6	0.0
2025-01-21 18:45:56.041774	332.1	18.3	-71.7	0.0
2025-01-21 18:45:57.166192	332.2	18.2	-71.9	0.0
2025-01-21 18:45:58.289999	332.3	18.0	-72.0	0.0
2025-01-21 18:45:59.409846	332.4	17.9	-73.9	0.0
2025-01-21 18:46:00.531306	332.5	17.8	-70.0	0.0
2025-01-21 18:46:01.655360	332.5	17.7	-73.7	0.0
2025-01-21 18:46:02.778982	332.6	17.5	-74.1	0.0
2025-01-21 18:46:03.901320	332.7	17.4	-73.5	0.0
2025-01-21 18:46:05.024003	332.8	17.3	-73.0	0.0
2025-01-21 18:46:06.148607	332.9	17.2	-71.5	0.0
2025-01-21 18:46:07.271994	333.0	17.0	-71.9	0.0
2025-01-21 18:46:08.395561	333.0	16.9	-70.0	0.0
2025-01-21 18:46:09.517443	333.1	16.8	-72.6	0.0
2025-01-21 18:46:10.638216	333.2	16.7	-71.9	0.0
2025-01-21 18:46:11.760731	333.3	16.6	-72.1	0.0
2025-01-21 18:46:12.885613	333.3	16.4	-71.7	0.0
2025-01-21 18:46:14.006621	333.4	16.3	-71.3	0.0
2025-01-21 18:46:15.130812	333.5	16.2	-71.8	0.0
2025-01-21 18:46:16.255914	333.6	16.1	-71.4	0.0
2025-01-21 18:46:17.380330	333.7	16.0	-69.9	0.0
2025-01-21 18:46:18.503768	333.7	15.8	-70.7	0.0
2025-01-21 18:46:19.625367	333.8	15.7	-71.4	0.0
2025-01-21 18:46:20.748156	333.9	15.6	-71.0	0.0
2025-01-21 18:46:21.872169	334.0	15.5	-71.5	0.0
2025-01-21 18:46:22.994780	334.0	15.4	-71.6	0.0
2025-01-21 18:46:24.116456	334.1	15.2	-69.6	0.0
2025-01-21 18:46:25.238078	334.2	15.1	-68.5	0.0
2025-01-21 18:46:26.360152	334.2	15.0	-72.6	0.0
2025-01-21 18:46:27.482958	334.3	14.9	-71.1	0.0
2025-01-21 18:46:28.606639	334.4	14.8	-70.6	0.0
2025-01-21 18:46:29.730951	334.5	14.7	-70.0	0.0
2025-01-21 18:46:30.854290	334.5	14.6	-71.9	0.0
2025-01-21 18:46:31.975651	334.6	14.5	-70.1	0.0
2025-01-21 18:46:33.100433	334.7	14.3	-70.7	0.0
2025-01-21 18:46:34.224817	334.7	14.2	-68.2	0.0
2025-01-21 18:46:35.348333	334.8	14.1	-69.9	0.0
2025-01-21 18:46:36.469251	334.9	14.0	-71.1	0.0
2025-01-21 18:46:37.593692	334.9	13.9	-69.8	0.0
2025-01-21 18:46:38.718215	335.0	13.8	-66.1	0.0
2025-01-21 18:46:39.841859	335.1	13.7	-67.6	0.0
2025-01-21 18:46:40.963339	335.1	13.6	-71.5	0.0
2025-01-21 18:46:42.084457	335.2	13.5	-70.6	0.0
2025-01-21 18:46:43.205886	335.3	13.4	-72.0	0.0
2025-01-21 18:46:44.329941	335.3	13.2	-69.4	0.0
2025-01-21 18:46:45.454292	335.4	13.1	-70.5	0.0
2025-01-21 18:46:46.576223	335.4	13.0	-67.1	0.0
2025-01-21 18:46:47.700793	335.5	12.9	-69.4	0.0
2025-01-21 18:46:48.823985	335.6	12.8	-67.9	0.0
2025-01-21 18:46:49.948202	335.6	12.7	-67.5	0.0
2025-01-21 18:46:51.071215	335.7	12.6	-72.6	0.0
2025-01-21 18:46:52.196300	335.8	12.5	-69.2	0.0
2025-01-21 18:46:53.321594	335.8	12.4	-72.0	0.0
2025-01-21 18:46:54.445522	335.9	12.3	-72.2	0.0
2025-01-21 18:46:55.570595	335.9	12.2	-67.0	0.0
2025-01-21 18:46:56.694901	336.0	12.1	-70.7	0.0
2025-01-21 18:46:57.819053	336.1	12.0	-72.4	0.0
2025-01-21 18:46:58.941865	336.1	11.9	-69.6	0.0
2025-01-21 18:47:00.065520	336.2	11.8	-68.8	0.0
2025-01-21 18:47:01.189994	336.2	11.7	-70.2	0.0
2025-01-21 18:47:02.313551	336.3	11.6	-68.2	0.0
2025-01-21 18:47:03.434145	336.3	11.5	-66.9	0.0
2025-01-21 18:47:04.555681	336.4	11.4	-69.9	0.0
2025-01-21 18:47:05.678101	336.5	11.3	-69.6	0.0
2025-01-21 18:47:06.800920	336.5	11.2	-71.6	0.0
2025-01-21 18:47:07.923806	336.6	11.1	-69.5	0.0
2025-01-21 18:47:09.047320	336.6	11.0	-72.0	0.0
2025-01-21 18:47:10.172757	336.7	10.9	-73.9	0.0
2025-01-21 18:47:11.296182	336.7	10.8	-75.1	0.0
2025-01-21 18:47:12.418742	336.8	10.7	-75.1	0.0
2025-01-21 18:47:13.540337	336.8	10.6	-76.8	0.0
2025-01-21 18:47:14.663519	336.9	10.5	-77.0	0.0
2025-01-21 18:47:15.786218	336.9	10.4	-78.9	0.0
2025-01-21 18:47:16.909990	337.0	10.3	-79.8	0.0
2025-01-21 18:47:18.033216	337.1	10.2	-80.6	0.0
2025-01-21 18:47:19.158368	337.1	10.1	-81.1	0.0
#Closed at: 2025-01-21 18:36:42.916171