passes_logs/2025/01/21/planumMaritime01/planumMaritime01__20250121_092946_NOAA_19_rec.log

#Pass ID: 20250121_092946_NOAA 19
#Satellite: NOAA 19
#Configuration: NOAA 19
#Start time: 2025-01-21 09:29:51.673515

#LorettStation: 1.0.0 05.05.2024
#Station: planumMaritime01
#Location: 37.49445 lon 55.92918 lat
#TLE: 1 33591U 09005A   25020.17232911  .00000399  00000+0  23710-3 0  9996
#TLE: 2 33591  99.0187  83.9745 0014303  43.5990 316.6309 14.13263973822272

#Time	Az	El	Level	SNR
2025-01-21 09:29:53.828509	1.5	10.2	-69.7	0.0
2025-01-21 09:29:54.953159	1.3	10.2	-70.0	0.0
2025-01-21 09:29:56.075501	1.2	10.3	-69.1	0.0
2025-01-21 09:29:57.197405	1.1	10.4	-70.4	0.0
2025-01-21 09:29:58.319618	1.0	10.5	-71.0	0.0
2025-01-21 09:29:59.442852	0.9	10.5	-68.8	0.0
2025-01-21 09:30:00.566308	0.7	10.6	-69.3	0.0
2025-01-21 09:30:01.690922	0.6	10.7	-69.5	0.0
2025-01-21 09:30:02.814020	0.5	10.8	-70.6	0.0
2025-01-21 09:30:03.936516	0.4	10.9	-69.9	0.0
2025-01-21 09:30:05.062320	0.3	10.9	-70.6	0.0
2025-01-21 09:30:06.186102	0.1	11.0	-71.2	0.0
2025-01-21 09:30:07.310009	0.0	11.1	-71.9	0.0
2025-01-21 09:30:08.434291	359.9	11.2	-72.3	0.0
2025-01-21 09:30:09.560517	359.7	11.3	-72.2	0.0
2025-01-21 09:30:10.684434	359.6	11.3	-71.2	0.0
2025-01-21 09:30:11.806143	359.5	11.4	-71.2	0.0
2025-01-21 09:30:12.929533	359.4	11.5	-71.5	0.0
2025-01-21 09:30:14.051220	359.2	11.6	-69.4	0.0
2025-01-21 09:30:15.174037	359.1	11.7	-70.8	0.0
2025-01-21 09:30:16.298779	359.0	11.7	-71.1	0.0
2025-01-21 09:30:17.422552	358.8	11.8	-69.5	0.0
2025-01-21 09:30:18.547061	358.7	11.9	-70.4	0.0
2025-01-21 09:30:19.670198	358.6	12.0	-72.1	0.0
2025-01-21 09:30:20.795559	358.4	12.1	-70.7	0.0
2025-01-21 09:30:21.918582	358.3	12.2	-71.3	0.0
2025-01-21 09:30:23.041732	358.2	12.2	-71.1	0.0
2025-01-21 09:30:24.165274	358.0	12.3	-71.8	0.0
2025-01-21 09:30:25.289477	357.9	12.4	-73.0	0.0
2025-01-21 09:30:26.410785	357.8	12.5	-73.7	0.0
2025-01-21 09:30:27.534502	357.6	12.6	-73.0	0.0
2025-01-21 09:30:28.660084	357.5	12.6	-70.2	0.0
2025-01-21 09:30:29.786523	357.3	12.7	-72.8	0.0
2025-01-21 09:30:30.910607	357.2	12.8	-72.8	0.0
2025-01-21 09:30:32.034360	357.1	12.9	-65.0	0.0
2025-01-21 09:30:33.158136	356.9	13.0	-63.2	0.0
2025-01-21 09:30:34.281787	356.8	13.1	-71.9	0.0
2025-01-21 09:30:35.404635	356.6	13.1	-66.2	0.0
2025-01-21 09:30:36.527299	356.5	13.2	-62.5	0.0
2025-01-21 09:30:37.651060	356.3	13.3	-62.2	0.0
2025-01-21 09:30:38.776101	356.2	13.4	-64.2	0.0
2025-01-21 09:30:39.899447	356.0	13.5	-71.4	0.0
2025-01-21 09:30:41.025631	355.9	13.6	-72.6	0.0
2025-01-21 09:30:42.152110	355.8	13.6	-65.1	0.0
2025-01-21 09:30:43.275786	355.6	13.7	-70.5	0.0
2025-01-21 09:30:44.397955	355.4	13.8	-66.7	0.0
2025-01-21 09:30:45.523674	355.3	13.9	-68.7	0.0
2025-01-21 09:30:46.647195	355.1	14.0	-68.2	0.0
2025-01-21 09:30:47.770380	355.0	14.1	-65.9	0.0
2025-01-21 09:30:48.894175	354.8	14.1	-61.1	0.0
2025-01-21 09:30:50.017194	354.7	14.2	-68.6	0.0
2025-01-21 09:30:51.142158	354.5	14.3	-62.0	0.0
2025-01-21 09:30:52.264303	354.4	14.4	-70.0	0.0
2025-01-21 09:30:53.387810	354.2	14.5	-71.2	0.0
2025-01-21 09:30:54.511432	354.1	14.6	-67.8	0.0
2025-01-21 09:30:55.635429	353.9	14.6	-71.6	0.0
2025-01-21 09:30:56.756678	353.7	14.7	-71.2	0.0
2025-01-21 09:30:57.877975	353.6	14.8	-69.9	0.0
2025-01-21 09:30:59.003421	353.4	14.9	-68.8	0.0
2025-01-21 09:31:00.126354	353.2	15.0	-70.1	0.0
2025-01-21 09:31:01.249898	353.1	15.1	-71.3	0.0
2025-01-21 09:31:02.370672	352.9	15.2	-68.9	0.0
2025-01-21 09:31:03.496392	352.8	15.2	-69.0	0.0
2025-01-21 09:31:04.622691	352.6	15.3	-64.4	0.0
2025-01-21 09:31:05.746196	352.4	15.4	-64.8	0.0
2025-01-21 09:31:06.867732	352.2	15.5	-69.8	0.0
2025-01-21 09:31:07.989349	352.1	15.6	-68.8	0.0
2025-01-21 09:31:09.113543	351.9	15.7	-69.4	0.0
2025-01-21 09:31:10.236148	351.7	15.7	-68.4	0.0
2025-01-21 09:31:11.357637	351.6	15.8	-70.0	0.0
2025-01-21 09:31:12.482756	351.4	15.9	-66.3	0.0
2025-01-21 09:31:13.609350	351.2	16.0	-68.1	0.0
2025-01-21 09:31:14.732287	351.0	16.1	-70.3	0.0
2025-01-21 09:31:15.857088	350.9	16.2	-69.7	0.0
2025-01-21 09:31:16.979692	350.7	16.3	-66.5	0.0
2025-01-21 09:31:18.101750	350.5	16.3	-68.4	0.0
2025-01-21 09:31:19.225428	350.3	16.4	-69.1	0.0
2025-01-21 09:31:20.351013	350.1	16.5	-71.3	0.0
2025-01-21 09:31:21.474712	350.0	16.6	-71.0	0.0
2025-01-21 09:31:22.596970	349.8	16.7	-70.9	0.0
2025-01-21 09:31:23.721152	349.6	16.8	-72.3	0.0
2025-01-21 09:31:24.843195	349.4	16.8	-69.5	0.0
2025-01-21 09:31:25.965224	349.2	16.9	-73.2	0.0
2025-01-21 09:31:27.086606	349.0	17.0	-74.1	0.0
2025-01-21 09:31:28.211619	348.8	17.1	-72.0	0.0
2025-01-21 09:31:29.336828	348.7	17.2	-73.4	0.0
2025-01-21 09:31:30.461766	348.5	17.3	-70.3	0.0
2025-01-21 09:31:31.585893	348.3	17.4	-72.3	0.0
2025-01-21 09:31:32.708750	348.1	17.4	-72.1	0.0
2025-01-21 09:31:33.831693	347.9	17.5	-73.7	0.0
2025-01-21 09:31:34.955670	347.7	17.6	-74.1	0.0
2025-01-21 09:31:36.080465	347.5	17.7	-73.1	0.0
2025-01-21 09:31:37.202360	347.3	17.8	-74.4	0.0
2025-01-21 09:31:38.323992	347.1	17.9	-73.4	0.0
2025-01-21 09:31:39.447453	346.9	17.9	-75.5	0.0
2025-01-21 09:31:40.569722	346.7	18.0	-73.1	0.0
2025-01-21 09:31:41.692587	346.5	18.1	-72.8	0.0
2025-01-21 09:31:42.817286	346.3	18.2	-73.1	0.0
2025-01-21 09:31:43.940184	346.1	18.3	-75.2	0.0
2025-01-21 09:31:45.061717	345.9	18.4	-74.9	0.0
2025-01-21 09:31:46.183940	345.7	18.5	-75.8	0.0
2025-01-21 09:31:47.307191	345.5	18.5	-75.7	0.0
2025-01-21 09:31:48.430270	345.3	18.6	-73.2	0.0
2025-01-21 09:31:49.553373	345.1	18.7	-76.7	0.0
2025-01-21 09:31:50.676544	344.8	18.8	-77.1	0.0
2025-01-21 09:31:51.797964	344.6	18.9	-75.8	0.0
2025-01-21 09:31:52.922592	344.4	18.9	-77.3	0.0
2025-01-21 09:31:54.046032	344.2	19.0	-75.8	0.0
2025-01-21 09:31:55.170351	344.0	19.1	-77.3	0.0
2025-01-21 09:31:56.293895	343.8	19.2	-75.0	0.0
2025-01-21 09:31:57.416353	343.6	19.3	-75.7	0.0
2025-01-21 09:31:58.538425	343.3	19.4	-75.1	0.0
2025-01-21 09:31:59.660788	343.1	19.4	-76.2	0.0
2025-01-21 09:32:00.784127	342.9	19.5	-73.3	0.0
2025-01-21 09:32:01.908121	342.7	19.6	-75.6	0.0
2025-01-21 09:32:03.030596	342.4	19.7	-74.0	0.0
2025-01-21 09:32:04.154856	342.2	19.8	-72.1	0.0
2025-01-21 09:32:05.278039	342.0	19.9	-70.3	0.0
2025-01-21 09:32:06.403291	341.8	19.9	-69.4	0.0
2025-01-21 09:32:07.528333	341.5	20.0	-75.9	0.0
2025-01-21 09:32:08.652373	341.3	20.1	-76.4	0.0
2025-01-21 09:32:09.774578	341.1	20.2	-77.1	0.0
2025-01-21 09:32:10.897432	340.8	20.3	-76.3	0.0
2025-01-21 09:32:12.022497	340.6	20.3	-75.6	0.0
2025-01-21 09:32:13.145636	340.4	20.4	-77.1	0.0
2025-01-21 09:32:14.267756	340.1	20.5	-75.5	0.0
2025-01-21 09:32:15.392638	339.9	20.6	-75.5	0.0
2025-01-21 09:32:16.519219	339.7	20.6	-74.5	0.0
2025-01-21 09:32:17.643253	339.4	20.7	-75.9	0.0
2025-01-21 09:32:18.764766	339.2	20.8	-77.2	0.0
2025-01-21 09:32:19.890062	338.9	20.9	-74.1	0.0
2025-01-21 09:32:21.013931	338.7	21.0	-75.5	0.0
2025-01-21 09:32:22.140474	338.5	21.0	-75.5	0.0
2025-01-21 09:32:23.266262	338.2	21.1	-76.2	0.0
2025-01-21 09:32:24.391589	338.0	21.2	-75.0	0.0
2025-01-21 09:32:25.514711	337.7	21.3	-76.4	0.0
2025-01-21 09:32:26.637295	337.5	21.3	-76.6	0.0
2025-01-21 09:32:27.761747	337.2	21.4	-76.9	0.0
2025-01-21 09:32:28.885968	337.0	21.5	-74.8	0.0
2025-01-21 09:32:30.008866	336.7	21.6	-75.8	0.0
2025-01-21 09:32:31.131046	336.5	21.6	-76.2	0.0
2025-01-21 09:32:32.253938	336.2	21.7	-75.9	0.0
2025-01-21 09:32:33.377505	335.9	21.8	-75.6	0.0
2025-01-21 09:32:34.501162	335.7	21.9	-73.7	0.0
2025-01-21 09:32:35.624926	335.4	21.9	-75.2	0.0
2025-01-21 09:32:36.748292	335.2	22.0	-75.1	0.0
2025-01-21 09:32:37.872837	334.9	22.1	-76.0	0.0
2025-01-21 09:32:38.995269	334.6	22.1	-76.2	0.0
2025-01-21 09:32:40.117693	334.4	22.2	-75.8	0.0
2025-01-21 09:32:41.242676	334.1	22.3	-74.4	0.0
2025-01-21 09:32:42.365612	333.8	22.4	-73.9	0.0
2025-01-21 09:32:43.490609	333.6	22.4	-76.4	0.0
2025-01-21 09:32:44.613126	333.3	22.5	-76.0	0.0
2025-01-21 09:32:45.736319	333.0	22.6	-75.7	0.0
2025-01-21 09:32:46.856602	332.8	22.6	-72.2	0.0
2025-01-21 09:32:47.981176	332.5	22.7	-77.1	0.0
2025-01-21 09:32:49.104552	332.2	22.8	-76.6	0.0
2025-01-21 09:32:50.226702	332.0	22.8	-76.5	0.0
2025-01-21 09:32:51.348123	331.7	22.9	-77.3	0.0
2025-01-21 09:32:52.469741	331.4	23.0	-77.5	0.0
2025-01-21 09:32:53.591158	331.1	23.0	-77.3	0.0
2025-01-21 09:32:54.715654	330.8	23.1	-77.4	0.0
2025-01-21 09:32:55.839346	330.6	23.2	-75.5	0.0
2025-01-21 09:32:56.963784	330.3	23.2	-77.4	0.0
2025-01-21 09:32:58.089264	330.0	23.3	-77.1	0.0
2025-01-21 09:32:59.213441	329.7	23.3	-77.3	0.0
2025-01-21 09:33:00.336543	329.4	23.4	-77.7	0.0
2025-01-21 09:33:01.458939	329.1	23.5	-78.1	0.0
2025-01-21 09:33:02.581749	328.9	23.5	-77.0	0.0
2025-01-21 09:33:03.705624	328.6	23.6	-78.1	0.0
2025-01-21 09:33:04.830383	328.3	23.6	-76.9	0.0
2025-01-21 09:33:05.953586	328.0	23.7	-78.0	0.0
2025-01-21 09:33:07.075854	327.7	23.8	-77.3	0.0
2025-01-21 09:33:08.199221	327.4	23.8	-78.7	0.0
2025-01-21 09:33:09.323475	327.1	23.9	-77.9	0.0
2025-01-21 09:33:10.446183	326.8	23.9	-77.9	0.0
2025-01-21 09:33:11.565961	326.5	24.0	-77.8	0.0
2025-01-21 09:33:12.689443	326.2	24.0	-76.9	0.0
2025-01-21 09:33:13.815332	325.9	24.1	-78.2	0.0
2025-01-21 09:33:14.937253	325.6	24.1	-77.2	0.0
2025-01-21 09:33:16.061556	325.3	24.2	-76.5	0.0
2025-01-21 09:33:17.185516	325.0	24.2	-74.9	0.0
2025-01-21 09:33:18.307636	324.7	24.3	-78.7	0.0
2025-01-21 09:33:19.430710	324.4	24.3	-75.4	0.0
2025-01-21 09:33:20.553569	324.1	24.4	-78.8	0.0
2025-01-21 09:33:21.675352	323.8	24.4	-75.3	0.0
2025-01-21 09:33:22.798202	323.5	24.5	-78.9	0.0
2025-01-21 09:33:23.920599	323.2	24.5	-75.9	0.0
2025-01-21 09:33:25.046585	322.9	24.6	-78.3	0.0
2025-01-21 09:33:26.170239	322.6	24.6	-79.4	0.0
2025-01-21 09:33:27.292327	322.3	24.7	-80.3	0.0
2025-01-21 09:33:28.415086	322.0	24.7	-79.7	0.0
2025-01-21 09:33:29.537659	321.7	24.7	-79.1	0.0
2025-01-21 09:33:30.662885	321.3	24.8	-79.2	0.0
2025-01-21 09:33:31.786818	321.0	24.8	-78.8	0.0
2025-01-21 09:33:32.910104	320.7	24.9	-79.8	0.0
2025-01-21 09:33:34.033643	320.4	24.9	-80.0	0.0
2025-01-21 09:33:35.160088	320.1	24.9	-78.3	0.0
2025-01-21 09:33:36.284922	319.8	25.0	-78.9	0.0
2025-01-21 09:33:37.408328	319.5	25.0	-77.8	0.0
2025-01-21 09:33:38.530517	319.1	25.0	-71.7	0.0
2025-01-21 09:33:39.653979	318.8	25.1	-71.7	0.0
2025-01-21 09:33:40.778184	318.5	25.1	-74.1	0.0
2025-01-21 09:33:41.901029	318.2	25.1	-78.5	0.0
2025-01-21 09:33:43.024020	317.9	25.2	-75.3	0.0
2025-01-21 09:33:44.147281	317.6	25.2	-78.1	0.0
2025-01-21 09:33:45.272707	317.2	25.2	-77.3	0.0
2025-01-21 09:33:46.395344	316.9	25.3	-78.4	0.0
2025-01-21 09:33:47.518182	316.6	25.3	-78.4	0.0
2025-01-21 09:33:48.640342	316.3	25.3	-75.8	0.0
2025-01-21 09:33:49.764701	315.9	25.3	-78.3	0.0
2025-01-21 09:33:50.886892	315.6	25.4	-77.7	0.0
2025-01-21 09:33:52.011877	315.3	25.4	-79.3	0.0
2025-01-21 09:33:53.135682	315.0	25.4	-78.8	0.0
2025-01-21 09:33:54.259995	314.6	25.4	-74.6	0.0
2025-01-21 09:33:55.383482	314.3	25.4	-79.5	0.0
2025-01-21 09:33:56.506145	314.0	25.5	-76.3	0.0
2025-01-21 09:33:57.630532	313.7	25.5	-79.1	0.0
2025-01-21 09:33:58.754689	313.3	25.5	-74.9	0.0
2025-01-21 09:33:59.876814	313.0	25.5	-78.4	0.0
2025-01-21 09:34:01.001617	312.7	25.5	-78.3	0.0
2025-01-21 09:34:02.122154	312.4	25.5	-78.2	0.0
2025-01-21 09:34:03.247345	312.0	25.6	-78.0	0.0
2025-01-21 09:34:04.369842	311.7	25.6	-78.0	0.0
2025-01-21 09:34:05.492877	311.4	25.6	-78.2	0.0
2025-01-21 09:34:06.614801	311.1	25.6	-77.7	0.0
2025-01-21 09:34:07.738169	310.7	25.6	-75.6	0.0
2025-01-21 09:34:08.862905	310.4	25.6	-76.4	0.0
2025-01-21 09:34:09.986803	310.1	25.6	-77.5	0.0
2025-01-21 09:34:11.108490	309.7	25.6	-78.4	0.0
2025-01-21 09:34:12.230749	309.4	25.6	-77.8	0.0
2025-01-21 09:34:13.354188	309.1	25.6	-76.6	0.0
2025-01-21 09:34:14.480142	308.8	25.6	-77.0	0.0
2025-01-21 09:34:15.603343	308.4	25.6	-77.6	0.0
2025-01-21 09:34:16.728243	308.1	25.6	-76.1	0.0
2025-01-21 09:34:17.851671	307.8	25.6	-77.7	0.0
2025-01-21 09:34:18.975683	307.4	25.6	-78.0	0.0
2025-01-21 09:34:20.101738	307.1	25.6	-75.0	0.0
2025-01-21 09:34:21.226701	306.8	25.6	-76.4	0.0
2025-01-21 09:34:22.352982	306.4	25.6	-75.1	0.0
2025-01-21 09:34:23.475915	306.1	25.6	-78.7	0.0
2025-01-21 09:34:24.598274	305.8	25.6	-77.1	0.0
2025-01-21 09:34:25.721463	305.5	25.6	-78.6	0.0
2025-01-21 09:34:26.846346	305.1	25.6	-78.4	0.0
2025-01-21 09:34:27.968739	304.8	25.6	-79.0	0.0
2025-01-21 09:34:29.094820	304.5	25.6	-78.6	0.0
2025-01-21 09:34:30.217681	304.1	25.6	-77.8	0.0
2025-01-21 09:34:31.342316	303.8	25.5	-79.0	0.0
2025-01-21 09:34:32.466678	303.5	25.5	-78.5	0.0
2025-01-21 09:34:33.589720	303.2	25.5	-76.4	0.0
2025-01-21 09:34:34.711322	302.8	25.5	-77.9	0.0
2025-01-21 09:34:35.837198	302.5	25.5	-78.7	0.0
2025-01-21 09:34:36.960292	302.2	25.5	-78.9	0.0
2025-01-21 09:34:38.083354	301.9	25.4	-78.2	0.0
2025-01-21 09:34:39.206903	301.5	25.4	-79.5	0.0
2025-01-21 09:34:40.328708	301.2	25.4	-80.2	0.0
2025-01-21 09:34:41.452884	300.9	25.4	-79.6	0.0
2025-01-21 09:34:42.576727	300.6	25.4	-79.0	0.0
2025-01-21 09:34:43.702381	300.2	25.3	-79.7	0.0
2025-01-21 09:34:44.825621	299.9	25.3	-79.3	0.0
2025-01-21 09:34:45.949828	299.6	25.3	-79.5	0.0
2025-01-21 09:34:47.072022	299.3	25.3	-79.0	0.0
2025-01-21 09:34:48.195514	299.0	25.2	-78.9	0.0
2025-01-21 09:34:49.320056	298.6	25.2	-80.6	0.0
2025-01-21 09:34:50.442561	298.3	25.2	-80.8	0.0
2025-01-21 09:34:51.566015	298.0	25.1	-80.6	0.0
2025-01-21 09:34:52.689928	297.7	25.1	-79.8	0.0
2025-01-21 09:34:53.813011	297.4	25.1	-80.4	0.0
2025-01-21 09:34:54.936413	297.0	25.0	-80.8	0.0
2025-01-21 09:34:56.059684	296.7	25.0	-80.8	0.0
2025-01-21 09:34:57.183163	296.4	25.0	-80.9	0.0
2025-01-21 09:34:58.306879	296.1	24.9	-80.0	0.0
2025-01-21 09:34:59.430428	295.8	24.9	-80.4	0.0
2025-01-21 09:35:00.552242	295.5	24.9	-81.2	0.0
2025-01-21 09:35:01.675630	295.1	24.8	-80.5	0.0
2025-01-21 09:35:02.798436	294.8	24.8	-80.4	0.0
2025-01-21 09:35:03.921808	294.5	24.8	-79.9	0.0
2025-01-21 09:35:05.046808	294.2	24.7	-79.8	0.0
2025-01-21 09:35:06.167876	293.9	24.7	-80.2	0.0
2025-01-21 09:35:07.289809	293.6	24.6	-79.9	0.0
2025-01-21 09:35:08.412256	293.3	24.6	-80.2	0.0
2025-01-21 09:35:09.536144	293.0	24.5	-79.3	0.0
2025-01-21 09:35:10.658077	292.7	24.5	-80.1	0.0
2025-01-21 09:35:11.782521	292.4	24.4	-80.1	0.0
2025-01-21 09:35:12.902583	292.1	24.4	-80.0	0.0
2025-01-21 09:35:14.026881	291.8	24.3	-80.4	0.0
2025-01-21 09:35:15.149333	291.5	24.3	-80.5	0.0
2025-01-21 09:35:16.272459	291.2	24.3	-80.1	0.0
2025-01-21 09:35:17.395987	290.9	24.2	-80.3	0.0
2025-01-21 09:35:18.517087	290.6	24.1	-78.6	0.0
2025-01-21 09:35:19.639784	290.3	24.1	-80.4	0.0
2025-01-21 09:35:20.762872	290.0	24.0	-80.5	0.0
2025-01-21 09:35:21.887259	289.7	24.0	-80.6	0.0
2025-01-21 09:35:23.012297	289.4	23.9	-80.4	0.0
2025-01-21 09:35:24.133147	289.1	23.9	-80.7	0.0
2025-01-21 09:35:25.256963	288.8	23.8	-80.5	0.0
2025-01-21 09:35:26.379661	288.5	23.8	-80.6	0.0
2025-01-21 09:35:27.502892	288.2	23.7	-80.6	0.0
2025-01-21 09:35:28.625624	287.9	23.7	-79.8	0.0
2025-01-21 09:35:29.748860	287.6	23.6	-80.5	0.0
2025-01-21 09:35:30.871762	287.3	23.5	-80.0	0.0
2025-01-21 09:35:31.994931	287.0	23.5	-80.0	0.0
2025-01-21 09:35:33.117031	286.7	23.4	-80.2	0.0
2025-01-21 09:35:34.241560	286.5	23.4	-80.1	0.0
2025-01-21 09:35:35.364796	286.2	23.3	-80.2	0.0
2025-01-21 09:35:36.489694	285.9	23.2	-80.6	0.0
2025-01-21 09:35:37.614468	285.6	23.2	-79.5	0.0
2025-01-21 09:35:38.737803	285.3	23.1	-80.2	0.0
2025-01-21 09:35:39.861725	285.1	23.0	-79.9	0.0
2025-01-21 09:35:40.985285	284.8	23.0	-80.2	0.0
2025-01-21 09:35:42.109214	284.5	22.9	-80.1	0.0
2025-01-21 09:35:43.232400	284.2	22.9	-80.0	0.0
2025-01-21 09:35:44.356623	283.9	22.8	-80.0	0.0
2025-01-21 09:35:45.478157	283.7	22.7	-79.2	0.0
2025-01-21 09:35:46.602581	283.4	22.7	-79.9	0.0
2025-01-21 09:35:47.723699	283.1	22.6	-80.2	0.0
2025-01-21 09:35:48.846723	282.9	22.5	-79.9	0.0
2025-01-21 09:35:49.967970	282.6	22.4	-79.7	0.0
2025-01-21 09:35:51.093544	282.3	22.4	-80.0	0.0
2025-01-21 09:35:52.216643	282.1	22.3	-79.4	0.0
2025-01-21 09:35:53.342265	281.8	22.2	-80.2	0.0
2025-01-21 09:35:54.466728	281.5	22.2	-80.0	0.0
2025-01-21 09:35:55.588470	281.3	22.1	-79.3	0.0
2025-01-21 09:35:56.711362	281.0	22.0	-78.8	0.0
2025-01-21 09:35:57.831743	280.7	22.0	-80.1	0.0
2025-01-21 09:35:58.957522	280.5	21.9	-79.8	0.0
2025-01-21 09:36:00.082680	280.2	21.8	-79.4	0.0
2025-01-21 09:36:01.207209	280.0	21.7	-78.5	0.0
2025-01-21 09:36:02.330682	279.7	21.7	-79.5	0.0
2025-01-21 09:36:03.454417	279.4	21.6	-79.1	0.0
2025-01-21 09:36:04.577929	279.2	21.5	-78.8	0.0
2025-01-21 09:36:05.700163	278.9	21.4	-79.7	0.0
2025-01-21 09:36:06.824468	278.7	21.4	-78.8	0.0
2025-01-21 09:36:07.947730	278.4	21.3	-80.3	0.0
2025-01-21 09:36:09.067835	278.2	21.2	-78.9	0.0
2025-01-21 09:36:10.193270	277.9	21.1	-78.6	0.0
2025-01-21 09:36:11.316324	277.7	21.1	-80.2	0.0
2025-01-21 09:36:12.440248	277.5	21.0	-79.9	0.0
2025-01-21 09:36:13.564738	277.2	20.9	-80.6	0.0
2025-01-21 09:36:14.690085	277.0	20.8	-80.6	0.0
2025-01-21 09:36:15.813211	276.7	20.8	-80.6	0.0
2025-01-21 09:36:16.935706	276.5	20.7	-80.0	0.0
2025-01-21 09:36:18.058829	276.2	20.6	-80.3	0.0
2025-01-21 09:36:19.182586	276.0	20.5	-80.2	0.0
2025-01-21 09:36:20.305765	275.8	20.4	-79.9	0.0
2025-01-21 09:36:21.426627	275.5	20.4	-80.5	0.0
2025-01-21 09:36:22.550630	275.3	20.3	-80.5	0.0
2025-01-21 09:36:23.675075	275.1	20.2	-80.8	0.0
2025-01-21 09:36:24.801049	274.8	20.1	-80.5	0.0
2025-01-21 09:36:25.924916	274.6	20.0	-80.6	0.0
2025-01-21 09:36:27.048598	274.4	20.0	-80.5	0.0
2025-01-21 09:36:28.173547	274.2	19.9	-79.9	0.0
2025-01-21 09:36:29.295160	273.9	19.8	-79.8	0.0
2025-01-21 09:36:30.419439	273.7	19.7	-79.7	0.0
2025-01-21 09:36:31.542752	273.5	19.6	-80.7	0.0
2025-01-21 09:36:32.666695	273.3	19.6	-80.8	0.0
2025-01-21 09:36:33.790480	273.0	19.5	-80.4	0.0
2025-01-21 09:36:34.915168	272.8	19.4	-80.8	0.0
2025-01-21 09:36:36.037894	272.6	19.3	-80.5	0.0
2025-01-21 09:36:37.160364	272.4	19.2	-80.4	0.0
2025-01-21 09:36:38.283080	272.2	19.1	-80.1	0.0
2025-01-21 09:36:39.404837	271.9	19.1	-80.7	0.0
2025-01-21 09:36:40.528056	271.7	19.0	-80.7	0.0
2025-01-21 09:36:41.649310	271.5	18.9	-80.8	0.0
2025-01-21 09:36:42.772365	271.3	18.8	-80.9	0.0
2025-01-21 09:36:43.896526	271.1	18.7	-80.8	0.0
2025-01-21 09:36:45.020527	270.9	18.6	-80.4	0.0
2025-01-21 09:36:46.142673	270.7	18.6	-80.8	0.0
2025-01-21 09:36:47.265984	270.5	18.5	-80.7	0.0
2025-01-21 09:36:48.390675	270.3	18.4	-80.8	0.0
2025-01-21 09:36:49.513993	270.0	18.3	-80.0	0.0
2025-01-21 09:36:50.636789	269.8	18.2	-80.4	0.0
2025-01-21 09:36:51.761994	269.6	18.1	-80.0	0.0
2025-01-21 09:36:52.882468	269.4	18.1	-79.9	0.0
2025-01-21 09:36:54.005505	269.2	18.0	-80.5	0.0
2025-01-21 09:36:55.130486	269.0	17.9	-80.0	0.0
2025-01-21 09:36:56.255685	268.8	17.8	-79.6	0.0
2025-01-21 09:36:57.377622	268.6	17.7	-80.2	0.0
2025-01-21 09:36:58.501406	268.4	17.6	-79.9	0.0
2025-01-21 09:36:59.626663	268.2	17.6	-80.0	0.0
2025-01-21 09:37:00.748149	268.1	17.5	-80.0	0.0
2025-01-21 09:37:01.868646	267.9	17.4	-79.8	0.0
2025-01-21 09:37:02.993856	267.7	17.3	-80.0	0.0
2025-01-21 09:37:04.119860	267.5	17.2	-79.7	0.0
2025-01-21 09:37:05.242948	267.3	17.1	-79.7	0.0
2025-01-21 09:37:06.365389	267.1	17.1	-79.6	0.0
2025-01-21 09:37:07.490775	266.9	17.0	-79.5	0.0
2025-01-21 09:37:08.615549	266.7	16.9	-79.1	0.0
2025-01-21 09:37:09.737552	266.5	16.8	-79.7	0.0
2025-01-21 09:37:10.862621	266.3	16.7	-79.5	0.0
2025-01-21 09:37:11.985579	266.2	16.6	-79.7	0.0
2025-01-21 09:37:13.107568	266.0	16.5	-79.4	0.0
2025-01-21 09:37:14.230237	265.8	16.5	-79.7	0.0
2025-01-21 09:37:15.352525	265.6	16.4	-79.5	0.0
2025-01-21 09:37:16.475928	265.4	16.3	-80.1	0.0
2025-01-21 09:37:17.598445	265.3	16.2	-79.9	0.0
2025-01-21 09:37:18.720706	265.1	16.1	-80.0	0.0
2025-01-21 09:37:19.845673	264.9	16.0	-80.1	0.0
2025-01-21 09:37:20.970094	264.7	15.9	-79.9	0.0
2025-01-21 09:37:22.093984	264.6	15.9	-80.0	0.0
2025-01-21 09:37:23.219788	264.4	15.8	-80.1	0.0
2025-01-21 09:37:24.344084	264.2	15.7	-80.4	0.0
2025-01-21 09:37:25.467724	264.0	15.6	-80.2	0.0
2025-01-21 09:37:26.592200	263.9	15.5	-80.2	0.0
2025-01-21 09:37:27.715404	263.7	15.4	-80.2	0.0
2025-01-21 09:37:28.839608	263.5	15.4	-80.0	0.0
2025-01-21 09:37:29.963790	263.4	15.3	-80.1	0.0
2025-01-21 09:37:31.088890	263.2	15.2	-80.3	0.0
2025-01-21 09:37:32.213666	263.0	15.1	-80.3	0.0
2025-01-21 09:37:33.335077	262.9	15.0	-80.4	0.0
2025-01-21 09:37:34.458672	262.7	14.9	-80.1	0.0
2025-01-21 09:37:35.581590	262.5	14.8	-80.1	0.0
2025-01-21 09:37:36.704602	262.4	14.8	-80.1	0.0
2025-01-21 09:37:37.827626	262.2	14.7	-80.2	0.0
2025-01-21 09:37:38.952683	262.1	14.6	-80.3	0.0
2025-01-21 09:37:40.076692	261.9	14.5	-80.2	0.0
2025-01-21 09:37:41.200259	261.7	14.4	-80.1	0.0
2025-01-21 09:37:42.323204	261.6	14.3	-80.1	0.0
2025-01-21 09:37:43.446668	261.4	14.3	-80.2	0.0
2025-01-21 09:37:44.567952	261.3	14.2	-80.3	0.0
2025-01-21 09:37:45.691543	261.1	14.1	-80.2	0.0
2025-01-21 09:37:46.815224	261.0	14.0	-80.3	0.0
2025-01-21 09:37:47.938339	260.8	13.9	-80.3	0.0
2025-01-21 09:37:49.061877	260.6	13.8	-79.8	0.0
2025-01-21 09:37:50.185674	260.5	13.8	-80.7	0.0
2025-01-21 09:37:51.307842	260.3	13.7	-80.6	0.0
2025-01-21 09:37:52.430787	260.2	13.6	-80.8	0.0
2025-01-21 09:37:53.555288	260.0	13.5	-79.9	0.0
2025-01-21 09:37:54.680504	259.9	13.4	-79.9	0.0
2025-01-21 09:37:55.803739	259.8	13.3	-80.1	0.0
2025-01-21 09:37:56.927801	259.6	13.3	-79.9	0.0
2025-01-21 09:37:58.051589	259.5	13.2	-80.3	0.0
2025-01-21 09:37:59.174261	259.3	13.1	-80.5	0.0
2025-01-21 09:38:00.296160	259.2	13.0	-80.2	0.0
2025-01-21 09:38:01.418768	259.0	12.9	-80.5	0.0
2025-01-21 09:38:02.544091	258.9	12.8	-80.4	0.0
2025-01-21 09:38:03.666728	258.7	12.8	-80.7	0.0
2025-01-21 09:38:04.790270	258.6	12.7	-80.6	0.0
2025-01-21 09:38:05.912513	258.5	12.6	-80.4	0.0
2025-01-21 09:38:07.035221	258.3	12.5	-80.6	0.0
2025-01-21 09:38:08.157030	258.2	12.4	-80.4	0.0
2025-01-21 09:38:09.279784	258.0	12.4	-80.6	0.0
2025-01-21 09:38:10.401036	257.9	12.3	-80.6	0.0
2025-01-21 09:38:11.525501	257.8	12.2	-80.3	0.0
2025-01-21 09:38:12.647663	257.6	12.1	-80.6	0.0
2025-01-21 09:38:13.768978	257.5	12.0	-80.5	0.0
2025-01-21 09:38:14.891540	257.4	11.9	-80.5	0.0
2025-01-21 09:38:16.015517	257.2	11.9	-80.5	0.0
2025-01-21 09:38:17.139671	257.1	11.8	-80.6	0.0
2025-01-21 09:38:18.264740	257.0	11.7	-80.7	0.0
2025-01-21 09:38:19.388475	256.8	11.6	-80.5	0.0
2025-01-21 09:38:20.510316	256.7	11.5	-80.4	0.0
2025-01-21 09:38:21.633572	256.6	11.5	-80.4	0.0
2025-01-21 09:38:22.756495	256.5	11.4	-80.5	0.0
2025-01-21 09:38:23.881197	256.3	11.3	-80.4	0.0
2025-01-21 09:38:25.002718	256.2	11.2	-80.0	0.0
2025-01-21 09:38:26.128531	256.1	11.1	-80.2	0.0
2025-01-21 09:38:27.252303	255.9	11.1	-79.9	0.0
2025-01-21 09:38:28.375677	255.8	11.0	-80.2	0.0
2025-01-21 09:38:29.499624	255.7	10.9	-79.6	0.0
2025-01-21 09:38:30.624128	255.6	10.8	-79.9	0.0
2025-01-21 09:38:31.747782	255.5	10.7	-80.3	0.0
2025-01-21 09:38:32.869233	255.3	10.7	-80.2	0.0
2025-01-21 09:38:33.993254	255.2	10.6	-80.5	0.0
2025-01-21 09:38:35.115840	255.1	10.5	-81.3	0.0
2025-01-21 09:38:36.240714	255.0	10.4	-81.8	0.0
2025-01-21 09:38:37.364096	254.8	10.3	-81.5	0.0
2025-01-21 09:38:38.487018	254.7	10.3	-81.9	0.0
2025-01-21 09:38:39.610751	254.6	10.2	-82.4	0.0
2025-01-21 09:38:40.732826	254.5	10.1	-82.4	0.0
2025-01-21 09:38:41.858411	254.4	10.0	-82.3	0.0
#Closed at: 2025-01-21 09:29:46.678128