passes_logs/2025/01/21/planumMaritime01/planumMaritime01__20250121_121010_METEOR-M2_4_rec.log

#Pass ID: 20250121_121010_METEOR-M2 4
#Satellite: METEOR-M2 4
#Configuration: METEOR-M2 4
#Start time: 2025-01-21 12:10:15.793764

#LorettStation: 1.0.0 05.05.2024
#Station: planumMaritime01
#Location: 37.49445 lon 55.92918 lat
#TLE: 1 59051U 24039A   25020.16329171  .00000140  00000+0  82464-4 0  9999
#TLE: 2 59051  98.6302 343.0648 0006415 208.0987 151.9846 14.22326811 46338

#Time	Az	El	Level	SNR
2025-01-21 12:10:17.960313	188.0	10.2	-76.0	0.0
2025-01-21 12:10:19.083792	188.1	10.3	-76.9	0.0
2025-01-21 12:10:20.208276	188.2	10.4	-77.1	0.0
2025-01-21 12:10:21.332739	188.3	10.5	-77.3	0.0
2025-01-21 12:10:22.456534	188.3	10.6	-77.3	0.0
2025-01-21 12:10:23.581508	188.4	10.7	-77.1	0.0
2025-01-21 12:10:24.704996	188.5	10.7	-77.1	0.0
2025-01-21 12:10:25.829411	188.5	10.8	-77.3	0.0
2025-01-21 12:10:26.951356	188.6	10.9	-77.0	0.0
2025-01-21 12:10:28.074647	188.7	11.0	-77.3	0.0
2025-01-21 12:10:29.198218	188.8	11.1	-77.3	0.0
2025-01-21 12:10:30.320527	188.8	11.2	-77.3	0.0
2025-01-21 12:10:31.443500	188.9	11.3	-77.1	0.0
2025-01-21 12:10:32.565565	189.0	11.4	-77.0	0.0
2025-01-21 12:10:33.688317	189.0	11.5	-77.0	0.0
2025-01-21 12:10:34.810653	189.1	11.6	-77.1	0.0
2025-01-21 12:10:35.933026	189.2	11.7	-77.1	0.0
2025-01-21 12:10:37.058027	189.3	11.8	-77.0	0.0
2025-01-21 12:10:38.181954	189.3	11.9	-77.3	0.0
2025-01-21 12:10:39.305103	189.4	12.0	-77.1	0.0
2025-01-21 12:10:40.430299	189.5	12.1	-77.3	0.0
2025-01-21 12:10:41.553119	189.6	12.2	-77.2	0.0
2025-01-21 12:10:42.675704	189.7	12.3	-77.5	0.0
2025-01-21 12:10:43.799776	189.7	12.4	-77.1	0.0
2025-01-21 12:10:44.923808	189.8	12.5	-77.7	0.0
2025-01-21 12:10:46.047703	189.9	12.6	-77.8	0.0
2025-01-21 12:10:47.170567	190.0	12.7	-77.5	0.0
2025-01-21 12:10:48.293128	190.1	12.8	-77.7	0.0
2025-01-21 12:10:49.414714	190.1	12.9	-77.2	0.0
2025-01-21 12:10:50.538968	190.2	13.0	-77.8	0.0
2025-01-21 12:10:51.663144	190.3	13.1	-78.2	0.0
2025-01-21 12:10:52.786491	190.4	13.2	-77.8	0.0
2025-01-21 12:10:53.909768	190.5	13.3	-77.0	0.0
2025-01-21 12:10:55.033164	190.6	13.5	-76.8	0.0
2025-01-21 12:10:56.157590	190.6	13.6	-76.9	0.0
2025-01-21 12:10:57.279976	190.7	13.7	-78.0	0.0
2025-01-21 12:10:58.405070	190.8	13.8	-77.8	0.0
2025-01-21 12:10:59.528718	190.9	13.9	-77.7	0.0
2025-01-21 12:11:00.653619	191.0	14.0	-77.8	0.0
2025-01-21 12:11:01.776868	191.1	14.1	-77.1	0.0
2025-01-21 12:11:02.899398	191.2	14.2	-77.6	0.0
2025-01-21 12:11:04.023359	191.3	14.3	-78.0	0.0
2025-01-21 12:11:05.144254	191.3	14.4	-77.9	0.0
2025-01-21 12:11:06.267988	191.4	14.5	-77.8	0.0
2025-01-21 12:11:07.390573	191.5	14.6	-78.1	0.0
2025-01-21 12:11:08.514033	191.6	14.7	-77.9	0.0
2025-01-21 12:11:09.636247	191.7	14.9	-78.1	0.0
2025-01-21 12:11:10.758558	191.8	15.0	-77.6	0.0
2025-01-21 12:11:11.881732	191.9	15.1	-77.9	0.0
2025-01-21 12:11:13.006915	192.0	15.2	-77.8	0.0
2025-01-21 12:11:14.130897	192.1	15.3	-77.7	0.0
2025-01-21 12:11:15.254835	192.2	15.4	-77.7	0.0
2025-01-21 12:11:16.376646	192.3	15.5	-77.5	0.0
2025-01-21 12:11:17.500723	192.4	15.6	-77.1	0.0
2025-01-21 12:11:18.624294	192.5	15.8	-77.4	0.0
2025-01-21 12:11:19.748864	192.6	15.9	-77.4	0.0
2025-01-21 12:11:20.874543	192.7	16.0	-76.9	0.0
2025-01-21 12:11:21.996270	192.8	16.1	-77.9	0.0
2025-01-21 12:11:23.119195	192.9	16.2	-78.0	0.0
2025-01-21 12:11:24.241382	193.0	16.3	-77.7	0.0
2025-01-21 12:11:25.365136	193.1	16.5	-78.0	0.0
2025-01-21 12:11:26.487552	193.2	16.6	-77.9	0.0
2025-01-21 12:11:27.612185	193.3	16.7	-78.1	0.0
2025-01-21 12:11:28.733899	193.4	16.8	-77.6	0.0
2025-01-21 12:11:29.855550	193.5	16.9	-77.0	0.0
2025-01-21 12:11:30.976778	193.6	17.0	-77.4	0.0
2025-01-21 12:11:32.101844	193.7	17.2	-77.3	0.0
2025-01-21 12:11:33.225040	193.8	17.3	-78.3	0.0
2025-01-21 12:11:34.348597	193.9	17.4	-77.9	0.0
2025-01-21 12:11:35.473747	194.0	17.5	-78.1	0.0
2025-01-21 12:11:36.595153	194.1	17.6	-77.6	0.0
2025-01-21 12:11:37.717948	194.3	17.8	-77.4	0.0
2025-01-21 12:11:38.842168	194.4	17.9	-76.1	0.0
2025-01-21 12:11:39.966968	194.5	18.0	-77.0	0.0
2025-01-21 12:11:41.089832	194.6	18.1	-77.7	0.0
2025-01-21 12:11:42.211816	194.7	18.3	-78.1	0.0
2025-01-21 12:11:43.337190	194.8	18.4	-77.9	0.0
2025-01-21 12:11:44.461901	194.9	18.5	-78.0	0.0
2025-01-21 12:11:45.585452	195.1	18.6	-77.9	0.0
2025-01-21 12:11:46.709251	195.2	18.8	-78.1	0.0
2025-01-21 12:11:47.830775	195.3	18.9	-77.3	0.0
2025-01-21 12:11:48.954121	195.4	19.0	-78.0	0.0
2025-01-21 12:11:50.078088	195.5	19.2	-77.8	0.0
2025-01-21 12:11:51.200173	195.7	19.3	-77.3	0.0
2025-01-21 12:11:52.325109	195.8	19.4	-77.6	0.0
2025-01-21 12:11:53.450042	195.9	19.5	-77.9	0.0
2025-01-21 12:11:54.573901	196.0	19.7	-77.6	0.0
2025-01-21 12:11:55.699112	196.2	19.8	-77.7	0.0
2025-01-21 12:11:56.821508	196.3	19.9	-78.0	0.0
2025-01-21 12:11:57.944366	196.4	20.1	-77.9	0.0
2025-01-21 12:11:59.067781	196.5	20.2	-78.3	0.0
2025-01-21 12:12:00.191315	196.7	20.3	-78.2	0.0
2025-01-21 12:12:01.315793	196.8	20.5	-78.2	0.0
2025-01-21 12:12:02.438389	196.9	20.6	-78.1	0.0
2025-01-21 12:12:03.561165	197.1	20.7	-78.2	0.0
2025-01-21 12:12:04.683023	197.2	20.9	-78.2	0.0
2025-01-21 12:12:05.804619	197.3	21.0	-78.2	0.0
2025-01-21 12:12:06.927211	197.5	21.1	-78.5	0.0
2025-01-21 12:12:08.049982	197.6	21.3	-78.2	0.0
2025-01-21 12:12:09.176031	197.8	21.4	-78.3	0.0
2025-01-21 12:12:10.299827	197.9	21.6	-78.4	0.0
2025-01-21 12:12:11.422968	198.0	21.7	-78.4	0.0
2025-01-21 12:12:12.545900	198.2	21.8	-78.1	0.0
2025-01-21 12:12:13.669705	198.3	22.0	-78.2	0.0
2025-01-21 12:12:14.792219	198.5	22.1	-78.2	0.0
2025-01-21 12:12:15.913912	198.6	22.3	-78.5	0.0
2025-01-21 12:12:17.038910	198.8	22.4	-79.0	0.0
2025-01-21 12:12:18.161354	198.9	22.5	-78.5	0.0
2025-01-21 12:12:19.286027	199.1	22.7	-78.3	0.0
2025-01-21 12:12:20.410660	199.2	22.8	-78.4	0.0
2025-01-21 12:12:21.533211	199.4	23.0	-78.8	0.0
2025-01-21 12:12:22.656865	199.5	23.1	-78.7	0.0
2025-01-21 12:12:23.782346	199.7	23.3	-78.7	0.0
2025-01-21 12:12:24.907424	199.9	23.4	-78.8	0.0
2025-01-21 12:12:26.029034	200.0	23.6	-78.9	0.0
2025-01-21 12:12:27.155148	200.2	23.7	-79.0	0.0
2025-01-21 12:12:28.278808	200.3	23.9	-78.7	0.0
2025-01-21 12:12:29.405276	200.5	24.0	-79.1	0.0
2025-01-21 12:12:30.528170	200.7	24.2	-78.3	0.0
2025-01-21 12:12:31.651451	200.8	24.3	-78.9	0.0
2025-01-21 12:12:32.775043	201.0	24.5	-78.9	0.0
2025-01-21 12:12:33.899267	201.2	24.6	-78.8	0.0
2025-01-21 12:12:35.022191	201.4	24.8	-79.0	0.0
2025-01-21 12:12:36.148987	201.5	24.9	-78.8	0.0
2025-01-21 12:12:37.272324	201.7	25.1	-78.7	0.0
2025-01-21 12:12:38.396180	201.9	25.2	-78.7	0.0
2025-01-21 12:12:39.518809	202.1	25.4	-78.6	0.0
2025-01-21 12:12:40.643675	202.2	25.5	-78.9	0.0
2025-01-21 12:12:41.766995	202.4	25.7	-78.9	0.0
2025-01-21 12:12:42.887754	202.6	25.8	-78.3	0.0
2025-01-21 12:12:44.011128	202.8	26.0	-78.5	0.6
2025-01-21 12:12:45.132490	203.0	26.2	-79.1	0.8
2025-01-21 12:12:46.255795	203.2	26.3	-78.9	0.0
2025-01-21 12:12:47.379268	203.4	26.5	-79.3	0.0
2025-01-21 12:12:48.501869	203.6	26.6	-78.8	0.0
2025-01-21 12:12:49.625900	203.8	26.8	-79.1	0.0
2025-01-21 12:12:50.748435	204.0	26.9	-78.8	0.8
2025-01-21 12:12:51.870795	204.2	27.1	-78.8	0.0
2025-01-21 12:12:52.995500	204.4	27.3	-79.4	0.0
2025-01-21 12:12:54.118667	204.6	27.4	-79.3	0.0
2025-01-21 12:12:55.241209	204.8	27.6	-79.5	0.0
2025-01-21 12:12:56.366534	205.0	27.8	-78.7	0.0
2025-01-21 12:12:57.487803	205.2	27.9	-79.5	0.0
2025-01-21 12:12:58.612950	205.4	28.1	-78.6	0.0
2025-01-21 12:12:59.733783	205.6	28.3	-78.9	0.0
2025-01-21 12:13:00.858738	205.8	28.4	-78.9	0.0
2025-01-21 12:13:01.982458	206.0	28.6	-79.1	0.2
2025-01-21 12:13:03.111498	206.3	28.8	-79.1	1.2
2025-01-21 12:13:04.232393	206.5	28.9	-78.9	0.0
2025-01-21 12:13:05.353982	206.7	29.1	-78.7	0.9
2025-01-21 12:13:06.477264	206.9	29.3	-78.8	1.3
2025-01-21 12:13:07.601677	207.2	29.4	-79.1	2.4
2025-01-21 12:13:08.721436	207.4	29.6	-78.9	1.4
2025-01-21 12:13:09.845281	207.6	29.8	-79.2	1.4
2025-01-21 12:13:10.968146	207.9	29.9	-79.1	0.0
2025-01-21 12:13:12.091383	208.1	30.1	-78.9	0.0
2025-01-21 12:13:13.213821	208.3	30.3	-79.2	0.6
2025-01-21 12:13:14.337068	208.6	30.4	-79.3	1.0
2025-01-21 12:13:15.463130	208.8	30.6	-79.0	0.0
2025-01-21 12:13:16.588966	209.1	30.8	-79.2	0.0
2025-01-21 12:13:17.712547	209.3	31.0	-79.3	0.4
2025-01-21 12:13:18.835707	209.6	31.1	-79.2	0.1
2025-01-21 12:13:19.959086	209.8	31.3	-78.9	0.0
2025-01-21 12:13:21.082804	210.1	31.5	-79.3	0.0
2025-01-21 12:13:22.206300	210.4	31.7	-79.1	0.4
2025-01-21 12:13:23.326904	210.6	31.8	-79.4	0.6
2025-01-21 12:13:24.450057	210.9	32.0	-79.3	1.1
2025-01-21 12:13:25.573176	211.2	32.2	-79.4	1.2
2025-01-21 12:13:26.697181	211.5	32.4	-79.3	1.9
2025-01-21 12:13:27.821352	211.7	32.5	-79.1	1.5
2025-01-21 12:13:28.945843	212.0	32.7	-79.3	0.0
2025-01-21 12:13:30.069882	212.3	32.9	-79.0	2.0
2025-01-21 12:13:31.189936	212.6	33.1	-79.2	2.7
2025-01-21 12:13:32.314899	212.9	33.3	-79.2	1.0
2025-01-21 12:13:33.438573	213.2	33.4	-79.5	0.0
2025-01-21 12:13:34.562068	213.5	33.6	-79.3	1.9
2025-01-21 12:13:35.684999	213.8	33.8	-79.2	1.9
2025-01-21 12:13:36.808007	214.1	34.0	-79.3	1.8
2025-01-21 12:13:37.930019	214.4	34.1	-78.5	0.0
2025-01-21 12:13:39.054476	214.7	34.3	-79.4	0.0
2025-01-21 12:13:40.178413	215.0	34.5	-79.5	0.0
2025-01-21 12:13:41.300986	215.3	34.7	-79.2	0.6
2025-01-21 12:13:42.422866	215.6	34.9	-78.9	0.9
2025-01-21 12:13:43.546635	215.9	35.0	-79.0	1.3
2025-01-21 12:13:44.669339	216.3	35.2	-79.2	0.4
2025-01-21 12:13:45.792014	216.6	35.4	-78.0	0.0
2025-01-21 12:13:46.916206	216.9	35.6	-78.5	2.0
2025-01-21 12:13:48.041262	217.3	35.8	-79.2	2.8
2025-01-21 12:13:49.160841	217.6	35.9	-79.3	3.2
2025-01-21 12:13:50.284039	217.9	36.1	-78.8	2.3
2025-01-21 12:13:51.406064	218.3	36.3	-79.1	3.5
2025-01-21 12:13:52.530692	218.6	36.5	-78.9	2.4
2025-01-21 12:13:53.657116	219.0	36.7	-78.7	0.4
2025-01-21 12:13:54.783052	219.4	36.8	-78.8	2.2
2025-01-21 12:13:55.905560	219.7	37.0	-78.9	2.6
2025-01-21 12:13:57.026929	220.1	37.2	-79.1	3.0
2025-01-21 12:13:58.148426	220.5	37.4	-79.1	1.3
2025-01-21 12:13:59.271736	220.8	37.5	-79.4	1.4
2025-01-21 12:14:00.393672	221.2	37.7	-78.9	1.0
2025-01-21 12:14:01.518128	221.6	37.9	-79.2	1.3
2025-01-21 12:14:02.642163	222.0	38.1	-79.4	0.5
2025-01-21 12:14:03.763044	222.4	38.2	-78.1	0.0
2025-01-21 12:14:04.886900	222.8	38.4	-79.3	0.2
2025-01-21 12:14:06.009417	223.2	38.6	-79.4	1.4
2025-01-21 12:14:07.133337	223.6	38.8	-79.0	0.0
2025-01-21 12:14:08.255861	224.0	38.9	-79.6	2.4
2025-01-21 12:14:09.381807	224.4	39.1	-78.7	1.1
2025-01-21 12:14:10.506369	224.8	39.3	-79.3	2.8
2025-01-21 12:14:11.628673	225.2	39.4	-79.3	3.5
2025-01-21 12:14:12.753159	225.7	39.6	-79.3	3.4
2025-01-21 12:14:13.873922	226.1	39.8	-78.9	3.8
2025-01-21 12:14:14.995799	226.5	40.0	-79.4	4.2
2025-01-21 12:14:16.120836	227.0	40.1	-79.1	3.9
2025-01-21 12:14:17.244654	227.4	40.3	-79.5	4.5
2025-01-21 12:14:18.367003	227.8	40.4	-79.1	3.8
2025-01-21 12:14:19.490959	228.3	40.6	-79.7	3.3
2025-01-21 12:14:20.614557	228.7	40.8	-79.7	3.4
2025-01-21 12:14:21.739260	229.2	40.9	-79.6	2.6
2025-01-21 12:14:22.861878	229.7	41.1	-80.0	2.9
2025-01-21 12:14:23.986778	230.1	41.3	-79.9	2.4
2025-01-21 12:14:25.109045	230.6	41.4	-80.0	3.1
2025-01-21 12:14:26.230967	231.1	41.6	-80.3	2.2
2025-01-21 12:14:27.354177	231.6	41.7	-80.1	2.8
2025-01-21 12:14:28.477883	232.1	41.9	-80.0	1.2
2025-01-21 12:14:29.599989	232.6	42.0	-79.9	1.8
2025-01-21 12:14:30.722705	233.1	42.2	-80.0	2.4
2025-01-21 12:14:31.845756	233.6	42.3	-79.7	1.4
2025-01-21 12:14:32.969570	234.1	42.5	-79.7	1.2
2025-01-21 12:14:34.092257	234.6	42.6	-79.9	1.6
2025-01-21 12:14:35.214635	235.1	42.7	-79.7	2.8
2025-01-21 12:14:36.336025	235.6	42.9	-79.8	1.9
2025-01-21 12:14:37.459067	236.1	43.0	-80.2	3.3
2025-01-21 12:14:38.582691	236.7	43.1	-79.4	0.0
2025-01-21 12:14:39.706700	237.2	43.3	-79.9	2.6
2025-01-21 12:14:40.829808	237.7	43.4	-79.9	2.8
2025-01-21 12:14:41.953835	238.3	43.5	-79.2	2.1
2025-01-21 12:14:43.076192	238.8	43.7	-79.8	2.9
2025-01-21 12:14:44.199611	239.4	43.8	-79.8	4.2
2025-01-21 12:14:45.322194	239.9	43.9	-79.8	3.0
2025-01-21 12:14:46.443643	240.5	44.0	-79.8	1.6
2025-01-21 12:14:47.567468	241.0	44.1	-79.7	4.2
2025-01-21 12:14:48.691344	241.6	44.2	-79.4	3.0
2025-01-21 12:14:49.814232	242.2	44.4	-79.8	3.5
2025-01-21 12:14:50.934982	242.7	44.5	-79.6	3.2
2025-01-21 12:14:52.060915	243.3	44.6	-79.9	3.4
2025-01-21 12:14:53.184914	243.9	44.7	-80.0	2.8
2025-01-21 12:14:54.310954	244.5	44.8	-79.9	1.9
2025-01-21 12:14:55.433928	245.1	44.9	-79.9	2.9
2025-01-21 12:14:56.557163	245.7	45.0	-79.8	2.4
2025-01-21 12:14:57.680225	246.3	45.0	-79.7	2.0
2025-01-21 12:14:58.803741	246.9	45.1	-80.0	0.0
2025-01-21 12:14:59.926092	247.5	45.2	-80.0	1.1
2025-01-21 12:15:01.048987	248.1	45.3	-80.2	0.0
2025-01-21 12:15:02.173123	248.7	45.4	-80.3	0.0
2025-01-21 12:15:03.296144	249.3	45.4	-80.2	0.0
2025-01-21 12:15:04.417965	249.9	45.5	-80.0	0.0
2025-01-21 12:15:05.541046	250.5	45.6	-80.2	0.7
2025-01-21 12:15:06.662686	251.1	45.6	-80.1	1.1
2025-01-21 12:15:07.786770	251.7	45.7	-80.2	1.4
2025-01-21 12:15:08.910996	252.4	45.7	-80.2	1.4
2025-01-21 12:15:10.031602	253.0	45.8	-80.2	0.1
2025-01-21 12:15:11.155354	253.6	45.8	-80.3	0.5
2025-01-21 12:15:12.277791	254.2	45.9	-79.2	0.0
2025-01-21 12:15:13.401256	254.9	45.9	-79.8	0.0
2025-01-21 12:15:14.524033	255.5	46.0	-80.0	1.8
2025-01-21 12:15:15.647709	256.1	46.0	-79.9	2.1
2025-01-21 12:15:16.770074	256.8	46.0	-80.0	1.2
2025-01-21 12:15:17.891460	257.4	46.1	-79.9	2.0
2025-01-21 12:15:19.013289	258.0	46.1	-80.2	2.1
2025-01-21 12:15:20.137236	258.7	46.1	-80.1	2.2
2025-01-21 12:15:21.259367	259.3	46.1	-80.3	1.5
2025-01-21 12:15:22.379953	259.9	46.1	-80.0	0.4
2025-01-21 12:15:23.502354	260.6	46.1	-80.4	0.0
2025-01-21 12:15:24.624115	261.2	46.1	-80.3	0.3
2025-01-21 12:15:25.746156	261.8	46.1	-80.7	0.7
2025-01-21 12:15:26.869953	262.5	46.1	-80.1	0.0
2025-01-21 12:15:27.992992	263.1	46.1	-80.2	0.0
2025-01-21 12:15:29.114117	263.7	46.1	-80.5	0.3
2025-01-21 12:15:30.238125	264.4	46.1	-80.2	0.0
2025-01-21 12:15:31.358539	265.0	46.1	-80.4	0.0
2025-01-21 12:15:32.481930	265.7	46.0	-80.4	0.0
2025-01-21 12:15:33.603226	266.3	46.0	-80.6	0.0
2025-01-21 12:15:34.726199	266.9	46.0	-80.0	0.0
2025-01-21 12:15:35.848110	267.5	45.9	-80.7	0.0
2025-01-21 12:15:36.970251	268.2	45.9	-80.4	0.3
2025-01-21 12:15:38.092303	268.8	45.9	-80.6	0.0
2025-01-21 12:15:39.214025	269.4	45.8	-80.3	0.5
2025-01-21 12:15:40.337460	270.1	45.8	-80.6	0.0
2025-01-21 12:15:41.461015	270.7	45.7	-79.8	0.0
2025-01-21 12:15:42.585472	271.3	45.7	-80.1	0.0
2025-01-21 12:15:43.708384	271.9	45.6	-80.4	0.0
2025-01-21 12:15:44.831368	272.5	45.5	-80.4	0.0
2025-01-21 12:15:45.954652	273.1	45.5	-79.7	0.0
2025-01-21 12:15:47.077895	273.8	45.4	-80.2	0.0
2025-01-21 12:15:48.201252	274.4	45.3	-78.4	0.0
2025-01-21 12:15:49.324063	275.0	45.3	-80.3	0.0
2025-01-21 12:15:50.447648	275.6	45.2	-80.3	0.0
2025-01-21 12:15:51.570019	276.2	45.1	-80.4	0.0
2025-01-21 12:15:52.695439	276.8	45.0	-80.0	0.0
2025-01-21 12:15:53.817739	277.4	44.9	-80.5	0.0
2025-01-21 12:15:54.940240	277.9	44.8	-80.1	0.0
2025-01-21 12:15:56.060807	278.5	44.7	-80.2	0.0
2025-01-21 12:15:57.184323	279.1	44.6	-80.2	0.0
2025-01-21 12:15:58.306656	279.7	44.5	-80.0	0.0
2025-01-21 12:15:59.430900	280.3	44.4	-79.9	0.0
2025-01-21 12:16:00.554413	280.8	44.3	-79.6	0.0
2025-01-21 12:16:01.676008	281.4	44.2	-79.6	0.0
2025-01-21 12:16:02.800844	282.0	44.1	-79.4	0.0
2025-01-21 12:16:03.921696	282.5	44.0	-79.2	0.0
2025-01-21 12:16:05.044758	283.1	43.8	-79.8	0.0
2025-01-21 12:16:06.167958	283.6	43.7	-78.2	0.0
2025-01-21 12:16:07.289028	284.2	43.6	-79.4	0.0
2025-01-21 12:16:08.413180	284.7	43.5	-79.7	0.0
2025-01-21 12:16:09.536945	285.2	43.4	-79.5	0.0
2025-01-21 12:16:10.660194	285.8	43.2	-79.9	0.0
2025-01-21 12:16:11.784937	286.3	43.1	-79.9	0.0
2025-01-21 12:16:12.907462	286.8	43.0	-79.3	0.0
2025-01-21 12:16:14.029699	287.4	42.8	-79.9	0.0
2025-01-21 12:16:15.150830	287.9	42.7	-79.6	0.0
2025-01-21 12:16:16.274662	288.4	42.5	-79.2	0.0
2025-01-21 12:16:17.397017	288.9	42.4	-79.8	0.0
2025-01-21 12:16:18.519575	289.4	42.3	-79.5	0.0
2025-01-21 12:16:19.640493	289.9	42.1	-80.0	0.0
2025-01-21 12:16:20.763170	290.4	42.0	-79.1	0.0
2025-01-21 12:16:21.886396	290.9	41.8	-78.8	0.0
2025-01-21 12:16:23.009928	291.4	41.7	-78.2	0.0
2025-01-21 12:16:24.132184	291.8	41.5	-78.0	0.0
2025-01-21 12:16:25.256476	292.3	41.3	-79.0	0.0
2025-01-21 12:16:26.381420	292.8	41.2	-79.0	0.0
2025-01-21 12:16:27.504088	293.2	41.0	-79.3	0.0
2025-01-21 12:16:28.626361	293.7	40.9	-78.8	0.0
2025-01-21 12:16:29.747458	294.2	40.7	-79.2	0.0
2025-01-21 12:16:30.869871	294.6	40.6	-79.1	0.0
2025-01-21 12:16:31.992868	295.1	40.4	-79.0	0.0
2025-01-21 12:16:33.116365	295.5	40.2	-79.0	0.0
2025-01-21 12:16:34.239666	295.9	40.1	-79.2	0.0
2025-01-21 12:16:35.362961	296.4	39.9	-79.6	0.0
2025-01-21 12:16:36.488244	296.8	39.7	-78.8	0.0
2025-01-21 12:16:37.611673	297.2	39.6	-78.9	0.0
2025-01-21 12:16:38.733449	297.7	39.4	-79.1	0.0
2025-01-21 12:16:39.855803	298.1	39.2	-78.5	0.0
2025-01-21 12:16:40.978963	298.5	39.1	-78.3	0.0
2025-01-21 12:16:42.102546	298.9	38.9	-77.5	0.0
2025-01-21 12:16:43.224322	299.3	38.7	-78.3	0.0
2025-01-21 12:16:44.349870	299.7	38.5	-78.8	0.0
2025-01-21 12:16:45.472917	300.1	38.4	-79.0	0.0
2025-01-21 12:16:46.597191	300.5	38.2	-79.2	0.0
2025-01-21 12:16:47.720907	300.9	38.0	-78.7	0.0
2025-01-21 12:16:48.844080	301.3	37.8	-78.7	0.0
2025-01-21 12:16:49.968038	301.7	37.7	-78.3	0.0
2025-01-21 12:16:51.090355	302.0	37.5	-78.5	0.0
2025-01-21 12:16:52.214085	302.4	37.3	-78.0	0.0
2025-01-21 12:16:53.336528	302.8	37.1	-78.2	0.0
2025-01-21 12:16:54.458609	303.1	37.0	-78.3	0.0
2025-01-21 12:16:55.581062	303.5	36.8	-78.4	0.0
2025-01-21 12:16:56.703342	303.8	36.6	-78.5	0.0
2025-01-21 12:16:57.825503	304.2	36.4	-78.1	0.0
2025-01-21 12:16:58.950868	304.5	36.2	-77.7	0.0
2025-01-21 12:17:00.071976	304.9	36.1	-78.5	0.0
2025-01-21 12:17:01.195081	305.2	35.9	-79.6	0.0
2025-01-21 12:17:02.318219	305.6	35.7	-78.6	0.0
2025-01-21 12:17:03.442596	305.9	35.5	-77.2	0.0
2025-01-21 12:17:04.564913	306.2	35.4	-78.8	0.0
2025-01-21 12:17:05.688557	306.6	35.2	-78.2	0.0
2025-01-21 12:17:06.810156	306.9	35.0	-78.0	0.0
2025-01-21 12:17:07.931389	307.2	34.8	-76.9	0.0
2025-01-21 12:17:09.056128	307.5	34.6	-75.3	0.0
2025-01-21 12:17:10.179232	307.8	34.5	-75.1	0.0
2025-01-21 12:17:11.302670	308.1	34.3	-78.1	0.0
2025-01-21 12:17:12.424942	308.5	34.1	-78.1	0.0
2025-01-21 12:17:13.550987	308.8	33.9	-74.2	0.0
2025-01-21 12:17:14.675483	309.1	33.8	-74.4	0.0
2025-01-21 12:17:15.799348	309.4	33.6	-78.0	0.0
2025-01-21 12:17:16.922166	309.6	33.4	-74.9	0.0
2025-01-21 12:17:18.046831	309.9	33.2	-76.7	0.0
2025-01-21 12:17:19.173766	310.2	33.0	-76.8	0.0
2025-01-21 12:17:20.298219	310.5	32.9	-73.9	0.0
2025-01-21 12:17:21.423106	310.8	32.7	-75.8	0.0
2025-01-21 12:17:22.544998	311.1	32.5	-77.5	0.0
2025-01-21 12:17:23.667431	311.3	32.3	-77.7	0.0
2025-01-21 12:17:24.790141	311.6	32.2	-76.3	0.0
2025-01-21 12:17:25.915099	311.9	32.0	-76.3	0.0
2025-01-21 12:17:27.038510	312.2	31.8	-75.6	0.0
2025-01-21 12:17:28.162476	312.4	31.6	-76.4	0.0
2025-01-21 12:17:29.285521	312.7	31.5	-75.7	0.0
2025-01-21 12:17:30.407172	312.9	31.3	-75.1	0.0
2025-01-21 12:17:31.528790	313.2	31.1	-75.3	0.0
2025-01-21 12:17:32.650751	313.4	30.9	-75.4	0.0
2025-01-21 12:17:33.776755	313.7	30.8	-74.8	0.0
2025-01-21 12:17:34.900276	313.9	30.6	-75.4	0.0
2025-01-21 12:17:36.024640	314.2	30.4	-76.7	0.0
2025-01-21 12:17:37.146970	314.4	30.3	-74.4	0.0
2025-01-21 12:17:38.271687	314.7	30.1	-75.0	0.0
2025-01-21 12:17:39.397104	314.9	29.9	-75.3	0.0
2025-01-21 12:17:40.519294	315.1	29.8	-74.2	0.0
2025-01-21 12:17:41.642699	315.4	29.6	-75.6	0.0
2025-01-21 12:17:42.765761	315.6	29.4	-75.0	0.0
2025-01-21 12:17:43.890084	315.8	29.2	-75.5	0.0
2025-01-21 12:17:45.011667	316.1	29.1	-72.2	0.0
2025-01-21 12:17:46.135317	316.3	28.9	-73.7	0.0
2025-01-21 12:17:47.258277	316.5	28.7	-74.0	0.0
2025-01-21 12:17:48.382148	316.7	28.6	-72.8	0.0
2025-01-21 12:17:49.505875	316.9	28.4	-73.6	0.0
2025-01-21 12:17:50.628071	317.2	28.3	-73.2	0.0
2025-01-21 12:17:51.753065	317.4	28.1	-73.5	0.0
2025-01-21 12:17:52.875540	317.6	27.9	-74.6	0.0
2025-01-21 12:17:53.999124	317.8	27.8	-74.8	0.0
2025-01-21 12:17:55.122593	318.0	27.6	-75.6	0.0
2025-01-21 12:17:56.245201	318.2	27.4	-74.9	0.0
2025-01-21 12:17:57.366795	318.4	27.3	-74.6	0.0
2025-01-21 12:17:58.488985	318.6	27.1	-73.8	0.0
2025-01-21 12:17:59.613253	318.8	27.0	-75.6	0.0
2025-01-21 12:18:00.735851	319.0	26.8	-73.9	0.0
2025-01-21 12:18:01.859271	319.2	26.6	-76.3	0.0
2025-01-21 12:18:02.981888	319.4	26.5	-72.0	0.0
2025-01-21 12:18:04.105780	319.6	26.3	-74.7	0.0
2025-01-21 12:18:05.229039	319.8	26.2	-75.0	0.0
2025-01-21 12:18:06.351033	320.0	26.0	-75.9	0.0
2025-01-21 12:18:07.474964	320.1	25.9	-75.4	0.0
2025-01-21 12:18:08.597414	320.3	25.7	-73.7	0.0
2025-01-21 12:18:09.719048	320.5	25.5	-76.1	0.0
2025-01-21 12:18:10.843451	320.7	25.4	-76.4	0.0
2025-01-21 12:18:11.967086	320.9	25.2	-74.4	0.0
2025-01-21 12:18:13.090592	321.0	25.1	-77.0	0.0
2025-01-21 12:18:14.214846	321.2	24.9	-74.4	0.0
2025-01-21 12:18:15.341681	321.4	24.8	-72.8	0.0
2025-01-21 12:18:16.464710	321.6	24.6	-76.0	0.0
2025-01-21 12:18:17.587842	321.7	24.5	-72.6	0.0
2025-01-21 12:18:18.710695	321.9	24.3	-73.8	0.0
2025-01-21 12:18:19.832536	322.1	24.2	-71.8	0.0
2025-01-21 12:18:20.956397	322.2	24.0	-74.0	0.0
2025-01-21 12:18:22.079050	322.4	23.9	-74.6	0.0
2025-01-21 12:18:23.203102	322.6	23.7	-72.6	0.0
2025-01-21 12:18:24.327173	322.7	23.6	-76.3	0.0
2025-01-21 12:18:25.449298	322.9	23.5	-74.5	0.0
2025-01-21 12:18:26.573579	323.0	23.3	-74.6	0.0
2025-01-21 12:18:27.696489	323.2	23.2	-71.4	0.0
2025-01-21 12:18:28.820646	323.3	23.0	-72.5	0.0
2025-01-21 12:18:29.943570	323.5	22.9	-77.0	0.0
2025-01-21 12:18:31.065559	323.7	22.7	-77.1	0.0
2025-01-21 12:18:32.188934	323.8	22.6	-77.9	0.0
2025-01-21 12:18:33.313655	324.0	22.4	-77.9	0.0
2025-01-21 12:18:34.436821	324.1	22.3	-78.2	0.0
2025-01-21 12:18:35.558760	324.3	22.2	-78.4	0.0
2025-01-21 12:18:36.681403	324.4	22.0	-74.5	0.0
2025-01-21 12:18:37.804913	324.5	21.9	-70.7	0.0
2025-01-21 12:18:38.925129	324.7	21.7	-75.6	0.0
2025-01-21 12:18:40.047951	324.8	21.6	-77.7	0.0
2025-01-21 12:18:41.170643	325.0	21.5	-74.2	0.0
2025-01-21 12:18:42.292956	325.1	21.3	-73.1	0.0
2025-01-21 12:18:43.416373	325.2	21.2	-74.0	0.0
2025-01-21 12:18:44.541773	325.4	21.1	-76.9	0.0
2025-01-21 12:18:45.664863	325.5	20.9	-78.0	0.0
2025-01-21 12:18:46.788117	325.7	20.8	-71.9	0.0
2025-01-21 12:18:47.912153	325.8	20.7	-72.1	0.0
2025-01-21 12:18:49.033785	325.9	20.5	-70.8	0.0
2025-01-21 12:18:50.157841	326.1	20.4	-75.6	0.0
2025-01-21 12:18:51.280067	326.2	20.3	-75.6	0.0
2025-01-21 12:18:52.403128	326.3	20.1	-76.3	0.0
2025-01-21 12:18:53.525065	326.4	20.0	-74.9	0.0
2025-01-21 12:18:54.647081	326.6	19.9	-73.0	0.0
2025-01-21 12:18:55.770233	326.7	19.7	-76.0	0.0
2025-01-21 12:18:56.893228	326.8	19.6	-76.6	0.0
2025-01-21 12:18:58.015395	327.0	19.5	-75.6	0.0
2025-01-21 12:18:59.141566	327.1	19.3	-75.2	0.0
2025-01-21 12:19:00.263244	327.2	19.2	-76.6	0.0
2025-01-21 12:19:01.385516	327.3	19.1	-75.9	0.0
2025-01-21 12:19:02.507359	327.4	19.0	-74.7	0.0
2025-01-21 12:19:03.629206	327.6	18.8	-69.2	0.0
2025-01-21 12:19:04.751966	327.7	18.7	-73.9	0.0
2025-01-21 12:19:05.877448	327.8	18.6	-75.3	0.0
2025-01-21 12:19:07.001103	327.9	18.5	-73.4	0.0
2025-01-21 12:19:08.124180	328.0	18.3	-71.8	0.0
2025-01-21 12:19:09.246286	328.1	18.2	-73.1	0.0
2025-01-21 12:19:10.368003	328.3	18.1	-68.3	0.0
2025-01-21 12:19:11.490081	328.4	18.0	-67.7	0.0
2025-01-21 12:19:12.614537	328.5	17.9	-68.1	0.0
2025-01-21 12:19:13.736649	328.6	17.7	-67.7	0.0
2025-01-21 12:19:14.857125	328.7	17.6	-72.4	0.0
2025-01-21 12:19:15.982003	328.8	17.5	-69.1	0.0
2025-01-21 12:19:17.105779	328.9	17.4	-66.6	0.0
2025-01-21 12:19:18.226824	329.0	17.2	-68.4	0.0
2025-01-21 12:19:19.350172	329.1	17.1	-67.1	0.0
2025-01-21 12:19:20.471695	329.2	17.0	-68.8	0.0
2025-01-21 12:19:21.593652	329.4	16.9	-67.6	0.0
2025-01-21 12:19:22.716795	329.5	16.8	-71.2	0.0
2025-01-21 12:19:23.842871	329.6	16.7	-72.8	0.0
2025-01-21 12:19:24.963811	329.7	16.5	-72.6	0.0
2025-01-21 12:19:26.086698	329.8	16.4	-71.5	0.0
2025-01-21 12:19:27.210636	329.9	16.3	-68.9	0.0
2025-01-21 12:19:28.335521	330.0	16.2	-71.9	0.0
2025-01-21 12:19:29.456707	330.1	16.1	-71.0	0.0
2025-01-21 12:19:30.581657	330.2	16.0	-71.6	0.0
2025-01-21 12:19:31.706098	330.3	15.8	-71.1	0.0
2025-01-21 12:19:32.827880	330.4	15.7	-70.1	0.0
2025-01-21 12:19:33.952771	330.5	15.6	-71.8	0.0
2025-01-21 12:19:35.074545	330.6	15.5	-69.8	0.0
2025-01-21 12:19:36.194388	330.7	15.4	-71.4	0.0
2025-01-21 12:19:37.316030	330.8	15.3	-73.7	0.0
2025-01-21 12:19:38.437229	330.8	15.2	-72.4	0.0
2025-01-21 12:19:39.560552	330.9	15.1	-73.2	0.0
2025-01-21 12:19:40.682021	331.0	15.0	-73.4	0.0
2025-01-21 12:19:41.804836	331.1	14.8	-73.5	0.0
2025-01-21 12:19:42.927026	331.2	14.7	-72.7	0.0
2025-01-21 12:19:44.051361	331.3	14.6	-73.6	0.0
2025-01-21 12:19:45.174199	331.4	14.5	-74.3	0.0
2025-01-21 12:19:46.295179	331.5	14.4	-71.8	0.0
2025-01-21 12:19:47.417190	331.6	14.3	-73.2	0.0
2025-01-21 12:19:48.540335	331.7	14.2	-72.0	0.0
2025-01-21 12:19:49.664950	331.8	14.1	-72.1	0.0
2025-01-21 12:19:50.787823	331.8	14.0	-72.6	0.0
2025-01-21 12:19:51.911103	331.9	13.9	-73.6	0.0
2025-01-21 12:19:53.035956	332.0	13.8	-73.3	0.0
2025-01-21 12:19:54.162086	332.1	13.7	-72.3	0.0
2025-01-21 12:19:55.283661	332.2	13.6	-70.8	0.0
2025-01-21 12:19:56.406196	332.3	13.5	-72.5	0.0
2025-01-21 12:19:57.527999	332.4	13.4	-71.1	0.0
2025-01-21 12:19:58.652197	332.4	13.2	-72.1	0.0
2025-01-21 12:19:59.775183	332.5	13.1	-71.1	0.0
2025-01-21 12:20:00.896772	332.6	13.0	-75.6	0.0
2025-01-21 12:20:02.020070	332.7	12.9	-75.7	0.0
2025-01-21 12:20:03.142636	332.8	12.8	-75.7	0.0
2025-01-21 12:20:04.266652	332.9	12.7	-75.8	0.0
2025-01-21 12:20:05.391418	332.9	12.6	-75.5	0.0
2025-01-21 12:20:06.515631	333.0	12.5	-77.4	0.0
2025-01-21 12:20:07.639882	333.1	12.4	-73.6	0.0
2025-01-21 12:20:08.762637	333.2	12.3	-73.5	0.0
2025-01-21 12:20:09.886391	333.3	12.2	-75.6	0.0
2025-01-21 12:20:11.009614	333.3	12.1	-74.3	0.0
2025-01-21 12:20:12.132436	333.4	12.0	-74.6	0.0
2025-01-21 12:20:13.257905	333.5	11.9	-73.5	0.0
2025-01-21 12:20:14.379952	333.6	11.8	-73.3	0.0
2025-01-21 12:20:15.505560	333.6	11.7	-74.6	0.0
2025-01-21 12:20:16.628775	333.7	11.6	-73.9	0.0
2025-01-21 12:20:17.751661	333.8	11.5	-73.7	0.0
2025-01-21 12:20:18.874899	333.9	11.4	-70.1	0.0
2025-01-21 12:20:19.995121	333.9	11.4	-69.7	0.0
2025-01-21 12:20:21.117376	334.0	11.3	-73.7	0.0
2025-01-21 12:20:22.239882	334.1	11.2	-75.0	0.0
2025-01-21 12:20:23.362781	334.2	11.1	-76.4	0.0
2025-01-21 12:20:24.485849	334.2	11.0	-75.1	0.0
2025-01-21 12:20:25.607994	334.3	10.9	-77.1	0.0
2025-01-21 12:20:26.728920	334.4	10.8	-76.6	0.0
2025-01-21 12:20:27.853782	334.4	10.7	-76.9	0.0
2025-01-21 12:20:28.977080	334.5	10.6	-78.9	0.0
2025-01-21 12:20:30.100321	334.6	10.5	-79.8	0.0
2025-01-21 12:20:31.225932	334.7	10.4	-80.8	0.0
2025-01-21 12:20:32.349346	334.7	10.3	-81.5	0.0
2025-01-21 12:20:33.472235	334.8	10.2	-81.3	0.0
2025-01-21 12:20:34.594391	334.9	10.1	-80.8	0.0
2025-01-21 12:20:35.716876	334.9	10.0	-81.4	0.0
#Closed at: 2025-01-21 12:10:10.796319