passes_logs/2025/01/21/planumMaritime01/planumMaritime01__20250121_180628_NOAA_18_rec.log

#Pass ID: 20250121_180628_NOAA 18
#Satellite: NOAA 18
#Configuration: NOAA 18
#Start time: 2025-01-21 18:06:33.135428

#LorettStation: 1.0.0 05.05.2024
#Station: planumMaritime01
#Location: 37.49445 lon 55.92918 lat
#TLE: 1 28654U 05018A   25021.17963601  .00000484  00000+0  28040-3 0  9994
#TLE: 2 28654  98.8557 102.1724 0014626 162.0619 198.1073 14.13492794 14053

#Time	Az	El	Level	SNR
2025-01-21 18:06:35.303875	119.3	10.2	-67.5	0.0
2025-01-21 18:06:36.427385	119.2	10.3	-68.5	0.0
2025-01-21 18:06:37.551564	119.1	10.3	-68.4	0.0
2025-01-21 18:06:38.674655	119.0	10.4	-69.8	0.0
2025-01-21 18:06:39.796344	118.9	10.5	-67.6	0.0
2025-01-21 18:06:40.920204	118.9	10.6	-69.6	0.0
2025-01-21 18:06:42.044482	118.8	10.7	-69.4	0.0
2025-01-21 18:06:43.166326	118.7	10.8	-68.0	0.0
2025-01-21 18:06:44.288768	118.6	10.9	-69.1	0.0
2025-01-21 18:06:45.412708	118.5	11.0	-69.2	0.0
2025-01-21 18:06:46.537732	118.4	11.0	-68.6	0.0
2025-01-21 18:06:47.659502	118.3	11.1	-69.9	0.0
2025-01-21 18:06:48.782195	118.2	11.2	-69.3	0.0
2025-01-21 18:06:49.907615	118.1	11.3	-67.7	0.0
2025-01-21 18:06:51.029345	118.0	11.4	-70.0	0.0
2025-01-21 18:06:52.151375	117.9	11.5	-66.3	0.0
2025-01-21 18:06:53.273902	117.8	11.6	-68.4	0.0
2025-01-21 18:06:54.397114	117.7	11.7	-69.6	0.0
2025-01-21 18:06:55.519967	117.6	11.8	-70.2	0.0
2025-01-21 18:06:56.642585	117.5	11.9	-66.8	0.0
2025-01-21 18:06:57.765860	117.4	11.9	-70.5	0.0
2025-01-21 18:06:58.890722	117.3	12.0	-70.8	0.0
2025-01-21 18:07:00.015378	117.2	12.1	-73.0	0.0
2025-01-21 18:07:01.137408	117.1	12.2	-71.0	0.0
2025-01-21 18:07:02.260293	117.0	12.3	-69.4	0.0
2025-01-21 18:07:03.383266	116.9	12.4	-70.4	0.0
2025-01-21 18:07:04.506348	116.8	12.5	-69.5	0.0
2025-01-21 18:07:05.628669	116.6	12.6	-69.1	0.0
2025-01-21 18:07:06.752774	116.5	12.7	-72.2	0.0
2025-01-21 18:07:07.876642	116.4	12.8	-71.6	0.0
2025-01-21 18:07:09.000731	116.3	12.9	-70.3	0.0
2025-01-21 18:07:10.123606	116.2	13.0	-72.1	0.0
2025-01-21 18:07:11.244588	116.1	13.1	-71.5	0.0
2025-01-21 18:07:12.368835	116.0	13.2	-71.1	0.0
2025-01-21 18:07:13.493467	115.9	13.2	-69.7	0.0
2025-01-21 18:07:14.614299	115.8	13.3	-71.8	0.0
2025-01-21 18:07:15.739520	115.7	13.4	-69.6	0.0
2025-01-21 18:07:16.864418	115.5	13.5	-72.0	0.0
2025-01-21 18:07:17.988324	115.4	13.6	-72.2	0.0
2025-01-21 18:07:19.114508	115.3	13.7	-69.1	0.0
2025-01-21 18:07:20.239308	115.2	13.8	-69.4	0.0
2025-01-21 18:07:21.363821	115.1	13.9	-68.1	0.0
2025-01-21 18:07:22.486014	115.0	14.0	-70.7	0.0
2025-01-21 18:07:23.609499	114.8	14.1	-70.9	0.0
2025-01-21 18:07:24.730157	114.7	14.2	-69.8	0.0
2025-01-21 18:07:25.851948	114.6	14.3	-70.8	0.0
2025-01-21 18:07:26.976612	114.5	14.4	-69.0	0.0
2025-01-21 18:07:28.100399	114.4	14.5	-68.5	0.0
2025-01-21 18:07:29.223472	114.2	14.6	-67.8	0.0
2025-01-21 18:07:30.347962	114.1	14.7	-67.8	0.0
2025-01-21 18:07:31.471642	114.0	14.8	-68.1	0.0
2025-01-21 18:07:32.594408	113.9	14.9	-71.0	0.0
2025-01-21 18:07:33.717259	113.7	15.0	-71.0	0.0
2025-01-21 18:07:34.838088	113.6	15.1	-70.2	0.0
2025-01-21 18:07:35.961308	113.5	15.2	-69.7	0.0
2025-01-21 18:07:37.084953	113.3	15.3	-69.8	0.0
2025-01-21 18:07:38.206542	113.2	15.4	-66.9	0.0
2025-01-21 18:07:39.327406	113.1	15.5	-70.1	0.0
2025-01-21 18:07:40.450360	113.0	15.6	-69.9	0.0
2025-01-21 18:07:41.573776	112.8	15.7	-71.1	0.0
2025-01-21 18:07:42.695414	112.7	15.8	-71.2	0.0
2025-01-21 18:07:43.820813	112.6	15.9	-72.0	0.0
2025-01-21 18:07:44.942642	112.4	16.0	-70.2	0.0
2025-01-21 18:07:46.066064	112.3	16.1	-70.5	0.0
2025-01-21 18:07:47.188600	112.1	16.2	-67.1	0.0
2025-01-21 18:07:48.311300	112.0	16.3	-71.5	0.0
2025-01-21 18:07:49.433219	111.9	16.4	-71.4	0.0
2025-01-21 18:07:50.557618	111.7	16.5	-70.3	0.0
2025-01-21 18:07:51.679681	111.6	16.6	-70.2	0.0
2025-01-21 18:07:52.803010	111.4	16.7	-71.7	0.0
2025-01-21 18:07:53.926488	111.3	16.8	-70.4	0.0
2025-01-21 18:07:55.049800	111.2	16.9	-69.9	0.0
2025-01-21 18:07:56.171623	111.0	17.0	-71.0	0.0
2025-01-21 18:07:57.294620	110.9	17.1	-69.3	0.0
2025-01-21 18:07:58.419487	110.7	17.2	-70.2	0.0
2025-01-21 18:07:59.543254	110.6	17.3	-71.2	0.0
2025-01-21 18:08:00.665182	110.4	17.4	-69.4	0.0
2025-01-21 18:08:01.789490	110.3	17.6	-71.3	0.0
2025-01-21 18:08:02.912949	110.1	17.7	-72.2	0.0
2025-01-21 18:08:04.037576	110.0	17.8	-69.5	0.0
2025-01-21 18:08:05.158808	109.8	17.9	-71.4	0.0
2025-01-21 18:08:06.281151	109.7	18.0	-70.7	0.0
2025-01-21 18:08:07.403332	109.5	18.1	-71.6	0.0
2025-01-21 18:08:08.526631	109.4	18.2	-69.8	0.0
2025-01-21 18:08:09.649027	109.2	18.3	-70.9	0.0
2025-01-21 18:08:10.772184	109.0	18.4	-69.8	0.0
2025-01-21 18:08:11.896677	108.9	18.5	-69.6	0.0
2025-01-21 18:08:13.018358	108.7	18.6	-70.4	0.0
2025-01-21 18:08:14.142668	108.6	18.7	-70.1	0.0
2025-01-21 18:08:15.265508	108.4	18.8	-69.6	0.0
2025-01-21 18:08:16.389198	108.2	18.9	-68.5	0.0
2025-01-21 18:08:17.512066	108.1	19.1	-69.7	0.0
2025-01-21 18:08:18.635717	107.9	19.2	-70.7	0.0
2025-01-21 18:08:19.758150	107.7	19.3	-69.7	0.0
2025-01-21 18:08:20.881914	107.6	19.4	-70.0	0.0
2025-01-21 18:08:22.005568	107.4	19.5	-70.2	0.0
2025-01-21 18:08:23.127376	107.2	19.6	-68.4	0.0
2025-01-21 18:08:24.251127	107.0	19.7	-70.7	0.0
2025-01-21 18:08:25.373541	106.9	19.8	-70.9	0.0
2025-01-21 18:08:26.496439	106.7	19.9	-69.6	0.0
2025-01-21 18:08:27.622295	106.5	20.0	-70.9	0.0
2025-01-21 18:08:28.747473	106.3	20.2	-69.5	0.0
2025-01-21 18:08:29.871480	106.2	20.3	-69.0	0.0
2025-01-21 18:08:30.997689	106.0	20.4	-69.4	0.0
2025-01-21 18:08:32.120544	105.8	20.5	-71.7	0.0
2025-01-21 18:08:33.244245	105.6	20.6	-71.8	0.0
2025-01-21 18:08:34.368184	105.4	20.7	-69.7	0.0
2025-01-21 18:08:35.490604	105.2	20.8	-71.3	0.0
2025-01-21 18:08:36.613413	105.1	20.9	-70.3	0.0
2025-01-21 18:08:37.735866	104.9	21.0	-71.2	0.0
2025-01-21 18:08:38.858917	104.7	21.2	-69.6	0.0
2025-01-21 18:08:39.983846	104.5	21.3	-72.0	0.0
2025-01-21 18:08:41.104372	104.3	21.4	-68.2	0.0
2025-01-21 18:08:42.225574	104.1	21.5	-70.4	0.0
2025-01-21 18:08:43.348811	103.9	21.6	-71.6	0.0
2025-01-21 18:08:44.470990	103.7	21.7	-71.1	0.0
2025-01-21 18:08:45.593831	103.5	21.8	-73.3	0.0
2025-01-21 18:08:46.718810	103.3	21.9	-72.7	0.0
2025-01-21 18:08:47.840760	103.1	22.1	-70.9	0.0
2025-01-21 18:08:48.963749	102.9	22.2	-72.7	0.0
2025-01-21 18:08:50.085445	102.7	22.3	-69.5	0.0
2025-01-21 18:08:51.206689	102.5	22.4	-70.3	0.0
2025-01-21 18:08:52.330227	102.3	22.5	-69.8	0.0
2025-01-21 18:08:53.452570	102.1	22.6	-69.5	0.0
2025-01-21 18:08:54.577482	101.9	22.7	-68.6	0.0
2025-01-21 18:08:55.703270	101.6	22.9	-69.0	0.0
2025-01-21 18:08:56.826681	101.4	23.0	-68.4	0.0
2025-01-21 18:08:57.950581	101.2	23.1	-70.4	0.0
2025-01-21 18:08:59.073357	101.0	23.2	-69.2	0.0
2025-01-21 18:09:00.196242	100.8	23.3	-71.0	0.0
2025-01-21 18:09:01.319860	100.6	23.4	-71.5	0.0
2025-01-21 18:09:02.441531	100.3	23.5	-70.6	0.0
2025-01-21 18:09:03.566756	100.1	23.7	-71.4	0.0
2025-01-21 18:09:04.691201	99.9	23.8	-68.5	0.0
2025-01-21 18:09:05.814609	99.7	23.9	-71.4	0.0
2025-01-21 18:09:06.938666	99.4	24.0	-70.6	0.0
2025-01-21 18:09:08.062545	99.2	24.1	-71.1	0.0
2025-01-21 18:09:09.186954	99.0	24.2	-71.9	0.0
2025-01-21 18:09:10.309629	98.7	24.3	-71.0	0.0
2025-01-21 18:09:11.432206	98.5	24.5	-70.8	0.0
2025-01-21 18:09:12.559253	98.3	24.6	-71.1	0.0
2025-01-21 18:09:13.683950	98.0	24.7	-70.8	0.0
2025-01-21 18:09:14.807360	97.8	24.8	-71.5	0.0
2025-01-21 18:09:15.929725	97.5	24.9	-71.7	0.0
2025-01-21 18:09:17.052488	97.3	25.0	-70.4	0.0
2025-01-21 18:09:18.177530	97.1	25.1	-69.1	0.0
2025-01-21 18:09:19.301890	96.8	25.3	-70.5	0.0
2025-01-21 18:09:20.424180	96.6	25.4	-70.5	0.0
2025-01-21 18:09:21.547784	96.3	25.5	-69.7	0.0
2025-01-21 18:09:22.669265	96.1	25.6	-68.0	0.0
2025-01-21 18:09:23.791865	95.8	25.7	-69.5	0.0
2025-01-21 18:09:24.913622	95.5	25.8	-69.5	0.0
2025-01-21 18:09:26.037421	95.3	25.9	-65.7	0.0
2025-01-21 18:09:27.159693	95.0	26.1	-70.2	0.0
2025-01-21 18:09:28.282523	94.8	26.2	-68.8	0.0
2025-01-21 18:09:29.406446	94.5	26.3	-67.8	0.0
2025-01-21 18:09:30.528369	94.2	26.4	-69.5	0.0
2025-01-21 18:09:31.649735	94.0	26.5	-69.2	0.0
2025-01-21 18:09:32.772695	93.7	26.6	-67.2	0.0
2025-01-21 18:09:33.894212	93.4	26.7	-67.1	0.0
2025-01-21 18:09:35.019252	93.2	26.8	-67.4	0.0
2025-01-21 18:09:36.142778	92.9	26.9	-66.8	0.0
2025-01-21 18:09:37.264630	92.6	27.1	-66.9	0.0
2025-01-21 18:09:38.387309	92.3	27.2	-71.6	0.0
2025-01-21 18:09:39.510851	92.0	27.3	-72.1	0.0
2025-01-21 18:09:40.633178	91.8	27.4	-71.4	0.0
2025-01-21 18:09:41.756107	91.5	27.5	-71.8	0.0
2025-01-21 18:09:42.879287	91.2	27.6	-71.7	0.0
2025-01-21 18:09:44.002690	90.9	27.7	-72.0	0.0
2025-01-21 18:09:45.125607	90.6	27.8	-70.9	0.0
2025-01-21 18:09:46.248126	90.3	27.9	-71.6	0.0
2025-01-21 18:09:47.371546	90.0	28.0	-71.2	0.0
2025-01-21 18:09:48.493603	89.7	28.1	-71.0	0.0
2025-01-21 18:09:49.615773	89.4	28.3	-71.5	0.0
2025-01-21 18:09:50.738372	89.1	28.4	-68.8	0.0
2025-01-21 18:09:51.860540	88.8	28.5	-71.0	0.0
2025-01-21 18:09:52.982771	88.5	28.6	-71.0	0.0
2025-01-21 18:09:54.106838	88.2	28.7	-72.5	0.0
2025-01-21 18:09:55.229476	87.9	28.8	-73.2	0.0
2025-01-21 18:09:56.352625	87.6	28.9	-71.7	0.0
2025-01-21 18:09:57.475898	87.3	29.0	-72.3	0.0
2025-01-21 18:09:58.599478	87.0	29.1	-70.1	0.0
2025-01-21 18:09:59.722457	86.6	29.2	-72.3	0.0
2025-01-21 18:10:00.843970	86.3	29.3	-71.2	0.0
2025-01-21 18:10:01.967787	86.0	29.4	-73.0	0.0
2025-01-21 18:10:03.088681	85.7	29.5	-73.4	0.0
2025-01-21 18:10:04.212427	85.4	29.6	-73.0	0.0
2025-01-21 18:10:05.334673	85.0	29.7	-72.6	0.0
2025-01-21 18:10:06.457595	84.7	29.8	-73.3	0.0
2025-01-21 18:10:07.584408	84.4	29.9	-72.6	0.0
2025-01-21 18:10:08.706707	84.0	30.0	-72.8	0.0
2025-01-21 18:10:09.828304	83.7	30.1	-72.3	0.0
2025-01-21 18:10:10.951949	83.4	30.2	-73.0	0.0
2025-01-21 18:10:12.075063	83.0	30.3	-72.1	0.0
2025-01-21 18:10:13.197782	82.7	30.4	-73.0	0.0
2025-01-21 18:10:14.318989	82.3	30.4	-73.0	0.0
2025-01-21 18:10:15.442651	82.0	30.5	-73.6	0.0
2025-01-21 18:10:16.567907	81.7	30.6	-74.1	0.0
2025-01-21 18:10:17.691544	81.3	30.7	-73.7	0.0
2025-01-21 18:10:18.815059	81.0	30.8	-73.7	0.0
2025-01-21 18:10:19.939745	80.6	30.9	-73.0	0.0
2025-01-21 18:10:21.063309	80.3	31.0	-73.2	0.0
2025-01-21 18:10:22.187302	79.9	31.1	-73.7	0.0
2025-01-21 18:10:23.310496	79.5	31.1	-73.1	0.0
2025-01-21 18:10:24.432686	79.2	31.2	-73.1	0.0
2025-01-21 18:10:25.555265	78.8	31.3	-73.2	0.0
2025-01-21 18:10:26.678601	78.5	31.4	-72.0	0.0
2025-01-21 18:10:27.803004	78.1	31.5	-73.5	0.0
2025-01-21 18:10:28.927417	77.7	31.6	-72.1	0.0
2025-01-21 18:10:30.048707	77.4	31.6	-71.9	0.0
2025-01-21 18:10:31.173669	77.0	31.7	-73.0	0.0
2025-01-21 18:10:32.296089	76.6	31.8	-72.1	0.0
2025-01-21 18:10:33.418530	76.2	31.9	-71.5	0.0
2025-01-21 18:10:34.544075	75.9	31.9	-70.9	0.0
2025-01-21 18:10:35.667211	75.5	32.0	-72.5	0.0
2025-01-21 18:10:36.789501	75.1	32.1	-72.7	0.0
2025-01-21 18:10:37.912391	74.7	32.1	-73.0	0.0
2025-01-21 18:10:39.035341	74.3	32.2	-72.9	0.0
2025-01-21 18:10:40.161085	74.0	32.3	-72.2	0.0
2025-01-21 18:10:41.284994	73.6	32.3	-72.9	0.0
2025-01-21 18:10:42.409103	73.2	32.4	-72.3	0.0
2025-01-21 18:10:43.532314	72.8	32.5	-72.5	0.0
2025-01-21 18:10:44.654898	72.4	32.5	-68.9	0.0
2025-01-21 18:10:45.778883	72.0	32.6	-72.6	0.0
2025-01-21 18:10:46.903643	71.6	32.7	-71.9	0.0
2025-01-21 18:10:48.027728	71.2	32.7	-71.0	0.0
2025-01-21 18:10:49.148898	70.8	32.8	-71.3	0.0
2025-01-21 18:10:50.272524	70.4	32.8	-71.0	0.0
2025-01-21 18:10:51.395736	70.0	32.9	-71.6	0.0
2025-01-21 18:10:52.518523	69.6	32.9	-70.7	0.0
2025-01-21 18:10:53.644788	69.2	33.0	-70.2	0.0
2025-01-21 18:10:54.771350	68.8	33.0	-70.8	0.0
2025-01-21 18:10:55.894971	68.4	33.1	-71.0	0.0
2025-01-21 18:10:57.017704	68.0	33.1	-70.5	0.0
2025-01-21 18:10:58.138685	67.6	33.2	-71.8	0.0
2025-01-21 18:10:59.261841	67.2	33.2	-71.3	0.0
2025-01-21 18:11:00.382406	66.8	33.2	-71.4	0.0
2025-01-21 18:11:01.504810	66.4	33.3	-71.8	0.0
2025-01-21 18:11:02.630808	66.0	33.3	-71.1	0.0
2025-01-21 18:11:03.754410	65.6	33.4	-71.3	0.0
2025-01-21 18:11:04.877941	65.2	33.4	-70.5	0.0
2025-01-21 18:11:06.001470	64.7	33.4	-70.7	0.0
2025-01-21 18:11:07.125455	64.3	33.5	-70.5	0.0
2025-01-21 18:11:08.249737	63.9	33.5	-71.1	0.0
2025-01-21 18:11:09.371496	63.5	33.5	-69.9	0.0
2025-01-21 18:11:10.494700	63.1	33.5	-68.7	0.0
2025-01-21 18:11:11.617127	62.7	33.6	-69.6	0.0
2025-01-21 18:11:12.738714	62.2	33.6	-69.6	0.0
2025-01-21 18:11:13.862521	61.8	33.6	-70.0	0.0
2025-01-21 18:11:14.984877	61.4	33.6	-70.1	0.0
2025-01-21 18:11:16.107223	61.0	33.6	-70.1	0.0
2025-01-21 18:11:17.229974	60.6	33.7	-69.0	0.0
2025-01-21 18:11:18.354308	60.2	33.7	-66.1	0.0
2025-01-21 18:11:19.475093	59.7	33.7	-68.1	0.0
2025-01-21 18:11:20.597051	59.3	33.7	-67.2	0.0
2025-01-21 18:11:21.720055	58.9	33.7	-66.5	0.0
2025-01-21 18:11:22.844610	58.5	33.7	-66.2	0.0
2025-01-21 18:11:23.968305	58.1	33.7	-66.1	0.0
2025-01-21 18:11:25.092377	57.6	33.7	-70.3	0.0
2025-01-21 18:11:26.214637	57.2	33.7	-68.0	0.0
2025-01-21 18:11:27.338396	56.8	33.7	-70.2	0.0
2025-01-21 18:11:28.463885	56.4	33.7	-70.5	0.0
2025-01-21 18:11:29.586624	56.0	33.7	-68.2	0.0
2025-01-21 18:11:30.711565	55.5	33.7	-69.2	0.0
2025-01-21 18:11:31.833754	55.1	33.7	-69.8	0.0
2025-01-21 18:11:32.956923	54.7	33.7	-70.4	0.0
2025-01-21 18:11:34.078956	54.3	33.7	-69.2	0.0
2025-01-21 18:11:35.203405	53.9	33.7	-68.0	0.0
2025-01-21 18:11:36.326541	53.4	33.6	-69.5	0.0
2025-01-21 18:11:37.450526	53.0	33.6	-69.6	0.0
2025-01-21 18:11:38.574423	52.6	33.6	-70.2	0.0
2025-01-21 18:11:39.697766	52.2	33.6	-68.9	0.0
2025-01-21 18:11:40.821415	51.8	33.6	-69.6	0.0
2025-01-21 18:11:41.943776	51.3	33.5	-69.3	0.0
2025-01-21 18:11:43.066894	50.9	33.5	-69.5	0.0
2025-01-21 18:11:44.191707	50.5	33.5	-67.4	0.0
2025-01-21 18:11:45.313605	50.1	33.5	-69.5	0.0
2025-01-21 18:11:46.438091	49.7	33.4	-69.5	0.0
2025-01-21 18:11:47.560886	49.3	33.4	-69.0	0.0
2025-01-21 18:11:48.683631	48.9	33.4	-68.9	0.0
2025-01-21 18:11:49.807898	48.5	33.3	-69.0	0.0
2025-01-21 18:11:50.930666	48.0	33.3	-69.1	0.0
2025-01-21 18:11:52.056032	47.6	33.3	-69.2	0.0
2025-01-21 18:11:53.179445	47.2	33.2	-67.5	0.0
2025-01-21 18:11:54.301218	46.8	33.2	-68.0	0.0
2025-01-21 18:11:55.424362	46.4	33.1	-66.5	0.0
2025-01-21 18:11:56.547543	46.0	33.1	-69.3	0.0
2025-01-21 18:11:57.672279	45.6	33.1	-68.5	0.0
2025-01-21 18:11:58.795618	45.2	33.0	-69.2	0.0
2025-01-21 18:11:59.917788	44.8	33.0	-69.2	0.0
2025-01-21 18:12:01.040765	44.4	32.9	-69.8	0.0
2025-01-21 18:12:02.165270	44.0	32.9	-68.8	0.0
2025-01-21 18:12:03.288804	43.6	32.8	-68.9	0.0
2025-01-21 18:12:04.411423	43.2	32.7	-68.4	0.0
2025-01-21 18:12:05.534148	42.8	32.7	-68.5	0.0
2025-01-21 18:12:06.657166	42.4	32.6	-68.0	0.0
2025-01-21 18:12:07.779792	42.0	32.6	-69.2	0.0
2025-01-21 18:12:08.903047	41.6	32.5	-68.1	0.0
2025-01-21 18:12:10.027276	41.2	32.4	-68.7	0.0
2025-01-21 18:12:11.152537	40.8	32.4	-68.1	0.0
2025-01-21 18:12:12.276489	40.5	32.3	-67.8	0.0
2025-01-21 18:12:13.400726	40.1	32.3	-67.8	0.0
2025-01-21 18:12:14.523786	39.7	32.2	-68.9	0.0
2025-01-21 18:12:15.648398	39.3	32.1	-68.3	0.0
2025-01-21 18:12:16.771527	38.9	32.0	-66.3	0.0
2025-01-21 18:12:17.894552	38.6	32.0	-67.9	0.0
2025-01-21 18:12:19.017833	38.2	31.9	-67.9	0.0
2025-01-21 18:12:20.140248	37.8	31.8	-67.6	0.0
2025-01-21 18:12:21.263173	37.4	31.8	-66.9	0.0
2025-01-21 18:12:22.386967	37.1	31.7	-67.5	0.0
2025-01-21 18:12:23.511363	36.7	31.6	-66.9	0.0
2025-01-21 18:12:24.633466	36.3	31.5	-68.3	0.0
2025-01-21 18:12:25.756868	35.9	31.4	-67.6	0.0
2025-01-21 18:12:26.881214	35.6	31.4	-68.0	0.0
2025-01-21 18:12:28.004476	35.2	31.3	-67.2	0.0
2025-01-21 18:12:29.127142	34.9	31.2	-66.0	0.0
2025-01-21 18:12:30.249819	34.5	31.1	-68.7	0.0
2025-01-21 18:12:31.371398	34.1	31.0	-65.3	0.0
2025-01-21 18:12:32.493576	33.8	30.9	-67.8	0.0
2025-01-21 18:12:33.619470	33.4	30.9	-68.3	0.0
2025-01-21 18:12:34.743290	33.1	30.8	-65.2	0.0
2025-01-21 18:12:35.866729	32.7	30.7	-68.0	0.0
2025-01-21 18:12:36.991304	32.4	30.6	-67.0	0.0
2025-01-21 18:12:38.114935	32.0	30.5	-68.9	0.0
2025-01-21 18:12:39.235372	31.7	30.4	-66.1	0.0
2025-01-21 18:12:40.361490	31.4	30.3	-66.7	0.0
2025-01-21 18:12:41.485363	31.0	30.2	-68.7	0.0
2025-01-21 18:12:42.607314	30.7	30.1	-69.0	0.0
2025-01-21 18:12:43.731247	30.3	30.0	-64.8	0.0
2025-01-21 18:12:44.852526	30.0	29.9	-64.2	0.0
2025-01-21 18:12:45.977670	29.7	29.8	-64.5	0.0
2025-01-21 18:12:47.100629	29.3	29.7	-68.6	0.0
2025-01-21 18:12:48.225957	29.0	29.6	-69.1	0.0
2025-01-21 18:12:49.349214	28.7	29.5	-68.6	0.0
2025-01-21 18:12:50.470667	28.4	29.4	-62.1	0.0
2025-01-21 18:12:51.592663	28.0	29.3	-68.3	0.0
2025-01-21 18:12:52.715000	27.7	29.2	-67.2	0.0
2025-01-21 18:12:53.838233	27.4	29.1	-69.4	0.0
2025-01-21 18:12:54.960827	27.1	29.0	-64.5	0.0
2025-01-21 18:12:56.084409	26.8	28.9	-69.3	0.0
2025-01-21 18:12:57.205993	26.5	28.8	-69.2	0.0
2025-01-21 18:12:58.327846	26.2	28.7	-68.0	0.0
2025-01-21 18:12:59.452447	25.8	28.6	-64.4	0.0
2025-01-21 18:13:00.576785	25.5	28.5	-68.6	0.0
2025-01-21 18:13:01.699677	25.2	28.4	-68.8	0.0
2025-01-21 18:13:02.822462	24.9	28.3	-63.8	0.0
2025-01-21 18:13:03.946354	24.6	28.2	-69.2	0.0
2025-01-21 18:13:05.068524	24.3	28.1	-69.1	0.0
2025-01-21 18:13:06.191601	24.0	28.0	-69.0	0.0
2025-01-21 18:13:07.321925	23.7	27.9	-62.6	0.0
2025-01-21 18:13:08.443350	23.5	27.8	-66.0	0.0
2025-01-21 18:13:09.568203	23.2	27.7	-64.0	0.0
2025-01-21 18:13:10.692081	22.9	27.6	-63.3	0.0
2025-01-21 18:13:11.814959	22.6	27.5	-66.2	0.0
2025-01-21 18:13:12.938264	22.3	27.3	-66.1	0.0
2025-01-21 18:13:14.060993	22.0	27.2	-64.9	0.0
2025-01-21 18:13:15.181998	21.7	27.1	-62.9	0.0
2025-01-21 18:13:16.307227	21.5	27.0	-67.7	0.0
2025-01-21 18:13:17.428987	21.2	26.9	-67.0	0.0
2025-01-21 18:13:18.554553	20.9	26.8	-66.9	0.0
2025-01-21 18:13:19.677200	20.6	26.7	-62.7	0.0
2025-01-21 18:13:20.800703	20.4	26.6	-65.3	0.0
2025-01-21 18:13:21.923906	20.1	26.5	-65.6	0.0
2025-01-21 18:13:23.048048	19.8	26.3	-61.4	0.0
2025-01-21 18:13:24.173416	19.6	26.2	-65.5	0.0
2025-01-21 18:13:25.296921	19.3	26.1	-66.3	0.0
2025-01-21 18:13:26.421355	19.0	26.0	-66.5	0.0
2025-01-21 18:13:27.545348	18.8	25.9	-62.1	0.0
2025-01-21 18:13:28.668493	18.5	25.8	-66.4	0.0
2025-01-21 18:13:29.790703	18.3	25.7	-66.3	0.0
2025-01-21 18:13:30.915271	18.0	25.5	-64.6	0.0
2025-01-21 18:13:32.037862	17.8	25.4	-64.1	0.0
2025-01-21 18:13:33.160311	17.5	25.3	-65.9	0.0
2025-01-21 18:13:34.283290	17.3	25.2	-65.0	0.0
2025-01-21 18:13:35.406269	17.0	25.1	-66.7	0.0
2025-01-21 18:13:36.529669	16.8	25.0	-66.2	0.0
2025-01-21 18:13:37.653574	16.5	24.9	-65.7	0.0
2025-01-21 18:13:38.777980	16.3	24.8	-64.4	0.0
2025-01-21 18:13:39.900092	16.1	24.6	-65.0	0.0
2025-01-21 18:13:41.024223	15.8	24.5	-63.1	0.0
2025-01-21 18:13:42.145090	15.6	24.4	-65.5	0.0
2025-01-21 18:13:43.267335	15.4	24.3	-63.4	0.0
2025-01-21 18:13:44.391945	15.1	24.2	-64.3	0.0
2025-01-21 18:13:45.516384	14.9	24.1	-64.6	0.0
2025-01-21 18:13:46.638409	14.7	24.0	-65.3	0.0
2025-01-21 18:13:47.762371	14.4	23.8	-62.4	0.0
2025-01-21 18:13:48.886047	14.2	23.7	-64.8	0.0
2025-01-21 18:13:50.009218	14.0	23.6	-62.5	0.0
2025-01-21 18:13:51.134219	13.8	23.5	-64.1	0.0
2025-01-21 18:13:52.258141	13.5	23.4	-63.0	0.0
2025-01-21 18:13:53.381440	13.3	23.3	-64.2	0.0
2025-01-21 18:13:54.502660	13.1	23.1	-64.4	0.0
2025-01-21 18:13:55.626607	12.9	23.0	-63.8	0.0
2025-01-21 18:13:56.750369	12.7	22.9	-64.4	0.0
2025-01-21 18:13:57.872705	12.5	22.8	-65.4	0.0
2025-01-21 18:13:58.995673	12.2	22.7	-65.3	0.0
2025-01-21 18:14:00.117962	12.0	22.6	-63.6	0.0
2025-01-21 18:14:01.240652	11.8	22.5	-65.2	0.0
2025-01-21 18:14:02.364148	11.6	22.4	-64.7	0.0
2025-01-21 18:14:03.488277	11.4	22.2	-63.6	0.0
2025-01-21 18:14:04.611120	11.2	22.1	-64.4	0.0
2025-01-21 18:14:05.733418	11.0	22.0	-64.1	0.0
2025-01-21 18:14:06.856027	10.8	21.9	-63.5	0.0
2025-01-21 18:14:07.978504	10.6	21.8	-66.0	0.0
2025-01-21 18:14:09.103626	10.4	21.7	-65.5	0.0
2025-01-21 18:14:10.228098	10.2	21.6	-64.1	0.0
2025-01-21 18:14:11.350218	10.0	21.4	-63.9	0.0
2025-01-21 18:14:12.474890	9.8	21.3	-65.9	0.0
2025-01-21 18:14:13.597354	9.6	21.2	-65.7	0.0
2025-01-21 18:14:14.719271	9.5	21.1	-66.2	0.0
2025-01-21 18:14:15.839376	9.3	21.0	-64.6	0.0
2025-01-21 18:14:16.962747	9.1	20.9	-64.2	0.0
2025-01-21 18:14:18.083502	8.9	20.8	-65.9	0.0
2025-01-21 18:14:19.207075	8.7	20.7	-65.5	0.0
2025-01-21 18:14:20.329613	8.5	20.5	-64.5	0.0
2025-01-21 18:14:21.453984	8.3	20.4	-65.1	0.0
2025-01-21 18:14:22.577287	8.2	20.3	-64.0	0.0
2025-01-21 18:14:23.699420	8.0	20.2	-64.4	0.0
2025-01-21 18:14:24.824078	7.8	20.1	-65.1	0.0
2025-01-21 18:14:25.947372	7.6	20.0	-65.3	0.0
2025-01-21 18:14:27.070409	7.4	19.9	-64.0	0.0
2025-01-21 18:14:28.195686	7.3	19.8	-65.8	0.0
2025-01-21 18:14:29.319454	7.1	19.7	-64.9	0.0
2025-01-21 18:14:30.443676	6.9	19.5	-67.0	0.0
2025-01-21 18:14:31.567491	6.8	19.4	-65.2	0.0
2025-01-21 18:14:32.690711	6.6	19.3	-63.5	0.0
2025-01-21 18:14:33.815085	6.4	19.2	-67.2	0.0
2025-01-21 18:14:34.938179	6.2	19.1	-65.5	0.0
2025-01-21 18:14:36.060681	6.1	19.0	-65.3	0.0
2025-01-21 18:14:37.184190	5.9	18.9	-65.4	0.0
2025-01-21 18:14:38.305693	5.8	18.8	-64.9	0.0
2025-01-21 18:14:39.429235	5.6	18.7	-64.2	0.0
2025-01-21 18:14:40.552899	5.4	18.6	-66.8	0.0
2025-01-21 18:14:41.675241	5.3	18.5	-66.2	0.0
2025-01-21 18:14:42.798598	5.1	18.4	-67.1	0.0
2025-01-21 18:14:43.922662	5.0	18.2	-66.8	0.0
2025-01-21 18:14:45.044238	4.8	18.1	-64.9	0.0
2025-01-21 18:14:46.169866	4.6	18.0	-66.6	0.0
2025-01-21 18:14:47.291206	4.5	17.9	-65.2	0.0
2025-01-21 18:14:48.414690	4.3	17.8	-67.0	0.0
2025-01-21 18:14:49.535696	4.2	17.7	-64.9	0.0
2025-01-21 18:14:50.657108	4.0	17.6	-63.9	0.0
2025-01-21 18:14:51.779955	3.9	17.5	-64.4	0.0
2025-01-21 18:14:52.902048	3.7	17.4	-62.9	0.0
2025-01-21 18:14:54.024886	3.6	17.3	-65.9	0.0
2025-01-21 18:14:55.148769	3.4	17.2	-64.3	0.0
2025-01-21 18:14:56.271019	3.3	17.1	-65.5	0.0
2025-01-21 18:14:57.395585	3.1	17.0	-65.0	0.0
2025-01-21 18:14:58.519973	3.0	16.9	-67.6	0.0
2025-01-21 18:14:59.643126	2.9	16.8	-68.3	0.0
2025-01-21 18:15:00.763679	2.7	16.7	-67.2	0.0
2025-01-21 18:15:01.887329	2.6	16.6	-67.7	0.0
2025-01-21 18:15:03.011497	2.4	16.5	-66.2	0.0
2025-01-21 18:15:04.133831	2.3	16.4	-67.3	0.0
2025-01-21 18:15:05.256688	2.2	16.3	-68.3	0.0
2025-01-21 18:15:06.380164	2.0	16.2	-66.7	0.0
2025-01-21 18:15:07.501950	1.9	16.0	-66.2	0.0
2025-01-21 18:15:08.625000	1.8	15.9	-65.1	0.0
2025-01-21 18:15:09.746581	1.6	15.8	-68.1	0.0
2025-01-21 18:15:10.870275	1.5	15.7	-66.8	0.0
2025-01-21 18:15:11.993475	1.4	15.6	-67.2	0.0
2025-01-21 18:15:13.116504	1.2	15.5	-67.7	0.0
2025-01-21 18:15:14.241065	1.1	15.4	-69.1	0.0
2025-01-21 18:15:15.364845	1.0	15.3	-67.1	0.0
2025-01-21 18:15:16.490332	0.8	15.2	-66.6	0.0
2025-01-21 18:15:17.614214	0.7	15.1	-67.6	0.0
2025-01-21 18:15:18.736584	0.6	15.0	-67.6	0.0
2025-01-21 18:15:19.859182	0.5	14.9	-68.1	0.0
2025-01-21 18:15:20.984288	0.3	14.8	-68.1	0.0
2025-01-21 18:15:22.107670	0.2	14.7	-68.8	0.0
2025-01-21 18:15:23.230190	0.1	14.6	-68.4	0.0
2025-01-21 18:15:24.353592	360.0	14.5	-68.1	0.0
2025-01-21 18:15:25.476593	359.8	14.4	-67.4	0.0
2025-01-21 18:15:26.600942	359.7	14.4	-67.9	0.0
2025-01-21 18:15:27.725643	359.6	14.3	-69.0	0.0
2025-01-21 18:15:28.848365	359.5	14.2	-67.2	0.0
2025-01-21 18:15:29.971117	359.4	14.1	-66.2	0.0
2025-01-21 18:15:31.096393	359.2	14.0	-67.6	0.0
2025-01-21 18:15:32.218579	359.1	13.9	-68.6	0.0
2025-01-21 18:15:33.340785	359.0	13.8	-69.5	0.0
2025-01-21 18:15:34.464490	358.9	13.7	-69.8	0.0
2025-01-21 18:15:35.588586	358.8	13.6	-70.4	0.0
2025-01-21 18:15:36.711907	358.7	13.5	-70.2	0.0
2025-01-21 18:15:37.835322	358.5	13.4	-68.8	0.0
2025-01-21 18:15:38.960500	358.4	13.3	-69.8	0.0
2025-01-21 18:15:40.084488	358.3	13.2	-69.4	0.0
2025-01-21 18:15:41.208955	358.2	13.1	-69.6	0.0
2025-01-21 18:15:42.332521	358.1	13.0	-66.8	0.0
2025-01-21 18:15:43.454707	358.0	12.9	-69.0	0.0
2025-01-21 18:15:44.577732	357.9	12.8	-67.9	0.0
2025-01-21 18:15:45.701560	357.8	12.7	-68.3	0.0
2025-01-21 18:15:46.826402	357.7	12.6	-67.5	0.0
2025-01-21 18:15:47.947887	357.6	12.5	-66.3	0.0
2025-01-21 18:15:49.070582	357.5	12.4	-68.0	0.0
2025-01-21 18:15:50.192821	357.3	12.4	-65.5	0.0
2025-01-21 18:15:51.314445	357.2	12.3	-68.0	0.0
2025-01-21 18:15:52.438295	357.1	12.2	-67.6	0.0
2025-01-21 18:15:53.560364	357.0	12.1	-68.3	0.0
2025-01-21 18:15:54.682149	356.9	12.0	-68.2	0.0
2025-01-21 18:15:55.806129	356.8	11.9	-67.6	0.0
2025-01-21 18:15:56.928387	356.7	11.8	-66.9	0.0
2025-01-21 18:15:58.050059	356.6	11.7	-67.5	0.0
2025-01-21 18:15:59.175067	356.5	11.6	-68.1	0.0
2025-01-21 18:16:00.299470	356.4	11.5	-67.3	0.0
2025-01-21 18:16:01.423304	356.3	11.4	-66.2	0.0
2025-01-21 18:16:02.543198	356.2	11.4	-67.9	0.0
2025-01-21 18:16:03.666590	356.1	11.3	-65.5	0.0
2025-01-21 18:16:04.791458	356.0	11.2	-64.3	0.0
2025-01-21 18:16:05.915274	355.9	11.1	-66.9	0.0
2025-01-21 18:16:07.038732	355.8	11.0	-67.2	0.0
2025-01-21 18:16:08.162197	355.8	10.9	-70.0	0.0
2025-01-21 18:16:09.288039	355.7	10.8	-71.3	0.0
2025-01-21 18:16:10.411459	355.6	10.7	-73.4	0.0
2025-01-21 18:16:11.534298	355.5	10.6	-74.9	0.0
2025-01-21 18:16:12.656215	355.4	10.6	-77.9	0.0
2025-01-21 18:16:13.779103	355.3	10.5	-79.0	0.0
2025-01-21 18:16:14.902010	355.2	10.4	-79.3	0.0
2025-01-21 18:16:16.024920	355.1	10.3	-80.1	0.0
2025-01-21 18:16:17.144930	355.0	10.2	-79.6	0.0
2025-01-21 18:16:18.270112	354.9	10.1	-80.1	0.0
#Closed at: 2025-01-21 18:06:28.137991