passes_logs/2025/01/21/planumMaritime01/planumMaritime01__20250121_111642_METEOR-M2_2_rec.log

#Pass ID: 20250121_111642_METEOR-M2 2
#Satellite: METEOR-M2 2
#Configuration: METEOR-M2 2
#Start time: 2025-01-21 11:16:47.281673

#LorettStation: 1.0.0 05.05.2024
#Station: planumMaritime01
#Location: 37.49445 lon 55.92918 lat
#TLE: 1 44387U 19038A   25020.12663716  .00000357  00000+0  17475-3 0  9999
#TLE: 2 44387  98.8574 356.5631 0002240  71.1584 288.9837 14.24120765288265

#Time	Az	El	Level	SNR
2025-01-21 11:16:51.979174	123.3	10.4	-72.7	0.0
2025-01-21 11:16:53.101623	123.2	10.5	-73.5	0.0
2025-01-21 11:16:54.226047	123.1	10.6	-75.4	0.0
2025-01-21 11:16:55.346630	123.0	10.7	-75.5	0.0
2025-01-21 11:16:56.469156	122.9	10.7	-75.7	0.0
2025-01-21 11:16:57.592429	122.9	10.8	-74.6	0.0
2025-01-21 11:16:58.714791	122.8	10.9	-75.7	0.0
2025-01-21 11:16:59.840284	122.7	11.0	-75.3	0.0
2025-01-21 11:17:00.963989	122.6	11.1	-76.0	0.0
2025-01-21 11:17:02.087289	122.5	11.2	-74.4	0.0
2025-01-21 11:17:03.210645	122.4	11.3	-75.5	0.0
2025-01-21 11:17:04.335255	122.3	11.4	-75.3	0.0
2025-01-21 11:17:05.459191	122.2	11.5	-75.2	0.0
2025-01-21 11:17:06.582731	122.1	11.6	-74.9	0.0
2025-01-21 11:17:07.707236	122.0	11.7	-75.0	0.0
2025-01-21 11:17:08.827977	121.9	11.8	-73.6	0.0
2025-01-21 11:17:09.950733	121.8	11.9	-75.6	0.0
2025-01-21 11:17:11.074340	121.7	12.0	-74.8	0.0
2025-01-21 11:17:12.197459	121.6	12.1	-71.9	0.0
2025-01-21 11:17:13.320237	121.5	12.2	-75.0	0.0
2025-01-21 11:17:14.444086	121.4	12.3	-75.3	0.0
2025-01-21 11:17:15.567926	121.3	12.4	-73.1	0.0
2025-01-21 11:17:16.691833	121.2	12.5	-72.5	0.0
2025-01-21 11:17:17.814122	121.1	12.5	-73.4	0.0
2025-01-21 11:17:18.939405	121.0	12.6	-74.8	0.0
2025-01-21 11:17:20.063629	120.9	12.7	-73.4	0.0
2025-01-21 11:17:21.187732	120.8	12.8	-74.6	0.0
2025-01-21 11:17:22.312075	120.7	12.9	-74.0	0.0
2025-01-21 11:17:23.436012	120.6	13.0	-74.1	0.0
2025-01-21 11:17:24.562325	120.5	13.1	-74.6	0.0
2025-01-21 11:17:25.685528	120.4	13.2	-73.9	0.0
2025-01-21 11:17:26.808285	120.3	13.3	-72.2	0.0
2025-01-21 11:17:27.931038	120.2	13.4	-74.3	0.0
2025-01-21 11:17:29.053192	120.1	13.5	-73.4	0.0
2025-01-21 11:17:30.177390	120.0	13.6	-72.5	0.0
2025-01-21 11:17:31.301140	119.8	13.7	-72.0	0.0
2025-01-21 11:17:32.424946	119.7	13.8	-71.9	0.0
2025-01-21 11:17:33.550696	119.6	13.9	-74.4	0.0
2025-01-21 11:17:34.674104	119.5	14.1	-75.5	0.0
2025-01-21 11:17:35.795237	119.4	14.2	-71.0	0.0
2025-01-21 11:17:36.917271	119.3	14.3	-75.7	0.0
2025-01-21 11:17:38.041821	119.2	14.4	-74.2	0.0
2025-01-21 11:17:39.164875	119.0	14.5	-74.2	0.0
2025-01-21 11:17:40.291241	118.9	14.6	-75.6	0.0
2025-01-21 11:17:41.413963	118.8	14.7	-75.2	0.0
2025-01-21 11:17:42.536668	118.7	14.8	-73.3	0.0
2025-01-21 11:17:43.659514	118.6	14.9	-72.4	0.0
2025-01-21 11:17:44.782437	118.4	15.0	-75.0	0.0
2025-01-21 11:17:45.906910	118.3	15.1	-73.5	0.0
2025-01-21 11:17:47.028032	118.2	15.2	-72.8	0.0
2025-01-21 11:17:48.150978	118.1	15.3	-72.3	0.0
2025-01-21 11:17:49.274280	118.0	15.4	-75.2	0.0
2025-01-21 11:17:50.397613	117.8	15.5	-75.4	0.0
2025-01-21 11:17:51.520042	117.7	15.6	-72.9	0.0
2025-01-21 11:17:52.641654	117.6	15.7	-73.1	0.0
2025-01-21 11:17:53.765358	117.5	15.8	-75.3	0.0
2025-01-21 11:17:54.889974	117.3	15.9	-72.2	0.0
2025-01-21 11:17:56.010797	117.2	16.1	-73.3	0.0
2025-01-21 11:17:57.133605	117.1	16.2	-73.1	0.0
2025-01-21 11:17:58.257353	116.9	16.3	-75.0	0.0
2025-01-21 11:17:59.378006	116.8	16.4	-75.3	0.0
2025-01-21 11:18:00.501959	116.7	16.5	-73.9	0.0
2025-01-21 11:18:01.625260	116.5	16.6	-74.1	0.0
2025-01-21 11:18:02.749216	116.4	16.7	-74.2	0.0
2025-01-21 11:18:03.874082	116.3	16.8	-74.2	0.0
2025-01-21 11:18:04.994385	116.1	16.9	-72.6	0.0
2025-01-21 11:18:06.119525	116.0	17.0	-73.1	0.0
2025-01-21 11:18:07.243189	115.8	17.2	-71.5	0.0
2025-01-21 11:18:08.366566	115.7	17.3	-72.7	0.0
2025-01-21 11:18:09.489593	115.6	17.4	-71.6	0.0
2025-01-21 11:18:10.612421	115.4	17.5	-73.0	0.0
2025-01-21 11:18:11.733417	115.3	17.6	-72.3	0.0
2025-01-21 11:18:12.856712	115.1	17.7	-72.4	0.0
2025-01-21 11:18:13.978482	115.0	17.8	-73.9	0.0
2025-01-21 11:18:15.102738	114.8	18.0	-70.4	0.0
2025-01-21 11:18:16.224372	114.7	18.1	-72.7	0.0
2025-01-21 11:18:17.347550	114.5	18.2	-71.7	0.0
2025-01-21 11:18:18.470067	114.4	18.3	-71.7	0.0
2025-01-21 11:18:19.592282	114.2	18.4	-69.6	0.0
2025-01-21 11:18:20.714963	114.1	18.5	-70.2	0.0
2025-01-21 11:18:21.837448	113.9	18.6	-72.6	0.0
2025-01-21 11:18:22.958819	113.8	18.8	-72.5	0.0
2025-01-21 11:18:24.081801	113.6	18.9	-73.1	0.0
2025-01-21 11:18:25.204033	113.4	19.0	-73.6	0.0
2025-01-21 11:18:26.327372	113.3	19.1	-73.7	0.0
2025-01-21 11:18:27.450211	113.1	19.2	-73.9	0.0
2025-01-21 11:18:28.572915	113.0	19.4	-74.1	0.0
2025-01-21 11:18:29.695728	112.8	19.5	-73.2	0.0
2025-01-21 11:18:30.818839	112.6	19.6	-75.0	0.0
2025-01-21 11:18:31.941168	112.5	19.7	-72.7	0.0
2025-01-21 11:18:33.064384	112.3	19.8	-73.0	0.0
2025-01-21 11:18:34.187531	112.1	20.0	-72.9	0.0
2025-01-21 11:18:35.309141	112.0	20.1	-72.7	0.0
2025-01-21 11:18:36.432196	111.8	20.2	-73.1	0.0
2025-01-21 11:18:37.558192	111.6	20.3	-72.9	0.0
2025-01-21 11:18:38.680224	111.4	20.4	-72.7	0.0
2025-01-21 11:18:39.802297	111.3	20.6	-72.6	0.0
2025-01-21 11:18:40.927808	111.1	20.7	-72.2	0.0
2025-01-21 11:18:42.051060	110.9	20.8	-72.6	0.0
2025-01-21 11:18:43.174910	110.7	20.9	-73.6	0.0
2025-01-21 11:18:44.298862	110.6	21.0	-73.3	0.0
2025-01-21 11:18:45.422321	110.4	21.2	-71.4	0.0
2025-01-21 11:18:46.544554	110.2	21.3	-70.1	0.0
2025-01-21 11:18:47.667762	110.0	21.4	-71.8	0.0
2025-01-21 11:18:48.789165	109.8	21.5	-73.1	0.0
2025-01-21 11:18:49.912937	109.6	21.7	-74.6	0.0
2025-01-21 11:18:51.036978	109.4	21.8	-72.1	0.0
2025-01-21 11:18:52.159005	109.2	21.9	-74.1	0.0
2025-01-21 11:18:53.283312	109.0	22.0	-74.5	0.0
2025-01-21 11:18:54.408294	108.9	22.2	-73.8	0.0
2025-01-21 11:18:55.533329	108.7	22.3	-75.0	0.0
2025-01-21 11:18:56.655876	108.5	22.4	-74.8	0.0
2025-01-21 11:18:57.776976	108.3	22.5	-73.8	0.0
2025-01-21 11:18:58.898947	108.1	22.7	-73.1	0.0
2025-01-21 11:19:00.024214	107.9	22.8	-74.9	0.0
2025-01-21 11:19:01.146369	107.6	22.9	-73.4	0.0
2025-01-21 11:19:02.270074	107.4	23.1	-73.3	0.0
2025-01-21 11:19:03.392193	107.2	23.2	-73.8	0.0
2025-01-21 11:19:04.514060	107.0	23.3	-73.0	0.0
2025-01-21 11:19:05.639916	106.8	23.4	-72.3	0.0
2025-01-21 11:19:06.763086	106.6	23.6	-75.1	0.0
2025-01-21 11:19:07.886071	106.4	23.7	-74.5	0.0
2025-01-21 11:19:09.012002	106.2	23.8	-74.3	0.0
2025-01-21 11:19:10.134054	105.9	23.9	-75.3	0.0
2025-01-21 11:19:11.257058	105.7	24.1	-75.3	0.0
2025-01-21 11:19:12.378909	105.5	24.2	-75.0	0.0
2025-01-21 11:19:13.503782	105.3	24.3	-74.8	0.0
2025-01-21 11:19:14.628489	105.0	24.5	-74.7	0.0
2025-01-21 11:19:15.753218	104.8	24.6	-74.8	0.0
2025-01-21 11:19:16.876712	104.6	24.7	-74.1	0.0
2025-01-21 11:19:18.000202	104.4	24.9	-74.1	0.0
2025-01-21 11:19:19.125691	104.1	25.0	-70.0	0.0
2025-01-21 11:19:20.249092	103.9	25.1	-71.3	0.0
2025-01-21 11:19:21.371279	103.6	25.2	-70.4	0.0
2025-01-21 11:19:22.491790	103.4	25.4	-72.8	0.0
2025-01-21 11:19:23.613508	103.2	25.5	-69.2	0.0
2025-01-21 11:19:24.735922	102.9	25.6	-70.1	0.0
2025-01-21 11:19:25.859624	102.7	25.8	-74.3	0.0
2025-01-21 11:19:26.985443	102.4	25.9	-71.3	0.0
2025-01-21 11:19:28.107673	102.2	26.0	-71.4	0.0
2025-01-21 11:19:29.230494	101.9	26.2	-70.8	0.0
2025-01-21 11:19:30.355187	101.7	26.3	-77.7	0.0
2025-01-21 11:19:31.480565	101.4	26.4	-74.6	0.0
2025-01-21 11:19:32.603399	101.2	26.6	-75.4	0.0
2025-01-21 11:19:33.725914	100.9	26.7	-74.2	0.0
2025-01-21 11:19:34.848384	100.6	26.8	-73.8	0.0
2025-01-21 11:19:35.970797	100.4	26.9	-73.0	0.0
2025-01-21 11:19:37.095946	100.1	27.1	-74.2	0.0
2025-01-21 11:19:38.218366	99.8	27.2	-76.0	0.0
2025-01-21 11:19:39.340821	99.6	27.3	-73.8	0.0
2025-01-21 11:19:40.462664	99.3	27.5	-75.4	0.0
2025-01-21 11:19:41.586052	99.0	27.6	-74.9	0.0
2025-01-21 11:19:42.709585	98.7	27.7	-75.1	0.0
2025-01-21 11:19:43.834002	98.4	27.9	-75.0	0.0
2025-01-21 11:19:44.956213	98.2	28.0	-74.5	0.0
2025-01-21 11:19:46.079687	97.9	28.1	-72.9	0.0
2025-01-21 11:19:47.203468	97.6	28.2	-75.7	0.0
2025-01-21 11:19:48.324722	97.3	28.4	-76.7	0.0
2025-01-21 11:19:49.449758	97.0	28.5	-77.2	0.0
2025-01-21 11:19:50.573757	96.7	28.6	-71.4	0.0
2025-01-21 11:19:51.697611	96.4	28.8	-73.1	0.0
2025-01-21 11:19:52.820572	96.1	28.9	-70.9	0.0
2025-01-21 11:19:53.944237	95.8	29.0	-73.3	0.0
2025-01-21 11:19:55.070247	95.5	29.1	-75.9	0.0
2025-01-21 11:19:56.192999	95.2	29.3	-75.1	0.0
2025-01-21 11:19:57.315537	94.9	29.4	-76.2	0.0
2025-01-21 11:19:58.437955	94.6	29.5	-71.5	0.0
2025-01-21 11:19:59.562635	94.3	29.7	-74.2	0.0
2025-01-21 11:20:00.686954	93.9	29.8	-74.0	0.0
2025-01-21 11:20:01.812774	93.6	29.9	-74.7	0.0
2025-01-21 11:20:02.936802	93.3	30.0	-75.1	0.0
2025-01-21 11:20:04.061085	93.0	30.2	-75.3	0.0
2025-01-21 11:20:05.184516	92.6	30.3	-75.5	0.0
2025-01-21 11:20:06.306870	92.3	30.4	-71.8	0.0
2025-01-21 11:20:07.431841	92.0	30.5	-72.9	0.0
2025-01-21 11:20:08.556137	91.6	30.6	-75.5	0.0
2025-01-21 11:20:09.680133	91.3	30.8	-74.5	0.0
2025-01-21 11:20:10.801545	91.0	30.9	-74.2	0.0
2025-01-21 11:20:11.924121	90.6	31.0	-72.5	0.0
2025-01-21 11:20:13.047347	90.3	31.1	-73.2	0.0
2025-01-21 11:20:14.171139	89.9	31.2	-75.3	0.0
2025-01-21 11:20:15.296493	89.6	31.4	-75.4	0.0
2025-01-21 11:20:16.421370	89.2	31.5	-75.6	0.0
2025-01-21 11:20:17.545824	88.9	31.6	-75.4	0.0
2025-01-21 11:20:18.668370	88.5	31.7	-74.4	0.0
2025-01-21 11:20:19.791008	88.1	31.8	-74.1	0.0
2025-01-21 11:20:20.912089	87.8	31.9	-76.0	0.0
2025-01-21 11:20:22.034155	87.4	32.1	-74.6	0.0
2025-01-21 11:20:23.155222	87.1	32.2	-75.2	0.0
2025-01-21 11:20:24.277748	86.7	32.3	-76.6	0.0
2025-01-21 11:20:25.405311	86.3	32.4	-76.7	0.0
2025-01-21 11:20:26.527619	85.9	32.5	-76.6	0.0
2025-01-21 11:20:27.650278	85.6	32.6	-75.8	0.0
2025-01-21 11:20:28.771546	85.2	32.7	-74.5	0.0
2025-01-21 11:20:29.897091	84.8	32.8	-73.5	0.0
2025-01-21 11:20:31.022019	84.4	32.9	-77.0	0.0
2025-01-21 11:20:32.143703	84.0	33.0	-76.7	0.0
2025-01-21 11:20:33.267786	83.6	33.1	-76.5	0.0
2025-01-21 11:20:34.390690	83.2	33.2	-75.6	0.0
2025-01-21 11:20:35.513187	82.8	33.3	-75.8	0.0
2025-01-21 11:20:36.636744	82.4	33.4	-75.4	0.0
2025-01-21 11:20:37.761730	82.0	33.5	-75.0	0.0
2025-01-21 11:20:38.886373	81.6	33.6	-74.7	0.0
2025-01-21 11:20:40.009200	81.2	33.7	-75.2	0.0
2025-01-21 11:20:41.132284	80.8	33.8	-74.1	0.0
2025-01-21 11:20:42.255802	80.4	33.9	-75.5	0.0
2025-01-21 11:20:43.379382	80.0	34.0	-76.9	0.0
2025-01-21 11:20:44.503346	79.6	34.1	-76.2	0.0
2025-01-21 11:20:45.625002	79.2	34.2	-76.4	0.0
2025-01-21 11:20:46.747201	78.7	34.3	-77.8	0.0
2025-01-21 11:20:47.868887	78.3	34.4	-75.0	0.0
2025-01-21 11:20:48.991573	77.9	34.5	-74.1	0.0
2025-01-21 11:20:50.116258	77.5	34.5	-74.3	0.0
2025-01-21 11:20:51.240983	77.0	34.6	-73.2	0.0
2025-01-21 11:20:52.362470	76.6	34.7	-72.8	0.0
2025-01-21 11:20:53.484442	76.2	34.8	-73.8	0.0
2025-01-21 11:20:54.606556	75.7	34.9	-73.1	0.0
2025-01-21 11:20:55.730211	75.3	34.9	-70.4	0.0
2025-01-21 11:20:56.854150	74.9	35.0	-78.2	0.0
2025-01-21 11:20:57.978402	74.4	35.1	-75.3	0.0
2025-01-21 11:20:59.100966	74.0	35.1	-72.7	0.0
2025-01-21 11:21:00.223560	73.5	35.2	-76.7	0.0
2025-01-21 11:21:01.347308	73.1	35.3	-77.0	0.0
2025-01-21 11:21:02.471883	72.6	35.3	-76.8	0.0
2025-01-21 11:21:03.594386	72.2	35.4	-76.5	0.0
2025-01-21 11:21:04.716336	71.7	35.5	-76.8	0.0
2025-01-21 11:21:05.840921	71.3	35.5	-77.8	0.0
2025-01-21 11:21:06.966207	70.8	35.6	-77.0	0.0
2025-01-21 11:21:08.087657	70.4	35.6	-77.0	0.0
2025-01-21 11:21:09.210561	69.9	35.7	-75.0	0.0
2025-01-21 11:21:10.335985	69.4	35.7	-76.4	0.0
2025-01-21 11:21:11.459040	69.0	35.8	-73.2	0.0
2025-01-21 11:21:12.582675	68.5	35.8	-75.2	0.0
2025-01-21 11:21:13.705949	68.1	35.9	-75.0	0.0
2025-01-21 11:21:14.829188	67.6	35.9	-74.0	0.0
2025-01-21 11:21:15.953183	67.1	35.9	-76.0	0.0
2025-01-21 11:21:17.077127	66.7	36.0	-73.4	0.0
2025-01-21 11:21:18.200662	66.2	36.0	-74.9	0.0
2025-01-21 11:21:19.324183	65.7	36.1	-76.3	0.0
2025-01-21 11:21:20.446461	65.3	36.1	-76.0	0.0
2025-01-21 11:21:21.571677	64.8	36.1	-76.5	0.0
2025-01-21 11:21:22.695118	64.3	36.1	-74.1	0.0
2025-01-21 11:21:23.815373	63.8	36.2	-73.6	0.0
2025-01-21 11:21:24.939497	63.4	36.2	-74.8	0.0
2025-01-21 11:21:26.063607	62.9	36.2	-75.1	0.0
2025-01-21 11:21:27.186151	62.4	36.2	-73.9	0.0
2025-01-21 11:21:28.311151	61.9	36.2	-74.2	0.0
2025-01-21 11:21:29.435269	61.5	36.3	-72.5	0.0
2025-01-21 11:21:30.556771	61.0	36.3	-75.1	0.0
2025-01-21 11:21:31.680710	60.5	36.3	-72.4	0.0
2025-01-21 11:21:32.803133	60.0	36.3	-73.2	0.0
2025-01-21 11:21:33.927178	59.6	36.3	-73.0	0.0
2025-01-21 11:21:35.054736	59.1	36.3	-72.7	0.0
2025-01-21 11:21:36.176916	58.6	36.3	-73.4	0.0
2025-01-21 11:21:37.301258	58.1	36.3	-73.2	0.0
2025-01-21 11:21:38.423882	57.7	36.3	-72.5	0.0
2025-01-21 11:21:39.547031	57.2	36.3	-73.0	0.0
2025-01-21 11:21:40.668224	56.7	36.3	-73.4	0.0
2025-01-21 11:21:41.792041	56.2	36.3	-73.5	0.0
2025-01-21 11:21:42.913930	55.8	36.2	-73.2	0.0
2025-01-21 11:21:44.037665	55.3	36.2	-69.3	0.0
2025-01-21 11:21:45.160279	54.8	36.2	-68.8	0.0
2025-01-21 11:21:46.282868	54.3	36.2	-71.8	0.0
2025-01-21 11:21:47.405662	53.9	36.2	-73.3	0.0
2025-01-21 11:21:48.530027	53.4	36.1	-72.5	0.0
2025-01-21 11:21:49.651063	52.9	36.1	-73.1	0.0
2025-01-21 11:21:50.773781	52.4	36.1	-71.9	0.0
2025-01-21 11:21:51.896726	52.0	36.1	-70.3	0.0
2025-01-21 11:21:53.020222	51.5	36.0	-70.5	0.0
2025-01-21 11:21:54.144119	51.0	36.0	-68.7	0.0
2025-01-21 11:21:55.265573	50.6	36.0	-72.0	0.0
2025-01-21 11:21:56.388860	50.1	35.9	-70.8	0.0
2025-01-21 11:21:57.512202	49.6	35.9	-70.9	0.0
2025-01-21 11:21:58.635014	49.2	35.8	-70.1	0.0
2025-01-21 11:21:59.758648	48.7	35.8	-71.3	0.0
2025-01-21 11:22:00.882065	48.3	35.7	-73.0	0.0
2025-01-21 11:22:02.005614	47.8	35.7	-71.8	0.0
2025-01-21 11:22:03.126619	47.3	35.6	-72.4	0.0
2025-01-21 11:22:04.250068	46.9	35.6	-72.3	0.0
2025-01-21 11:22:05.374864	46.4	35.5	-72.2	0.0
2025-01-21 11:22:06.498224	46.0	35.5	-72.1	0.0
2025-01-21 11:22:07.620374	45.5	35.4	-72.3	0.0
2025-01-21 11:22:08.743494	45.1	35.3	-71.6	0.0
2025-01-21 11:22:09.866692	44.6	35.3	-69.8	0.0
2025-01-21 11:22:10.989618	44.2	35.2	-70.5	0.0
2025-01-21 11:22:12.112470	43.7	35.2	-70.6	0.0
2025-01-21 11:22:13.235525	43.3	35.1	-72.6	0.0
2025-01-21 11:22:14.359830	42.8	35.0	-73.6	0.0
2025-01-21 11:22:15.482382	42.4	34.9	-73.0	0.0
2025-01-21 11:22:16.606886	42.0	34.9	-71.8	0.0
2025-01-21 11:22:17.731193	41.5	34.8	-70.4	0.0
2025-01-21 11:22:18.854965	41.1	34.7	-69.4	0.0
2025-01-21 11:22:19.979118	40.7	34.6	-69.6	0.0
2025-01-21 11:22:21.103487	40.2	34.6	-71.7	0.0
2025-01-21 11:22:22.227179	39.8	34.5	-69.7	0.0
2025-01-21 11:22:23.349813	39.4	34.4	-71.6	0.0
2025-01-21 11:22:24.473748	39.0	34.3	-73.4	0.0
2025-01-21 11:22:25.596042	38.6	34.2	-74.9	0.0
2025-01-21 11:22:26.717262	38.1	34.1	-65.7	0.0
2025-01-21 11:22:27.840116	37.7	34.0	-70.4	0.0
2025-01-21 11:22:28.961744	37.3	33.9	-68.2	0.0
2025-01-21 11:22:30.083340	36.9	33.9	-70.3	0.0
2025-01-21 11:22:31.207260	36.5	33.8	-69.0	0.0
2025-01-21 11:22:32.330204	36.1	33.7	-70.0	0.0
2025-01-21 11:22:33.453171	35.7	33.6	-66.7	0.0
2025-01-21 11:22:34.576856	35.3	33.5	-70.4	0.0
2025-01-21 11:22:35.700458	34.9	33.4	-69.1	0.0
2025-01-21 11:22:36.824345	34.5	33.3	-68.2	0.0
2025-01-21 11:22:37.946661	34.1	33.2	-69.5	0.0
2025-01-21 11:22:39.071242	33.7	33.1	-67.7	0.0
2025-01-21 11:22:40.193996	33.3	33.0	-69.1	0.0
2025-01-21 11:22:41.318366	32.9	32.9	-69.3	0.0
2025-01-21 11:22:42.442614	32.5	32.8	-70.6	0.0
2025-01-21 11:22:43.568744	32.2	32.6	-69.0	0.0
2025-01-21 11:22:44.693661	31.8	32.5	-70.2	0.0
2025-01-21 11:22:45.816797	31.4	32.4	-69.5	0.0
2025-01-21 11:22:46.940406	31.0	32.3	-68.9	0.0
2025-01-21 11:22:48.064221	30.7	32.2	-66.7	0.0
2025-01-21 11:22:49.186503	30.3	32.1	-70.1	0.0
2025-01-21 11:22:50.311212	29.9	32.0	-71.2	0.0
2025-01-21 11:22:51.436712	29.6	31.9	-72.6	0.0
2025-01-21 11:22:52.559864	29.2	31.8	-70.1	0.0
2025-01-21 11:22:53.685109	28.9	31.6	-70.6	0.0
2025-01-21 11:22:54.806732	28.5	31.5	-71.3	0.0
2025-01-21 11:22:55.929445	28.1	31.4	-72.6	0.0
2025-01-21 11:22:57.052896	27.8	31.3	-68.5	0.0
2025-01-21 11:22:58.175816	27.4	31.2	-68.2	0.0
2025-01-21 11:22:59.299604	27.1	31.0	-69.9	0.0
2025-01-21 11:23:00.422585	26.8	30.9	-71.0	0.0
2025-01-21 11:23:01.544881	26.4	30.8	-67.8	0.0
2025-01-21 11:23:02.665035	26.1	30.7	-68.4	0.0
2025-01-21 11:23:03.788348	25.8	30.6	-68.3	0.0
2025-01-21 11:23:04.910176	25.4	30.4	-69.2	0.0
2025-01-21 11:23:06.033873	25.1	30.3	-68.8	0.0
2025-01-21 11:23:07.157733	24.8	30.2	-68.9	0.0
2025-01-21 11:23:08.282944	24.4	30.1	-66.3	0.0
2025-01-21 11:23:09.406266	24.1	29.9	-66.2	0.0
2025-01-21 11:23:10.528698	23.8	29.8	-69.5	0.0
2025-01-21 11:23:11.653785	23.5	29.7	-67.8	0.0
2025-01-21 11:23:12.776090	23.2	29.6	-66.7	0.0
2025-01-21 11:23:13.902101	22.9	29.4	-68.2	0.0
2025-01-21 11:23:15.025508	22.5	29.3	-68.8	0.0
2025-01-21 11:23:16.149691	22.2	29.2	-69.3	0.0
2025-01-21 11:23:17.275049	21.9	29.1	-70.1	0.0
2025-01-21 11:23:18.397432	21.6	28.9	-69.0	0.0
2025-01-21 11:23:19.518906	21.3	28.8	-66.9	0.0
2025-01-21 11:23:20.642171	21.0	28.7	-66.1	0.0
2025-01-21 11:23:21.766309	20.7	28.6	-68.9	0.0
2025-01-21 11:23:22.888421	20.4	28.4	-70.1	0.0
2025-01-21 11:23:24.011576	20.2	28.3	-65.8	0.0
2025-01-21 11:23:25.135979	19.9	28.2	-69.0	0.0
2025-01-21 11:23:26.260532	19.6	28.0	-70.2	0.0
2025-01-21 11:23:27.382594	19.3	27.9	-68.8	0.0
2025-01-21 11:23:28.506733	19.0	27.8	-70.1	0.0
2025-01-21 11:23:29.631336	18.7	27.7	-68.9	0.0
2025-01-21 11:23:30.755825	18.5	27.5	-67.4	0.0
2025-01-21 11:23:31.879236	18.2	27.4	-70.6	0.0
2025-01-21 11:23:33.002390	17.9	27.3	-67.0	0.0
2025-01-21 11:23:34.125959	17.7	27.1	-68.3	0.0
2025-01-21 11:23:35.250766	17.4	27.0	-67.6	0.0
2025-01-21 11:23:36.376723	17.1	26.9	-68.3	0.0
2025-01-21 11:23:37.499310	16.9	26.7	-70.7	0.0
2025-01-21 11:23:38.624637	16.6	26.6	-66.5	0.0
2025-01-21 11:23:39.748720	16.3	26.5	-67.9	0.0
2025-01-21 11:23:40.871082	16.1	26.4	-66.8	0.0
2025-01-21 11:23:41.994767	15.8	26.2	-66.6	0.0
2025-01-21 11:23:43.115961	15.6	26.1	-65.9	0.0
2025-01-21 11:23:44.239039	15.3	26.0	-70.3	0.0
2025-01-21 11:23:45.363647	15.1	25.8	-66.7	0.0
2025-01-21 11:23:46.486168	14.8	25.7	-69.5	0.0
2025-01-21 11:23:47.608640	14.6	25.6	-69.0	0.0
2025-01-21 11:23:48.732141	14.3	25.4	-68.9	0.0
2025-01-21 11:23:49.855353	14.1	25.3	-70.1	0.0
2025-01-21 11:23:50.978940	13.9	25.2	-70.4	0.0
2025-01-21 11:23:52.102594	13.6	25.1	-69.7	0.0
2025-01-21 11:23:53.223360	13.4	24.9	-70.2	0.0
2025-01-21 11:23:54.346218	13.2	24.8	-70.4	0.0
2025-01-21 11:23:55.469684	12.9	24.7	-69.5	0.0
2025-01-21 11:23:56.595070	12.7	24.5	-69.2	0.0
2025-01-21 11:23:57.718190	12.5	24.4	-67.8	0.0
2025-01-21 11:23:58.841022	12.3	24.3	-68.9	0.0
2025-01-21 11:23:59.965169	12.0	24.2	-67.1	0.0
2025-01-21 11:24:01.088916	11.8	24.0	-70.0	0.0
2025-01-21 11:24:02.211851	11.6	23.9	-68.3	0.0
2025-01-21 11:24:03.334174	11.4	23.8	-69.0	0.0
2025-01-21 11:24:04.458798	11.2	23.6	-69.0	0.0
2025-01-21 11:24:05.581409	11.0	23.5	-69.4	0.0
2025-01-21 11:24:06.702997	10.7	23.4	-68.1	0.0
2025-01-21 11:24:07.824862	10.5	23.3	-66.0	0.0
2025-01-21 11:24:08.948173	10.3	23.1	-66.7	0.0
2025-01-21 11:24:10.072093	10.1	23.0	-68.2	0.0
2025-01-21 11:24:11.193290	9.9	22.9	-67.3	0.0
2025-01-21 11:24:12.315103	9.7	22.8	-67.5	0.0
2025-01-21 11:24:13.437976	9.5	22.6	-67.0	0.0
2025-01-21 11:24:14.560023	9.3	22.5	-69.3	0.0
2025-01-21 11:24:15.685988	9.1	22.4	-68.0	0.0
2025-01-21 11:24:16.812646	8.9	22.2	-66.0	0.0
2025-01-21 11:24:17.936805	8.7	22.1	-67.2	0.0
2025-01-21 11:24:19.060548	8.5	22.0	-67.4	0.0
2025-01-21 11:24:20.185380	8.3	21.9	-67.4	0.0
2025-01-21 11:24:21.308105	8.2	21.7	-68.2	0.0
2025-01-21 11:24:22.429810	8.0	21.6	-67.1	0.0
2025-01-21 11:24:23.551690	7.8	21.5	-69.1	0.0
2025-01-21 11:24:24.673376	7.6	21.4	-68.2	0.0
2025-01-21 11:24:25.796147	7.4	21.3	-69.1	0.0
2025-01-21 11:24:26.918365	7.2	21.1	-68.4	0.0
2025-01-21 11:24:28.042643	7.0	21.0	-68.5	0.0
2025-01-21 11:24:29.165160	6.9	20.9	-68.6	0.0
2025-01-21 11:24:30.287602	6.7	20.8	-67.9	0.0
2025-01-21 11:24:31.409169	6.5	20.6	-68.2	0.0
2025-01-21 11:24:32.532849	6.3	20.5	-66.6	0.0
2025-01-21 11:24:33.657098	6.2	20.4	-66.4	0.0
2025-01-21 11:24:34.778480	6.0	20.3	-67.7	0.0
2025-01-21 11:24:35.904090	5.8	20.2	-68.1	0.0
2025-01-21 11:24:37.027921	5.7	20.0	-68.1	0.0
2025-01-21 11:24:38.148301	5.5	19.9	-69.4	0.0
2025-01-21 11:24:39.271538	5.3	19.8	-70.4	0.0
2025-01-21 11:24:40.394984	5.2	19.7	-69.0	0.0
2025-01-21 11:24:41.517987	5.0	19.6	-67.4	0.0
2025-01-21 11:24:42.638880	4.8	19.4	-69.4	0.0
2025-01-21 11:24:43.761577	4.7	19.3	-69.4	0.0
2025-01-21 11:24:44.884220	4.5	19.2	-68.8	0.0
2025-01-21 11:24:46.009596	4.3	19.1	-67.0	0.0
2025-01-21 11:24:47.132016	4.2	19.0	-68.7	0.0
2025-01-21 11:24:48.256193	4.0	18.9	-70.3	0.0
2025-01-21 11:24:49.379251	3.9	18.7	-68.9	0.0
2025-01-21 11:24:50.500683	3.7	18.6	-68.5	0.0
2025-01-21 11:24:51.623272	3.6	18.5	-68.8	0.0
2025-01-21 11:24:52.746789	3.4	18.4	-72.1	0.0
2025-01-21 11:24:53.868722	3.3	18.3	-65.6	0.0
2025-01-21 11:24:54.992763	3.1	18.2	-70.6	0.0
2025-01-21 11:24:56.115426	3.0	18.1	-69.4	0.0
2025-01-21 11:24:57.240085	2.8	17.9	-69.1	0.0
2025-01-21 11:24:58.361903	2.7	17.8	-67.8	0.0
2025-01-21 11:24:59.484221	2.5	17.7	-68.4	0.0
2025-01-21 11:25:00.607560	2.4	17.6	-70.8	0.0
2025-01-21 11:25:01.728949	2.3	17.5	-69.1	0.0
2025-01-21 11:25:02.851019	2.1	17.4	-69.0	0.0
2025-01-21 11:25:03.974102	2.0	17.3	-67.6	0.0
2025-01-21 11:25:05.096801	1.8	17.2	-69.0	0.0
2025-01-21 11:25:06.219318	1.7	17.0	-67.5	0.0
2025-01-21 11:25:07.344121	1.6	16.9	-66.2	0.0
2025-01-21 11:25:08.468385	1.4	16.8	-68.0	0.0
2025-01-21 11:25:09.591804	1.3	16.7	-69.4	0.0
2025-01-21 11:25:10.715393	1.2	16.6	-70.2	0.0
2025-01-21 11:25:11.839126	1.0	16.5	-70.3	0.0
2025-01-21 11:25:12.963380	0.9	16.4	-72.2	0.0
2025-01-21 11:25:14.086484	0.8	16.3	-71.3	0.0
2025-01-21 11:25:15.210093	0.6	16.2	-67.8	0.0
2025-01-21 11:25:16.333333	0.5	16.1	-72.3	0.0
2025-01-21 11:25:17.456997	0.4	15.9	-70.7	0.0
2025-01-21 11:25:18.580217	0.2	15.8	-72.9	0.0
2025-01-21 11:25:19.704657	0.1	15.7	-71.3	0.0
2025-01-21 11:25:20.826393	360.0	15.6	-73.6	0.0
2025-01-21 11:25:21.951065	359.9	15.5	-71.7	0.0
2025-01-21 11:25:23.074240	359.7	15.4	-73.7	0.0
2025-01-21 11:25:24.196288	359.6	15.3	-73.6	0.0
2025-01-21 11:25:25.320904	359.5	15.2	-74.3	0.0
2025-01-21 11:25:26.441659	359.4	15.1	-70.6	0.0
2025-01-21 11:25:27.564698	359.3	15.0	-73.3	0.0
2025-01-21 11:25:28.686757	359.1	14.9	-71.2	0.0
2025-01-21 11:25:29.808872	359.0	14.8	-71.5	0.0
2025-01-21 11:25:30.932673	358.9	14.7	-71.7	0.0
2025-01-21 11:25:32.055222	358.8	14.6	-71.7	0.0
2025-01-21 11:25:33.177204	358.7	14.5	-71.0	0.0
2025-01-21 11:25:34.302315	358.6	14.4	-73.4	0.0
2025-01-21 11:25:35.427017	358.4	14.3	-74.5	0.0
2025-01-21 11:25:36.550295	358.3	14.2	-70.4	0.0
2025-01-21 11:25:37.673445	358.2	14.1	-70.5	0.0
2025-01-21 11:25:38.797972	358.1	14.0	-70.8	0.0
2025-01-21 11:25:39.923322	358.0	13.9	-67.9	0.0
2025-01-21 11:25:41.045100	357.9	13.8	-69.8	0.0
2025-01-21 11:25:42.168349	357.8	13.7	-69.6	0.0
2025-01-21 11:25:43.292176	357.7	13.6	-69.7	0.0
2025-01-21 11:25:44.417193	357.6	13.5	-71.5	0.0
2025-01-21 11:25:45.539762	357.5	13.4	-69.9	0.0
2025-01-21 11:25:46.663232	357.3	13.3	-69.5	0.0
2025-01-21 11:25:47.787972	357.2	13.2	-69.8	0.0
2025-01-21 11:25:48.909442	357.1	13.1	-71.1	0.0
2025-01-21 11:25:50.033145	357.0	13.0	-69.4	0.0
2025-01-21 11:25:51.157955	356.9	12.9	-69.8	0.0
2025-01-21 11:25:52.280176	356.8	12.8	-70.4	0.0
2025-01-21 11:25:53.404908	356.7	12.7	-69.0	0.0
2025-01-21 11:25:54.526300	356.6	12.6	-72.1	0.0
2025-01-21 11:25:55.648530	356.5	12.5	-70.1	0.0
2025-01-21 11:25:56.772203	356.4	12.4	-66.4	0.0
2025-01-21 11:25:57.896506	356.3	12.3	-67.9	0.0
2025-01-21 11:25:59.018666	356.2	12.2	-67.5	0.0
2025-01-21 11:26:00.142596	356.1	12.1	-70.8	0.0
2025-01-21 11:26:01.264285	356.0	12.0	-67.6	0.0
2025-01-21 11:26:02.387017	355.9	11.9	-66.6	0.0
2025-01-21 11:26:03.507062	355.8	11.8	-66.9	0.0
2025-01-21 11:26:04.629563	355.8	11.7	-67.2	0.0
2025-01-21 11:26:05.752518	355.7	11.6	-67.7	0.0
2025-01-21 11:26:06.878462	355.6	11.5	-63.8	0.0
2025-01-21 11:26:08.002252	355.5	11.4	-65.4	0.0
2025-01-21 11:26:09.126643	355.4	11.3	-64.7	0.0
2025-01-21 11:26:10.248776	355.3	11.2	-66.5	0.0
2025-01-21 11:26:11.370797	355.2	11.1	-66.2	0.0
2025-01-21 11:26:12.494285	355.1	11.1	-63.9	0.0
2025-01-21 11:26:13.617803	355.0	11.0	-65.1	0.0
2025-01-21 11:26:14.738695	354.9	10.9	-68.5	0.0
2025-01-21 11:26:15.862562	354.8	10.8	-66.9	0.0
2025-01-21 11:26:16.985281	354.7	10.7	-73.4	0.0
2025-01-21 11:26:18.107360	354.7	10.6	-77.7	0.0
2025-01-21 11:26:19.233417	354.6	10.5	-79.2	0.0
2025-01-21 11:26:20.358826	354.5	10.4	-80.4	0.0
2025-01-21 11:26:21.481874	354.4	10.3	-81.2	0.0
2025-01-21 11:26:22.604208	354.3	10.2	-81.8	0.0
2025-01-21 11:26:23.728218	354.2	10.1	-82.1	0.0
2025-01-21 11:26:24.850413	354.1	10.1	-82.2	0.0
2025-01-21 11:26:25.974862	354.1	10.0	-82.1	0.0
#Closed at: 2025-01-21 11:16:42.283661