passes_logs/2025/01/21/planumMaritime01/planumMaritime01__20250121_194619_NOAA_18_rec.log

#Pass ID: 20250121_194619_NOAA 18
#Satellite: NOAA 18
#Configuration: NOAA 18
#Start time: 2025-01-21 19:46:24.815422

#LorettStation: 1.0.0 05.05.2024
#Station: planumMaritime01
#Location: 37.49445 lon 55.92918 lat
#TLE: 1 28654U 05018A   25021.17963601  .00000484  00000+0  28040-3 0  9994
#TLE: 2 28654  98.8557 102.1724 0014626 162.0619 198.1073 14.13492794 14053

#Time	Az	El	Level	SNR
2025-01-21 19:46:26.978574	178.2	10.2	-72.1	0.0
2025-01-21 19:46:28.101908	178.2	10.3	-72.0	0.0
2025-01-21 19:46:29.225545	178.3	10.4	-72.4	0.0
2025-01-21 19:46:30.349416	178.3	10.5	-72.3	0.0
2025-01-21 19:46:31.474429	178.4	10.6	-71.8	0.0
2025-01-21 19:46:32.599452	178.4	10.7	-72.2	0.0
2025-01-21 19:46:33.724935	178.5	10.8	-71.8	0.0
2025-01-21 19:46:34.849422	178.5	10.9	-72.3	0.0
2025-01-21 19:46:35.975461	178.6	11.0	-72.0	0.0
2025-01-21 19:46:37.099127	178.6	11.1	-73.0	0.0
2025-01-21 19:46:38.220045	178.7	11.2	-72.2	0.0
2025-01-21 19:46:39.344583	178.7	11.3	-72.7	0.0
2025-01-21 19:46:40.467201	178.8	11.3	-73.2	0.0
2025-01-21 19:46:41.587865	178.8	11.4	-72.4	0.0
2025-01-21 19:46:42.708989	178.9	11.5	-72.9	0.0
2025-01-21 19:46:43.832400	178.9	11.6	-72.2	0.0
2025-01-21 19:46:44.954441	179.0	11.7	-73.0	0.0
2025-01-21 19:46:46.079590	179.0	11.9	-73.2	0.0
2025-01-21 19:46:47.205056	179.0	12.0	-72.7	0.0
2025-01-21 19:46:48.328199	179.1	12.1	-73.2	0.0
2025-01-21 19:46:49.451777	179.1	12.2	-72.6	0.0
2025-01-21 19:46:50.576272	179.2	12.3	-73.0	0.0
2025-01-21 19:46:51.700078	179.3	12.4	-72.9	0.0
2025-01-21 19:46:52.823806	179.3	12.5	-73.7	0.0
2025-01-21 19:46:53.947913	179.4	12.6	-73.1	0.0
2025-01-21 19:46:55.071400	179.4	12.7	-73.1	0.0
2025-01-21 19:46:56.195282	179.5	12.8	-72.9	0.0
2025-01-21 19:46:57.320242	179.5	12.9	-73.2	0.0
2025-01-21 19:46:58.442761	179.6	13.0	-73.2	0.0
2025-01-21 19:46:59.568849	179.6	13.1	-73.4	0.0
2025-01-21 19:47:00.692925	179.7	13.2	-73.5	0.0
2025-01-21 19:47:01.816310	179.7	13.3	-73.6	0.0
2025-01-21 19:47:02.937471	179.8	13.4	-73.8	0.0
2025-01-21 19:47:04.060087	179.8	13.5	-73.5	0.0
2025-01-21 19:47:05.181377	179.9	13.6	-73.1	0.0
2025-01-21 19:47:06.305381	179.9	13.7	-73.1	0.0
2025-01-21 19:47:07.430909	180.0	13.9	-74.3	0.0
2025-01-21 19:47:08.552235	180.1	14.0	-73.4	0.0
2025-01-21 19:47:09.675441	180.1	14.1	-72.5	0.0
2025-01-21 19:47:10.799068	180.2	14.2	-72.6	0.0
2025-01-21 19:47:11.921728	180.2	14.3	-72.9	0.0
2025-01-21 19:47:13.044995	180.3	14.4	-73.2	0.0
2025-01-21 19:47:14.166277	180.3	14.5	-73.3	0.0
2025-01-21 19:47:15.289615	180.4	14.6	-72.5	0.0
2025-01-21 19:47:16.413200	180.5	14.7	-72.5	0.0
2025-01-21 19:47:17.536274	180.5	14.9	-73.0	0.0
2025-01-21 19:47:18.658253	180.6	15.0	-72.5	0.0
2025-01-21 19:47:19.781767	180.6	15.1	-72.6	0.0
2025-01-21 19:47:20.904981	180.7	15.2	-73.1	0.0
2025-01-21 19:47:22.027730	180.8	15.3	-72.9	0.0
2025-01-21 19:47:23.150026	180.8	15.4	-72.7	0.0
2025-01-21 19:47:24.272703	180.9	15.5	-72.5	0.0
2025-01-21 19:47:25.395340	180.9	15.7	-72.9	0.0
2025-01-21 19:47:26.518674	181.0	15.8	-72.9	0.0
2025-01-21 19:47:27.642447	181.1	15.9	-72.4	0.0
2025-01-21 19:47:28.767159	181.1	16.0	-73.5	0.0
2025-01-21 19:47:29.888992	181.2	16.1	-73.1	0.0
2025-01-21 19:47:31.008907	181.3	16.3	-73.4	0.0
2025-01-21 19:47:32.133372	181.3	16.4	-73.3	0.0
2025-01-21 19:47:33.257403	181.4	16.5	-73.3	0.0
2025-01-21 19:47:34.380636	181.5	16.6	-72.8	0.0
2025-01-21 19:47:35.503376	181.5	16.7	-73.0	0.0
2025-01-21 19:47:36.628232	181.6	16.9	-72.7	0.0
2025-01-21 19:47:37.749473	181.7	17.0	-73.1	0.0
2025-01-21 19:47:38.872541	181.7	17.1	-73.6	0.0
2025-01-21 19:47:39.995937	181.8	17.2	-72.8	0.0
2025-01-21 19:47:41.118697	181.9	17.4	-73.5	0.0
2025-01-21 19:47:42.243024	181.9	17.5	-72.8	0.0
2025-01-21 19:47:43.365041	182.0	17.6	-72.6	0.0
2025-01-21 19:47:44.485426	182.1	17.7	-72.5	0.0
2025-01-21 19:47:45.607326	182.2	17.9	-73.6	0.0
2025-01-21 19:47:46.729900	182.2	18.0	-73.5	0.0
2025-01-21 19:47:47.851242	182.3	18.1	-72.6	0.0
2025-01-21 19:47:48.975189	182.4	18.3	-73.5	0.0
2025-01-21 19:47:50.098762	182.4	18.4	-73.1	0.0
2025-01-21 19:47:51.221918	182.5	18.5	-72.7	0.0
2025-01-21 19:47:52.344762	182.6	18.6	-72.4	0.0
2025-01-21 19:47:53.470005	182.7	18.8	-72.5	0.0
2025-01-21 19:47:54.594284	182.8	18.9	-72.7	0.0
2025-01-21 19:47:55.716441	182.8	19.0	-73.0	0.0
2025-01-21 19:47:56.841416	182.9	19.2	-72.7	0.0
2025-01-21 19:47:57.962813	183.0	19.3	-73.6	0.0
2025-01-21 19:47:59.087296	183.1	19.4	-73.5	0.0
2025-01-21 19:48:00.211695	183.1	19.6	-73.4	0.0
2025-01-21 19:48:01.333092	183.2	19.7	-73.0	0.0
2025-01-21 19:48:02.457412	183.3	19.9	-73.9	0.0
2025-01-21 19:48:03.579694	183.4	20.0	-72.9	0.0
2025-01-21 19:48:04.702056	183.5	20.1	-73.7	0.0
2025-01-21 19:48:05.823882	183.6	20.3	-74.0	0.0
2025-01-21 19:48:06.947065	183.6	20.4	-73.2	0.0
2025-01-21 19:48:08.070438	183.7	20.6	-73.0	0.0
2025-01-21 19:48:09.194193	183.8	20.7	-73.5	0.0
2025-01-21 19:48:10.318320	183.9	20.8	-73.7	0.0
2025-01-21 19:48:11.443352	184.0	21.0	-73.7	0.0
2025-01-21 19:48:12.567263	184.1	21.1	-73.4	0.0
2025-01-21 19:48:13.688591	184.2	21.3	-73.8	0.0
2025-01-21 19:48:14.811525	184.2	21.4	-73.2	0.0
2025-01-21 19:48:15.934873	184.3	21.6	-73.1	0.0
2025-01-21 19:48:17.056943	184.4	21.7	-73.4	0.0
2025-01-21 19:48:18.181311	184.5	21.9	-73.2	0.0
2025-01-21 19:48:19.302173	184.6	22.0	-73.7	0.0
2025-01-21 19:48:20.426021	184.7	22.1	-73.6	0.0
2025-01-21 19:48:21.550342	184.8	22.3	-73.7	0.0
2025-01-21 19:48:22.673388	184.9	22.4	-73.6	0.0
2025-01-21 19:48:23.797146	185.0	22.6	-73.4	0.0
2025-01-21 19:48:24.921218	185.1	22.8	-73.3	0.0
2025-01-21 19:48:26.046456	185.2	22.9	-73.6	0.0
2025-01-21 19:48:27.169033	185.3	23.1	-73.8	0.0
2025-01-21 19:48:28.291264	185.4	23.2	-73.1	0.0
2025-01-21 19:48:29.414511	185.5	23.4	-74.4	0.0
2025-01-21 19:48:30.537005	185.6	23.5	-73.7	0.0
2025-01-21 19:48:31.659332	185.7	23.7	-73.7	0.0
2025-01-21 19:48:32.782802	185.8	23.8	-73.6	0.0
2025-01-21 19:48:33.906789	185.9	24.0	-73.8	0.0
2025-01-21 19:48:35.030005	186.0	24.2	-74.2	0.0
2025-01-21 19:48:36.152507	186.1	24.3	-73.7	0.0
2025-01-21 19:48:37.276412	186.2	24.5	-74.2	0.0
2025-01-21 19:48:38.400020	186.3	24.6	-74.2	0.0
2025-01-21 19:48:39.523554	186.4	24.8	-74.2	0.0
2025-01-21 19:48:40.648103	186.5	25.0	-74.6	0.0
2025-01-21 19:48:41.771159	186.6	25.1	-74.3	0.0
2025-01-21 19:48:42.894450	186.8	25.3	-74.0	0.0
2025-01-21 19:48:44.017719	186.9	25.5	-74.0	0.0
2025-01-21 19:48:45.138878	187.0	25.6	-74.2	0.0
2025-01-21 19:48:46.263143	187.1	25.8	-74.5	0.0
2025-01-21 19:48:47.387409	187.2	26.0	-74.3	0.0
2025-01-21 19:48:48.509805	187.3	26.1	-74.2	0.0
2025-01-21 19:48:49.632194	187.5	26.3	-73.6	0.0
2025-01-21 19:48:50.754405	187.6	26.5	-74.3	0.0
2025-01-21 19:48:51.876803	187.7	26.7	-73.7	0.0
2025-01-21 19:48:53.002177	187.8	26.8	-74.9	0.0
2025-01-21 19:48:54.125621	188.0	27.0	-73.8	0.0
2025-01-21 19:48:55.248792	188.1	27.2	-73.8	0.0
2025-01-21 19:48:56.372987	188.2	27.4	-74.5	0.0
2025-01-21 19:48:57.494086	188.3	27.5	-74.6	0.0
2025-01-21 19:48:58.617452	188.5	27.7	-74.7	0.0
2025-01-21 19:48:59.740208	188.6	27.9	-73.9	0.0
2025-01-21 19:49:00.862797	188.7	28.1	-74.2	0.0
2025-01-21 19:49:01.986173	188.9	28.3	-74.6	0.0
2025-01-21 19:49:03.109821	189.0	28.5	-74.4	0.0
2025-01-21 19:49:04.230106	189.1	28.6	-74.4	0.0
2025-01-21 19:49:05.352504	189.3	28.8	-75.3	0.0
2025-01-21 19:49:06.476213	189.4	29.0	-75.0	0.0
2025-01-21 19:49:07.599358	189.6	29.2	-75.9	0.0
2025-01-21 19:49:08.724092	189.7	29.4	-76.1	0.0
2025-01-21 19:49:09.849298	189.9	29.6	-75.5	0.0
2025-01-21 19:49:10.972710	190.0	29.8	-75.4	0.0
2025-01-21 19:49:12.096047	190.2	30.0	-75.8	0.0
2025-01-21 19:49:13.218209	190.3	30.2	-75.4	0.0
2025-01-21 19:49:14.342380	190.5	30.3	-75.9	0.0
2025-01-21 19:49:15.462252	190.6	30.5	-76.1	0.0
2025-01-21 19:49:16.584232	190.8	30.7	-76.1	0.0
2025-01-21 19:49:17.709303	190.9	30.9	-75.9	0.0
2025-01-21 19:49:18.833856	191.1	31.1	-76.2	0.0
2025-01-21 19:49:19.957949	191.3	31.3	-76.6	0.0
2025-01-21 19:49:21.081756	191.4	31.5	-76.0	0.0
2025-01-21 19:49:22.206288	191.6	31.7	-76.1	0.0
2025-01-21 19:49:23.330003	191.8	31.9	-76.1	0.0
2025-01-21 19:49:24.454368	191.9	32.1	-76.1	0.0
2025-01-21 19:49:25.577425	192.1	32.3	-76.6	0.0
2025-01-21 19:49:26.699711	192.3	32.6	-76.1	0.0
2025-01-21 19:49:27.823281	192.4	32.8	-75.9	0.0
2025-01-21 19:49:28.946727	192.6	33.0	-76.6	0.0
2025-01-21 19:49:30.071297	192.8	33.2	-76.9	0.0
2025-01-21 19:49:31.195956	193.0	33.4	-77.3	0.0
2025-01-21 19:49:32.318813	193.2	33.6	-76.4	0.0
2025-01-21 19:49:33.442375	193.4	33.8	-76.9	0.0
2025-01-21 19:49:34.567148	193.6	34.0	-77.0	0.0
2025-01-21 19:49:35.691751	193.8	34.2	-76.3	0.0
2025-01-21 19:49:36.812604	193.9	34.5	-77.1	0.0
2025-01-21 19:49:37.934252	194.1	34.7	-77.2	0.0
2025-01-21 19:49:39.057101	194.3	34.9	-77.3	0.0
2025-01-21 19:49:40.180157	194.5	35.1	-77.6	0.0
2025-01-21 19:49:41.304361	194.8	35.3	-77.2	0.0
2025-01-21 19:49:42.429399	195.0	35.6	-77.5	0.0
2025-01-21 19:49:43.554191	195.2	35.8	-77.7	0.0
2025-01-21 19:49:44.677319	195.4	36.0	-77.2	0.0
2025-01-21 19:49:45.800728	195.6	36.2	-77.5	0.0
2025-01-21 19:49:46.925022	195.8	36.5	-77.2	0.0
2025-01-21 19:49:48.047420	196.0	36.7	-77.5	0.0
2025-01-21 19:49:49.170469	196.3	36.9	-77.5	0.0
2025-01-21 19:49:50.295058	196.5	37.1	-77.9	0.0
2025-01-21 19:49:51.418868	196.7	37.4	-78.0	0.0
2025-01-21 19:49:52.541319	197.0	37.6	-78.4	0.0
2025-01-21 19:49:53.664223	197.2	37.8	-78.3	0.0
2025-01-21 19:49:54.787163	197.5	38.1	-78.1	0.0
2025-01-21 19:49:55.908808	197.7	38.3	-78.4	0.0
2025-01-21 19:49:57.031326	198.0	38.6	-78.4	1.1
2025-01-21 19:49:58.153805	198.2	38.8	-78.2	1.0
2025-01-21 19:49:59.276959	198.5	39.0	-78.3	1.8
2025-01-21 19:50:00.399407	198.7	39.3	-78.1	2.5
2025-01-21 19:50:01.520768	199.0	39.5	-78.1	3.4
2025-01-21 19:50:02.646495	199.3	39.7	-78.4	3.7
2025-01-21 19:50:03.770747	199.5	40.0	-78.5	4.2
2025-01-21 19:50:04.892184	199.8	40.2	-78.1	3.3
2025-01-21 19:50:06.015800	200.1	40.5	-78.3	4.1
2025-01-21 19:50:07.137530	200.4	40.7	-78.5	3.5
2025-01-21 19:50:08.260374	200.7	41.0	-78.9	4.5
2025-01-21 19:50:09.383534	200.9	41.2	-78.6	2.9
2025-01-21 19:50:10.507514	201.2	41.5	-78.6	3.1
2025-01-21 19:50:11.630645	201.5	41.7	-78.7	3.8
2025-01-21 19:50:12.753088	201.9	42.0	-78.3	4.3
2025-01-21 19:50:13.875973	202.2	42.2	-78.8	5.5
2025-01-21 19:50:14.999124	202.5	42.5	-79.1	5.8
2025-01-21 19:50:16.120523	202.8	42.7	-78.4	5.9
2025-01-21 19:50:17.243085	203.1	43.0	-78.1	6.2
2025-01-21 19:50:18.365810	203.5	43.2	-78.5	6.5
2025-01-21 19:50:19.490477	203.8	43.5	-78.9	6.5
2025-01-21 19:50:20.614251	204.1	43.7	-78.5	6.1
2025-01-21 19:50:21.737418	204.5	44.0	-78.8	6.9
2025-01-21 19:50:22.861318	204.8	44.2	-78.4	7.3
2025-01-21 19:50:23.984423	205.2	44.5	-78.4	6.7
2025-01-21 19:50:25.108736	205.6	44.7	-78.5	6.9
2025-01-21 19:50:26.232429	205.9	45.0	-78.6	7.2
2025-01-21 19:50:27.355999	206.3	45.3	-78.6	8.3
2025-01-21 19:50:28.479438	206.7	45.5	-78.7	7.8
2025-01-21 19:50:29.602853	207.1	45.8	-78.5	7.1
2025-01-21 19:50:30.727311	207.5	46.0	-78.7	8.1
2025-01-21 19:50:31.850000	207.9	46.3	-78.5	7.8
2025-01-21 19:50:32.973311	208.3	46.5	-78.5	8.3
2025-01-21 19:50:34.097195	208.7	46.8	-78.6	8.3
2025-01-21 19:50:35.219683	209.1	47.1	-78.5	9.1
2025-01-21 19:50:36.343350	209.5	47.3	-78.5	9.3
2025-01-21 19:50:37.467524	210.0	47.6	-78.3	9.5
2025-01-21 19:50:38.589127	210.4	47.8	-78.5	9.2
2025-01-21 19:50:39.712376	210.9	48.1	-78.4	9.6
2025-01-21 19:50:40.835101	211.3	48.4	-78.4	9.4
2025-01-21 19:50:41.958851	211.8	48.6	-78.0	8.7
2025-01-21 19:50:43.082298	212.3	48.9	-78.3	8.7
2025-01-21 19:50:44.206124	212.7	49.1	-78.6	8.6
2025-01-21 19:50:45.330974	213.2	49.4	-78.4	8.0
2025-01-21 19:50:46.453822	213.7	49.6	-78.8	8.5
2025-01-21 19:50:47.577293	214.2	49.9	-78.8	8.3
2025-01-21 19:50:48.699261	214.7	50.1	-78.4	8.0
2025-01-21 19:50:49.823863	215.3	50.4	-78.8	8.5
2025-01-21 19:50:50.945984	215.8	50.6	-78.6	9.7
2025-01-21 19:50:52.069777	216.3	50.9	-78.3	9.5
2025-01-21 19:50:53.191659	216.9	51.1	-78.0	10.3
2025-01-21 19:50:54.314526	217.4	51.4	-77.9	9.7
2025-01-21 19:50:55.441099	218.0	51.6	-78.1	10.5
2025-01-21 19:50:56.565087	218.6	51.9	-78.0	10.4
2025-01-21 19:50:57.686958	219.1	52.1	-77.8	10.2
2025-01-21 19:50:58.808883	219.7	52.3	-77.9	10.4
2025-01-21 19:50:59.929632	220.3	52.6	-77.9	10.2
2025-01-21 19:51:01.052307	220.9	52.8	-77.9	11.0
2025-01-21 19:51:02.176063	221.6	53.0	-78.0	10.3
2025-01-21 19:51:03.298828	222.2	53.3	-78.2	9.7
2025-01-21 19:51:04.419686	222.8	53.5	-78.3	9.1
2025-01-21 19:51:05.542910	223.5	53.7	-78.6	9.2
2025-01-21 19:51:06.665063	224.1	53.9	-78.3	9.7
2025-01-21 19:51:07.787428	224.8	54.2	-78.2	9.6
2025-01-21 19:51:08.911237	225.5	54.4	-77.7	10.5
2025-01-21 19:51:10.034748	226.2	54.6	-77.7	10.2
2025-01-21 19:51:11.156733	226.9	54.8	-77.8	10.6
2025-01-21 19:51:12.282507	227.6	55.0	-77.7	10.8
2025-01-21 19:51:13.405352	228.3	55.2	-77.6	11.0
2025-01-21 19:51:14.529018	229.1	55.4	-77.9	11.0
2025-01-21 19:51:15.653558	229.8	55.6	-77.6	10.5
2025-01-21 19:51:16.777205	230.5	55.8	-77.8	11.0
2025-01-21 19:51:17.900915	231.3	56.0	-78.0	10.2
2025-01-21 19:51:19.024678	232.1	56.2	-78.0	10.2
2025-01-21 19:51:20.146870	232.9	56.3	-78.0	9.7
2025-01-21 19:51:21.269952	233.7	56.5	-78.0	9.5
2025-01-21 19:51:22.391660	234.5	56.7	-78.0	9.6
2025-01-21 19:51:23.513342	235.3	56.8	-78.0	10.6
2025-01-21 19:51:24.637323	236.1	57.0	-78.0	10.6
2025-01-21 19:51:25.760859	236.9	57.2	-78.0	10.6
2025-01-21 19:51:26.884740	237.8	57.3	-77.8	11.5
2025-01-21 19:51:28.007789	238.6	57.5	-77.9	11.4
2025-01-21 19:51:29.129372	239.5	57.6	-77.8	11.2
2025-01-21 19:51:30.254146	240.3	57.7	-77.7	11.2
2025-01-21 19:51:31.376644	241.2	57.8	-77.8	10.2
2025-01-21 19:51:32.500126	242.1	58.0	-78.2	10.9
2025-01-21 19:51:33.622530	243.0	58.1	-78.0	10.9
2025-01-21 19:51:34.745693	243.9	58.2	-77.9	10.8
2025-01-21 19:51:35.869121	244.8	58.3	-77.9	10.3
2025-01-21 19:51:36.989770	245.7	58.4	-77.5	9.7
2025-01-21 19:51:38.113453	246.6	58.5	-77.3	10.0
2025-01-21 19:51:39.236025	247.5	58.6	-78.0	10.7
2025-01-21 19:51:40.357719	248.5	58.6	-77.8	11.4
2025-01-21 19:51:41.480504	249.4	58.7	-77.7	10.9
2025-01-21 19:51:42.604266	250.3	58.8	-77.6	11.8
2025-01-21 19:51:43.727208	251.3	58.8	-77.5	12.1
2025-01-21 19:51:44.851409	252.2	58.9	-77.4	12.0
2025-01-21 19:51:45.975796	253.2	58.9	-77.4	11.4
2025-01-21 19:51:47.099458	254.1	58.9	-77.5	11.6
2025-01-21 19:51:48.221016	255.1	59.0	-77.4	11.8
2025-01-21 19:51:49.345089	256.0	59.0	-77.5	11.6
2025-01-21 19:51:50.468865	257.0	59.0	-77.4	11.7
2025-01-21 19:51:51.591745	257.9	59.0	-77.5	11.2
2025-01-21 19:51:52.714110	258.9	59.0	-77.4	11.4
2025-01-21 19:51:53.838236	259.8	59.0	-77.3	11.3
2025-01-21 19:51:54.963052	260.8	58.9	-77.3	11.4
2025-01-21 19:51:56.086025	261.8	58.9	-77.4	10.8
2025-01-21 19:51:57.208289	262.7	58.9	-77.4	10.6
2025-01-21 19:51:58.329691	263.7	58.9	-77.5	10.5
2025-01-21 19:51:59.452327	264.6	58.8	-77.3	11.0
2025-01-21 19:52:00.576773	265.5	58.8	-77.4	10.3
2025-01-21 19:52:01.698863	266.5	58.7	-77.6	10.5
2025-01-21 19:52:02.822857	267.4	58.6	-77.7	10.4
2025-01-21 19:52:03.947059	268.3	58.5	-77.5	9.5
2025-01-21 19:52:05.069118	269.3	58.5	-77.4	9.5
2025-01-21 19:52:06.192356	270.2	58.4	-77.5	8.8
2025-01-21 19:52:07.314966	271.1	58.3	-77.3	8.4
2025-01-21 19:52:08.436251	272.0	58.2	-77.2	7.8
2025-01-21 19:52:09.561479	272.9	58.1	-77.7	8.3
2025-01-21 19:52:10.684671	273.8	58.0	-77.9	7.8
2025-01-21 19:52:11.806602	274.7	57.8	-77.7	7.8
2025-01-21 19:52:12.928909	275.5	57.7	-78.0	7.4
2025-01-21 19:52:14.050134	276.4	57.6	-78.0	6.2
2025-01-21 19:52:15.173706	277.2	57.4	-78.0	4.8
2025-01-21 19:52:16.297579	278.1	57.3	-77.7	4.8
2025-01-21 19:52:17.419940	278.9	57.2	-77.4	4.5
2025-01-21 19:52:18.542867	279.8	57.0	-77.8	5.1
2025-01-21 19:52:19.665049	280.6	56.8	-77.8	5.8
2025-01-21 19:52:20.787195	281.4	56.7	-77.4	4.3
2025-01-21 19:52:21.910073	282.2	56.5	-77.5	3.4
2025-01-21 19:52:23.030983	283.0	56.3	-77.8	4.9
2025-01-21 19:52:24.152240	283.8	56.2	-78.6	5.0
2025-01-21 19:52:25.276462	284.5	56.0	-78.0	4.6
2025-01-21 19:52:26.401240	285.3	55.8	-78.2	5.4
2025-01-21 19:52:27.524707	286.1	55.6	-78.3	5.9
2025-01-21 19:52:28.647035	286.8	55.4	-78.0	5.4
2025-01-21 19:52:29.769352	287.5	55.2	-77.8	4.4
2025-01-21 19:52:30.891349	288.3	55.0	-78.4	5.8
2025-01-21 19:52:32.012176	289.0	54.8	-77.9	5.3
2025-01-21 19:52:33.136456	289.7	54.6	-78.0	4.8
2025-01-21 19:52:34.261278	290.4	54.4	-77.9	4.9
2025-01-21 19:52:35.383826	291.0	54.2	-77.8	4.9
2025-01-21 19:52:36.506527	291.7	53.9	-77.9	4.4
2025-01-21 19:52:37.627996	292.4	53.7	-78.3	4.4
2025-01-21 19:52:38.751263	293.0	53.5	-77.9	4.9
2025-01-21 19:52:39.875245	293.7	53.3	-77.6	3.7
2025-01-21 19:52:41.000199	294.3	53.0	-76.7	2.8
2025-01-21 19:52:42.122143	294.9	52.8	-77.8	5.0
2025-01-21 19:52:43.245254	295.5	52.6	-77.6	4.4
2025-01-21 19:52:44.369020	296.1	52.3	-77.8	5.2
2025-01-21 19:52:45.491869	296.7	52.1	-77.7	3.4
2025-01-21 19:52:46.617194	297.3	51.9	-78.1	3.8
2025-01-21 19:52:47.738654	297.9	51.6	-77.9	4.0
2025-01-21 19:52:48.864110	298.4	51.4	-78.1	2.8
2025-01-21 19:52:49.987253	299.0	51.1	-77.8	2.2
2025-01-21 19:52:51.111369	299.5	50.9	-77.9	1.1
2025-01-21 19:52:52.233114	300.1	50.6	-78.2	2.7
2025-01-21 19:52:53.354792	300.6	50.4	-77.6	1.1
2025-01-21 19:52:54.478267	301.1	50.1	-77.3	0.0
2025-01-21 19:52:55.601842	301.6	49.9	-78.1	1.2
2025-01-21 19:52:56.724786	302.1	49.6	-78.2	0.7
2025-01-21 19:52:57.846129	302.6	49.4	-77.0	0.0
2025-01-21 19:52:58.969539	303.1	49.1	-78.0	0.0
2025-01-21 19:53:00.092151	303.6	48.9	-77.9	0.0
2025-01-21 19:53:01.216158	304.1	48.6	-78.0	0.4
2025-01-21 19:53:02.337275	304.5	48.4	-78.3	0.0
2025-01-21 19:53:03.460331	305.0	48.1	-78.0	0.0
2025-01-21 19:53:04.584263	305.4	47.8	-77.9	0.0
2025-01-21 19:53:05.708434	305.9	47.6	-78.2	0.0
2025-01-21 19:53:06.831813	306.3	47.3	-77.3	0.0
2025-01-21 19:53:07.953409	306.7	47.1	-77.4	0.0
2025-01-21 19:53:09.076547	307.1	46.8	-76.8	0.0
2025-01-21 19:53:10.199549	307.6	46.6	-76.4	0.0
2025-01-21 19:53:11.322034	308.0	46.3	-76.7	0.0
2025-01-21 19:53:12.445068	308.4	46.0	-77.4	0.0
2025-01-21 19:53:13.569072	308.8	45.8	-76.0	0.0
2025-01-21 19:53:14.691458	309.1	45.5	-77.5	0.0
2025-01-21 19:53:15.814614	309.5	45.3	-76.9	0.0
2025-01-21 19:53:16.940281	309.9	45.0	-76.9	0.0
2025-01-21 19:53:18.064830	310.3	44.8	-77.9	0.0
2025-01-21 19:53:19.184870	310.6	44.5	-78.2	0.0
2025-01-21 19:53:20.309750	311.0	44.2	-77.7	0.0
2025-01-21 19:53:21.435771	311.4	44.0	-76.6	0.0
2025-01-21 19:53:22.560430	311.7	43.7	-77.7	0.0
2025-01-21 19:53:23.683287	312.0	43.5	-78.1	0.0
2025-01-21 19:53:24.808660	312.4	43.2	-77.7	0.0
2025-01-21 19:53:25.930579	312.7	43.0	-75.6	0.0
2025-01-21 19:53:27.054433	313.0	42.7	-77.3	0.0
2025-01-21 19:53:28.177172	313.4	42.5	-77.8	0.0
2025-01-21 19:53:29.299051	313.7	42.2	-76.9	0.0
2025-01-21 19:53:30.421716	314.0	42.0	-75.7	0.0
2025-01-21 19:53:31.546026	314.3	41.7	-76.7	0.0
2025-01-21 19:53:32.668943	314.6	41.5	-77.2	0.0
2025-01-21 19:53:33.791547	314.9	41.2	-77.5	0.0
2025-01-21 19:53:34.915375	315.2	41.0	-75.8	0.0
2025-01-21 19:53:36.037385	315.5	40.7	-75.7	0.0
2025-01-21 19:53:37.159217	315.8	40.5	-74.9	0.0
2025-01-21 19:53:38.283068	316.0	40.2	-77.6	0.0
2025-01-21 19:53:39.404049	316.3	40.0	-74.6	0.0
2025-01-21 19:53:40.527733	316.6	39.8	-76.8	0.0
2025-01-21 19:53:41.649870	316.9	39.5	-77.3	0.0
2025-01-21 19:53:42.773420	317.1	39.3	-73.6	0.0
2025-01-21 19:53:43.897616	317.4	39.0	-74.3	0.0
2025-01-21 19:53:45.021530	317.6	38.8	-76.9	0.0
2025-01-21 19:53:46.146139	317.9	38.6	-76.3	0.0
2025-01-21 19:53:47.267499	318.1	38.3	-75.9	0.0
2025-01-21 19:53:48.390215	318.4	38.1	-72.1	0.0
2025-01-21 19:53:49.512624	318.6	37.9	-75.1	0.0
2025-01-21 19:53:50.636627	318.9	37.6	-75.4	0.0
2025-01-21 19:53:51.759884	319.1	37.4	-76.0	0.0
2025-01-21 19:53:52.883527	319.3	37.2	-76.7	0.0
2025-01-21 19:53:54.008780	319.6	36.9	-75.9	0.0
2025-01-21 19:53:55.132211	319.8	36.7	-76.3	0.0
2025-01-21 19:53:56.253566	320.0	36.5	-76.9	0.0
2025-01-21 19:53:57.376412	320.2	36.3	-76.7	0.0
2025-01-21 19:53:58.499388	320.5	36.0	-75.0	0.0
2025-01-21 19:53:59.623022	320.7	35.8	-74.0	0.0
2025-01-21 19:54:00.746423	320.9	35.6	-75.4	0.0
2025-01-21 19:54:01.868743	321.1	35.4	-77.5	0.0
2025-01-21 19:54:02.992989	321.3	35.1	-77.2	0.0
2025-01-21 19:54:04.113663	321.5	34.9	-77.0	0.0
2025-01-21 19:54:05.237221	321.7	34.7	-75.9	0.0
2025-01-21 19:54:06.357943	321.9	34.5	-75.7	0.0
2025-01-21 19:54:07.481037	322.1	34.3	-76.4	0.0
2025-01-21 19:54:08.604155	322.3	34.1	-76.4	0.0
2025-01-21 19:54:09.727979	322.5	33.8	-75.6	0.0
2025-01-21 19:54:10.852525	322.7	33.6	-76.0	0.0
2025-01-21 19:54:11.973886	322.9	33.4	-73.5	0.0
2025-01-21 19:54:13.098671	323.0	33.2	-76.6	0.0
2025-01-21 19:54:14.222350	323.2	33.0	-76.5	0.0
2025-01-21 19:54:15.345274	323.4	32.8	-75.6	0.0
2025-01-21 19:54:16.470107	323.6	32.6	-75.6	0.0
2025-01-21 19:54:17.593752	323.7	32.4	-75.4	0.0
2025-01-21 19:54:18.716615	323.9	32.2	-76.6	0.0
2025-01-21 19:54:19.841166	324.1	32.0	-76.8	0.0
2025-01-21 19:54:20.964967	324.3	31.8	-75.8	0.0
2025-01-21 19:54:22.089157	324.4	31.6	-75.4	0.0
2025-01-21 19:54:23.213173	324.6	31.4	-76.4	0.0
2025-01-21 19:54:24.338215	324.8	31.2	-76.2	0.0
2025-01-21 19:54:25.458445	324.9	31.0	-75.9	0.0
2025-01-21 19:54:26.584543	325.1	30.8	-76.0	0.0
2025-01-21 19:54:27.707577	325.2	30.6	-76.0	0.0
2025-01-21 19:54:28.829022	325.4	30.4	-76.0	0.0
2025-01-21 19:54:29.953087	325.5	30.2	-74.7	0.0
2025-01-21 19:54:31.078206	325.7	30.0	-75.7	0.0
2025-01-21 19:54:32.201983	325.8	29.8	-75.8	0.0
2025-01-21 19:54:33.324488	326.0	29.6	-75.2	0.0
2025-01-21 19:54:34.446006	326.1	29.4	-75.3	0.0
2025-01-21 19:54:35.568571	326.3	29.2	-73.7	0.0
2025-01-21 19:54:36.689559	326.4	29.0	-75.3	0.0
2025-01-21 19:54:37.811124	326.6	28.9	-75.2	0.0
2025-01-21 19:54:38.934378	326.7	28.7	-75.8	0.0
2025-01-21 19:54:40.055661	326.8	28.5	-74.2	0.0
2025-01-21 19:54:41.176296	327.0	28.3	-74.6	0.0
2025-01-21 19:54:42.301419	327.1	28.1	-74.3	0.0
2025-01-21 19:54:43.425761	327.2	27.9	-74.8	0.0
2025-01-21 19:54:44.547247	327.4	27.8	-75.1	0.0
2025-01-21 19:54:45.669919	327.5	27.6	-74.6	0.0
2025-01-21 19:54:46.792018	327.6	27.4	-74.4	0.0
2025-01-21 19:54:47.914258	327.8	27.2	-74.0	0.0
2025-01-21 19:54:49.037110	327.9	27.0	-74.3	0.0
2025-01-21 19:54:50.159846	328.0	26.9	-73.1	0.0
2025-01-21 19:54:51.283331	328.1	26.7	-74.3	0.0
2025-01-21 19:54:52.406636	328.3	26.5	-74.2	0.0
2025-01-21 19:54:53.529119	328.4	26.4	-74.5	0.0
2025-01-21 19:54:54.652024	328.5	26.2	-74.1	0.0
2025-01-21 19:54:55.777075	328.6	26.0	-72.3	0.0
2025-01-21 19:54:56.899291	328.8	25.8	-74.6	0.0
2025-01-21 19:54:58.021980	328.9	25.7	-72.7	0.0
2025-01-21 19:54:59.145318	329.0	25.5	-72.4	0.0
2025-01-21 19:55:00.266485	329.1	25.3	-73.6	0.0
2025-01-21 19:55:01.388827	329.2	25.2	-74.8	0.0
2025-01-21 19:55:02.513384	329.3	25.0	-74.5	0.0
2025-01-21 19:55:03.637464	329.4	24.8	-74.0	0.0
2025-01-21 19:55:04.763421	329.5	24.7	-74.6	0.0
2025-01-21 19:55:05.884167	329.7	24.5	-74.5	0.0
2025-01-21 19:55:07.006973	329.8	24.4	-74.0	0.0
2025-01-21 19:55:08.129976	329.9	24.2	-74.7	0.0
2025-01-21 19:55:09.256239	330.0	24.0	-73.9	0.0
2025-01-21 19:55:10.379180	330.1	23.9	-74.1	0.0
2025-01-21 19:55:11.501549	330.2	23.7	-73.4	0.0
2025-01-21 19:55:12.624797	330.3	23.6	-73.2	0.0
2025-01-21 19:55:13.750021	330.4	23.4	-73.9	0.0
2025-01-21 19:55:14.873610	330.5	23.3	-73.7	0.0
2025-01-21 19:55:15.997196	330.6	23.1	-74.2	0.0
2025-01-21 19:55:17.120278	330.7	22.9	-73.5	0.0
2025-01-21 19:55:18.243848	330.8	22.8	-74.3	0.0
2025-01-21 19:55:19.366764	330.9	22.6	-74.8	0.0
2025-01-21 19:55:20.491342	331.0	22.5	-73.0	0.0
2025-01-21 19:55:21.616045	331.1	22.3	-71.6	0.0
2025-01-21 19:55:22.740066	331.2	22.2	-73.9	0.0
2025-01-21 19:55:23.863459	331.3	22.0	-73.1	0.0
2025-01-21 19:55:24.985918	331.4	21.9	-73.6	0.0
2025-01-21 19:55:26.107841	331.5	21.7	-75.3	0.0
2025-01-21 19:55:27.230547	331.5	21.6	-74.7	0.0
2025-01-21 19:55:28.352649	331.6	21.5	-76.0	0.0
2025-01-21 19:55:29.476422	331.7	21.3	-75.1	0.0
2025-01-21 19:55:30.600578	331.8	21.2	-74.4	0.0
2025-01-21 19:55:31.723647	331.9	21.0	-73.0	0.0
2025-01-21 19:55:32.847345	332.0	20.9	-75.8	0.0
2025-01-21 19:55:33.971575	332.1	20.7	-75.0	0.0
2025-01-21 19:55:35.094575	332.2	20.6	-73.7	0.0
2025-01-21 19:55:36.215402	332.3	20.5	-73.9	0.0
2025-01-21 19:55:37.339447	332.3	20.3	-73.7	0.0
2025-01-21 19:55:38.462389	332.4	20.2	-75.1	0.0
2025-01-21 19:55:39.584447	332.5	20.0	-75.6	0.0
2025-01-21 19:55:40.709074	332.6	19.9	-73.8	0.0
2025-01-21 19:55:41.832229	332.7	19.8	-75.4	0.0
2025-01-21 19:55:42.956909	332.7	19.6	-74.6	0.0
2025-01-21 19:55:44.081204	332.8	19.5	-75.0	0.0
2025-01-21 19:55:45.204980	332.9	19.4	-73.7	0.0
2025-01-21 19:55:46.328980	333.0	19.2	-74.0	0.0
2025-01-21 19:55:47.450091	333.1	19.1	-73.6	0.0
2025-01-21 19:55:48.574667	333.1	19.0	-74.0	0.0
2025-01-21 19:55:49.696716	333.2	18.8	-73.6	0.0
2025-01-21 19:55:50.820977	333.3	18.7	-70.8	0.0
2025-01-21 19:55:51.944267	333.4	18.6	-73.0	0.0
2025-01-21 19:55:53.066657	333.4	18.4	-72.6	0.0
2025-01-21 19:55:54.189430	333.5	18.3	-72.6	0.0
2025-01-21 19:55:55.312247	333.6	18.2	-72.7	0.0
2025-01-21 19:55:56.434517	333.7	18.0	-70.6	0.0
2025-01-21 19:55:57.559425	333.7	17.9	-71.9	0.0
2025-01-21 19:55:58.683480	333.8	17.8	-71.7	0.0
2025-01-21 19:55:59.806586	333.9	17.7	-73.2	0.0
2025-01-21 19:56:00.927135	334.0	17.5	-72.4	0.0
2025-01-21 19:56:02.048727	334.0	17.4	-71.0	0.0
2025-01-21 19:56:03.172438	334.1	17.3	-71.7	0.0
2025-01-21 19:56:04.296061	334.2	17.2	-73.2	0.0
2025-01-21 19:56:05.417512	334.2	17.0	-72.8	0.0
2025-01-21 19:56:06.539929	334.3	16.9	-70.9	0.0
2025-01-21 19:56:07.661852	334.4	16.8	-72.2	0.0
2025-01-21 19:56:08.784172	334.4	16.7	-71.1	0.0
2025-01-21 19:56:09.906507	334.5	16.6	-68.1	0.0
2025-01-21 19:56:11.028872	334.6	16.4	-70.1	0.0
2025-01-21 19:56:12.152064	334.6	16.3	-68.5	0.0
2025-01-21 19:56:13.276298	334.7	16.2	-70.3	0.0
2025-01-21 19:56:14.401782	334.8	16.1	-70.3	0.0
2025-01-21 19:56:15.524799	334.8	16.0	-70.7	0.0
2025-01-21 19:56:16.649204	334.9	15.8	-70.2	0.0
2025-01-21 19:56:17.772066	335.0	15.7	-71.1	0.0
2025-01-21 19:56:18.896311	335.0	15.6	-71.1	0.0
2025-01-21 19:56:20.018566	335.1	15.5	-71.8	0.0
2025-01-21 19:56:21.139796	335.2	15.4	-69.3	0.0
2025-01-21 19:56:22.262072	335.2	15.3	-68.6	0.0
2025-01-21 19:56:23.385788	335.3	15.1	-67.5	0.0
2025-01-21 19:56:24.511889	335.3	15.0	-69.5	0.0
2025-01-21 19:56:25.634429	335.4	14.9	-70.9	0.0
2025-01-21 19:56:26.756960	335.5	14.8	-71.5	0.0
2025-01-21 19:56:27.879953	335.5	14.7	-70.7	0.0
2025-01-21 19:56:29.004103	335.6	14.6	-73.0	0.0
2025-01-21 19:56:30.126899	335.6	14.5	-71.3	0.0
2025-01-21 19:56:31.250065	335.7	14.3	-70.2	0.0
2025-01-21 19:56:32.373027	335.8	14.2	-71.6	0.0
2025-01-21 19:56:33.496563	335.8	14.1	-69.8	0.0
2025-01-21 19:56:34.621925	335.9	14.0	-71.9	0.0
2025-01-21 19:56:35.747297	335.9	13.9	-71.0	0.0
2025-01-21 19:56:36.870745	336.0	13.8	-71.3	0.0
2025-01-21 19:56:37.993745	336.0	13.7	-71.6	0.0
2025-01-21 19:56:39.116981	336.1	13.6	-70.1	0.0
2025-01-21 19:56:40.241331	336.2	13.5	-69.4	0.0
2025-01-21 19:56:41.365383	336.2	13.4	-69.1	0.0
2025-01-21 19:56:42.489082	336.3	13.3	-70.4	0.0
2025-01-21 19:56:43.616383	336.3	13.2	-70.6	0.0
2025-01-21 19:56:44.742066	336.4	13.0	-71.2	0.0
2025-01-21 19:56:45.865518	336.4	12.9	-72.0	0.0
2025-01-21 19:56:46.992275	336.5	12.8	-72.3	0.0
2025-01-21 19:56:48.117048	336.5	12.7	-68.0	0.0
2025-01-21 19:56:49.241300	336.6	12.6	-67.0	0.0
2025-01-21 19:56:50.364357	336.6	12.5	-71.6	0.0
2025-01-21 19:56:51.489096	336.7	12.4	-70.2	0.0
2025-01-21 19:56:52.611796	336.7	12.3	-70.5	0.0
2025-01-21 19:56:53.734287	336.8	12.2	-70.0	0.0
2025-01-21 19:56:54.857956	336.8	12.1	-71.5	0.0
2025-01-21 19:56:55.982527	336.9	12.0	-71.1	0.0
2025-01-21 19:56:57.106475	337.0	11.9	-67.8	0.0
2025-01-21 19:56:58.229397	337.0	11.8	-70.1	0.0
2025-01-21 19:56:59.352119	337.1	11.7	-68.8	0.0
2025-01-21 19:57:00.476207	337.1	11.6	-72.3	0.0
2025-01-21 19:57:01.599098	337.2	11.5	-70.0	0.0
2025-01-21 19:57:02.721938	337.2	11.4	-73.5	0.0
2025-01-21 19:57:03.844745	337.2	11.3	-71.1	0.0
2025-01-21 19:57:04.967442	337.3	11.2	-72.3	0.0
2025-01-21 19:57:06.091633	337.3	11.1	-71.6	0.0
2025-01-21 19:57:07.213806	337.4	11.0	-74.0	0.0
2025-01-21 19:57:08.336005	337.4	10.9	-75.2	0.0
2025-01-21 19:57:09.461231	337.5	10.8	-76.9	0.0
2025-01-21 19:57:10.581912	337.5	10.7	-75.6	0.0
2025-01-21 19:57:11.705344	337.6	10.6	-77.7	0.0
2025-01-21 19:57:12.830192	337.6	10.5	-77.7	0.0
2025-01-21 19:57:13.953237	337.7	10.4	-80.4	0.0
2025-01-21 19:57:15.078395	337.7	10.3	-80.8	0.0
2025-01-21 19:57:16.203927	337.8	10.2	-81.0	0.0
2025-01-21 19:57:17.327718	337.8	10.1	-81.0	0.0
2025-01-21 19:57:18.449353	337.9	10.1	-80.8	0.0
2025-01-21 19:57:19.573448	337.9	10.0	-80.6	0.0
#Closed at: 2025-01-21 19:46:19.819544