passes_logs/2025/01/21/planumMaritime01/planumMaritime01__20250121_165714_METOP-C_rec.log

#Pass ID: 20250121_165714_METOP-C
#Satellite: METOP-C
#Configuration: METOP-C
#Start time: 2025-01-21 16:57:19.840069

#LorettStation: 1.0.0 05.05.2024
#Station: planumMaritime01
#Location: 37.49445 lon 55.92918 lat
#TLE: 1 43689U 18087A   25021.13484048  .00000355  00000+0  18225-3 0  9999
#TLE: 2 43689  98.6955  83.5353 0001694 153.0622 207.0643 14.21485654322087

#Time	Az	El	Level	SNR
2025-01-21 16:57:21.995022	121.4	10.2	-68.1	0.0
2025-01-21 16:57:23.119642	121.3	10.3	-67.4	0.0
2025-01-21 16:57:24.244759	121.2	10.3	-67.1	0.0
2025-01-21 16:57:25.368020	121.1	10.4	-67.4	0.0
2025-01-21 16:57:26.490226	121.0	10.5	-67.7	0.0
2025-01-21 16:57:27.615738	120.9	10.6	-68.6	0.0
2025-01-21 16:57:28.740423	120.8	10.7	-67.7	0.0
2025-01-21 16:57:29.861873	120.7	10.8	-67.6	0.0
2025-01-21 16:57:30.985630	120.6	10.9	-67.2	0.0
2025-01-21 16:57:32.109803	120.5	11.0	-68.1	0.0
2025-01-21 16:57:33.236803	120.4	11.1	-67.8	0.0
2025-01-21 16:57:34.357998	120.3	11.2	-69.2	0.0
2025-01-21 16:57:35.481373	120.2	11.3	-68.7	0.0
2025-01-21 16:57:36.605835	120.1	11.3	-65.7	0.0
2025-01-21 16:57:37.728044	120.0	11.4	-67.1	0.0
2025-01-21 16:57:38.851166	119.9	11.5	-68.1	0.0
2025-01-21 16:57:39.972652	119.8	11.6	-68.0	0.0
2025-01-21 16:57:41.093682	119.7	11.7	-67.8	0.0
2025-01-21 16:57:42.216247	119.6	11.8	-69.5	0.0
2025-01-21 16:57:43.339604	119.5	11.9	-69.6	0.0
2025-01-21 16:57:44.464123	119.4	12.0	-70.7	0.0
2025-01-21 16:57:45.588416	119.3	12.1	-71.1	0.0
2025-01-21 16:57:46.711617	119.2	12.2	-71.3	0.0
2025-01-21 16:57:47.835750	119.1	12.3	-69.8	0.0
2025-01-21 16:57:48.961479	119.0	12.4	-71.0	0.0
2025-01-21 16:57:50.087140	118.9	12.5	-71.1	0.0
2025-01-21 16:57:51.210728	118.8	12.6	-72.6	0.0
2025-01-21 16:57:52.334065	118.7	12.7	-70.3	0.0
2025-01-21 16:57:53.456759	118.6	12.8	-69.1	0.0
2025-01-21 16:57:54.578346	118.5	12.9	-69.4	0.0
2025-01-21 16:57:55.703627	118.4	13.0	-71.1	0.0
2025-01-21 16:57:56.825744	118.2	13.0	-72.4	0.0
2025-01-21 16:57:57.948198	118.1	13.1	-68.5	0.0
2025-01-21 16:57:59.069761	118.0	13.2	-72.5	0.0
2025-01-21 16:58:00.192663	117.9	13.3	-71.0	0.0
2025-01-21 16:58:01.315492	117.8	13.4	-72.6	0.0
2025-01-21 16:58:02.437743	117.7	13.5	-71.1	0.0
2025-01-21 16:58:03.560174	117.6	13.6	-70.0	0.0
2025-01-21 16:58:04.683169	117.4	13.7	-71.1	0.0
2025-01-21 16:58:05.806541	117.3	13.8	-68.6	0.0
2025-01-21 16:58:06.925778	117.2	13.9	-72.2	0.0
2025-01-21 16:58:08.049680	117.1	14.0	-70.5	0.0
2025-01-21 16:58:09.175872	117.0	14.1	-70.4	0.0
2025-01-21 16:58:10.299636	116.9	14.2	-70.3	0.0
2025-01-21 16:58:11.424363	116.7	14.3	-71.0	0.0
2025-01-21 16:58:12.547544	116.6	14.4	-69.9	0.0
2025-01-21 16:58:13.672573	116.5	14.5	-68.7	0.0
2025-01-21 16:58:14.795495	116.4	14.6	-68.6	0.0
2025-01-21 16:58:15.919032	116.2	14.7	-71.3	0.0
2025-01-21 16:58:17.043378	116.1	14.8	-70.0	0.0
2025-01-21 16:58:18.164790	116.0	14.9	-70.6	0.0
2025-01-21 16:58:19.291788	115.9	15.0	-70.3	0.0
2025-01-21 16:58:20.414338	115.7	15.1	-71.4	0.0
2025-01-21 16:58:21.535691	115.6	15.2	-71.7	0.0
2025-01-21 16:58:22.658098	115.5	15.4	-68.6	0.0
2025-01-21 16:58:23.781846	115.3	15.5	-71.2	0.0
2025-01-21 16:58:24.903006	115.2	15.6	-70.9	0.0
2025-01-21 16:58:26.027551	115.1	15.7	-71.7	0.0
2025-01-21 16:58:27.149725	115.0	15.8	-71.1	0.0
2025-01-21 16:58:28.272730	114.8	15.9	-71.1	0.0
2025-01-21 16:58:29.394949	114.7	16.0	-71.5	0.0
2025-01-21 16:58:30.519156	114.5	16.1	-70.9	0.0
2025-01-21 16:58:31.641804	114.4	16.2	-70.1	0.0
2025-01-21 16:58:32.765510	114.3	16.3	-69.8	0.0
2025-01-21 16:58:33.889920	114.1	16.4	-70.1	0.0
2025-01-21 16:58:35.014724	114.0	16.5	-68.0	0.0
2025-01-21 16:58:36.137999	113.9	16.6	-70.3	0.0
2025-01-21 16:58:37.260836	113.7	16.7	-69.7	0.0
2025-01-21 16:58:38.384049	113.6	16.8	-69.7	0.0
2025-01-21 16:58:39.507413	113.4	16.9	-69.4	0.0
2025-01-21 16:58:40.629922	113.3	17.0	-69.9	0.0
2025-01-21 16:58:41.752002	113.1	17.2	-69.9	0.0
2025-01-21 16:58:42.877026	113.0	17.3	-71.2	0.0
2025-01-21 16:58:43.999185	112.8	17.4	-69.2	0.0
2025-01-21 16:58:45.122455	112.7	17.5	-70.3	0.0
2025-01-21 16:58:46.244797	112.5	17.6	-69.7	0.0
2025-01-21 16:58:47.368081	112.4	17.7	-68.9	0.0
2025-01-21 16:58:48.489562	112.2	17.8	-70.6	0.0
2025-01-21 16:58:49.614600	112.1	17.9	-70.0	0.0
2025-01-21 16:58:50.739339	111.9	18.0	-70.7	0.0
2025-01-21 16:58:51.861281	111.8	18.1	-71.8	0.0
2025-01-21 16:58:52.982743	111.6	18.3	-70.9	0.0
2025-01-21 16:58:54.107415	111.4	18.4	-70.9	0.0
2025-01-21 16:58:55.230930	111.3	18.5	-71.0	0.0
2025-01-21 16:58:56.353159	111.1	18.6	-72.0	0.0
2025-01-21 16:58:57.476573	111.0	18.7	-70.9	0.0
2025-01-21 16:58:58.600588	110.8	18.8	-68.3	0.0
2025-01-21 16:58:59.722549	110.6	18.9	-70.6	0.0
2025-01-21 16:59:00.846245	110.5	19.0	-71.6	0.0
2025-01-21 16:59:01.969990	110.3	19.2	-69.3	0.0
2025-01-21 16:59:03.091613	110.1	19.3	-70.0	0.0
2025-01-21 16:59:04.214040	110.0	19.4	-69.7	0.0
2025-01-21 16:59:05.335303	109.8	19.5	-68.7	0.0
2025-01-21 16:59:06.458771	109.6	19.6	-69.4	0.0
2025-01-21 16:59:07.581850	109.4	19.7	-68.5	0.0
2025-01-21 16:59:08.705024	109.3	19.8	-69.5	0.0
2025-01-21 16:59:09.826722	109.1	20.0	-70.4	0.0
2025-01-21 16:59:10.951751	108.9	20.1	-70.8	0.0
2025-01-21 16:59:12.076962	108.7	20.2	-69.7	0.0
2025-01-21 16:59:13.199384	108.6	20.3	-67.2	0.0
2025-01-21 16:59:14.321640	108.4	20.4	-68.6	0.0
2025-01-21 16:59:15.444828	108.2	20.5	-70.8	0.0
2025-01-21 16:59:16.569166	108.0	20.7	-69.7	0.0
2025-01-21 16:59:17.689700	107.8	20.8	-71.2	0.0
2025-01-21 16:59:18.816898	107.6	20.9	-71.7	0.0
2025-01-21 16:59:19.939697	107.4	21.0	-72.3	0.0
2025-01-21 16:59:21.062759	107.3	21.1	-73.5	0.0
2025-01-21 16:59:22.184320	107.1	21.2	-71.7	0.0
2025-01-21 16:59:23.306575	106.9	21.4	-72.4	0.0
2025-01-21 16:59:24.429796	106.7	21.5	-71.2	0.0
2025-01-21 16:59:25.554090	106.5	21.6	-70.2	0.0
2025-01-21 16:59:26.676751	106.3	21.7	-73.4	0.0
2025-01-21 16:59:27.800606	106.1	21.8	-73.4	0.0
2025-01-21 16:59:28.922706	105.9	22.0	-72.9	0.0
2025-01-21 16:59:30.044925	105.7	22.1	-72.9	0.0
2025-01-21 16:59:31.167776	105.5	22.2	-73.2	0.0
2025-01-21 16:59:32.290249	105.3	22.3	-72.3	0.0
2025-01-21 16:59:33.412629	105.1	22.4	-72.5	0.0
2025-01-21 16:59:34.535748	104.8	22.6	-71.4	0.0
2025-01-21 16:59:35.659810	104.6	22.7	-72.0	0.0
2025-01-21 16:59:36.784811	104.4	22.8	-71.4	0.0
2025-01-21 16:59:37.908440	104.2	22.9	-71.4	0.0
2025-01-21 16:59:39.034167	104.0	23.0	-72.6	0.0
2025-01-21 16:59:40.159985	103.8	23.2	-71.8	0.0
2025-01-21 16:59:41.285930	103.6	23.3	-72.2	0.0
2025-01-21 16:59:42.409063	103.3	23.4	-72.4	0.0
2025-01-21 16:59:43.532628	103.1	23.5	-71.0	0.0
2025-01-21 16:59:44.653769	102.9	23.6	-71.9	0.0
2025-01-21 16:59:45.778791	102.7	23.8	-71.1	0.0
2025-01-21 16:59:46.904447	102.4	23.9	-71.8	0.0
2025-01-21 16:59:48.027335	102.2	24.0	-71.1	0.0
2025-01-21 16:59:49.148497	102.0	24.1	-71.4	0.0
2025-01-21 16:59:50.272668	101.7	24.2	-71.9	0.0
2025-01-21 16:59:51.394861	101.5	24.4	-72.0	0.0
2025-01-21 16:59:52.517925	101.3	24.5	-72.1	0.0
2025-01-21 16:59:53.643965	101.0	24.6	-72.2	0.0
2025-01-21 16:59:54.768672	100.8	24.7	-72.5	0.0
2025-01-21 16:59:55.893461	100.5	24.8	-72.0	0.0
2025-01-21 16:59:57.019296	100.3	25.0	-72.4	0.0
2025-01-21 16:59:58.142088	100.1	25.1	-72.5	0.0
2025-01-21 16:59:59.264668	99.8	25.2	-73.5	0.0
2025-01-21 17:00:00.388656	99.6	25.3	-74.0	0.0
2025-01-21 17:00:01.510977	99.3	25.5	-73.5	0.0
2025-01-21 17:00:02.633026	99.1	25.6	-73.1	0.0
2025-01-21 17:00:03.755864	98.8	25.7	-73.8	0.0
2025-01-21 17:00:04.879787	98.5	25.8	-72.3	0.0
2025-01-21 17:00:06.002113	98.3	25.9	-70.9	0.0
2025-01-21 17:00:07.126188	98.0	26.1	-69.9	0.0
2025-01-21 17:00:08.249885	97.8	26.2	-72.8	0.0
2025-01-21 17:00:09.373330	97.5	26.3	-71.8	0.0
2025-01-21 17:00:10.495586	97.2	26.4	-72.2	0.0
2025-01-21 17:00:11.618450	96.9	26.5	-71.9	0.0
2025-01-21 17:00:12.740155	96.7	26.7	-72.0	0.0
2025-01-21 17:00:13.863275	96.4	26.8	-71.7	0.0
2025-01-21 17:00:14.987880	96.1	26.9	-71.2	0.0
2025-01-21 17:00:16.110701	95.8	27.0	-71.8	0.0
2025-01-21 17:00:17.234068	95.6	27.1	-72.3	0.0
2025-01-21 17:00:18.357283	95.3	27.3	-71.5	0.0
2025-01-21 17:00:19.481121	95.0	27.4	-71.9	0.0
2025-01-21 17:00:20.604593	94.7	27.5	-71.6	0.0
2025-01-21 17:00:21.728863	94.4	27.6	-71.1	0.0
2025-01-21 17:00:22.852013	94.1	27.7	-70.8	0.0
2025-01-21 17:00:23.974000	93.8	27.9	-69.8	0.0
2025-01-21 17:00:25.096583	93.5	28.0	-71.2	0.0
2025-01-21 17:00:26.220311	93.2	28.1	-70.9	0.0
2025-01-21 17:00:27.341759	92.9	28.2	-71.3	0.0
2025-01-21 17:00:28.465086	92.6	28.3	-72.0	0.0
2025-01-21 17:00:29.587875	92.3	28.4	-72.2	0.0
2025-01-21 17:00:30.709788	92.0	28.5	-71.7	0.0
2025-01-21 17:00:31.834902	91.7	28.7	-71.8	0.0
2025-01-21 17:00:32.956707	91.4	28.8	-72.6	0.0
2025-01-21 17:00:34.078711	91.1	28.9	-71.2	0.0
2025-01-21 17:00:35.203046	90.8	29.0	-71.4	0.0
2025-01-21 17:00:36.327619	90.5	29.1	-67.5	0.0
2025-01-21 17:00:37.448780	90.1	29.2	-68.6	0.0
2025-01-21 17:00:38.573336	89.8	29.3	-69.3	0.0
2025-01-21 17:00:39.697632	89.5	29.5	-66.7	0.0
2025-01-21 17:00:40.819135	89.2	29.6	-68.3	0.0
2025-01-21 17:00:41.942994	88.8	29.7	-68.4	0.0
2025-01-21 17:00:43.066821	88.5	29.8	-68.3	0.0
2025-01-21 17:00:44.190265	88.2	29.9	-67.9	0.0
2025-01-21 17:00:45.313783	87.8	30.0	-67.9	0.0
2025-01-21 17:00:46.438810	87.5	30.1	-64.9	0.0
2025-01-21 17:00:47.562438	87.2	30.2	-70.2	0.0
2025-01-21 17:00:48.684577	86.8	30.3	-69.8	0.0
2025-01-21 17:00:49.807372	86.5	30.4	-68.3	0.0
2025-01-21 17:00:50.931087	86.1	30.5	-66.0	0.0
2025-01-21 17:00:52.053317	85.8	30.6	-68.4	0.0
2025-01-21 17:00:53.176429	85.4	30.7	-66.6	0.0
2025-01-21 17:00:54.301693	85.1	30.8	-66.8	0.0
2025-01-21 17:00:55.427197	84.7	30.9	-69.1	0.0
2025-01-21 17:00:56.549238	84.4	31.0	-68.4	0.0
2025-01-21 17:00:57.673364	84.0	31.1	-67.7	0.0
2025-01-21 17:00:58.796609	83.6	31.2	-66.5	0.0
2025-01-21 17:00:59.920777	83.3	31.3	-68.6	0.0
2025-01-21 17:01:01.044479	82.9	31.4	-67.5	0.0
2025-01-21 17:01:02.165635	82.5	31.5	-65.9	0.0
2025-01-21 17:01:03.291461	82.2	31.6	-67.2	0.0
2025-01-21 17:01:04.416890	81.8	31.7	-72.7	0.0
2025-01-21 17:01:05.541497	81.4	31.8	-71.3	0.0
2025-01-21 17:01:06.665106	81.0	31.9	-70.1	0.0
2025-01-21 17:01:07.789762	80.7	32.0	-68.1	0.0
2025-01-21 17:01:08.913601	80.3	32.1	-68.9	0.0
2025-01-21 17:01:10.036960	79.9	32.2	-69.0	0.0
2025-01-21 17:01:11.160420	79.5	32.2	-71.0	0.0
2025-01-21 17:01:12.283894	79.1	32.3	-69.6	0.0
2025-01-21 17:01:13.409589	78.7	32.4	-69.7	0.0
2025-01-21 17:01:14.532540	78.3	32.5	-70.0	0.0
2025-01-21 17:01:15.655794	77.9	32.6	-67.4	0.0
2025-01-21 17:01:16.779106	77.5	32.7	-69.9	0.0
2025-01-21 17:01:17.901961	77.1	32.7	-68.8	0.0
2025-01-21 17:01:19.024764	76.7	32.8	-69.8	0.0
2025-01-21 17:01:20.147921	76.3	32.9	-68.8	0.0
2025-01-21 17:01:21.270661	75.9	33.0	-67.6	0.0
2025-01-21 17:01:22.396410	75.5	33.0	-64.2	0.0
2025-01-21 17:01:23.519726	75.1	33.1	-71.1	0.0
2025-01-21 17:01:24.641553	74.7	33.2	-69.5	0.0
2025-01-21 17:01:25.763946	74.3	33.2	-70.2	0.0
2025-01-21 17:01:26.886999	73.9	33.3	-72.0	0.0
2025-01-21 17:01:28.009943	73.5	33.4	-69.6	0.0
2025-01-21 17:01:29.133245	73.1	33.4	-69.1	0.0
2025-01-21 17:01:30.257234	72.6	33.5	-69.5	0.0
2025-01-21 17:01:31.380420	72.2	33.6	-65.4	0.0
2025-01-21 17:01:32.503870	71.8	33.6	-66.9	0.0
2025-01-21 17:01:33.626838	71.4	33.7	-68.6	0.0
2025-01-21 17:01:34.753208	71.0	33.7	-64.9	0.0
2025-01-21 17:01:35.876474	70.5	33.8	-69.1	0.0
2025-01-21 17:01:36.999728	70.1	33.8	-68.3	0.0
2025-01-21 17:01:38.123267	69.7	33.9	-68.5	0.0
2025-01-21 17:01:39.250445	69.2	33.9	-69.1	0.0
2025-01-21 17:01:40.374759	68.8	34.0	-69.1	0.0
2025-01-21 17:01:41.497949	68.4	34.0	-67.9	0.0
2025-01-21 17:01:42.621447	68.0	34.1	-65.5	0.0
2025-01-21 17:01:43.744260	67.5	34.1	-68.7	0.0
2025-01-21 17:01:44.866245	67.1	34.2	-67.0	0.0
2025-01-21 17:01:45.990088	66.6	34.2	-67.8	0.0
2025-01-21 17:01:47.114080	66.2	34.2	-66.4	0.0
2025-01-21 17:01:48.237129	65.8	34.3	-65.2	0.0
2025-01-21 17:01:49.360513	65.3	34.3	-66.7	0.0
2025-01-21 17:01:50.482683	64.9	34.3	-66.4	0.0
2025-01-21 17:01:51.608130	64.5	34.4	-64.4	0.0
2025-01-21 17:01:52.731841	64.0	34.4	-66.7	0.0
2025-01-21 17:01:53.855434	63.6	34.4	-66.4	0.0
2025-01-21 17:01:54.979301	63.1	34.4	-65.9	0.0
2025-01-21 17:01:56.103805	62.7	34.4	-66.9	0.0
2025-01-21 17:01:57.225487	62.2	34.5	-66.8	0.0
2025-01-21 17:01:58.349135	61.8	34.5	-67.2	0.0
2025-01-21 17:01:59.472905	61.4	34.5	-66.5	0.0
2025-01-21 17:02:00.596457	60.9	34.5	-67.6	0.0
2025-01-21 17:02:01.718929	60.5	34.5	-67.3	0.0
2025-01-21 17:02:02.842025	60.0	34.5	-67.2	0.0
2025-01-21 17:02:03.964814	59.6	34.5	-66.6	0.0
2025-01-21 17:02:05.086728	59.1	34.5	-67.1	0.0
2025-01-21 17:02:06.209146	58.7	34.5	-68.9	0.0
2025-01-21 17:02:07.332940	58.2	34.5	-68.3	0.0
2025-01-21 17:02:08.456979	57.8	34.5	-69.1	0.0
2025-01-21 17:02:09.581968	57.3	34.5	-68.5	0.0
2025-01-21 17:02:10.704351	56.9	34.5	-68.2	0.0
2025-01-21 17:02:11.825548	56.5	34.5	-68.3	0.0
2025-01-21 17:02:12.948496	56.0	34.5	-68.0	0.0
2025-01-21 17:02:14.072364	55.6	34.5	-68.1	0.0
2025-01-21 17:02:15.194422	55.1	34.5	-68.2	0.0
2025-01-21 17:02:16.317154	54.7	34.5	-68.6	0.0
2025-01-21 17:02:17.438559	54.2	34.5	-67.7	0.0
2025-01-21 17:02:18.565003	53.8	34.5	-68.4	0.0
2025-01-21 17:02:19.689968	53.3	34.4	-68.4	0.0
2025-01-21 17:02:20.813440	52.9	34.4	-68.5	0.0
2025-01-21 17:02:21.934939	52.5	34.4	-67.3	0.0
2025-01-21 17:02:23.056177	52.0	34.4	-67.5	0.0
2025-01-21 17:02:24.178948	51.6	34.3	-68.2	0.0
2025-01-21 17:02:25.302913	51.1	34.3	-68.4	0.0
2025-01-21 17:02:26.425022	50.7	34.3	-68.6	0.0
2025-01-21 17:02:27.548323	50.3	34.2	-67.9	0.0
2025-01-21 17:02:28.673755	49.8	34.2	-68.0	0.0
2025-01-21 17:02:29.796816	49.4	34.2	-67.3	0.0
2025-01-21 17:02:30.921693	49.0	34.1	-67.0	0.0
2025-01-21 17:02:32.045786	48.5	34.1	-67.4	0.0
2025-01-21 17:02:33.170813	48.1	34.0	-66.2	0.0
2025-01-21 17:02:34.293517	47.7	34.0	-65.4	0.0
2025-01-21 17:02:35.415863	47.2	33.9	-66.0	0.0
2025-01-21 17:02:36.539511	46.8	33.9	-67.4	0.0
2025-01-21 17:02:37.660457	46.4	33.9	-66.0	0.0
2025-01-21 17:02:38.784067	45.9	33.8	-67.1	0.0
2025-01-21 17:02:39.906838	45.5	33.7	-67.4	0.0
2025-01-21 17:02:41.029811	45.1	33.7	-65.3	0.0
2025-01-21 17:02:42.152576	44.7	33.6	-65.9	0.0
2025-01-21 17:02:43.277325	44.3	33.6	-64.3	0.0
2025-01-21 17:02:44.401611	43.8	33.5	-64.5	0.0
2025-01-21 17:02:45.523740	43.4	33.5	-67.4	0.0
2025-01-21 17:02:46.649727	43.0	33.4	-66.9	0.0
2025-01-21 17:02:47.772572	42.6	33.3	-68.8	0.0
2025-01-21 17:02:48.896341	42.2	33.3	-67.8	0.0
2025-01-21 17:02:50.019828	41.8	33.2	-67.8	0.0
2025-01-21 17:02:51.142650	41.4	33.1	-67.2	0.0
2025-01-21 17:02:52.266423	41.0	33.1	-66.8	0.0
2025-01-21 17:02:53.390405	40.5	33.0	-66.8	0.0
2025-01-21 17:02:54.513646	40.1	32.9	-65.3	0.0
2025-01-21 17:02:55.636760	39.7	32.8	-65.5	0.0
2025-01-21 17:02:56.760514	39.3	32.8	-64.0	0.0
2025-01-21 17:02:57.882490	38.9	32.7	-66.3	0.0
2025-01-21 17:02:59.005445	38.6	32.6	-67.0	0.0
2025-01-21 17:03:00.128691	38.2	32.5	-67.0	0.0
2025-01-21 17:03:01.252418	37.8	32.4	-63.0	0.0
2025-01-21 17:03:02.374839	37.4	32.4	-66.0	0.0
2025-01-21 17:03:03.496931	37.0	32.3	-64.9	0.0
2025-01-21 17:03:04.620007	36.6	32.2	-65.8	0.0
2025-01-21 17:03:05.743231	36.2	32.1	-63.6	0.0
2025-01-21 17:03:06.867166	35.8	32.0	-62.9	0.0
2025-01-21 17:03:07.990185	35.5	31.9	-64.8	0.0
2025-01-21 17:03:09.111995	35.1	31.8	-64.6	0.0
2025-01-21 17:03:10.235836	34.7	31.7	-64.2	0.0
2025-01-21 17:03:11.360951	34.3	31.6	-60.8	0.0
2025-01-21 17:03:12.484811	34.0	31.6	-65.5	0.0
2025-01-21 17:03:13.607718	33.6	31.5	-65.6	0.0
2025-01-21 17:03:14.731622	33.2	31.4	-60.4	0.0
2025-01-21 17:03:15.855561	32.9	31.3	-65.4	0.0
2025-01-21 17:03:16.980173	32.5	31.2	-64.0	0.0
2025-01-21 17:03:18.104440	32.1	31.1	-61.3	0.0
2025-01-21 17:03:19.226085	31.8	31.0	-61.0	0.0
2025-01-21 17:03:20.348779	31.4	30.9	-65.5	0.0
2025-01-21 17:03:21.473885	31.1	30.8	-64.7	0.0
2025-01-21 17:03:22.595951	30.7	30.7	-67.8	0.0
2025-01-21 17:03:23.718883	30.4	30.6	-65.3	0.0
2025-01-21 17:03:24.841805	30.0	30.5	-61.0	0.0
2025-01-21 17:03:25.965487	29.7	30.4	-60.6	0.0
2025-01-21 17:03:27.088542	29.3	30.3	-63.7	0.0
2025-01-21 17:03:28.213658	29.0	30.1	-61.7	0.0
2025-01-21 17:03:29.337563	28.7	30.0	-60.4	0.0
2025-01-21 17:03:30.458724	28.3	29.9	-60.3	0.0
2025-01-21 17:03:31.582107	28.0	29.8	-62.2	0.0
2025-01-21 17:03:32.706235	27.7	29.7	-62.2	0.0
2025-01-21 17:03:33.827691	27.3	29.6	-67.9	0.0
2025-01-21 17:03:34.950605	27.0	29.5	-66.6	0.0
2025-01-21 17:03:36.073491	26.7	29.4	-66.4	0.0
2025-01-21 17:03:37.196684	26.4	29.3	-67.6	0.0
2025-01-21 17:03:38.321212	26.0	29.2	-67.1	0.0
2025-01-21 17:03:39.445392	25.7	29.1	-66.8	0.0
2025-01-21 17:03:40.570582	25.4	28.9	-67.4	0.0
2025-01-21 17:03:41.693331	25.1	28.8	-67.1	0.0
2025-01-21 17:03:42.819273	24.8	28.7	-66.0	0.0
2025-01-21 17:03:43.941965	24.5	28.6	-67.7	0.0
2025-01-21 17:03:45.064742	24.2	28.5	-69.1	0.0
2025-01-21 17:03:46.188060	23.9	28.4	-69.0	0.0
2025-01-21 17:03:47.311131	23.6	28.3	-67.7	0.0
2025-01-21 17:03:48.431690	23.3	28.1	-64.7	0.0
2025-01-21 17:03:49.554246	23.0	28.0	-63.0	0.0
2025-01-21 17:03:50.679170	22.7	27.9	-67.8	0.0
2025-01-21 17:03:51.803258	22.4	27.8	-68.8	0.0
2025-01-21 17:03:52.927641	22.1	27.7	-70.8	0.0
2025-01-21 17:03:54.049794	21.8	27.5	-69.9	0.0
2025-01-21 17:03:55.173862	21.5	27.4	-70.4	0.0
2025-01-21 17:03:56.296995	21.2	27.3	-68.3	0.0
2025-01-21 17:03:57.419566	20.9	27.2	-69.9	0.0
2025-01-21 17:03:58.542847	20.7	27.1	-69.8	0.0
2025-01-21 17:03:59.666242	20.4	27.0	-69.9	0.0
2025-01-21 17:04:00.787928	20.1	26.8	-63.6	0.0
2025-01-21 17:04:01.910268	19.8	26.7	-67.0	0.0
2025-01-21 17:04:03.033215	19.6	26.6	-68.9	0.0
2025-01-21 17:04:04.153839	19.3	26.5	-67.1	0.0
2025-01-21 17:04:05.278733	19.0	26.4	-69.0	0.0
2025-01-21 17:04:06.402953	18.8	26.2	-68.9	0.0
2025-01-21 17:04:07.526756	18.5	26.1	-65.3	0.0
2025-01-21 17:04:08.648833	18.2	26.0	-68.7	0.0
2025-01-21 17:04:09.772972	18.0	25.9	-62.9	0.0
2025-01-21 17:04:10.896696	17.7	25.8	-66.7	0.0
2025-01-21 17:04:12.023023	17.5	25.6	-65.2	0.0
2025-01-21 17:04:13.148178	17.2	25.5	-65.9	0.0
2025-01-21 17:04:14.269821	17.0	25.4	-65.6	0.0
2025-01-21 17:04:15.394330	16.7	25.3	-65.0	0.0
2025-01-21 17:04:16.517498	16.5	25.2	-64.0	0.0
2025-01-21 17:04:17.642750	16.2	25.0	-65.6	0.0
2025-01-21 17:04:18.769022	16.0	24.9	-66.0	0.0
2025-01-21 17:04:19.891669	15.7	24.8	-66.1	0.0
2025-01-21 17:04:21.016457	15.5	24.7	-66.4	0.0
2025-01-21 17:04:22.140011	15.3	24.5	-63.0	0.0
2025-01-21 17:04:23.264178	15.0	24.4	-62.1	0.0
2025-01-21 17:04:24.387811	14.8	24.3	-62.6	0.0
2025-01-21 17:04:25.512159	14.6	24.2	-63.3	0.0
2025-01-21 17:04:26.636571	14.3	24.1	-64.4	0.0
2025-01-21 17:04:27.761994	14.1	23.9	-63.0	0.0
2025-01-21 17:04:28.884100	13.9	23.8	-65.0	0.0
2025-01-21 17:04:30.007727	13.6	23.7	-66.1	0.0
2025-01-21 17:04:31.131493	13.4	23.6	-66.6	0.0
2025-01-21 17:04:32.256229	13.2	23.5	-66.2	0.0
2025-01-21 17:04:33.379793	13.0	23.3	-65.6	0.0
2025-01-21 17:04:34.503882	12.8	23.2	-65.1	0.0
2025-01-21 17:04:35.625585	12.5	23.1	-67.4	0.0
2025-01-21 17:04:36.747319	12.3	23.0	-67.1	0.0
2025-01-21 17:04:37.869739	12.1	22.9	-66.6	0.0
2025-01-21 17:04:38.994732	11.9	22.7	-66.8	0.0
2025-01-21 17:04:40.118747	11.7	22.6	-67.8	0.0
2025-01-21 17:04:41.242197	11.5	22.5	-67.3	0.0
2025-01-21 17:04:42.366051	11.3	22.4	-66.1	0.0
2025-01-21 17:04:43.488501	11.1	22.3	-66.2	0.0
2025-01-21 17:04:44.610636	10.9	22.1	-65.5	0.0
2025-01-21 17:04:45.735560	10.7	22.0	-66.4	0.0
2025-01-21 17:04:46.857060	10.5	21.9	-67.6	0.0
2025-01-21 17:04:47.982052	10.3	21.8	-67.3	0.0
2025-01-21 17:04:49.105648	10.1	21.7	-66.2	0.0
2025-01-21 17:04:50.229866	9.9	21.6	-64.4	0.0
2025-01-21 17:04:51.353588	9.7	21.4	-66.9	0.0
2025-01-21 17:04:52.476979	9.5	21.3	-68.2	0.0
2025-01-21 17:04:53.601917	9.3	21.2	-68.3	0.0
2025-01-21 17:04:54.721843	9.1	21.1	-66.6	0.0
2025-01-21 17:04:55.844083	8.9	21.0	-68.7	0.0
2025-01-21 17:04:56.970059	8.7	20.9	-64.4	0.0
2025-01-21 17:04:58.091489	8.5	20.7	-66.7	0.0
2025-01-21 17:04:59.213691	8.4	20.6	-67.3	0.0
2025-01-21 17:05:00.337212	8.2	20.5	-67.5	0.0
2025-01-21 17:05:01.460251	8.0	20.4	-68.5	0.0
2025-01-21 17:05:02.583286	7.8	20.3	-70.1	0.0
2025-01-21 17:05:03.708156	7.6	20.2	-68.4	0.0
2025-01-21 17:05:04.830814	7.5	20.0	-67.0	0.0
2025-01-21 17:05:05.954494	7.3	19.9	-66.3	0.0
2025-01-21 17:05:07.078956	7.1	19.8	-66.7	0.0
2025-01-21 17:05:08.202279	6.9	19.7	-66.0	0.0
2025-01-21 17:05:09.322883	6.8	19.6	-67.3	0.0
2025-01-21 17:05:10.445092	6.6	19.5	-66.8	0.0
2025-01-21 17:05:11.569863	6.4	19.4	-69.9	0.0
2025-01-21 17:05:12.692432	6.3	19.2	-69.2	0.0
2025-01-21 17:05:13.815237	6.1	19.1	-65.8	0.0
2025-01-21 17:05:14.937867	5.9	19.0	-64.3	0.0
2025-01-21 17:05:16.060580	5.8	18.9	-66.2	0.0
2025-01-21 17:05:17.183914	5.6	18.8	-66.9	0.0
2025-01-21 17:05:18.307250	5.4	18.7	-65.4	0.0
2025-01-21 17:05:19.431650	5.3	18.6	-69.0	0.0
2025-01-21 17:05:20.554990	5.1	18.5	-68.6	0.0
2025-01-21 17:05:21.680778	5.0	18.3	-68.2	0.0
2025-01-21 17:05:22.804857	4.8	18.2	-67.6	0.0
2025-01-21 17:05:23.928618	4.6	18.1	-68.2	0.0
2025-01-21 17:05:25.052073	4.5	18.0	-68.9	0.0
2025-01-21 17:05:26.175036	4.3	17.9	-68.4	0.0
2025-01-21 17:05:27.297840	4.2	17.8	-67.7	0.0
2025-01-21 17:05:28.420928	4.0	17.7	-68.7	0.0
2025-01-21 17:05:29.544662	3.9	17.6	-67.7	0.0
2025-01-21 17:05:30.667660	3.7	17.5	-67.2	0.0
2025-01-21 17:05:31.792399	3.6	17.4	-66.1	0.0
2025-01-21 17:05:32.914675	3.4	17.2	-65.9	0.0
2025-01-21 17:05:34.037788	3.3	17.1	-68.0	0.0
2025-01-21 17:05:35.160462	3.1	17.0	-66.1	0.0
2025-01-21 17:05:36.287091	3.0	16.9	-66.6	0.0
2025-01-21 17:05:37.410246	2.9	16.8	-66.5	0.0
2025-01-21 17:05:38.533862	2.7	16.7	-67.9	0.0
2025-01-21 17:05:39.657097	2.6	16.6	-68.6	0.0
2025-01-21 17:05:40.778207	2.4	16.5	-65.5	0.0
2025-01-21 17:05:41.902522	2.3	16.4	-65.5	0.0
2025-01-21 17:05:43.024963	2.2	16.3	-67.0	0.0
2025-01-21 17:05:44.149073	2.0	16.2	-68.5	0.0
2025-01-21 17:05:45.270550	1.9	16.1	-66.2	0.0
2025-01-21 17:05:46.392309	1.8	16.0	-67.2	0.0
2025-01-21 17:05:47.517811	1.6	15.9	-67.6	0.0
2025-01-21 17:05:48.641922	1.5	15.8	-67.9	0.0
2025-01-21 17:05:49.765312	1.4	15.7	-66.2	0.0
2025-01-21 17:05:50.887657	1.2	15.6	-67.1	0.0
2025-01-21 17:05:52.011086	1.1	15.4	-67.2	0.0
2025-01-21 17:05:53.134774	1.0	15.3	-65.8	0.0
2025-01-21 17:05:54.256171	0.8	15.2	-64.6	0.0
2025-01-21 17:05:55.381634	0.7	15.1	-66.4	0.0
2025-01-21 17:05:56.504306	0.6	15.0	-65.2	0.0
2025-01-21 17:05:57.631199	0.5	14.9	-63.6	0.0
2025-01-21 17:05:58.754518	0.3	14.8	-66.6	0.0
2025-01-21 17:05:59.877970	0.2	14.7	-66.2	0.0
2025-01-21 17:06:01.000676	0.1	14.6	-65.1	0.0
2025-01-21 17:06:02.124947	360.0	14.5	-66.9	0.0
2025-01-21 17:06:03.248476	359.9	14.4	-66.2	0.0
2025-01-21 17:06:04.372616	359.7	14.3	-66.8	0.0
2025-01-21 17:06:05.496483	359.6	14.2	-67.4	0.0
2025-01-21 17:06:06.621299	359.5	14.1	-66.2	0.0
2025-01-21 17:06:07.744260	359.4	14.0	-64.9	0.0
2025-01-21 17:06:08.868355	359.3	13.9	-66.5	0.0
2025-01-21 17:06:09.991707	359.1	13.8	-64.0	0.0
2025-01-21 17:06:11.115514	359.0	13.7	-64.4	0.0
2025-01-21 17:06:12.237377	358.9	13.6	-63.8	0.0
2025-01-21 17:06:13.362940	358.8	13.5	-63.6	0.0
2025-01-21 17:06:14.485781	358.7	13.4	-64.2	0.0
2025-01-21 17:06:15.608643	358.6	13.3	-62.4	0.0
2025-01-21 17:06:16.729759	358.5	13.2	-67.2	0.0
2025-01-21 17:06:17.852088	358.4	13.1	-66.0	0.0
2025-01-21 17:06:18.977278	358.2	13.1	-66.5	0.0
2025-01-21 17:06:20.100038	358.1	13.0	-67.9	0.0
2025-01-21 17:06:21.223621	358.0	12.9	-67.2	0.0
2025-01-21 17:06:22.346060	357.9	12.8	-65.3	0.0
2025-01-21 17:06:23.471451	357.8	12.7	-65.2	0.0
2025-01-21 17:06:24.593901	357.7	12.6	-65.0	0.0
2025-01-21 17:06:25.715969	357.6	12.5	-67.4	0.0
2025-01-21 17:06:26.840033	357.5	12.4	-64.3	0.0
2025-01-21 17:06:27.962686	357.4	12.3	-61.6	0.0
2025-01-21 17:06:29.086739	357.3	12.2	-66.7	0.0
2025-01-21 17:06:30.210523	357.2	12.1	-67.1	0.0
2025-01-21 17:06:31.333517	357.1	12.0	-67.7	0.0
2025-01-21 17:06:32.455253	357.0	11.9	-68.1	0.0
2025-01-21 17:06:33.580548	356.9	11.8	-68.1	0.0
2025-01-21 17:06:34.703280	356.8	11.7	-68.8	0.0
2025-01-21 17:06:35.826018	356.7	11.6	-66.8	0.0
2025-01-21 17:06:36.946733	356.6	11.5	-68.2	0.0
2025-01-21 17:06:38.069879	356.5	11.5	-67.3	0.0
2025-01-21 17:06:39.194249	356.4	11.4	-68.4	0.0
2025-01-21 17:06:40.318188	356.3	11.3	-68.1	0.0
2025-01-21 17:06:41.440046	356.2	11.2	-68.1	0.0
2025-01-21 17:06:42.563871	356.1	11.1	-66.8	0.0
2025-01-21 17:06:43.684702	356.0	11.0	-70.3	0.0
2025-01-21 17:06:44.808663	355.9	10.9	-69.2	0.0
2025-01-21 17:06:45.933698	355.8	10.8	-70.4	0.0
2025-01-21 17:06:47.054994	355.7	10.7	-71.0	0.0
2025-01-21 17:06:48.177571	355.6	10.6	-71.3	0.0
2025-01-21 17:06:49.300702	355.5	10.5	-71.4	0.0
2025-01-21 17:06:50.423333	355.5	10.5	-74.9	0.0
2025-01-21 17:06:51.545861	355.4	10.4	-76.3	0.0
2025-01-21 17:06:52.671818	355.3	10.3	-78.4	0.0
2025-01-21 17:06:53.794887	355.2	10.2	-78.4	0.0
2025-01-21 17:06:54.916720	355.1	10.1	-78.4	0.0
2025-01-21 17:06:56.040093	355.0	10.0	-79.5	0.0
#Closed at: 2025-01-21 16:57:14.842553