passes_logs/2025/01/21/planumMaritime01/planumMaritime01__20250121_192340_NOAA_19_rec.log

#Pass ID: 20250121_192340_NOAA 19
#Satellite: NOAA 19
#Configuration: NOAA 19
#Start time: 2025-01-21 19:23:45.667665

#LorettStation: 1.0.0 05.05.2024
#Station: planumMaritime01
#Location: 37.49445 lon 55.92918 lat
#TLE: 1 33591U 09005A   25021.16349212  .00000417  00000+0  24660-3 0  9995
#TLE: 2 33591  99.0186  84.9732 0014271  40.9333 319.2908 14.13264918822414

#Time	Az	El	Level	SNR
2025-01-21 19:23:47.912757	207.7	10.2	-77.1	0.0
2025-01-21 19:23:49.036136	207.8	10.2	-77.4	0.0
2025-01-21 19:23:50.158261	207.9	10.3	-77.8	0.0
2025-01-21 19:23:51.282719	208.1	10.4	-78.0	0.0
2025-01-21 19:23:52.406650	208.2	10.5	-77.9	0.0
2025-01-21 19:23:53.531377	208.3	10.6	-77.8	0.0
2025-01-21 19:23:54.654117	208.4	10.7	-77.9	0.0
2025-01-21 19:23:55.777586	208.5	10.7	-75.6	0.0
2025-01-21 19:23:56.901624	208.6	10.8	-78.1	0.0
2025-01-21 19:23:58.026788	208.7	10.9	-76.1	0.0
2025-01-21 19:23:59.148554	208.9	11.0	-77.7	0.0
2025-01-21 19:24:00.271271	209.0	11.1	-75.6	0.0
2025-01-21 19:24:01.394023	209.1	11.2	-77.8	0.0
2025-01-21 19:24:02.518350	209.2	11.2	-77.8	0.0
2025-01-21 19:24:03.641488	209.3	11.3	-76.9	0.0
2025-01-21 19:24:04.766589	209.5	11.4	-77.5	0.0
2025-01-21 19:24:05.889838	209.6	11.5	-77.7	0.0
2025-01-21 19:24:07.012338	209.7	11.6	-77.8	0.0
2025-01-21 19:24:08.135130	209.8	11.7	-78.0	0.0
2025-01-21 19:24:09.260239	210.0	11.7	-77.6	0.0
2025-01-21 19:24:10.382167	210.1	11.8	-77.7	0.0
2025-01-21 19:24:11.507295	210.2	11.9	-76.9	0.0
2025-01-21 19:24:12.632005	210.3	12.0	-77.5	0.0
2025-01-21 19:24:13.755062	210.5	12.1	-78.0	0.0
2025-01-21 19:24:14.876973	210.6	12.2	-77.2	0.0
2025-01-21 19:24:16.002016	210.7	12.3	-76.6	0.0
2025-01-21 19:24:17.124710	210.9	12.3	-76.9	0.0
2025-01-21 19:24:18.246478	211.0	12.4	-77.7	0.0
2025-01-21 19:24:19.369701	211.1	12.5	-78.0	0.0
2025-01-21 19:24:20.494282	211.2	12.6	-77.7	0.0
2025-01-21 19:24:21.618238	211.4	12.7	-78.2	0.0
2025-01-21 19:24:22.741585	211.5	12.8	-78.1	0.0
2025-01-21 19:24:23.864681	211.6	12.9	-77.9	0.0
2025-01-21 19:24:24.986942	211.8	13.0	-76.7	0.0
2025-01-21 19:24:26.111277	211.9	13.0	-78.4	0.0
2025-01-21 19:24:27.233798	212.0	13.1	-78.1	0.0
2025-01-21 19:24:28.358147	212.2	13.2	-78.2	0.0
2025-01-21 19:24:29.482411	212.3	13.3	-77.9	0.0
2025-01-21 19:24:30.606396	212.5	13.4	-77.9	0.0
2025-01-21 19:24:31.731477	212.6	13.5	-78.1	0.0
2025-01-21 19:24:32.853712	212.7	13.6	-78.2	0.0
2025-01-21 19:24:33.976290	212.9	13.7	-77.8	0.0
2025-01-21 19:24:35.099686	213.0	13.8	-77.8	0.0
2025-01-21 19:24:36.222810	213.2	13.8	-78.3	0.0
2025-01-21 19:24:37.344913	213.3	13.9	-78.4	0.0
2025-01-21 19:24:38.468852	213.5	14.0	-77.9	0.0
2025-01-21 19:24:39.594030	213.6	14.1	-78.1	0.0
2025-01-21 19:24:40.713876	213.7	14.2	-78.2	0.0
2025-01-21 19:24:41.836482	213.9	14.3	-78.4	0.0
2025-01-21 19:24:42.961604	214.0	14.4	-78.6	0.0
2025-01-21 19:24:44.084510	214.2	14.5	-78.5	0.0
2025-01-21 19:24:45.207086	214.3	14.6	-78.7	0.0
2025-01-21 19:24:46.331671	214.5	14.7	-78.7	0.0
2025-01-21 19:24:47.457070	214.6	14.7	-78.1	0.0
2025-01-21 19:24:48.580916	214.8	14.8	-78.0	0.0
2025-01-21 19:24:49.703406	214.9	14.9	-78.3	0.0
2025-01-21 19:24:50.827006	215.1	15.0	-78.6	0.0
2025-01-21 19:24:51.950838	215.3	15.1	-78.8	0.0
2025-01-21 19:24:53.073874	215.4	15.2	-78.7	0.0
2025-01-21 19:24:54.196987	215.6	15.3	-79.0	0.0
2025-01-21 19:24:55.319621	215.7	15.4	-79.0	0.0
2025-01-21 19:24:56.442665	215.9	15.5	-78.9	0.0
2025-01-21 19:24:57.566012	216.0	15.6	-77.9	0.0
2025-01-21 19:24:58.688557	216.2	15.7	-77.7	0.0
2025-01-21 19:24:59.808542	216.4	15.7	-77.9	0.0
2025-01-21 19:25:00.930505	216.5	15.8	-78.1	0.0
2025-01-21 19:25:02.052652	216.7	15.9	-78.8	0.0
2025-01-21 19:25:03.174298	216.8	16.0	-78.9	0.0
2025-01-21 19:25:04.297158	217.0	16.1	-78.5	0.0
2025-01-21 19:25:05.420652	217.2	16.2	-78.6	0.0
2025-01-21 19:25:06.543643	217.3	16.3	-78.8	0.0
2025-01-21 19:25:07.666459	217.5	16.4	-78.0	0.0
2025-01-21 19:25:08.790803	217.7	16.5	-78.7	0.0
2025-01-21 19:25:09.913944	217.9	16.6	-78.0	0.0
2025-01-21 19:25:11.035282	218.0	16.7	-77.9	0.0
2025-01-21 19:25:12.158161	218.2	16.8	-78.5	0.0
2025-01-21 19:25:13.280686	218.4	16.9	-77.0	0.0
2025-01-21 19:25:14.405098	218.5	17.0	-78.2	0.0
2025-01-21 19:25:15.527803	218.7	17.1	-78.2	0.0
2025-01-21 19:25:16.651557	218.9	17.1	-78.7	0.0
2025-01-21 19:25:17.774610	219.1	17.2	-78.0	0.0
2025-01-21 19:25:18.897635	219.3	17.3	-78.1	0.0
2025-01-21 19:25:20.020392	219.4	17.4	-77.6	0.0
2025-01-21 19:25:21.146555	219.6	17.5	-76.5	0.0
2025-01-21 19:25:22.268509	219.8	17.6	-78.3	0.0
2025-01-21 19:25:23.389970	220.0	17.7	-78.3	0.0
2025-01-21 19:25:24.512444	220.2	17.8	-77.4	0.0
2025-01-21 19:25:25.637172	220.3	17.9	-78.5	0.0
2025-01-21 19:25:26.760570	220.5	18.0	-78.0	0.0
2025-01-21 19:25:27.882694	220.7	18.1	-78.5	0.0
2025-01-21 19:25:29.004352	220.9	18.2	-78.3	0.0
2025-01-21 19:25:30.126168	221.1	18.3	-76.4	0.0
2025-01-21 19:25:31.250440	221.3	18.4	-77.0	0.0
2025-01-21 19:25:32.374740	221.5	18.5	-77.5	0.0
2025-01-21 19:25:33.500449	221.7	18.6	-78.5	0.0
2025-01-21 19:25:34.621575	221.9	18.7	-78.2	0.0
2025-01-21 19:25:35.745846	222.1	18.8	-77.8	0.0
2025-01-21 19:25:36.867542	222.3	18.9	-77.9	0.0
2025-01-21 19:25:37.993472	222.5	18.9	-77.5	0.0
2025-01-21 19:25:39.116179	222.7	19.0	-78.0	0.0
2025-01-21 19:25:40.238175	222.9	19.1	-77.8	0.0
2025-01-21 19:25:41.360545	223.1	19.2	-77.3	0.0
2025-01-21 19:25:42.485639	223.3	19.3	-75.8	0.0
2025-01-21 19:25:43.607376	223.5	19.4	-76.1	0.0
2025-01-21 19:25:44.730409	223.7	19.5	-77.9	0.0
2025-01-21 19:25:45.852709	223.9	19.6	-78.0	0.0
2025-01-21 19:25:46.976621	224.1	19.7	-77.9	0.0
2025-01-21 19:25:48.100943	224.3	19.8	-77.1	0.0
2025-01-21 19:25:49.222142	224.5	19.9	-75.9	0.0
2025-01-21 19:25:50.345699	224.7	20.0	-77.0	0.0
2025-01-21 19:25:51.468104	224.9	20.1	-76.8	0.0
2025-01-21 19:25:52.590691	225.1	20.2	-76.0	0.0
2025-01-21 19:25:53.715909	225.4	20.3	-75.9	0.0
2025-01-21 19:25:54.838561	225.6	20.4	-76.5	0.0
2025-01-21 19:25:55.960299	225.8	20.5	-77.1	0.0
2025-01-21 19:25:57.081527	226.0	20.6	-77.8	0.0
2025-01-21 19:25:58.205469	226.2	20.7	-78.1	0.0
2025-01-21 19:25:59.329009	226.5	20.8	-78.5	0.0
2025-01-21 19:26:00.452415	226.7	20.9	-78.6	0.0
2025-01-21 19:26:01.575953	226.9	20.9	-78.1	0.0
2025-01-21 19:26:02.699554	227.1	21.0	-77.6	0.0
2025-01-21 19:26:03.823439	227.4	21.1	-78.3	0.0
2025-01-21 19:26:04.946277	227.6	21.2	-78.5	0.0
2025-01-21 19:26:06.071665	227.8	21.3	-78.4	0.0
2025-01-21 19:26:07.195735	228.0	21.4	-78.6	0.0
2025-01-21 19:26:08.320277	228.3	21.5	-78.6	0.0
2025-01-21 19:26:09.443431	228.5	21.6	-77.6	0.0
2025-01-21 19:26:10.566445	228.7	21.7	-78.0	0.0
2025-01-21 19:26:11.690939	229.0	21.8	-78.4	0.0
2025-01-21 19:26:12.813517	229.2	21.9	-79.0	0.0
2025-01-21 19:26:13.934785	229.5	22.0	-78.8	0.0
2025-01-21 19:26:15.058536	229.7	22.1	-79.1	0.0
2025-01-21 19:26:16.183697	229.9	22.2	-78.7	0.0
2025-01-21 19:26:17.306576	230.2	22.3	-79.1	0.0
2025-01-21 19:26:18.431209	230.4	22.4	-78.8	0.0
2025-01-21 19:26:19.553713	230.7	22.5	-78.8	0.0
2025-01-21 19:26:20.676579	230.9	22.5	-79.2	0.0
2025-01-21 19:26:21.801472	231.2	22.6	-79.2	0.0
2025-01-21 19:26:22.927018	231.4	22.7	-79.1	0.0
2025-01-21 19:26:24.046786	231.7	22.8	-79.2	0.0
2025-01-21 19:26:25.170279	231.9	22.9	-79.2	0.0
2025-01-21 19:26:26.293101	232.2	23.0	-79.1	0.0
2025-01-21 19:26:27.416301	232.4	23.1	-79.2	0.0
2025-01-21 19:26:28.541425	232.7	23.2	-79.3	0.0
2025-01-21 19:26:29.664627	233.0	23.3	-79.2	0.0
2025-01-21 19:26:30.786519	233.2	23.4	-79.4	0.0
2025-01-21 19:26:31.911299	233.5	23.5	-79.0	0.0
2025-01-21 19:26:33.032565	233.8	23.5	-79.4	0.0
2025-01-21 19:26:34.153680	234.0	23.6	-79.0	0.0
2025-01-21 19:26:35.278939	234.3	23.7	-78.9	0.0
2025-01-21 19:26:36.401535	234.6	23.8	-79.1	0.0
2025-01-21 19:26:37.527390	234.8	23.9	-79.1	0.0
2025-01-21 19:26:38.650866	235.1	24.0	-79.1	0.0
2025-01-21 19:26:39.775169	235.4	24.1	-79.0	0.0
2025-01-21 19:26:40.900042	235.6	24.2	-79.3	0.0
2025-01-21 19:26:42.024651	235.9	24.2	-79.3	0.0
2025-01-21 19:26:43.148641	236.2	24.3	-79.5	0.0
2025-01-21 19:26:44.270792	236.5	24.4	-79.4	0.0
2025-01-21 19:26:45.395786	236.8	24.5	-78.8	0.0
2025-01-21 19:26:46.518179	237.0	24.6	-79.2	0.0
2025-01-21 19:26:47.640381	237.3	24.7	-79.7	0.0
2025-01-21 19:26:48.763714	237.6	24.8	-79.7	0.0
2025-01-21 19:26:49.887002	237.9	24.8	-79.7	0.0
2025-01-21 19:26:51.008906	238.2	24.9	-79.0	0.0
2025-01-21 19:26:52.132184	238.5	25.0	-79.9	0.0
2025-01-21 19:26:53.254468	238.8	25.1	-79.6	0.0
2025-01-21 19:26:54.378560	239.1	25.2	-79.6	0.0
2025-01-21 19:26:55.500603	239.3	25.3	-79.3	0.0
2025-01-21 19:26:56.625081	239.6	25.3	-79.4	0.0
2025-01-21 19:26:57.749279	239.9	25.4	-79.2	0.0
2025-01-21 19:26:58.873617	240.2	25.5	-79.0	0.0
2025-01-21 19:26:59.998590	240.5	25.6	-78.4	0.0
2025-01-21 19:27:01.121858	240.8	25.7	-78.8	0.0
2025-01-21 19:27:02.244926	241.1	25.7	-78.7	0.0
2025-01-21 19:27:03.369344	241.4	25.8	-79.6	0.0
2025-01-21 19:27:04.491741	241.7	25.9	-79.6	0.0
2025-01-21 19:27:05.612269	242.1	26.0	-79.9	0.0
2025-01-21 19:27:06.735904	242.4	26.0	-79.7	0.0
2025-01-21 19:27:07.859441	242.7	26.1	-79.9	0.0
2025-01-21 19:27:08.984467	243.0	26.2	-79.6	0.0
2025-01-21 19:27:10.107506	243.3	26.3	-79.9	0.0
2025-01-21 19:27:11.230035	243.6	26.3	-80.1	0.0
2025-01-21 19:27:12.352870	243.9	26.4	-80.1	0.0
2025-01-21 19:27:13.476010	244.2	26.5	-80.0	0.0
2025-01-21 19:27:14.597363	244.6	26.5	-79.6	0.0
2025-01-21 19:27:15.720028	244.9	26.6	-79.6	0.0
2025-01-21 19:27:16.843410	245.2	26.7	-80.1	0.0
2025-01-21 19:27:17.966876	245.5	26.7	-79.7	0.0
2025-01-21 19:27:19.088567	245.8	26.8	-79.9	0.0
2025-01-21 19:27:20.211946	246.2	26.9	-80.1	0.0
2025-01-21 19:27:21.335124	246.5	26.9	-79.9	0.0
2025-01-21 19:27:22.458505	246.8	27.0	-79.8	0.0
2025-01-21 19:27:23.580868	247.1	27.1	-80.0	0.0
2025-01-21 19:27:24.702784	247.5	27.1	-80.0	0.0
2025-01-21 19:27:25.826725	247.8	27.2	-80.2	0.0
2025-01-21 19:27:26.948982	248.1	27.3	-79.7	0.0
2025-01-21 19:27:28.072558	248.5	27.3	-80.1	0.0
2025-01-21 19:27:29.195665	248.8	27.4	-79.5	0.0
2025-01-21 19:27:30.321556	249.1	27.4	-79.8	0.0
2025-01-21 19:27:31.444372	249.5	27.5	-79.9	0.0
2025-01-21 19:27:32.568696	249.8	27.6	-79.7	0.0
2025-01-21 19:27:33.689760	250.2	27.6	-80.0	0.0
2025-01-21 19:27:34.812141	250.5	27.7	-80.1	0.0
2025-01-21 19:27:35.937144	250.8	27.7	-80.0	0.0
2025-01-21 19:27:37.059928	251.2	27.8	-80.2	0.0
2025-01-21 19:27:38.184447	251.5	27.8	-80.1	0.0
2025-01-21 19:27:39.307499	251.9	27.9	-79.9	0.0
2025-01-21 19:27:40.431119	252.2	27.9	-80.3	0.0
2025-01-21 19:27:41.554312	252.6	28.0	-80.1	0.0
2025-01-21 19:27:42.676442	252.9	28.0	-80.0	0.0
2025-01-21 19:27:43.799102	253.3	28.1	-79.6	0.0
2025-01-21 19:27:44.920394	253.6	28.1	-80.1	0.0
2025-01-21 19:27:46.043205	254.0	28.2	-79.3	0.0
2025-01-21 19:27:47.166176	254.3	28.2	-79.2	0.0
2025-01-21 19:27:48.288480	254.7	28.2	-80.0	0.0
2025-01-21 19:27:49.412182	255.0	28.3	-79.5	0.0
2025-01-21 19:27:50.534326	255.4	28.3	-80.0	0.0
2025-01-21 19:27:51.656649	255.7	28.4	-80.0	0.0
2025-01-21 19:27:52.778105	256.1	28.4	-79.7	0.0
2025-01-21 19:27:53.900671	256.4	28.4	-80.2	0.0
2025-01-21 19:27:55.021557	256.8	28.5	-80.2	0.0
2025-01-21 19:27:56.143660	257.2	28.5	-79.4	0.0
2025-01-21 19:27:57.265380	257.5	28.5	-80.1	0.0
2025-01-21 19:27:58.386866	257.9	28.6	-79.6	0.0
2025-01-21 19:27:59.509681	258.2	28.6	-79.8	0.0
2025-01-21 19:28:00.632208	258.6	28.6	-80.0	0.0
2025-01-21 19:28:01.756439	259.0	28.7	-80.1	0.0
2025-01-21 19:28:02.879392	259.3	28.7	-80.2	0.0
2025-01-21 19:28:04.003386	259.7	28.7	-79.9	0.0
2025-01-21 19:28:05.128468	260.1	28.7	-80.2	0.0
2025-01-21 19:28:06.250884	260.4	28.8	-80.0	0.0
2025-01-21 19:28:07.373644	260.8	28.8	-79.9	0.0
2025-01-21 19:28:08.497331	261.1	28.8	-79.6	0.0
2025-01-21 19:28:09.620556	261.5	28.8	-79.6	0.0
2025-01-21 19:28:10.742920	261.9	28.8	-79.5	0.0
2025-01-21 19:28:11.865826	262.2	28.9	-79.8	0.0
2025-01-21 19:28:12.990361	262.6	28.9	-80.2	0.0
2025-01-21 19:28:14.115207	263.0	28.9	-80.2	0.0
2025-01-21 19:28:15.239163	263.3	28.9	-80.1	0.0
2025-01-21 19:28:16.361045	263.7	28.9	-80.3	0.0
2025-01-21 19:28:17.486226	264.1	28.9	-80.3	0.0
2025-01-21 19:28:18.609092	264.5	28.9	-79.8	0.0
2025-01-21 19:28:19.732597	264.8	29.0	-80.2	0.0
2025-01-21 19:28:20.855872	265.2	29.0	-80.1	0.0
2025-01-21 19:28:21.977794	265.6	29.0	-80.1	0.0
2025-01-21 19:28:23.101855	265.9	29.0	-79.9	0.0
2025-01-21 19:28:24.224614	266.3	29.0	-79.9	0.0
2025-01-21 19:28:25.346442	266.7	29.0	-80.0	0.0
2025-01-21 19:28:26.471194	267.0	29.0	-79.3	0.0
2025-01-21 19:28:27.596454	267.4	29.0	-78.9	0.0
2025-01-21 19:28:28.719030	267.8	29.0	-79.7	0.0
2025-01-21 19:28:29.841430	268.1	29.0	-78.9	0.0
2025-01-21 19:28:30.964933	268.5	29.0	-79.3	0.0
2025-01-21 19:28:32.087135	268.9	29.0	-78.5	0.0
2025-01-21 19:28:33.210929	269.2	29.0	-78.5	0.0
2025-01-21 19:28:34.334089	269.6	29.0	-78.8	0.0
2025-01-21 19:28:35.459284	270.0	28.9	-78.9	0.0
2025-01-21 19:28:36.581497	270.4	28.9	-78.9	0.0
2025-01-21 19:28:37.705963	270.7	28.9	-78.7	0.0
2025-01-21 19:28:38.828003	271.1	28.9	-78.9	0.0
2025-01-21 19:28:39.950526	271.5	28.9	-79.0	0.0
2025-01-21 19:28:41.075790	271.8	28.9	-78.8	0.0
2025-01-21 19:28:42.199308	272.2	28.9	-78.8	0.0
2025-01-21 19:28:43.321419	272.6	28.8	-78.0	0.0
2025-01-21 19:28:44.445683	272.9	28.8	-78.8	0.0
2025-01-21 19:28:45.569284	273.3	28.8	-78.5	0.0
2025-01-21 19:28:46.692551	273.6	28.8	-78.2	0.0
2025-01-21 19:28:47.816576	274.0	28.8	-78.8	0.0
2025-01-21 19:28:48.939453	274.4	28.7	-78.4	0.0
2025-01-21 19:28:50.064900	274.7	28.7	-78.1	0.0
2025-01-21 19:28:51.187684	275.1	28.7	-79.0	0.0
2025-01-21 19:28:52.309239	275.5	28.7	-77.9	0.0
2025-01-21 19:28:53.432565	275.8	28.6	-78.6	0.0
2025-01-21 19:28:54.555668	276.2	28.6	-78.3	0.0
2025-01-21 19:28:55.677495	276.5	28.6	-77.9	0.0
2025-01-21 19:28:56.800564	276.9	28.5	-78.6	0.0
2025-01-21 19:28:57.924931	277.3	28.5	-78.5	0.0
2025-01-21 19:28:59.044618	277.6	28.5	-78.3	0.0
2025-01-21 19:29:00.167098	278.0	28.4	-78.7	0.0
2025-01-21 19:29:01.291029	278.3	28.4	-77.9	0.0
2025-01-21 19:29:02.412863	278.7	28.4	-78.0	0.0
2025-01-21 19:29:03.536576	279.0	28.3	-78.3	0.0
2025-01-21 19:29:04.660488	279.4	28.3	-78.4	0.0
2025-01-21 19:29:05.784370	279.8	28.2	-78.9	0.0
2025-01-21 19:29:06.908601	280.1	28.2	-78.8	0.0
2025-01-21 19:29:08.032299	280.5	28.2	-78.6	0.0
2025-01-21 19:29:09.156338	280.8	28.1	-78.7	0.0
2025-01-21 19:29:10.280752	281.2	28.1	-78.9	0.0
2025-01-21 19:29:11.404574	281.5	28.0	-79.0	0.0
2025-01-21 19:29:12.527104	281.8	28.0	-78.0	0.0
2025-01-21 19:29:13.650677	282.2	27.9	-79.3	0.0
2025-01-21 19:29:14.774230	282.5	27.9	-78.8	0.0
2025-01-21 19:29:15.897987	282.9	27.8	-79.5	0.0
2025-01-21 19:29:17.022977	283.2	27.8	-78.9	0.0
2025-01-21 19:29:18.147300	283.6	27.7	-78.3	0.0
2025-01-21 19:29:19.271510	283.9	27.7	-78.9	0.0
2025-01-21 19:29:20.395564	284.2	27.6	-79.3	0.0
2025-01-21 19:29:21.519154	284.6	27.6	-77.0	0.0
2025-01-21 19:29:22.642362	284.9	27.5	-77.9	0.0
2025-01-21 19:29:23.764441	285.3	27.4	-78.8	0.0
2025-01-21 19:29:24.885523	285.6	27.4	-79.1	0.0
2025-01-21 19:29:26.008062	285.9	27.3	-79.2	0.0
2025-01-21 19:29:27.132172	286.3	27.3	-79.0	0.0
2025-01-21 19:29:28.255545	286.6	27.2	-78.6	0.0
2025-01-21 19:29:29.379058	286.9	27.1	-78.4	0.0
2025-01-21 19:29:30.503617	287.2	27.1	-78.3	0.0
2025-01-21 19:29:31.624424	287.6	27.0	-78.5	0.0
2025-01-21 19:29:32.747069	287.9	27.0	-77.0	0.0
2025-01-21 19:29:33.872478	288.2	26.9	-78.4	0.0
2025-01-21 19:29:34.998080	288.5	26.8	-78.2	0.0
2025-01-21 19:29:36.121761	288.9	26.8	-78.6	0.0
2025-01-21 19:29:37.245375	289.2	26.7	-77.9	0.0
2025-01-21 19:29:38.369702	289.5	26.6	-78.3	0.0
2025-01-21 19:29:39.492660	289.8	26.5	-77.7	0.0
2025-01-21 19:29:40.615896	290.1	26.5	-77.9	0.0
2025-01-21 19:29:41.740165	290.5	26.4	-77.7	0.0
2025-01-21 19:29:42.861232	290.8	26.3	-78.1	0.0
2025-01-21 19:29:43.984931	291.1	26.3	-78.2	0.0
2025-01-21 19:29:45.110139	291.4	26.2	-76.7	0.0
2025-01-21 19:29:46.232929	291.7	26.1	-77.5	0.0
2025-01-21 19:29:47.354237	292.0	26.0	-77.7	0.0
2025-01-21 19:29:48.477334	292.3	26.0	-78.3	0.0
2025-01-21 19:29:49.601582	292.6	25.9	-77.8	0.0
2025-01-21 19:29:50.726468	292.9	25.8	-78.2	0.0
2025-01-21 19:29:51.849154	293.2	25.7	-78.8	0.0
2025-01-21 19:29:52.972981	293.5	25.7	-78.2	0.0
2025-01-21 19:29:54.094559	293.8	25.6	-78.9	0.0
2025-01-21 19:29:55.217632	294.1	25.5	-78.4	0.0
2025-01-21 19:29:56.342512	294.4	25.4	-78.2	0.0
2025-01-21 19:29:57.466335	294.7	25.4	-78.0	0.0
2025-01-21 19:29:58.589192	295.0	25.3	-78.0	0.0
2025-01-21 19:29:59.712121	295.3	25.2	-77.9	0.0
2025-01-21 19:30:00.836317	295.6	25.1	-77.2	0.0
2025-01-21 19:30:01.960051	295.9	25.0	-77.8	0.0
2025-01-21 19:30:03.081817	296.2	24.9	-77.9	0.0
2025-01-21 19:30:04.204247	296.5	24.9	-78.5	0.0
2025-01-21 19:30:05.327216	296.7	24.8	-78.4	0.0
2025-01-21 19:30:06.449318	297.0	24.7	-77.8	0.0
2025-01-21 19:30:07.570949	297.3	24.6	-78.6	0.0
2025-01-21 19:30:08.693933	297.6	24.5	-78.2	0.0
2025-01-21 19:30:09.815981	297.9	24.4	-77.8	0.0
2025-01-21 19:30:10.938144	298.2	24.4	-77.8	0.0
2025-01-21 19:30:12.060979	298.4	24.3	-78.1	0.0
2025-01-21 19:30:13.183116	298.7	24.2	-78.1	0.0
2025-01-21 19:30:14.307095	299.0	24.1	-77.4	0.0
2025-01-21 19:30:15.431127	299.2	24.0	-77.4	0.0
2025-01-21 19:30:16.552961	299.5	23.9	-78.0	0.0
2025-01-21 19:30:17.674987	299.8	23.8	-77.8	0.0
2025-01-21 19:30:18.798525	300.1	23.8	-77.7	0.0
2025-01-21 19:30:19.921301	300.3	23.7	-78.3	0.0
2025-01-21 19:30:21.041620	300.6	23.6	-78.3	0.0
2025-01-21 19:30:22.163363	300.8	23.5	-77.0	0.0
2025-01-21 19:30:23.285020	301.1	23.4	-78.1	0.0
2025-01-21 19:30:24.408730	301.4	23.3	-78.0	0.0
2025-01-21 19:30:25.532282	301.6	23.2	-77.2	0.0
2025-01-21 19:30:26.657751	301.9	23.1	-77.4	0.0
2025-01-21 19:30:27.779261	302.1	23.0	-77.4	0.0
2025-01-21 19:30:28.904176	302.4	22.9	-74.5	0.0
2025-01-21 19:30:30.028663	302.6	22.9	-73.6	0.0
2025-01-21 19:30:31.150810	302.9	22.8	-78.4	0.0
2025-01-21 19:30:32.272855	303.1	22.7	-77.1	0.0
2025-01-21 19:30:33.398570	303.4	22.6	-77.7	0.0
2025-01-21 19:30:34.520149	303.6	22.5	-76.2	0.0
2025-01-21 19:30:35.644935	303.9	22.4	-74.7	0.0
2025-01-21 19:30:36.767204	304.1	22.3	-77.3	0.0
2025-01-21 19:30:37.889623	304.4	22.2	-77.4	0.0
2025-01-21 19:30:39.013237	304.6	22.1	-76.8	0.0
2025-01-21 19:30:40.136576	304.9	22.0	-76.8	0.0
2025-01-21 19:30:41.257564	305.1	21.9	-77.5	0.0
2025-01-21 19:30:42.382134	305.3	21.8	-77.8	0.0
2025-01-21 19:30:43.504179	305.6	21.8	-78.9	0.0
2025-01-21 19:30:44.628449	305.8	21.7	-78.6	0.0
2025-01-21 19:30:45.749969	306.0	21.6	-78.5	0.0
2025-01-21 19:30:46.873184	306.3	21.5	-78.4	0.0
2025-01-21 19:30:47.997617	306.5	21.4	-73.4	0.0
2025-01-21 19:30:49.121592	306.7	21.3	-77.5	0.0
2025-01-21 19:30:50.243190	306.9	21.2	-78.1	0.0
2025-01-21 19:30:51.366697	307.2	21.1	-77.4	0.0
2025-01-21 19:30:52.488699	307.4	21.0	-78.0	0.0
2025-01-21 19:30:53.609199	307.6	20.9	-77.2	0.0
2025-01-21 19:30:54.731172	307.8	20.8	-77.7	0.0
2025-01-21 19:30:55.854212	308.1	20.7	-76.9	0.0
2025-01-21 19:30:56.978619	308.3	20.6	-73.3	0.0
2025-01-21 19:30:58.102543	308.5	20.5	-74.0	0.0
2025-01-21 19:30:59.224865	308.7	20.4	-76.8	0.0
2025-01-21 19:31:00.347223	308.9	20.3	-73.7	0.0
2025-01-21 19:31:01.470096	309.1	20.3	-77.2	0.0
2025-01-21 19:31:02.591609	309.4	20.2	-77.6	0.0
2025-01-21 19:31:03.714896	309.6	20.1	-76.9	0.0
2025-01-21 19:31:04.840256	309.8	20.0	-71.8	0.0
2025-01-21 19:31:05.963991	310.0	19.9	-75.4	0.0
2025-01-21 19:31:07.086987	310.2	19.8	-74.7	0.0
2025-01-21 19:31:08.208334	310.4	19.7	-75.3	0.0
2025-01-21 19:31:09.330694	310.6	19.6	-75.6	0.0
2025-01-21 19:31:10.455689	310.8	19.5	-74.2	0.0
2025-01-21 19:31:11.579214	311.0	19.4	-74.2	0.0
2025-01-21 19:31:12.701860	311.2	19.3	-76.3	0.0
2025-01-21 19:31:13.823410	311.4	19.2	-75.3	0.0
2025-01-21 19:31:14.943508	311.6	19.1	-76.5	0.0
2025-01-21 19:31:16.064436	311.8	19.0	-76.5	0.0
2025-01-21 19:31:17.189932	312.0	18.9	-73.6	0.0
2025-01-21 19:31:18.312958	312.2	18.8	-74.2	0.0
2025-01-21 19:31:19.436068	312.4	18.7	-76.3	0.0
2025-01-21 19:31:20.558413	312.6	18.6	-76.1	0.0
2025-01-21 19:31:21.679142	312.8	18.6	-74.7	0.0
2025-01-21 19:31:22.805434	313.0	18.5	-74.3	0.0
2025-01-21 19:31:23.927088	313.2	18.4	-75.4	0.0
2025-01-21 19:31:25.050235	313.4	18.3	-74.2	0.0
2025-01-21 19:31:26.172645	313.6	18.2	-74.3	0.0
2025-01-21 19:31:27.294889	313.7	18.1	-74.9	0.0
2025-01-21 19:31:28.417071	313.9	18.0	-74.0	0.0
2025-01-21 19:31:29.539331	314.1	17.9	-73.0	0.0
2025-01-21 19:31:30.664539	314.3	17.8	-71.2	0.0
2025-01-21 19:31:31.789023	314.5	17.7	-73.9	0.0
2025-01-21 19:31:32.911568	314.7	17.6	-74.0	0.0
2025-01-21 19:31:34.035201	314.8	17.5	-73.5	0.0
2025-01-21 19:31:35.156930	315.0	17.4	-73.2	0.0
2025-01-21 19:31:36.281051	315.2	17.3	-73.8	0.0
2025-01-21 19:31:37.403251	315.4	17.2	-72.1	0.0
2025-01-21 19:31:38.525189	315.5	17.2	-74.7	0.0
2025-01-21 19:31:39.648381	315.7	17.1	-71.6	0.0
2025-01-21 19:31:40.770968	315.9	17.0	-73.9	0.0
2025-01-21 19:31:41.894906	316.1	16.9	-74.1	0.0
2025-01-21 19:31:43.020296	316.2	16.8	-70.9	0.0
2025-01-21 19:31:44.142542	316.4	16.7	-73.7	0.0
2025-01-21 19:31:45.266586	316.6	16.6	-70.7	0.0
2025-01-21 19:31:46.389922	316.7	16.5	-73.7	0.0
2025-01-21 19:31:47.510757	316.9	16.4	-70.8	0.0
2025-01-21 19:31:48.634299	317.1	16.3	-71.0	0.0
2025-01-21 19:31:49.758051	317.2	16.2	-73.9	0.0
2025-01-21 19:31:50.883584	317.4	16.1	-71.5	0.0
2025-01-21 19:31:52.006408	317.6	16.0	-73.9	0.0
2025-01-21 19:31:53.130341	317.7	16.0	-74.6	0.0
2025-01-21 19:31:54.253257	317.9	15.9	-70.2	0.0
2025-01-21 19:31:55.376552	318.1	15.8	-69.9	0.0
2025-01-21 19:31:56.499002	318.2	15.7	-70.1	0.0
2025-01-21 19:31:57.621962	318.4	15.6	-72.8	0.0
2025-01-21 19:31:58.743397	318.5	15.5	-71.8	0.0
2025-01-21 19:31:59.866575	318.7	15.4	-70.9	0.0
2025-01-21 19:32:00.991282	318.8	15.3	-72.8	0.0
2025-01-21 19:32:02.114138	319.0	15.2	-74.1	0.0
2025-01-21 19:32:03.236853	319.2	15.1	-75.8	0.0
2025-01-21 19:32:04.359640	319.3	15.0	-74.0	0.0
2025-01-21 19:32:05.482720	319.5	15.0	-71.3	0.0
2025-01-21 19:32:06.605387	319.6	14.9	-70.5	0.0
2025-01-21 19:32:07.727561	319.8	14.8	-70.7	0.0
2025-01-21 19:32:08.851663	319.9	14.7	-70.7	0.0
2025-01-21 19:32:09.973808	320.1	14.6	-72.1	0.0
2025-01-21 19:32:11.095672	320.2	14.5	-73.7	0.0
2025-01-21 19:32:12.221033	320.4	14.4	-75.5	0.0
2025-01-21 19:32:13.341991	320.5	14.3	-76.2	0.0
2025-01-21 19:32:14.463493	320.7	14.2	-75.0	0.0
2025-01-21 19:32:15.587709	320.8	14.2	-67.0	0.0
2025-01-21 19:32:16.711445	320.9	14.1	-67.2	0.0
2025-01-21 19:32:17.835312	321.1	14.0	-76.3	0.0
2025-01-21 19:32:18.958867	321.2	13.9	-75.7	0.0
2025-01-21 19:32:20.081039	321.4	13.8	-75.1	0.0
2025-01-21 19:32:21.204477	321.5	13.7	-74.5	0.0
2025-01-21 19:32:22.330080	321.6	13.6	-75.5	0.0
2025-01-21 19:32:23.453503	321.8	13.5	-67.2	0.0
2025-01-21 19:32:24.577744	321.9	13.4	-70.3	0.0
2025-01-21 19:32:25.700567	322.1	13.4	-75.6	0.0
2025-01-21 19:32:26.826255	322.2	13.3	-70.2	0.0
2025-01-21 19:32:27.950311	322.3	13.2	-69.6	0.0
2025-01-21 19:32:29.074217	322.5	13.1	-67.7	0.0
2025-01-21 19:32:30.198104	322.6	13.0	-69.0	0.0
2025-01-21 19:32:31.319166	322.7	12.9	-73.3	0.0
2025-01-21 19:32:32.440254	322.9	12.8	-69.3	0.0
2025-01-21 19:32:33.562602	323.0	12.8	-71.9	0.0
2025-01-21 19:32:34.686900	323.1	12.7	-72.2	0.0
2025-01-21 19:32:35.806648	323.3	12.6	-70.9	0.0
2025-01-21 19:32:36.929667	323.4	12.5	-72.8	0.0
2025-01-21 19:32:38.051496	323.5	12.4	-71.1	0.0
2025-01-21 19:32:39.172924	323.7	12.3	-74.5	0.0
2025-01-21 19:32:40.297923	323.8	12.2	-66.9	0.0
2025-01-21 19:32:41.421087	323.9	12.2	-70.2	0.0
2025-01-21 19:32:42.544245	324.0	12.1	-70.9	0.0
2025-01-21 19:32:43.666376	324.2	12.0	-73.3	0.0
2025-01-21 19:32:44.790319	324.3	11.9	-67.3	0.0
2025-01-21 19:32:45.912451	324.4	11.8	-68.6	0.0
2025-01-21 19:32:47.035021	324.5	11.7	-71.7	0.0
2025-01-21 19:32:48.157827	324.7	11.7	-73.0	0.0
2025-01-21 19:32:49.280071	324.8	11.6	-68.5	0.0
2025-01-21 19:32:50.403093	324.9	11.5	-69.2	0.0
2025-01-21 19:32:51.527226	325.0	11.4	-72.2	0.0
2025-01-21 19:32:52.649676	325.1	11.3	-68.7	0.0
2025-01-21 19:32:53.773930	325.3	11.2	-70.3	0.0
2025-01-21 19:32:54.897169	325.4	11.2	-73.4	0.0
2025-01-21 19:32:56.022735	325.5	11.1	-71.7	0.0
2025-01-21 19:32:57.147719	325.6	11.0	-72.4	0.0
2025-01-21 19:32:58.270411	325.7	10.9	-73.1	0.0
2025-01-21 19:32:59.393527	325.9	10.8	-76.2	0.0
2025-01-21 19:33:00.516672	326.0	10.7	-77.8	0.0
2025-01-21 19:33:01.638967	326.1	10.7	-79.5	0.0
2025-01-21 19:33:02.763442	326.2	10.6	-79.6	0.0
2025-01-21 19:33:03.887447	326.3	10.5	-80.5	0.0
2025-01-21 19:33:05.012473	326.4	10.4	-81.1	0.0
2025-01-21 19:33:06.136154	326.5	10.3	-81.0	0.0
2025-01-21 19:33:07.258387	326.7	10.3	-80.9	0.0
2025-01-21 19:33:08.378984	326.8	10.2	-81.2	0.0
2025-01-21 19:33:09.502712	326.9	10.1	-80.8	0.0
2025-01-21 19:33:10.626824	327.0	10.0	-80.8	0.0
#Closed at: 2025-01-21 19:23:40.671509