passes_logs/2025/01/01/LEX_Murmansk/LEX_Murmansk__20250101_090429_NOAA_18_rec.log

#Pass ID: 20250101_090429_NOAA 18
#Satellite: NOAA 18
#Configuration: NOAA 18
#Start time: 2025-01-01 09:04:24.981400

#LorettStation: 1.0.0 05.05.2024
#Station: LEX_Murmansk
#Location: 33.156738 lon 68.926811 lat
#TLE: 1 28654U 05018A   24366.86382707  .00000695  00000+0  39254-3 0  9996
#TLE: 2 28654  98.8588  82.0571 0013692 219.5840 140.4334 14.13471437 11103

#Time	Az	El	Level	SNR
2025-01-01 09:04:37.168417	29.7	16.2	-92.4	5.3
2025-01-01 09:04:38.335724	29.8	16.4	-92.1	6.5
2025-01-01 09:04:39.497081	29.9	16.5	-93.1	5.2
2025-01-01 09:04:40.652194	30.0	16.6	-92.9	3.1
2025-01-01 09:04:41.817403	30.0	16.7	-92.9	7.0
2025-01-01 09:04:42.971971	30.1	16.8	-91.5	4.6
2025-01-01 09:04:44.136411	30.2	17.0	-90.3	4.8
2025-01-01 09:04:45.304843	30.3	17.1	-90.4	6.3
2025-01-01 09:04:46.467090	30.4	17.2	-91.3	6.9
2025-01-01 09:04:47.628312	30.5	17.3	-92.9	3.5
2025-01-01 09:04:48.790353	30.6	17.5	-93.1	6.7
2025-01-01 09:04:49.950492	30.7	17.6	-93.1	3.2
2025-01-01 09:04:51.105332	30.7	17.7	-92.5	4.1
2025-01-01 09:04:52.255266	30.8	17.8	-92.1	10.3
2025-01-01 09:04:53.389457	30.9	18.0	-92.7	9.5
2025-01-01 09:04:54.510519	31.0	18.1	-93.0	4.1
2025-01-01 09:04:55.631766	31.1	18.2	-92.9	7.4
2025-01-01 09:04:56.752317	31.2	18.3	-93.1	13.6
2025-01-01 09:04:57.872661	31.3	18.5	-93.1	5.0
2025-01-01 09:04:58.993624	31.4	18.6	-93.2	12.4
2025-01-01 09:05:00.121496	31.5	18.7	-92.3	5.0
2025-01-01 09:05:01.249946	31.6	18.8	-92.4	5.0
2025-01-01 09:05:02.404759	31.7	19.0	-92.7	7.9
2025-01-01 09:05:03.566237	31.8	19.1	-92.8	3.5
2025-01-01 09:05:04.731936	31.9	19.2	-92.9	5.8
2025-01-01 09:05:05.884170	32.0	19.4	-93.0	6.2
2025-01-01 09:05:07.043476	32.1	19.5	-92.9	4.1
2025-01-01 09:05:08.211736	32.2	19.6	-92.5	8.0
2025-01-01 09:05:09.368542	32.3	19.8	-92.7	11.6
2025-01-01 09:05:10.534748	32.4	19.9	-93.3	9.4
2025-01-01 09:05:11.698098	32.5	20.1	-93.3	8.6
2025-01-01 09:05:12.857910	32.6	20.2	-93.2	6.7
2025-01-01 09:05:14.018585	32.7	20.3	-92.7	19.5
2025-01-01 09:05:15.182980	32.8	20.5	-92.7	11.4
2025-01-01 09:05:16.348295	32.9	20.6	-92.8	11.3
2025-01-01 09:05:17.507732	33.0	20.8	-93.4	7.4
2025-01-01 09:05:18.666134	33.1	20.9	-93.2	4.5
2025-01-01 09:05:19.833559	33.2	21.0	-93.2	10.1
2025-01-01 09:05:20.995985	33.3	21.2	-93.4	4.1
2025-01-01 09:05:22.157406	33.5	21.3	-92.6	6.1
2025-01-01 09:05:23.315980	33.6	21.5	-92.4	7.3
2025-01-01 09:05:24.480068	33.7	21.6	-92.8	10.8
2025-01-01 09:05:25.646630	33.8	21.8	-93.0	18.6
2025-01-01 09:05:26.806188	33.9	21.9	-93.6	16.2
2025-01-01 09:05:27.970236	34.0	22.1	-93.3	13.1
2025-01-01 09:05:29.136069	34.1	22.2	-92.9	9.3
2025-01-01 09:05:30.298018	34.3	22.4	-92.9	16.2
2025-01-01 09:05:31.461631	34.4	22.5	-92.4	6.9
2025-01-01 09:05:32.623616	34.5	22.7	-93.2	13.6
2025-01-01 09:05:33.784076	34.6	22.8	-93.2	12.5
2025-01-01 09:05:34.940767	34.8	23.0	-93.4	7.1
2025-01-01 09:05:36.108201	34.9	23.1	-92.7	4.2
2025-01-01 09:05:37.269685	35.0	23.3	-92.6	11.9
2025-01-01 09:05:38.431804	35.1	23.4	-92.4	7.1
2025-01-01 09:05:39.594644	35.3	23.6	-92.9	9.2
2025-01-01 09:05:40.770131	35.4	23.7	-93.0	13.4
2025-01-01 09:05:41.937233	35.5	23.9	-93.3	16.6
2025-01-01 09:05:43.104987	35.7	24.0	-91.5	12.3
2025-01-01 09:05:44.264621	35.8	24.2	-91.7	12.4
2025-01-01 09:05:45.428777	35.9	24.4	-92.7	12.6
2025-01-01 09:05:46.595380	36.1	24.5	-92.2	9.8
2025-01-01 09:05:47.755053	36.2	24.7	-92.0	15.4
2025-01-01 09:05:48.926207	36.4	24.8	-92.1	15.8
2025-01-01 09:05:50.086193	36.5	25.0	-91.8	9.7
2025-01-01 09:05:51.247764	36.6	25.2	-91.8	9.1
2025-01-01 09:05:52.421110	36.8	25.3	-91.0	9.7
2025-01-01 09:05:53.582542	36.9	25.5	-92.2	8.7
2025-01-01 09:05:54.744431	37.1	25.7	-91.2	12.6
2025-01-01 09:05:55.908792	37.2	25.8	-91.6	14.1
2025-01-01 09:05:57.075783	37.4	26.0	-92.3	4.4
2025-01-01 09:05:58.235516	37.5	26.2	-90.8	12.5
2025-01-01 09:05:59.395868	37.7	26.3	-91.7	13.1
2025-01-01 09:06:00.546466	37.8	26.5	-92.4	10.5
2025-01-01 09:06:01.704729	38.0	26.7	-92.6	10.3
2025-01-01 09:06:02.866767	38.1	26.8	-91.7	10.7
2025-01-01 09:06:04.022969	38.3	27.0	-91.4	8.6
2025-01-01 09:06:05.190913	38.5	27.2	-91.9	13.4
2025-01-01 09:06:06.355500	38.6	27.4	-91.7	12.9
2025-01-01 09:06:07.528634	38.8	27.5	-91.9	8.2
2025-01-01 09:06:08.695137	39.0	27.7	-91.5	10.7
2025-01-01 09:06:09.849485	39.1	27.9	-91.7	13.3
2025-01-01 09:06:11.012364	39.3	28.1	-91.5	5.1
2025-01-01 09:06:12.175502	39.5	28.2	-91.5	7.5
2025-01-01 09:06:13.339147	39.6	28.4	-90.1	7.0
2025-01-01 09:06:14.501304	39.8	28.6	-91.6	5.0
2025-01-01 09:06:15.667785	40.0	28.8	-91.6	8.1
2025-01-01 09:06:16.825872	40.2	29.0	-90.9	10.6
2025-01-01 09:06:17.985833	40.3	29.1	-91.6	7.1
2025-01-01 09:06:19.150944	40.5	29.3	-90.9	10.2
2025-01-01 09:06:20.313337	40.7	29.5	-90.4	9.3
2025-01-01 09:06:21.482920	40.9	29.7	-91.2	8.2
2025-01-01 09:06:22.644559	41.1	29.9	-91.9	8.2
2025-01-01 09:06:23.802239	41.3	30.1	-93.5	10.9
2025-01-01 09:06:24.964480	41.5	30.3	-91.7	7.7
2025-01-01 09:06:26.125585	41.7	30.5	-92.1	12.1
2025-01-01 09:06:27.283969	41.9	30.6	-91.9	11.0
2025-01-01 09:06:28.454790	42.1	30.8	-91.6	12.4
2025-01-01 09:06:29.619167	42.3	31.0	-91.4	7.7
2025-01-01 09:06:30.784310	42.5	31.2	-91.7	13.3
2025-01-01 09:06:31.949887	42.7	31.4	-91.9	7.4
2025-01-01 09:06:33.109663	42.9	31.6	-90.8	6.3
2025-01-01 09:06:34.267498	43.1	31.8	-92.2	13.3
2025-01-01 09:06:35.430809	43.3	32.0	-92.2	12.7
2025-01-01 09:06:36.596239	43.5	32.2	-92.6	14.9
2025-01-01 09:06:37.756843	43.8	32.4	-93.0	14.3
2025-01-01 09:06:38.923220	44.0	32.6	-93.0	16.0
2025-01-01 09:06:40.080562	44.2	32.8	-92.8	16.1
2025-01-01 09:06:41.242595	44.4	33.0	-92.8	17.6
2025-01-01 09:06:42.404971	44.7	33.2	-93.5	20.7
2025-01-01 09:06:43.560769	44.9	33.4	-93.5	17.4
2025-01-01 09:06:44.726961	45.1	33.6	-93.3	21.9
2025-01-01 09:06:45.892353	45.4	33.8	-93.1	19.9
2025-01-01 09:06:47.050341	45.6	34.0	-92.4	17.4
2025-01-01 09:06:48.219297	45.8	34.2	-92.6	17.6
2025-01-01 09:06:49.385666	46.1	34.4	-93.0	20.6
2025-01-01 09:06:50.546525	46.3	34.6	-93.1	8.9
2025-01-01 09:06:51.710604	46.6	34.8	-93.4	15.8
2025-01-01 09:06:52.874459	46.9	35.0	-93.5	20.1
2025-01-01 09:06:54.039593	47.1	35.2	-93.2	12.4
2025-01-01 09:06:55.206622	47.4	35.5	-92.4	15.7
2025-01-01 09:06:56.369400	47.7	35.7	-93.0	17.7
2025-01-01 09:06:57.526365	47.9	35.9	-92.7	19.6
2025-01-01 09:06:58.683936	48.2	36.1	-93.2	20.5
2025-01-01 09:06:59.847370	48.5	36.3	-93.1	19.3
2025-01-01 09:07:01.002410	48.8	36.5	-92.8	12.8
2025-01-01 09:07:02.164111	49.0	36.7	-92.5	12.4
2025-01-01 09:07:03.326099	49.3	36.9	-92.6	17.7
2025-01-01 09:07:04.485311	49.6	37.1	-93.5	16.0
2025-01-01 09:07:05.650759	49.9	37.4	-93.6	20.3
2025-01-01 09:07:06.822809	50.2	37.6	-93.6	19.6
2025-01-01 09:07:07.984482	50.5	37.8	-93.2	19.5
2025-01-01 09:07:09.146595	50.8	38.0	-93.0	16.0
2025-01-01 09:07:10.312733	51.1	38.2	-93.3	18.7
2025-01-01 09:07:11.479333	51.5	38.5	-93.6	9.6
2025-01-01 09:07:12.639773	51.8	38.7	-93.3	6.3
2025-01-01 09:07:13.793740	52.1	38.9	-93.1	19.4
2025-01-01 09:07:14.958143	52.4	39.1	-91.5	10.6
2025-01-01 09:07:16.121576	52.8	39.3	-91.2	11.8
2025-01-01 09:07:17.282107	53.1	39.5	-91.1	16.1
2025-01-01 09:07:18.445038	53.4	39.8	-91.2	14.8
2025-01-01 09:07:19.609254	53.8	40.0	-91.5	14.9
2025-01-01 09:07:20.771042	54.1	40.2	-91.7	15.2
2025-01-01 09:07:21.928637	54.5	40.4	-92.2	13.6
2025-01-01 09:07:23.093793	54.8	40.6	-92.4	12.3
2025-01-01 09:07:24.248619	55.2	40.9	-92.0	18.0
2025-01-01 09:07:25.415516	55.6	41.1	-92.1	18.1
2025-01-01 09:07:26.576089	56.0	41.3	-91.7	12.8
2025-01-01 09:07:27.734193	56.3	41.5	-92.3	18.4
2025-01-01 09:07:28.895364	56.7	41.8	-91.7	17.8
2025-01-01 09:07:30.057667	57.1	42.0	-91.8	18.4
2025-01-01 09:07:31.223759	57.5	42.2	-91.1	14.5
2025-01-01 09:07:32.391559	57.9	42.4	-91.9	16.1
2025-01-01 09:07:33.554588	58.3	42.6	-91.8	9.0
2025-01-01 09:07:34.714180	58.7	42.9	-93.0	16.0
2025-01-01 09:07:35.884050	59.1	43.1	-93.1	19.6
2025-01-01 09:07:37.049693	59.6	43.3	-93.2	8.6
2025-01-01 09:07:38.216993	60.0	43.5	-92.8	13.1
2025-01-01 09:07:39.380166	60.4	43.7	-92.9	18.1
2025-01-01 09:07:40.541993	60.9	44.0	-92.9	14.2
2025-01-01 09:07:41.701090	61.3	44.2	-93.0	14.3
2025-01-01 09:07:42.856539	61.8	44.4	-93.4	15.0
2025-01-01 09:07:44.020307	62.2	44.6	-93.3	16.7
2025-01-01 09:07:45.185874	62.7	44.8	-92.9	17.0
2025-01-01 09:07:46.343159	63.2	45.0	-92.6	18.6
2025-01-01 09:07:47.512058	63.7	45.2	-93.4	14.5
2025-01-01 09:07:48.675783	64.1	45.5	-93.3	13.4
2025-01-01 09:07:49.847117	64.6	45.7	-93.1	18.4
2025-01-01 09:07:51.009747	65.1	45.9	-92.8	10.4
2025-01-01 09:07:52.172858	65.6	46.1	-92.7	10.6
2025-01-01 09:07:53.335704	66.1	46.3	-92.9	14.5
2025-01-01 09:07:54.497001	66.7	46.5	-93.5	16.0
2025-01-01 09:07:55.663277	67.2	46.7	-93.5	15.0
2025-01-01 09:07:56.828701	67.7	46.9	-93.3	14.6
2025-01-01 09:07:57.993592	68.3	47.1	-93.4	11.7
2025-01-01 09:07:59.156892	68.8	47.3	-93.0	13.4
2025-01-01 09:08:00.316113	69.4	47.5	-93.0	13.7
2025-01-01 09:08:01.478961	69.9	47.7	-91.1	10.2
2025-01-01 09:08:02.643405	70.5	47.9	-91.2	6.9
2025-01-01 09:08:03.804867	71.1	48.1	-91.4	11.3
2025-01-01 09:08:04.971427	71.6	48.3	-91.9	7.1
2025-01-01 09:08:06.125111	72.2	48.5	-91.4	5.1
2025-01-01 09:08:07.290875	72.8	48.6	-93.3	11.4
2025-01-01 09:08:08.449283	73.4	48.8	-93.8	9.4
2025-01-01 09:08:09.617162	74.0	49.0	-93.9	9.3
2025-01-01 09:08:10.781016	74.6	49.2	-93.7	16.1
2025-01-01 09:08:11.941222	75.3	49.4	-93.1	10.1
2025-01-01 09:08:13.107250	75.9	49.5	-92.7	7.0
2025-01-01 09:08:14.267435	76.5	49.7	-92.8	8.3
2025-01-01 09:08:15.431855	77.2	49.9	-93.2	12.0
2025-01-01 09:08:16.599252	77.8	50.0	-93.2	9.8
2025-01-01 09:08:17.760245	78.5	50.2	-93.3	15.0
2025-01-01 09:08:18.930912	79.1	50.3	-93.3	13.3
2025-01-01 09:08:20.091699	79.8	50.5	-93.3	13.4
2025-01-01 09:08:21.253453	80.5	50.6	-93.1	17.5
2025-01-01 09:08:22.418310	81.2	50.8	-92.9	15.0
2025-01-01 09:08:23.577583	81.8	50.9	-93.5	11.7
2025-01-01 09:08:24.738544	82.5	51.0	-93.4	16.4
2025-01-01 09:08:25.903588	83.2	51.2	-93.2	18.7
2025-01-01 09:08:27.067068	84.0	51.3	-92.2	10.5
2025-01-01 09:08:28.230624	84.7	51.4	-92.8	14.6
2025-01-01 09:08:29.389599	85.4	51.5	-93.0	17.3
2025-01-01 09:08:30.550441	86.1	51.7	-92.7	15.6
2025-01-01 09:08:31.711617	86.8	51.8	-93.4	16.7
2025-01-01 09:08:32.876338	87.6	51.9	-93.1	16.0
2025-01-01 09:08:34.035638	88.3	52.0	-93.5	13.2
2025-01-01 09:08:35.193888	89.1	52.1	-93.0	13.2
2025-01-01 09:08:36.358723	89.8	52.2	-93.3	13.7
2025-01-01 09:08:37.531725	90.6	52.3	-93.4	10.1
2025-01-01 09:08:38.693353	91.3	52.3	-93.6	15.4
2025-01-01 09:08:39.860239	92.1	52.4	-93.5	15.9
2025-01-01 09:08:41.021386	92.9	52.5	-93.5	6.3
2025-01-01 09:08:42.179999	93.6	52.6	-92.3	8.3
2025-01-01 09:08:43.344712	94.4	52.6	-93.1	16.0
2025-01-01 09:08:44.500376	95.2	52.7	-93.7	10.9
2025-01-01 09:08:45.662894	96.0	52.7	-93.5	9.3
2025-01-01 09:08:46.826198	96.7	52.8	-93.4	18.9
2025-01-01 09:08:47.982958	97.5	52.8	-93.2	12.2
2025-01-01 09:08:49.143259	98.3	52.8	-93.0	7.3
2025-01-01 09:08:50.300245	99.1	52.9	-93.1	17.5
2025-01-01 09:08:51.462590	99.9	52.9	-93.3	13.9
2025-01-01 09:08:52.626931	100.7	52.9	-93.4	13.4
2025-01-01 09:08:53.784352	101.5	52.9	-93.1	17.6
2025-01-01 09:08:54.948257	102.3	52.9	-93.1	16.5
2025-01-01 09:08:56.117919	103.1	52.9	-92.3	13.9
2025-01-01 09:08:57.274642	103.9	52.9	-93.0	17.8
2025-01-01 09:08:58.445204	104.7	52.9	-93.3	15.3
2025-01-01 09:08:59.604940	105.4	52.9	-93.4	14.9
2025-01-01 09:09:00.760161	106.2	52.9	-93.4	12.2
2025-01-01 09:09:01.919778	107.0	52.9	-93.3	9.9
2025-01-01 09:09:03.084055	107.8	52.8	-92.9	10.8
2025-01-01 09:09:04.245360	108.6	52.8	-93.0	14.8
2025-01-01 09:09:05.414829	109.4	52.8	-93.5	17.6
2025-01-01 09:09:06.579573	110.2	52.7	-90.9	14.7
2025-01-01 09:09:07.739731	111.0	52.7	-91.6	13.6
2025-01-01 09:09:08.899741	111.7	52.6	-92.0	16.5
2025-01-01 09:09:10.066417	112.5	52.5	-90.8	14.2
2025-01-01 09:09:11.231988	113.3	52.5	-92.7	15.0
2025-01-01 09:09:12.403380	114.1	52.4	-91.7	10.1
2025-01-01 09:09:13.562852	114.8	52.3	-92.1	10.0
2025-01-01 09:09:14.721846	115.6	52.2	-91.9	15.2
2025-01-01 09:09:15.882812	116.3	52.2	-91.4	12.5
2025-01-01 09:09:17.044756	117.1	52.1	-91.6	8.5
2025-01-01 09:09:18.207013	117.8	52.0	-91.4	12.5
2025-01-01 09:09:19.366386	118.6	51.9	-93.3	13.7
2025-01-01 09:09:20.522866	119.3	51.8	-93.3	16.9
2025-01-01 09:09:21.689271	120.0	51.6	-93.4	16.0
2025-01-01 09:09:22.853816	120.8	51.5	-92.7	16.4
2025-01-01 09:09:24.016732	121.5	51.4	-93.0	12.9
2025-01-01 09:09:25.176295	122.2	51.3	-92.7	14.1
2025-01-01 09:09:26.340867	122.9	51.1	-92.3	17.9
2025-01-01 09:09:27.501550	123.6	51.0	-92.8	17.4
2025-01-01 09:09:28.677290	124.3	50.9	-93.0	17.9
2025-01-01 09:09:29.841810	125.0	50.7	-93.0	19.2
2025-01-01 09:09:31.002579	125.7	50.6	-93.0	12.7
2025-01-01 09:09:32.168218	126.4	50.4	-92.6	10.3
2025-01-01 09:09:33.329091	127.0	50.3	-92.9	9.1
2025-01-01 09:09:34.502101	127.7	50.1	-93.3	9.0
2025-01-01 09:09:35.667568	128.3	50.0	-93.6	13.3
2025-01-01 09:09:36.834395	129.0	49.8	-93.7	11.9
2025-01-01 09:09:37.987365	129.6	49.6	-93.4	5.0
2025-01-01 09:09:39.149077	130.3	49.5	-92.4	6.0
2025-01-01 09:09:40.314327	130.9	49.3	-92.8	3.8
2025-01-01 09:09:41.480159	131.5	49.1	-93.2	3.1
2025-01-01 09:09:42.640348	132.1	48.9	-93.1	7.1
2025-01-01 09:09:43.790429	132.7	48.8	-93.5	8.2
2025-01-01 09:09:44.954466	133.3	48.6	-93.3	5.3
2025-01-01 09:09:46.112106	133.9	48.4	-93.2	5.2
2025-01-01 09:09:47.274460	134.5	48.2	-92.6	7.0
2025-01-01 09:09:48.432161	135.1	48.0	-92.6	9.8
2025-01-01 09:09:49.593075	135.7	47.8	-93.0	11.0
2025-01-01 09:09:50.753748	136.2	47.6	-93.2	17.3
2025-01-01 09:09:51.919124	136.8	47.4	-93.1	12.1
2025-01-01 09:09:53.077079	137.3	47.2	-93.0	13.8
2025-01-01 09:09:54.243052	137.9	47.0	-92.9	13.8
2025-01-01 09:09:55.395496	138.4	46.8	-93.1	18.0
2025-01-01 09:09:56.562637	139.0	46.6	-92.7	15.0
2025-01-01 09:09:57.722975	139.5	46.4	-92.6	11.6
2025-01-01 09:09:58.896708	140.0	46.2	-92.7	12.0
2025-01-01 09:10:00.055717	140.5	46.0	-92.8	13.2
2025-01-01 09:10:01.206305	141.0	45.8	-92.2	18.2
2025-01-01 09:10:02.368544	141.5	45.6	-92.5	18.7
2025-01-01 09:10:03.531367	142.0	45.4	-92.6	19.2
2025-01-01 09:10:04.689940	142.5	45.2	-92.9	15.4
2025-01-01 09:10:05.854561	143.0	45.0	-92.8	18.8
2025-01-01 09:10:07.018660	143.4	44.7	-92.3	18.3
2025-01-01 09:10:08.178392	143.9	44.5	-92.4	20.7
2025-01-01 09:10:09.341992	144.4	44.3	-92.7	20.9
2025-01-01 09:10:10.504882	144.8	44.1	-92.7	18.7
2025-01-01 09:10:11.671071	145.3	43.9	-93.3	15.9
2025-01-01 09:10:12.836471	145.7	43.6	-92.7	16.8
2025-01-01 09:10:13.992562	146.1	43.4	-92.9	14.5
2025-01-01 09:10:15.155790	146.6	43.2	-92.6	14.3
2025-01-01 09:10:16.317714	147.0	43.0	-92.5	17.2
2025-01-01 09:10:17.479768	147.4	42.8	-92.9	8.5
2025-01-01 09:10:18.644954	147.8	42.5	-93.0	7.7
2025-01-01 09:10:19.805633	148.2	42.3	-91.2	10.8
2025-01-01 09:10:20.966692	148.6	42.1	-91.9	11.4
2025-01-01 09:10:22.135560	149.0	41.9	-91.5	8.5
2025-01-01 09:10:23.293651	149.4	41.7	-92.7	17.7
2025-01-01 09:10:24.462791	149.8	41.4	-92.4	11.8
2025-01-01 09:10:25.624481	150.2	41.2	-93.2	11.6
2025-01-01 09:10:26.794819	150.6	41.0	-93.5	18.0
2025-01-01 09:10:27.961595	150.9	40.8	-93.2	14.7
2025-01-01 09:10:29.117739	151.3	40.5	-91.0	13.9
2025-01-01 09:10:30.297836	151.7	40.3	-90.7	14.6
2025-01-01 09:10:31.465002	152.0	40.1	-91.7	14.8
2025-01-01 09:10:32.630063	152.4	39.9	-91.5	15.1
2025-01-01 09:10:33.795939	152.7	39.6	-91.4	14.8
2025-01-01 09:10:34.950557	153.1	39.4	-91.4	13.0
2025-01-01 09:10:36.115062	153.4	39.2	-91.1	9.5
2025-01-01 09:10:37.276956	153.7	39.0	-91.6	11.0
2025-01-01 09:10:38.445575	154.1	38.8	-91.4	12.9
2025-01-01 09:10:39.606050	154.4	38.5	-91.1	10.4
2025-01-01 09:10:40.770359	154.7	38.3	-91.6	8.1
2025-01-01 09:10:41.928155	155.0	38.1	-91.5	10.0
2025-01-01 09:10:43.091410	155.3	37.9	-91.4	8.2
2025-01-01 09:10:44.254217	155.6	37.7	-91.3	13.1
2025-01-01 09:10:45.413549	156.0	37.4	-91.7	11.0
2025-01-01 09:10:46.577477	156.3	37.2	-91.5	5.7
2025-01-01 09:10:47.736236	156.5	37.0	-91.6	9.7
2025-01-01 09:10:48.898467	156.8	36.8	-92.8	11.4
2025-01-01 09:10:50.057686	157.1	36.6	-92.4	5.0
2025-01-01 09:10:51.226233	157.4	36.4	-92.2	8.1
2025-01-01 09:10:52.394960	157.7	36.1	-91.0	7.4
2025-01-01 09:10:53.559545	158.0	35.9	-91.4	5.7
2025-01-01 09:10:54.722194	158.2	35.7	-91.0	12.4
2025-01-01 09:10:55.890991	158.5	35.5	-91.5	11.5
2025-01-01 09:10:57.058217	158.8	35.3	-92.1	10.4
2025-01-01 09:10:58.217709	159.0	35.1	-92.0	11.3
2025-01-01 09:10:59.389053	159.3	34.9	-91.3	12.1
2025-01-01 09:11:00.544644	159.6	34.7	-91.4	10.6
2025-01-01 09:11:01.707682	159.8	34.5	-91.7	11.5
2025-01-01 09:11:02.868846	160.1	34.2	-91.5	12.9
2025-01-01 09:11:04.033249	160.3	34.0	-91.5	14.5
2025-01-01 09:11:05.194193	160.6	33.8	-90.8	15.6
2025-01-01 09:11:06.354593	160.8	33.6	-90.9	14.3
2025-01-01 09:11:07.521850	161.0	33.4	-91.0	11.5
2025-01-01 09:11:08.684491	161.3	33.2	-92.0	11.0
2025-01-01 09:11:09.848028	161.5	33.0	-91.4	11.9
2025-01-01 09:11:11.007512	161.7	32.8	-91.7	7.8
2025-01-01 09:11:12.169999	162.0	32.6	-90.5	7.0
2025-01-01 09:11:13.333010	162.2	32.4	-90.6	8.8
2025-01-01 09:11:14.494510	162.4	32.2	-91.5	6.6
2025-01-01 09:11:15.655008	162.6	32.0	-91.1	10.0
2025-01-01 09:11:16.816972	162.9	31.8	-91.4	10.7
2025-01-01 09:11:17.975309	163.1	31.6	-91.6	10.2
2025-01-01 09:11:19.137331	163.3	31.4	-91.3	13.4
2025-01-01 09:11:20.296825	163.5	31.2	-90.4	15.4
2025-01-01 09:11:21.456059	163.7	31.0	-91.1	13.3
2025-01-01 09:11:22.620240	163.9	30.8	-92.3	12.7
2025-01-01 09:11:23.779441	164.1	30.6	-91.5	13.4
2025-01-01 09:11:24.931640	164.3	30.5	-91.8	9.5
2025-01-01 09:11:26.095884	164.5	30.3	-91.3	7.2
2025-01-01 09:11:27.253339	164.7	30.1	-91.5	11.8
2025-01-01 09:11:28.416762	164.9	29.9	-91.3	7.0
2025-01-01 09:11:29.581460	165.1	29.7	-93.3	4.6
2025-01-01 09:11:30.739182	165.3	29.5	-93.2	8.7
2025-01-01 09:11:31.904385	165.4	29.3	-93.1	8.2
2025-01-01 09:11:33.061360	165.6	29.1	-93.1	7.8
2025-01-01 09:11:34.223925	165.8	29.0	-92.6	11.1
2025-01-01 09:11:35.382986	166.0	28.8	-91.8	11.7
2025-01-01 09:11:36.546517	166.2	28.6	-92.0	9.3
2025-01-01 09:11:37.712273	166.4	28.4	-91.6	12.0
2025-01-01 09:11:38.873096	166.5	28.2	-90.6	10.2
2025-01-01 09:11:40.038121	166.7	28.0	-90.6	11.6
2025-01-01 09:11:41.201742	166.9	27.9	-89.0	6.6
2025-01-01 09:11:42.362423	167.0	27.7	-91.3	6.5
2025-01-01 09:11:43.527719	167.2	27.5	-92.0	7.6
2025-01-01 09:11:44.692009	167.4	27.3	-91.2	6.2
2025-01-01 09:11:45.852057	167.5	27.2	-91.5	7.0
2025-01-01 09:11:47.011547	167.7	27.0	-91.3	5.6
2025-01-01 09:11:48.173466	167.9	26.8	-91.1	7.7
2025-01-01 09:11:49.338482	168.0	26.6	-91.2	9.1
2025-01-01 09:11:50.504343	168.2	26.5	-93.4	4.7
2025-01-01 09:11:51.666632	168.3	26.3	-92.8	8.5
2025-01-01 09:11:52.828646	168.5	26.1	-93.4	10.2
2025-01-01 09:11:53.990969	168.6	25.9	-93.6	12.2
2025-01-01 09:11:55.142477	168.8	25.8	-92.8	10.7
2025-01-01 09:11:56.304807	168.9	25.6	-90.9	11.7
2025-01-01 09:11:57.469832	169.1	25.4	-90.6	9.2
2025-01-01 09:11:58.634412	169.2	25.3	-91.9	10.5
2025-01-01 09:11:59.791262	169.4	25.1	-91.6	11.6
2025-01-01 09:12:00.947014	169.5	24.9	-91.1	8.1
2025-01-01 09:12:02.106325	169.7	24.8	-91.0	7.3
2025-01-01 09:12:03.270413	169.8	24.6	-91.6	9.5
2025-01-01 09:12:04.437945	169.9	24.5	-93.4	7.1
2025-01-01 09:12:05.597176	170.1	24.3	-93.6	4.5
2025-01-01 09:12:06.757585	170.2	24.1	-92.6	13.0
2025-01-01 09:12:07.923095	170.3	24.0	-93.0	10.1
2025-01-01 09:12:09.084039	170.5	23.8	-92.7	6.4
2025-01-01 09:12:10.247899	170.6	23.7	-92.4	11.8
2025-01-01 09:12:11.403758	170.7	23.5	-93.2	10.9
2025-01-01 09:12:12.566350	170.9	23.3	-93.3	10.5
2025-01-01 09:12:13.731640	171.0	23.2	-93.2	9.9
2025-01-01 09:12:14.902354	171.1	23.0	-91.9	5.1
2025-01-01 09:12:16.063421	171.3	22.9	-91.6	7.0
2025-01-01 09:12:17.227223	171.4	22.7	-90.6	8.8
2025-01-01 09:12:18.392500	171.5	22.6	-91.1	6.3
2025-01-01 09:12:19.557340	171.6	22.4	-91.6	3.8
2025-01-01 09:12:20.715185	171.8	22.3	-91.2	6.3
2025-01-01 09:12:21.879942	171.9	22.1	-91.7	6.2
2025-01-01 09:12:23.047656	172.0	22.0	-90.6	4.0
2025-01-01 09:12:24.210723	172.1	21.8	-90.6	6.3
2025-01-01 09:12:25.374833	172.2	21.7	-93.0	7.8
2025-01-01 09:12:26.539513	172.3	21.5	-93.1	9.7
2025-01-01 09:12:27.694162	172.5	21.4	-93.7	7.9
2025-01-01 09:12:28.847666	172.6	21.2	-93.1	6.1
2025-01-01 09:12:29.977568	172.7	21.1	-93.6	9.3
2025-01-01 09:12:31.098239	172.8	20.9	-93.3	4.8
2025-01-01 09:12:32.218711	172.9	20.8	-93.2	5.2
2025-01-01 09:12:33.339110	173.0	20.7	-92.8	8.1
2025-01-01 09:12:34.459109	173.1	20.5	-93.0	7.1
2025-01-01 09:12:35.579418	173.2	20.4	-93.7	5.1
2025-01-01 09:12:36.701575	173.3	20.3	-93.2	7.7
2025-01-01 09:12:37.832664	173.4	20.1	-93.3	8.6
2025-01-01 09:12:38.995586	173.5	20.0	-93.6	6.5
2025-01-01 09:12:40.160646	173.6	19.8	-93.2	9.5
2025-01-01 09:12:41.317162	173.7	19.7	-93.3	11.4
2025-01-01 09:12:42.469387	173.8	19.6	-93.6	12.7
2025-01-01 09:12:43.631726	173.9	19.4	-93.3	9.3
2025-01-01 09:12:44.791414	174.0	19.3	-93.1	8.6
2025-01-01 09:12:45.950322	174.1	19.2	-92.6	6.9
2025-01-01 09:12:47.112379	174.2	19.0	-92.0	6.2
2025-01-01 09:12:48.270020	174.3	18.9	-92.7	6.5
2025-01-01 09:12:49.424698	174.4	18.8	-93.3	6.2
2025-01-01 09:12:50.553100	174.5	18.6	-93.2	4.8
2025-01-01 09:12:51.707224	174.6	18.5	-92.7	5.8
2025-01-01 09:12:52.850185	174.7	18.4	-93.0	6.0
2025-01-01 09:12:54.000151	174.8	18.2	-92.8	4.7
2025-01-01 09:12:55.148255	174.9	18.1	-92.8	6.0
2025-01-01 09:12:56.292867	175.0	18.0	-92.9	6.8
2025-01-01 09:12:57.425401	175.1	17.9	-93.7	6.1
2025-01-01 09:12:58.570947	175.2	17.7	-93.4	4.5
2025-01-01 09:12:59.724427	175.3	17.6	-93.5	6.1
2025-01-01 09:13:00.862657	175.4	17.5	-93.4	3.2
2025-01-01 09:13:02.012988	175.5	17.3	-93.4	3.5
2025-01-01 09:13:03.174484	175.5	17.2	-92.6	5.1
2025-01-01 09:13:04.330182	175.6	17.1	-92.4	1.0
2025-01-01 09:13:05.486457	175.7	17.0	-92.8	2.4
2025-01-01 09:13:06.644445	175.8	16.8	-93.0	4.0
2025-01-01 09:13:07.812972	175.9	16.7	-93.3	3.8
2025-01-01 09:13:08.974240	176.0	16.6	-93.4	1.9
2025-01-01 09:13:10.138965	176.1	16.5	-92.8	2.5
2025-01-01 09:13:11.300286	176.2	16.3	-92.7	1.8
2025-01-01 09:13:12.463587	176.2	16.2	-93.4	4.9
2025-01-01 09:13:13.630392	176.3	16.1	-93.2	5.6
2025-01-01 09:13:14.795593	176.4	16.0	-91.2	6.3
2025-01-01 09:13:15.965674	176.5	15.9	-91.8	5.3
2025-01-01 09:13:17.137918	176.6	15.7	-90.8	3.6
2025-01-01 09:13:18.299593	176.6	15.6	-90.6	3.9
2025-01-01 09:13:19.460376	176.7	15.5	-91.8	3.3
2025-01-01 09:13:20.621663	176.8	15.4	-91.6	5.2
2025-01-01 09:13:21.786674	176.9	15.3	-93.1	6.8
2025-01-01 09:13:22.957519	177.0	15.1	-93.4	3.1
2025-01-01 09:13:24.112194	177.0	15.0	-92.8	4.5
2025-01-01 09:13:25.273237	177.1	14.9	-93.1	5.2
2025-01-01 09:13:26.438027	177.2	14.8	-93.5	8.7
2025-01-01 09:13:27.597896	177.3	14.7	-93.6	6.1
2025-01-01 09:13:28.761934	177.3	14.6	-93.8	8.1
2025-01-01 09:13:29.927572	177.4	14.5	-92.4	4.4
#Closed at: 2025-01-01 09:04:29.958171