passes_logs/2025/01/01/LEX_Murmansk/LEX_Murmansk__20250101_190421_NOAA_18_rec.log

#Pass ID: 20250101_190421_NOAA 18
#Satellite: NOAA 18
#Configuration: NOAA 18
#Start time: 2025-01-01 19:04:16.152221

#LorettStation: 1.0.0 05.05.2024
#Station: LEX_Murmansk
#Location: 33.156738 lon 68.926811 lat
#TLE: 1 28654U 05018A   24366.86382707  .00000695  00000+0  39254-3 0  9996
#TLE: 2 28654  98.8588  82.0571 0013692 219.5840 140.4334 14.13471437 11103

#Time	Az	El	Level	SNR
2025-01-01 19:04:28.311301	158.3	16.3	-89.5	4.4
2025-01-01 19:04:29.480002	158.3	16.4	-90.2	4.7
2025-01-01 19:04:30.645277	158.3	16.6	-90.2	6.1
2025-01-01 19:04:31.807877	158.4	16.7	-90.0	4.5
2025-01-01 19:04:32.973480	158.4	16.8	-89.9	5.6
2025-01-01 19:04:34.130595	158.4	17.0	-90.0	6.7
2025-01-01 19:04:35.295176	158.4	17.1	-90.0	5.3
2025-01-01 19:04:36.458045	158.4	17.2	-90.3	4.9
2025-01-01 19:04:37.624491	158.4	17.4	-90.1	5.6
2025-01-01 19:04:38.789797	158.5	17.5	-90.4	6.0
2025-01-01 19:04:39.953856	158.5	17.6	-90.7	5.2
2025-01-01 19:04:41.116658	158.5	17.8	-90.3	3.1
2025-01-01 19:04:42.280799	158.5	17.9	-89.9	5.9
2025-01-01 19:04:43.445925	158.6	18.0	-90.3	4.9
2025-01-01 19:04:44.603763	158.6	18.2	-90.3	7.5
2025-01-01 19:04:45.767883	158.6	18.3	-90.0	6.6
2025-01-01 19:04:46.925855	158.6	18.4	-90.2	7.6
2025-01-01 19:04:48.083834	158.6	18.6	-90.0	5.7
2025-01-01 19:04:49.247729	158.7	18.7	-89.9	5.6
2025-01-01 19:04:50.412725	158.7	18.9	-90.1	4.7
2025-01-01 19:04:51.568616	158.7	19.0	-90.0	5.0
2025-01-01 19:04:52.734338	158.7	19.2	-89.9	5.4
2025-01-01 19:04:53.897995	158.7	19.3	-90.4	5.9
2025-01-01 19:04:55.058392	158.8	19.4	-90.3	3.4
2025-01-01 19:04:56.230404	158.8	19.6	-90.3	6.1
2025-01-01 19:04:57.388376	158.8	19.7	-90.3	7.8
2025-01-01 19:04:58.550389	158.8	19.9	-90.5	4.3
2025-01-01 19:04:59.712383	158.9	20.0	-90.3	5.9
2025-01-01 19:05:00.861498	158.9	20.2	-91.0	5.7
2025-01-01 19:05:02.022014	158.9	20.3	-90.2	4.4
2025-01-01 19:05:03.178640	158.9	20.5	-89.5	5.5
2025-01-01 19:05:04.331656	158.9	20.6	-89.5	6.0
2025-01-01 19:05:05.451882	159.0	20.8	-90.3	6.0
2025-01-01 19:05:06.571829	159.0	20.9	-90.1	6.9
2025-01-01 19:05:07.694420	159.0	21.1	-90.6	7.8
2025-01-01 19:05:08.814623	159.0	21.2	-90.2	7.9
2025-01-01 19:05:09.935189	159.1	21.4	-90.1	6.8
2025-01-01 19:05:11.056557	159.1	21.5	-89.8	4.2
2025-01-01 19:05:12.180689	159.1	21.7	-90.2	5.7
2025-01-01 19:05:13.324575	159.1	21.8	-90.0	5.4
2025-01-01 19:05:14.487762	159.2	22.0	-90.8	6.1
2025-01-01 19:05:15.647863	159.2	22.2	-90.3	5.6
2025-01-01 19:05:16.807033	159.2	22.3	-90.4	5.0
2025-01-01 19:05:17.956433	159.2	22.5	-90.7	7.6
2025-01-01 19:05:19.119720	159.3	22.6	-90.6	6.0
2025-01-01 19:05:20.280657	159.3	22.8	-90.5	6.0
2025-01-01 19:05:21.437963	159.3	23.0	-90.7	9.1
2025-01-01 19:05:22.602152	159.3	23.1	-90.8	10.6
2025-01-01 19:05:23.761020	159.4	23.3	-90.9	10.5
2025-01-01 19:05:24.916906	159.4	23.5	-89.6	11.0
2025-01-01 19:05:26.044835	159.4	23.6	-90.1	7.3
2025-01-01 19:05:27.175313	159.5	23.8	-89.9	6.2
2025-01-01 19:05:28.330591	159.5	24.0	-89.7	9.2
2025-01-01 19:05:29.478388	159.5	24.2	-91.4	6.4
2025-01-01 19:05:30.637502	159.5	24.3	-90.4	7.4
2025-01-01 19:05:31.782741	159.6	24.5	-91.2	11.5
2025-01-01 19:05:32.939546	159.6	24.7	-91.0	12.9
2025-01-01 19:05:34.100355	159.6	24.9	-90.6	11.3
2025-01-01 19:05:35.257128	159.7	25.0	-90.6	12.6
2025-01-01 19:05:36.417664	159.7	25.2	-90.8	14.3
2025-01-01 19:05:37.583235	159.7	25.4	-90.6	12.4
2025-01-01 19:05:38.749648	159.7	25.6	-90.7	15.1
2025-01-01 19:05:39.906603	159.8	25.8	-90.4	11.5
2025-01-01 19:05:41.066761	159.8	25.9	-90.4	8.8
2025-01-01 19:05:42.228369	159.8	26.1	-90.3	9.2
2025-01-01 19:05:43.387494	159.9	26.3	-90.3	7.7
2025-01-01 19:05:44.552267	159.9	26.5	-90.5	4.2
2025-01-01 19:05:45.683014	159.9	26.7	-90.6	3.7
2025-01-01 19:05:46.833420	160.0	26.9	-91.1	7.3
2025-01-01 19:05:47.991433	160.0	27.1	-90.9	6.3
2025-01-01 19:05:49.138948	160.0	27.3	-90.5	10.1
2025-01-01 19:05:50.296165	160.1	27.5	-90.6	10.3
2025-01-01 19:05:51.448051	160.1	27.7	-91.2	11.9
2025-01-01 19:05:52.614251	160.1	27.9	-91.0	9.0
2025-01-01 19:05:53.775065	160.2	28.1	-89.2	11.0
2025-01-01 19:05:54.937102	160.2	28.3	-90.8	9.9
2025-01-01 19:05:56.104300	160.2	28.5	-90.9	15.2
2025-01-01 19:05:57.268226	160.3	28.7	-88.9	11.5
2025-01-01 19:05:58.425877	160.3	28.9	-88.8	9.6
2025-01-01 19:05:59.591207	160.4	29.1	-90.5	6.1
2025-01-01 19:06:00.747215	160.4	29.3	-91.5	11.4
2025-01-01 19:06:01.911400	160.4	29.5	-90.2	10.2
2025-01-01 19:06:03.068719	160.5	29.7	-91.0	7.8
2025-01-01 19:06:04.235480	160.5	29.9	-89.8	9.8
2025-01-01 19:06:05.399912	160.6	30.1	-89.2	10.9
2025-01-01 19:06:06.556185	160.6	30.4	-89.4	5.4
2025-01-01 19:06:07.723945	160.6	30.6	-90.6	14.7
2025-01-01 19:06:08.887992	160.7	30.8	-90.6	13.9
2025-01-01 19:06:10.051215	160.7	31.0	-90.2	11.3
2025-01-01 19:06:11.210985	160.8	31.2	-90.2	11.5
2025-01-01 19:06:12.371224	160.8	31.5	-90.4	12.9
2025-01-01 19:06:13.531623	160.8	31.7	-90.8	15.7
2025-01-01 19:06:14.692354	160.9	31.9	-90.7	13.1
2025-01-01 19:06:15.848986	160.9	32.2	-90.8	13.9
2025-01-01 19:06:17.014760	161.0	32.4	-91.1	5.1
2025-01-01 19:06:18.179699	161.0	32.6	-90.9	7.8
2025-01-01 19:06:19.339404	161.1	32.9	-91.1	11.5
2025-01-01 19:06:20.501585	161.1	33.1	-90.9	8.8
2025-01-01 19:06:21.659773	161.2	33.3	-91.1	10.5
2025-01-01 19:06:22.823770	161.2	33.6	-90.8	13.0
2025-01-01 19:06:23.988081	161.2	33.8	-90.6	15.2
2025-01-01 19:06:25.150981	161.3	34.1	-90.2	10.5
2025-01-01 19:06:26.318081	161.3	34.3	-90.0	15.7
2025-01-01 19:06:27.476506	161.4	34.6	-90.1	11.9
2025-01-01 19:06:28.639614	161.4	34.8	-90.1	9.1
2025-01-01 19:06:29.815879	161.5	35.1	-90.5	14.9
2025-01-01 19:06:30.978208	161.6	35.3	-90.0	10.8
2025-01-01 19:06:32.141030	161.6	35.6	-89.9	11.5
2025-01-01 19:06:33.301733	161.7	35.8	-89.9	8.5
2025-01-01 19:06:34.467459	161.7	36.1	-89.7	8.1
2025-01-01 19:06:35.622786	161.8	36.4	-89.8	5.2
2025-01-01 19:06:36.787540	161.8	36.6	-89.9	11.6
2025-01-01 19:06:37.949489	161.9	36.9	-90.2	7.7
2025-01-01 19:06:39.110142	161.9	37.2	-90.6	7.3
2025-01-01 19:06:40.274476	162.0	37.4	-90.7	9.3
2025-01-01 19:06:41.434180	162.1	37.7	-90.6	10.2
2025-01-01 19:06:42.593684	162.1	38.0	-90.4	9.2
2025-01-01 19:06:43.758210	162.2	38.3	-90.8	8.6
2025-01-01 19:06:44.922819	162.2	38.5	-90.8	13.8
2025-01-01 19:06:46.085266	162.3	38.8	-90.8	8.9
2025-01-01 19:06:47.253535	162.4	39.1	-90.8	14.7
2025-01-01 19:06:48.417405	162.4	39.4	-90.7	7.5
2025-01-01 19:06:49.581458	162.5	39.7	-90.1	11.9
2025-01-01 19:06:50.750388	162.6	40.0	-90.2	5.9
2025-01-01 19:06:51.891662	162.6	40.3	-90.2	7.2
2025-01-01 19:06:53.011753	162.7	40.5	-90.3	4.7
2025-01-01 19:06:54.131867	162.8	40.8	-90.5	6.1
2025-01-01 19:06:55.252135	162.8	41.1	-90.6	12.6
2025-01-01 19:06:56.374557	162.9	41.4	-90.8	12.8
2025-01-01 19:06:57.496106	163.0	41.7	-90.8	11.0
2025-01-01 19:06:58.618432	163.1	42.0	-90.8	9.0
2025-01-01 19:06:59.739180	163.1	42.3	-90.8	14.7
2025-01-01 19:07:00.889160	163.2	42.6	-91.1	10.7
2025-01-01 19:07:02.038646	163.3	42.9	-91.1	11.0
2025-01-01 19:07:03.195978	163.4	43.2	-90.5	10.6
2025-01-01 19:07:04.348809	163.5	43.6	-90.7	12.5
2025-01-01 19:07:05.511824	163.5	43.9	-91.2	10.9
2025-01-01 19:07:06.668667	163.6	44.2	-90.9	12.3
2025-01-01 19:07:07.834462	163.7	44.5	-91.2	12.2
2025-01-01 19:07:08.997582	163.8	44.9	-91.1	15.3
2025-01-01 19:07:10.168675	163.9	45.2	-90.9	12.3
2025-01-01 19:07:11.319635	164.0	45.5	-90.8	16.8
2025-01-01 19:07:12.486788	164.1	45.9	-90.8	5.3
2025-01-01 19:07:13.648022	164.2	46.2	-91.3	6.8
2025-01-01 19:07:14.809159	164.3	46.6	-91.2	11.9
2025-01-01 19:07:15.968129	164.4	46.9	-91.1	7.3
2025-01-01 19:07:17.131100	164.5	47.3	-90.7	11.0
2025-01-01 19:07:18.299285	164.6	47.6	-90.8	9.2
2025-01-01 19:07:19.462754	164.7	48.0	-91.2	9.2
2025-01-01 19:07:20.629199	164.8	48.3	-91.1	10.1
2025-01-01 19:07:21.785076	164.9	48.7	-91.2	10.7
2025-01-01 19:07:22.944295	165.1	49.1	-91.5	10.7
2025-01-01 19:07:24.104355	165.2	49.4	-91.0	6.7
2025-01-01 19:07:25.282217	165.3	49.8	-90.7	8.9
2025-01-01 19:07:26.446853	165.4	50.2	-91.0	7.0
2025-01-01 19:07:27.609471	165.5	50.5	-91.1	9.9
2025-01-01 19:07:28.770145	165.7	50.9	-90.6	12.8
2025-01-01 19:07:29.931635	165.8	51.3	-90.9	11.8
2025-01-01 19:07:31.093436	166.0	51.7	-90.5	9.7
2025-01-01 19:07:32.252680	166.1	52.1	-90.5	12.2
2025-01-01 19:07:33.417616	166.2	52.5	-90.6	11.3
2025-01-01 19:07:34.577117	166.4	52.9	-90.3	5.1
2025-01-01 19:07:35.738159	166.5	53.3	-90.3	8.9
2025-01-01 19:07:36.897927	166.7	53.7	-90.7	11.9
2025-01-01 19:07:38.056648	166.9	54.1	-91.2	6.6
2025-01-01 19:07:39.223266	167.0	54.5	-90.7	14.5
2025-01-01 19:07:40.383073	167.2	54.9	-91.0	13.2
2025-01-01 19:07:41.543793	167.4	55.3	-90.7	11.4
2025-01-01 19:07:42.704967	167.5	55.7	-91.1	12.1
2025-01-01 19:07:43.859203	167.7	56.1	-91.1	9.8
2025-01-01 19:07:45.025960	167.9	56.5	-90.9	7.2
2025-01-01 19:07:46.181355	168.1	57.0	-90.8	9.1
2025-01-01 19:07:47.337098	168.3	57.4	-90.4	8.5
2025-01-01 19:07:48.502089	168.5	57.8	-91.2	6.7
2025-01-01 19:07:49.662008	168.7	58.2	-90.7	15.5
2025-01-01 19:07:50.831113	169.0	58.7	-90.3	18.7
2025-01-01 19:07:51.987347	169.2	59.1	-90.6	17.6
2025-01-01 19:07:53.158354	169.4	59.5	-90.6	15.1
2025-01-01 19:07:54.323792	169.7	60.0	-89.4	8.0
2025-01-01 19:07:55.484386	169.9	60.4	-89.5	8.7
2025-01-01 19:07:56.643485	170.2	60.9	-89.5	8.1
2025-01-01 19:07:57.817130	170.4	61.3	-90.7	10.3
2025-01-01 19:07:58.978509	170.7	61.8	-90.5	7.3
2025-01-01 19:08:00.144916	171.0	62.2	-90.3	9.2
2025-01-01 19:08:01.302198	171.3	62.7	-90.3	10.7
2025-01-01 19:08:02.461617	171.6	63.2	-90.6	8.4
2025-01-01 19:08:03.623641	172.0	63.6	-91.0	8.4
2025-01-01 19:08:04.784718	172.3	64.1	-90.7	17.2
2025-01-01 19:08:05.949743	172.6	64.5	-90.4	13.5
2025-01-01 19:08:07.108821	173.0	65.0	-89.8	11.4
2025-01-01 19:08:08.268187	173.4	65.5	-90.1	10.1
2025-01-01 19:08:09.429497	173.8	66.0	-90.2	13.4
2025-01-01 19:08:10.588866	174.2	66.4	-90.4	5.2
2025-01-01 19:08:11.750035	174.6	66.9	-90.3	10.1
2025-01-01 19:08:12.916773	175.1	67.4	-90.8	7.4
2025-01-01 19:08:14.084616	175.6	67.9	-90.2	9.6
2025-01-01 19:08:15.250157	176.1	68.3	-90.2	13.1
2025-01-01 19:08:16.422173	176.6	68.8	-90.4	14.6
2025-01-01 19:08:17.579354	177.1	69.3	-90.1	8.6
2025-01-01 19:08:18.747398	177.7	69.8	-90.2	17.4
2025-01-01 19:08:19.911258	178.3	70.3	-90.5	15.5
2025-01-01 19:08:21.079895	179.0	70.7	-90.1	17.1
2025-01-01 19:08:22.239227	179.6	71.2	-90.2	20.7
2025-01-01 19:08:23.396445	180.3	71.7	-90.3	16.2
2025-01-01 19:08:24.558403	181.1	72.2	-90.6	13.3
2025-01-01 19:08:25.719122	181.9	72.7	-90.7	20.3
2025-01-01 19:08:26.887924	182.7	73.2	-90.8	11.4
2025-01-01 19:08:28.050202	183.6	73.6	-90.6	8.7
2025-01-01 19:08:29.211865	184.6	74.1	-90.3	6.6
2025-01-01 19:08:30.372193	185.6	74.6	-90.3	14.6
2025-01-01 19:08:31.535553	186.7	75.0	-91.0	8.2
2025-01-01 19:08:32.694522	187.8	75.5	-90.8	7.8
2025-01-01 19:08:33.851526	189.0	76.0	-90.8	16.0
2025-01-01 19:08:35.018522	190.3	76.4	-90.9	9.3
2025-01-01 19:08:36.177680	191.7	76.9	-90.2	22.4
2025-01-01 19:08:37.338701	193.2	77.3	-90.1	16.5
2025-01-01 19:08:38.503999	194.9	77.8	-90.5	13.9
2025-01-01 19:08:39.672494	196.6	78.2	-90.8	14.7
2025-01-01 19:08:40.837947	198.5	78.6	-90.6	20.4
2025-01-01 19:08:41.996912	200.5	79.0	-90.7	23.2
2025-01-01 19:08:43.156611	202.6	79.4	-90.8	12.9
2025-01-01 19:08:44.314323	205.0	79.8	-90.7	9.9
2025-01-01 19:08:45.476779	207.5	80.1	-90.5	14.9
2025-01-01 19:08:46.637161	210.2	80.5	-90.7	19.4
2025-01-01 19:08:47.795660	213.0	80.8	-90.9	15.8
2025-01-01 19:08:48.968781	216.1	81.1	-91.2	6.1
2025-01-01 19:08:50.133802	219.4	81.3	-90.2	19.4
2025-01-01 19:08:51.297394	222.9	81.6	-90.3	10.0
2025-01-01 19:08:52.455969	226.6	81.8	-90.4	13.7
2025-01-01 19:08:53.622137	230.5	82.0	-90.2	11.8
2025-01-01 19:08:54.797833	234.5	82.1	-90.4	21.3
2025-01-01 19:08:55.957950	238.6	82.2	-90.6	13.1
2025-01-01 19:08:57.124514	242.9	82.2	-90.1	14.9
2025-01-01 19:08:58.285543	247.1	82.3	-89.9	26.9
2025-01-01 19:08:59.458467	251.4	82.2	-90.5	13.6
2025-01-01 19:09:00.616060	255.5	82.1	-89.9	17.7
2025-01-01 19:09:01.776591	259.6	82.0	-89.7	23.0
2025-01-01 19:09:02.935519	263.5	81.9	-89.7	17.7
2025-01-01 19:09:04.096317	267.3	81.7	-90.0	18.5
2025-01-01 19:09:05.262167	270.9	81.5	-90.2	17.6
2025-01-01 19:09:06.420392	274.3	81.2	-89.7	23.0
2025-01-01 19:09:07.585595	277.5	80.9	-89.8	21.7
2025-01-01 19:09:08.741898	280.4	80.6	-90.1	19.5
2025-01-01 19:09:09.905199	283.2	80.3	-90.5	22.1
2025-01-01 19:09:11.069025	285.8	80.0	-90.1	22.2
2025-01-01 19:09:12.229357	288.3	79.6	-89.9	21.0
2025-01-01 19:09:13.397952	290.5	79.2	-90.2	12.2
2025-01-01 19:09:14.558447	292.6	78.8	-90.0	24.0
2025-01-01 19:09:15.735488	294.6	78.4	-90.2	10.5
2025-01-01 19:09:16.901420	296.4	78.0	-89.9	22.3
2025-01-01 19:09:18.060253	298.0	77.5	-89.8	23.2
2025-01-01 19:09:19.221502	299.6	77.1	-90.2	13.5
2025-01-01 19:09:20.385450	301.1	76.7	-89.9	24.5
2025-01-01 19:09:21.551418	302.4	76.2	-90.2	18.5
2025-01-01 19:09:22.708284	303.7	75.8	-90.0	20.5
2025-01-01 19:09:23.869452	304.9	75.3	-90.2	24.5
2025-01-01 19:09:25.028222	306.0	74.8	-90.1	24.2
2025-01-01 19:09:26.196327	307.0	74.3	-89.8	21.3
2025-01-01 19:09:27.357957	308.0	73.9	-89.7	20.6
2025-01-01 19:09:28.523982	308.9	73.4	-90.4	19.3
2025-01-01 19:09:29.683385	309.8	72.9	-90.1	17.3
2025-01-01 19:09:30.846414	310.6	72.4	-90.1	17.9
2025-01-01 19:09:32.007042	311.4	72.0	-90.2	16.1
2025-01-01 19:09:33.170855	312.1	71.5	-90.1	12.8
2025-01-01 19:09:34.332127	312.8	71.0	-90.3	16.8
2025-01-01 19:09:35.500114	313.5	70.5	-90.6	13.2
2025-01-01 19:09:36.658580	314.1	70.0	-90.6	7.7
2025-01-01 19:09:37.828206	314.7	69.6	-90.4	7.2
2025-01-01 19:09:38.989823	315.2	69.1	-90.6	9.8
2025-01-01 19:09:40.154768	315.8	68.6	-90.3	9.8
2025-01-01 19:09:41.327339	316.3	68.1	-90.7	11.5
2025-01-01 19:09:42.488410	316.8	67.6	-90.4	10.8
2025-01-01 19:09:43.641576	317.2	67.2	-90.9	11.9
2025-01-01 19:09:44.810715	317.7	66.7	-90.7	12.1
2025-01-01 19:09:45.971630	318.1	66.2	-90.7	9.7
2025-01-01 19:09:47.135602	318.5	65.7	-90.1	5.8
2025-01-01 19:09:48.296635	318.9	65.3	-90.9	7.5
2025-01-01 19:09:49.461170	319.3	64.8	-90.6	10.3
2025-01-01 19:09:50.622774	319.6	64.3	-90.7	9.4
2025-01-01 19:09:51.786499	320.0	63.9	-90.6	14.8
2025-01-01 19:09:52.940028	320.3	63.4	-90.5	11.2
2025-01-01 19:09:54.100311	320.6	62.9	-90.4	10.1
2025-01-01 19:09:55.257380	320.9	62.5	-90.6	12.2
2025-01-01 19:09:56.426733	321.2	62.0	-91.0	13.3
2025-01-01 19:09:57.591367	321.5	61.6	-90.8	11.4
2025-01-01 19:09:58.753997	321.8	61.1	-90.1	18.6
2025-01-01 19:09:59.918055	322.1	60.7	-90.7	14.4
2025-01-01 19:10:01.067166	322.3	60.2	-90.3	11.8
2025-01-01 19:10:02.230255	322.6	59.8	-90.3	17.6
2025-01-01 19:10:03.385881	322.8	59.4	-90.2	18.5
2025-01-01 19:10:04.548991	323.0	58.9	-90.7	8.9
2025-01-01 19:10:05.714365	323.3	58.5	-90.8	14.5
2025-01-01 19:10:06.875098	323.5	58.1	-90.4	16.4
2025-01-01 19:10:08.038259	323.7	57.6	-90.5	12.3
2025-01-01 19:10:09.201281	323.9	57.2	-90.3	18.6
2025-01-01 19:10:10.358681	324.1	56.8	-90.2	16.9
2025-01-01 19:10:11.533348	324.3	56.3	-90.1	10.9
2025-01-01 19:10:12.699499	324.5	55.9	-90.7	17.7
2025-01-01 19:10:13.860757	324.7	55.5	-90.7	18.7
2025-01-01 19:10:15.025142	324.8	55.1	-90.3	13.9
2025-01-01 19:10:16.190935	325.0	54.7	-90.1	12.5
2025-01-01 19:10:17.358949	325.2	54.3	-90.2	15.3
2025-01-01 19:10:18.517664	325.3	53.9	-90.6	16.5
2025-01-01 19:10:19.679201	325.5	53.5	-90.7	19.1
2025-01-01 19:10:20.839314	325.7	53.1	-91.2	18.0
2025-01-01 19:10:22.001063	325.8	52.7	-90.9	13.5
2025-01-01 19:10:23.162614	326.0	52.3	-90.4	5.9
2025-01-01 19:10:24.323112	326.1	51.9	-90.7	11.8
2025-01-01 19:10:25.489261	326.2	51.5	-91.0	14.1
2025-01-01 19:10:26.648133	326.4	51.1	-91.2	13.0
2025-01-01 19:10:27.814396	326.5	50.8	-91.3	15.9
2025-01-01 19:10:28.976889	326.6	50.4	-91.4	10.8
2025-01-01 19:10:30.139592	326.8	50.0	-90.8	7.8
2025-01-01 19:10:31.290576	326.9	49.6	-90.6	13.2
2025-01-01 19:10:32.452622	327.0	49.3	-91.2	6.3
2025-01-01 19:10:33.611045	327.1	48.9	-91.1	6.5
2025-01-01 19:10:34.778970	327.2	48.5	-90.9	10.6
2025-01-01 19:10:35.942379	327.4	48.2	-90.9	8.3
2025-01-01 19:10:37.108848	327.5	47.8	-90.8	10.4
2025-01-01 19:10:38.270821	327.6	47.5	-90.5	14.7
2025-01-01 19:10:39.429929	327.7	47.1	-90.1	9.2
2025-01-01 19:10:40.593638	327.8	46.8	-90.1	12.9
2025-01-01 19:10:41.754921	327.9	46.4	-89.8	11.7
2025-01-01 19:10:42.916582	328.0	46.1	-90.0	12.3
2025-01-01 19:10:44.081200	328.1	45.7	-89.3	15.8
2025-01-01 19:10:45.245342	328.2	45.4	-89.2	16.5
2025-01-01 19:10:46.402508	328.3	45.1	-89.0	16.7
2025-01-01 19:10:47.562433	328.4	44.7	-89.3	13.0
2025-01-01 19:10:48.722092	328.4	44.4	-89.4	17.0
2025-01-01 19:10:49.882947	328.5	44.1	-89.4	16.2
2025-01-01 19:10:51.046854	328.6	43.8	-89.3	8.1
2025-01-01 19:10:52.211704	328.7	43.4	-88.8	11.4
2025-01-01 19:10:53.375406	328.8	43.1	-89.1	20.8
2025-01-01 19:10:54.536196	328.9	42.8	-89.2	9.0
2025-01-01 19:10:55.696975	328.9	42.5	-88.8	14.8
2025-01-01 19:10:56.859123	329.0	42.2	-89.1	16.3
2025-01-01 19:10:58.025442	329.1	41.9	-89.1	9.9
2025-01-01 19:10:59.183003	329.2	41.6	-89.0	12.2
2025-01-01 19:11:00.339497	329.3	41.3	-88.9	12.9
2025-01-01 19:11:01.508694	329.3	41.0	-89.1	9.1
2025-01-01 19:11:02.671461	329.4	40.7	-88.7	9.6
2025-01-01 19:11:03.837144	329.5	40.4	-88.8	14.6
2025-01-01 19:11:05.006410	329.5	40.1	-88.7	14.5
2025-01-01 19:11:06.166735	329.6	39.8	-88.6	13.9
2025-01-01 19:11:07.334374	329.7	39.5	-88.6	9.5
2025-01-01 19:11:08.500332	329.7	39.2	-89.1	9.6
2025-01-01 19:11:09.663964	329.8	38.9	-89.3	9.5
2025-01-01 19:11:10.837566	329.9	38.6	-89.1	17.1
2025-01-01 19:11:11.998453	329.9	38.3	-89.1	9.3
2025-01-01 19:11:13.157557	330.0	38.1	-89.1	6.6
2025-01-01 19:11:14.316701	330.1	37.8	-89.1	12.6
2025-01-01 19:11:15.484990	330.1	37.5	-89.4	9.2
2025-01-01 19:11:16.649445	330.2	37.2	-89.2	11.5
2025-01-01 19:11:17.809621	330.2	37.0	-89.3	13.2
2025-01-01 19:11:18.969770	330.3	36.7	-89.1	10.3
2025-01-01 19:11:20.127135	330.4	36.4	-88.9	7.9
2025-01-01 19:11:21.285812	330.4	36.2	-89.1	13.4
2025-01-01 19:11:22.451783	330.5	35.9	-89.2	16.8
2025-01-01 19:11:23.608827	330.5	35.7	-89.3	14.8
2025-01-01 19:11:24.765514	330.6	35.4	-89.5	15.3
2025-01-01 19:11:25.930650	330.6	35.2	-89.4	11.5
2025-01-01 19:11:27.096455	330.7	34.9	-88.7	6.9
2025-01-01 19:11:28.254863	330.7	34.7	-89.0	12.7
2025-01-01 19:11:29.417290	330.8	34.4	-89.2	12.2
2025-01-01 19:11:30.580194	330.8	34.2	-89.0	6.4
2025-01-01 19:11:31.734624	330.9	33.9	-88.6	12.3
2025-01-01 19:11:32.895607	330.9	33.7	-89.4	7.7
2025-01-01 19:11:34.056424	331.0	33.4	-89.3	5.7
2025-01-01 19:11:35.213602	331.0	33.2	-89.2	9.6
2025-01-01 19:11:36.379596	331.1	33.0	-88.8	6.9
2025-01-01 19:11:37.542407	331.1	32.7	-88.7	9.8
2025-01-01 19:11:38.702346	331.2	32.5	-89.1	13.7
2025-01-01 19:11:39.865424	331.2	32.3	-89.2	11.1
2025-01-01 19:11:41.022757	331.2	32.0	-89.4	15.8
2025-01-01 19:11:42.184057	331.3	31.8	-88.5	7.4
2025-01-01 19:11:43.347355	331.3	31.6	-88.9	9.1
2025-01-01 19:11:44.506207	331.4	31.3	-89.5	6.6
2025-01-01 19:11:45.675316	331.4	31.1	-90.0	11.2
2025-01-01 19:11:46.837245	331.5	30.9	-90.8	11.1
2025-01-01 19:11:47.999786	331.5	30.7	-90.9	6.9
2025-01-01 19:11:49.166611	331.5	30.5	-90.7	9.7
2025-01-01 19:11:50.317510	331.6	30.2	-90.5	9.0
2025-01-01 19:11:51.482182	331.6	30.0	-90.8	13.1
2025-01-01 19:11:52.649253	331.7	29.8	-90.5	15.8
2025-01-01 19:11:53.807847	331.7	29.6	-90.5	14.9
2025-01-01 19:11:54.970149	331.7	29.4	-90.4	15.6
2025-01-01 19:11:56.134079	331.8	29.2	-89.9	14.9
2025-01-01 19:11:57.297177	331.8	29.0	-90.2	16.5
2025-01-01 19:11:58.457519	331.9	28.8	-90.1	7.8
2025-01-01 19:11:59.621763	331.9	28.6	-90.0	8.2
2025-01-01 19:12:00.774214	331.9	28.4	-89.6	8.4
2025-01-01 19:12:01.935980	332.0	28.2	-90.0	6.8
2025-01-01 19:12:03.092067	332.0	28.0	-89.1	4.3
2025-01-01 19:12:04.256560	332.0	27.8	-89.0	8.1
2025-01-01 19:12:05.423098	332.1	27.6	-89.1	5.5
2025-01-01 19:12:06.588248	332.1	27.4	-89.5	5.0
2025-01-01 19:12:07.753336	332.1	27.2	-89.8	6.8
2025-01-01 19:12:08.921760	332.2	27.0	-89.7	7.8
2025-01-01 19:12:10.081769	332.2	26.8	-89.9	6.3
2025-01-01 19:12:11.251833	332.2	26.6	-90.1	6.1
2025-01-01 19:12:12.416761	332.3	26.4	-90.0	7.7
2025-01-01 19:12:13.574085	332.3	26.2	-90.4	7.5
2025-01-01 19:12:14.736464	332.3	26.0	-90.2	8.4
2025-01-01 19:12:15.896641	332.4	25.8	-90.1	10.4
2025-01-01 19:12:17.058229	332.4	25.7	-90.0	6.6
2025-01-01 19:12:18.213224	332.4	25.5	-90.0	12.2
2025-01-01 19:12:19.377070	332.5	25.3	-89.5	10.8
2025-01-01 19:12:20.534507	332.5	25.1	-89.7	10.7
2025-01-01 19:12:21.700943	332.5	24.9	-90.1	11.3
2025-01-01 19:12:22.857686	332.5	24.8	-89.9	8.2
2025-01-01 19:12:24.014139	332.6	24.6	-90.0	6.0
2025-01-01 19:12:25.177139	332.6	24.4	-89.9	8.6
2025-01-01 19:12:26.350378	332.6	24.2	-89.5	8.2
2025-01-01 19:12:27.512761	332.7	24.1	-90.1	6.9
2025-01-01 19:12:28.679350	332.7	23.9	-90.0	6.3
2025-01-01 19:12:29.840267	332.7	23.7	-90.0	9.5
2025-01-01 19:12:31.016912	332.8	23.5	-89.9	7.7
2025-01-01 19:12:32.176430	332.8	23.4	-90.0	9.1
2025-01-01 19:12:33.335036	332.8	23.2	-90.2	7.8
2025-01-01 19:12:34.515015	332.8	23.0	-90.1	7.8
2025-01-01 19:12:35.680212	332.9	22.9	-89.8	9.2
2025-01-01 19:12:36.839931	332.9	22.7	-89.7	9.2
2025-01-01 19:12:38.009895	332.9	22.5	-90.0	8.4
2025-01-01 19:12:39.169580	332.9	22.4	-89.9	9.1
2025-01-01 19:12:40.341626	333.0	22.2	-89.6	8.0
2025-01-01 19:12:41.503380	333.0	22.1	-90.0	8.6
2025-01-01 19:12:42.661815	333.0	21.9	-89.9	9.1
2025-01-01 19:12:43.817249	333.0	21.7	-89.7	9.9
2025-01-01 19:12:44.982287	333.1	21.6	-89.9	8.5
2025-01-01 19:12:46.139735	333.1	21.4	-89.8	7.3
2025-01-01 19:12:47.305773	333.1	21.3	-90.1	11.2
2025-01-01 19:12:48.467472	333.1	21.1	-90.2	5.9
2025-01-01 19:12:49.632434	333.2	21.0	-90.3	10.9
2025-01-01 19:12:50.801134	333.2	20.8	-89.9	6.4
2025-01-01 19:12:51.960541	333.2	20.6	-90.0	8.9
2025-01-01 19:12:53.123351	333.2	20.5	-90.0	6.9
2025-01-01 19:12:54.279971	333.3	20.3	-90.1	7.4
2025-01-01 19:12:55.440505	333.3	20.2	-90.0	6.8
2025-01-01 19:12:56.605233	333.3	20.0	-90.1	4.7
2025-01-01 19:12:57.778650	333.3	19.9	-90.0	6.9
2025-01-01 19:12:58.942238	333.4	19.8	-90.6	4.2
2025-01-01 19:13:00.105682	333.4	19.6	-90.3	4.8
2025-01-01 19:13:01.263993	333.4	19.5	-90.1	7.5
2025-01-01 19:13:02.422747	333.4	19.3	-90.5	4.6
2025-01-01 19:13:03.585884	333.5	19.2	-90.7	6.3
2025-01-01 19:13:04.751838	333.5	19.0	-90.4	9.0
2025-01-01 19:13:05.912882	333.5	18.9	-90.4	8.2
2025-01-01 19:13:07.096912	333.5	18.7	-90.5	8.2
2025-01-01 19:13:08.265401	333.5	18.6	-89.7	7.1
2025-01-01 19:13:09.439076	333.6	18.5	-88.9	6.7
2025-01-01 19:13:10.598734	333.6	18.3	-89.6	4.4
2025-01-01 19:13:11.764792	333.6	18.2	-90.7	6.0
2025-01-01 19:13:12.926435	333.6	18.0	-89.8	6.1
2025-01-01 19:13:14.087258	333.7	17.9	-90.2	5.8
2025-01-01 19:13:15.250065	333.7	17.8	-90.5	5.9
2025-01-01 19:13:16.415656	333.7	17.6	-90.9	6.2
2025-01-01 19:13:17.577434	333.7	17.5	-90.8	4.7
2025-01-01 19:13:18.738474	333.7	17.4	-90.1	5.2
2025-01-01 19:13:19.902031	333.8	17.2	-90.8	5.2
2025-01-01 19:13:21.063673	333.8	17.1	-91.0	3.9
2025-01-01 19:13:22.227476	333.8	17.0	-90.9	4.4
2025-01-01 19:13:23.385204	333.8	16.8	-90.6	5.4
2025-01-01 19:13:24.536223	333.8	16.7	-90.6	2.9
2025-01-01 19:13:25.702366	333.9	16.6	-91.0	6.2
2025-01-01 19:13:26.837541	333.9	16.5	-91.3	2.7
2025-01-01 19:13:27.958848	333.9	16.3	-91.1	4.9
2025-01-01 19:13:29.078964	333.9	16.2	-90.8	2.9
2025-01-01 19:13:30.198720	333.9	16.1	-90.8	3.9
2025-01-01 19:13:31.318785	333.9	16.0	-90.7	5.2
2025-01-01 19:13:32.440084	334.0	15.8	-90.7	5.7
2025-01-01 19:13:33.565026	334.0	15.7	-90.9	7.3
2025-01-01 19:13:34.687083	334.0	15.6	-91.2	6.0
2025-01-01 19:13:35.821174	334.0	15.5	-91.0	7.4
2025-01-01 19:13:36.967336	334.0	15.4	-91.1	4.2
2025-01-01 19:13:38.105642	334.1	15.2	-90.9	4.0
2025-01-01 19:13:39.260826	334.1	15.1	-90.7	6.4
2025-01-01 19:13:40.416202	334.1	15.0	-90.7	5.8
2025-01-01 19:13:41.571047	334.1	14.9	-91.3	4.4
2025-01-01 19:13:42.737415	334.1	14.8	-90.9	4.2
2025-01-01 19:13:43.892555	334.1	14.6	-90.8	5.7
2025-01-01 19:13:45.061122	334.2	14.5	-90.7	6.1
#Closed at: 2025-01-01 19:04:21.099564