passes_logs/2025/01/01/LEX_Murmansk/LEX_Murmansk__20250101_165541_NOAA_19_rec.log

#Pass ID: 20250101_165541_NOAA 19
#Satellite: NOAA 19
#Configuration: NOAA 19
#Start time: 2025-01-01 16:55:36.911960

#LorettStation: 1.0.0 05.05.2024
#Station: LEX_Murmansk
#Location: 33.156738 lon 68.926811 lat
#TLE: 1 33591U 09005A   24366.84452498  .00000596  00000+0  34214-3 0  9996
#TLE: 2 33591  99.0219  64.4961 0014693  95.1476 265.1373 14.13246120819287

#Time	Az	El	Level	SNR
2025-01-01 16:55:49.029696	128.9	16.3	-89.1	3.1
2025-01-01 16:55:50.191470	128.9	16.4	-88.9	2.6
2025-01-01 16:55:51.352547	128.8	16.5	-88.7	2.8
2025-01-01 16:55:52.512778	128.8	16.7	-88.6	3.0
2025-01-01 16:55:53.674248	128.7	16.8	-88.8	3.3
2025-01-01 16:55:54.835143	128.6	16.9	-89.0	8.8
2025-01-01 16:55:55.997518	128.6	17.1	-89.4	2.3
2025-01-01 16:55:57.159595	128.5	17.2	-89.1	4.4
2025-01-01 16:55:58.320565	128.5	17.3	-88.8	3.5
2025-01-01 16:55:59.478332	128.4	17.5	-89.1	3.0
2025-01-01 16:56:00.635203	128.4	17.6	-89.2	8.4
2025-01-01 16:56:01.798484	128.3	17.7	-88.8	1.7
2025-01-01 16:56:02.953915	128.2	17.9	-89.3	6.2
2025-01-01 16:56:04.119622	128.2	18.0	-89.3	4.8
2025-01-01 16:56:05.289918	128.1	18.1	-89.3	6.0
2025-01-01 16:56:06.445585	128.1	18.3	-88.7	4.6
2025-01-01 16:56:07.614326	128.0	18.4	-89.1	1.7
2025-01-01 16:56:08.777581	127.9	18.5	-89.1	4.0
2025-01-01 16:56:09.940150	127.9	18.7	-89.0	4.9
2025-01-01 16:56:11.099490	127.8	18.8	-89.3	4.8
2025-01-01 16:56:12.229446	127.8	19.0	-89.6	4.1
2025-01-01 16:56:13.379238	127.7	19.1	-89.1	13.2
2025-01-01 16:56:14.545323	127.6	19.2	-89.2	3.8
2025-01-01 16:56:15.706318	127.6	19.4	-89.4	8.6
2025-01-01 16:56:16.869606	127.5	19.5	-89.3	10.5
2025-01-01 16:56:18.023470	127.4	19.7	-89.7	13.9
2025-01-01 16:56:19.183630	127.4	19.8	-89.8	11.6
2025-01-01 16:56:20.358976	127.3	20.0	-89.5	7.8
2025-01-01 16:56:21.521860	127.2	20.1	-89.8	3.6
2025-01-01 16:56:22.680598	127.2	20.3	-89.5	1.8
2025-01-01 16:56:23.845535	127.1	20.4	-90.7	2.5
2025-01-01 16:56:25.002636	127.0	20.6	-89.8	2.3
2025-01-01 16:56:26.169162	126.9	20.7	-90.0	3.8
2025-01-01 16:56:27.330432	126.9	20.9	-89.4	8.1
2025-01-01 16:56:28.487234	126.8	21.0	-89.7	10.6
2025-01-01 16:56:29.651553	126.7	21.2	-89.6	4.3
2025-01-01 16:56:30.807869	126.6	21.3	-89.5	11.0
2025-01-01 16:56:31.974393	126.6	21.5	-89.4	6.3
2025-01-01 16:56:33.131543	126.5	21.6	-89.9	7.9
2025-01-01 16:56:34.294362	126.4	21.8	-89.3	12.2
2025-01-01 16:56:35.456613	126.3	21.9	-89.1	7.0
2025-01-01 16:56:36.615425	126.3	22.1	-89.5	8.0
2025-01-01 16:56:37.776676	126.2	22.3	-90.1	7.8
2025-01-01 16:56:38.939177	126.1	22.4	-90.1	2.2
2025-01-01 16:56:40.093984	126.0	22.6	-89.8	2.2
2025-01-01 16:56:41.257336	125.9	22.7	-89.8	3.1
2025-01-01 16:56:42.421103	125.9	22.9	-89.9	6.9
2025-01-01 16:56:43.581758	125.8	23.1	-90.0	7.1
2025-01-01 16:56:44.749577	125.7	23.2	-89.9	6.0
2025-01-01 16:56:45.909942	125.6	23.4	-90.5	12.8
2025-01-01 16:56:47.075406	125.5	23.6	-90.2	6.1
2025-01-01 16:56:48.237270	125.4	23.7	-89.8	8.0
2025-01-01 16:56:49.397063	125.3	23.9	-89.4	5.1
2025-01-01 16:56:50.554158	125.2	24.1	-89.2	9.3
2025-01-01 16:56:51.714084	125.2	24.2	-89.6	6.4
2025-01-01 16:56:52.880251	125.1	24.4	-89.1	8.8
2025-01-01 16:56:54.055591	125.0	24.6	-89.5	4.7
2025-01-01 16:56:55.221577	124.9	24.7	-89.9	2.6
2025-01-01 16:56:56.375657	124.8	24.9	-90.2	4.4
2025-01-01 16:56:57.539910	124.7	25.1	-90.1	2.0
2025-01-01 16:56:58.703904	124.6	25.3	-89.9	3.8
2025-01-01 16:56:59.861553	124.5	25.5	-90.0	2.9
2025-01-01 16:57:01.010081	124.4	25.6	-90.4	8.4
2025-01-01 16:57:02.174506	124.3	25.8	-90.1	8.5
2025-01-01 16:57:03.333518	124.2	26.0	-90.0	6.1
2025-01-01 16:57:04.496358	124.1	26.2	-90.3	2.1
2025-01-01 16:57:05.657664	124.0	26.4	-90.1	3.4
2025-01-01 16:57:06.818750	123.9	26.5	-90.9	2.3
2025-01-01 16:57:07.981831	123.8	26.7	-90.8	3.4
2025-01-01 16:57:09.143446	123.7	26.9	-91.0	3.3
2025-01-01 16:57:10.304223	123.6	27.1	-90.3	2.2
2025-01-01 16:57:11.466459	123.4	27.3	-90.3	2.3
2025-01-01 16:57:12.634110	123.3	27.5	-90.6	1.8
2025-01-01 16:57:13.802018	123.2	27.7	-90.6	4.3
2025-01-01 16:57:14.970029	123.1	27.9	-90.7	3.1
2025-01-01 16:57:16.134459	123.0	28.1	-90.7	2.7
2025-01-01 16:57:17.299039	122.9	28.3	-90.6	0.9
2025-01-01 16:57:18.461198	122.7	28.5	-90.5	5.8
2025-01-01 16:57:19.618132	122.6	28.6	-90.4	5.6
2025-01-01 16:57:20.782885	122.5	28.8	-90.2	10.2
2025-01-01 16:57:21.945977	122.4	29.0	-90.5	4.0
2025-01-01 16:57:23.111281	122.3	29.2	-90.5	5.8
2025-01-01 16:57:24.274478	122.1	29.5	-90.7	9.6
2025-01-01 16:57:25.442018	122.0	29.7	-90.5	12.7
2025-01-01 16:57:26.603573	121.9	29.9	-90.5	9.7
2025-01-01 16:57:27.772121	121.7	30.1	-90.2	8.1
2025-01-01 16:57:28.935995	121.6	30.3	-90.3	2.0
2025-01-01 16:57:30.094941	121.5	30.5	-90.0	4.5
2025-01-01 16:57:31.258224	121.3	30.7	-89.9	3.8
2025-01-01 16:57:32.421069	121.2	30.9	-90.0	4.1
2025-01-01 16:57:33.586078	121.0	31.1	-90.4	4.6
2025-01-01 16:57:34.748364	120.9	31.3	-90.6	10.0
2025-01-01 16:57:35.913442	120.8	31.6	-90.4	9.4
2025-01-01 16:57:37.080783	120.6	31.8	-90.7	9.3
2025-01-01 16:57:38.245111	120.5	32.0	-90.6	6.6
2025-01-01 16:57:39.407444	120.3	32.2	-90.4	7.7
2025-01-01 16:57:40.564625	120.2	32.4	-90.1	4.8
2025-01-01 16:57:41.727467	120.0	32.7	-90.3	9.4
2025-01-01 16:57:42.890351	119.8	32.9	-90.2	11.1
2025-01-01 16:57:44.049303	119.7	33.1	-90.7	13.6
2025-01-01 16:57:45.210270	119.5	33.3	-90.4	10.7
2025-01-01 16:57:46.370593	119.4	33.6	-89.7	6.8
2025-01-01 16:57:47.534399	119.2	33.8	-90.0	3.1
2025-01-01 16:57:48.701776	119.0	34.0	-90.6	1.8
2025-01-01 16:57:49.862645	118.8	34.3	-91.1	4.5
2025-01-01 16:57:51.024442	118.7	34.5	-90.6	3.7
2025-01-01 16:57:52.190620	118.5	34.7	-90.5	4.9
2025-01-01 16:57:53.355116	118.3	35.0	-90.4	9.9
2025-01-01 16:57:54.521913	118.1	35.2	-90.1	8.9
2025-01-01 16:57:55.685398	117.9	35.4	-90.2	11.5
2025-01-01 16:57:56.854006	117.8	35.7	-90.5	8.3
2025-01-01 16:57:58.018120	117.6	35.9	-90.9	5.3
2025-01-01 16:57:59.182263	117.4	36.2	-90.2	6.3
2025-01-01 16:58:00.338388	117.2	36.4	-90.2	8.3
2025-01-01 16:58:01.498091	117.0	36.7	-90.1	10.7
2025-01-01 16:58:02.664848	116.8	36.9	-90.0	12.6
2025-01-01 16:58:03.829699	116.6	37.2	-90.4	6.1
2025-01-01 16:58:04.995409	116.4	37.4	-90.2	4.2
2025-01-01 16:58:06.156983	116.1	37.7	-90.3	4.8
2025-01-01 16:58:07.322429	115.9	37.9	-90.4	4.6
2025-01-01 16:58:08.490448	115.7	38.2	-90.4	3.7
2025-01-01 16:58:09.647997	115.5	38.4	-90.5	2.5
2025-01-01 16:58:10.813845	115.3	38.7	-91.0	5.6
2025-01-01 16:58:11.977690	115.0	39.0	-90.1	8.0
2025-01-01 16:58:13.137290	114.8	39.2	-89.6	11.5
2025-01-01 16:58:14.299244	114.6	39.5	-89.5	12.7
2025-01-01 16:58:15.460957	114.3	39.7	-89.3	11.0
2025-01-01 16:58:16.623611	114.1	40.0	-89.2	8.3
2025-01-01 16:58:17.802959	113.8	40.3	-90.1	6.1
2025-01-01 16:58:18.966276	113.6	40.6	-89.9	5.0
2025-01-01 16:58:20.126522	113.3	40.8	-89.1	8.4
2025-01-01 16:58:21.291148	113.0	41.1	-89.4	8.8
2025-01-01 16:58:22.455492	112.8	41.4	-89.1	8.2
2025-01-01 16:58:23.619079	112.5	41.6	-89.6	12.6
2025-01-01 16:58:24.777676	112.2	41.9	-90.6	10.5
2025-01-01 16:58:25.944124	111.9	42.2	-90.2	8.0
2025-01-01 16:58:27.105167	111.7	42.5	-89.9	4.7
2025-01-01 16:58:28.267829	111.4	42.8	-90.2	3.9
2025-01-01 16:58:29.429778	111.1	43.0	-90.1	4.3
2025-01-01 16:58:30.590364	110.8	43.3	-89.5	2.4
2025-01-01 16:58:31.755903	110.5	43.6	-89.4	7.9
2025-01-01 16:58:32.915690	110.1	43.9	-89.3	9.9
2025-01-01 16:58:34.081894	109.8	44.2	-89.5	11.4
2025-01-01 16:58:35.245900	109.5	44.5	-89.5	13.9
2025-01-01 16:58:36.410451	109.2	44.7	-89.6	13.3
2025-01-01 16:58:37.577082	108.8	45.0	-90.2	10.1
2025-01-01 16:58:38.736583	108.5	45.3	-90.1	7.8
2025-01-01 16:58:39.893607	108.1	45.6	-90.2	8.1
2025-01-01 16:58:41.056889	107.8	45.9	-90.9	7.1
2025-01-01 16:58:42.221733	107.4	46.2	-90.8	7.5
2025-01-01 16:58:43.382427	107.1	46.5	-90.6	8.6
2025-01-01 16:58:44.545915	106.7	46.8	-90.6	11.8
2025-01-01 16:58:45.705787	106.3	47.1	-90.6	13.5
2025-01-01 16:58:46.879495	105.9	47.4	-90.6	9.8
2025-01-01 16:58:48.043580	105.5	47.7	-90.4	6.3
2025-01-01 16:58:49.205381	105.1	48.0	-90.5	4.0
2025-01-01 16:58:50.365394	104.7	48.3	-90.2	5.0
2025-01-01 16:58:51.529817	104.3	48.6	-90.4	3.5
2025-01-01 16:58:52.697399	103.8	48.8	-90.8	4.5
2025-01-01 16:58:53.859169	103.4	49.1	-90.8	5.8
2025-01-01 16:58:55.039868	102.9	49.4	-90.7	5.1
2025-01-01 16:58:56.202130	102.5	49.7	-90.9	6.7
2025-01-01 16:58:57.364252	102.0	50.0	-90.7	4.0
2025-01-01 16:58:58.528480	101.5	50.3	-90.7	7.4
2025-01-01 16:58:59.691074	101.0	50.6	-91.0	11.8
2025-01-01 16:59:00.840215	100.6	50.9	-90.8	10.0
2025-01-01 16:59:02.003937	100.1	51.2	-90.7	4.4
2025-01-01 16:59:03.171170	99.5	51.5	-90.8	3.3
2025-01-01 16:59:04.333994	99.0	51.8	-90.1	3.9
2025-01-01 16:59:05.497711	98.5	52.1	-90.3	4.8
2025-01-01 16:59:06.662452	97.9	52.4	-90.0	7.9
2025-01-01 16:59:07.825422	97.4	52.7	-89.6	10.9
2025-01-01 16:59:08.987992	96.8	53.0	-90.2	12.2
2025-01-01 16:59:10.146031	96.2	53.3	-90.5	17.0
2025-01-01 16:59:11.310107	95.6	53.6	-90.1	16.0
2025-01-01 16:59:12.476768	95.0	53.8	-90.1	10.8
2025-01-01 16:59:13.631646	94.4	54.1	-90.4	8.6
2025-01-01 16:59:14.801382	93.8	54.4	-90.8	2.8
2025-01-01 16:59:15.962118	93.2	54.7	-90.6	3.5
2025-01-01 16:59:17.120581	92.5	55.0	-90.3	4.7
2025-01-01 16:59:18.269998	91.9	55.2	-90.4	5.7
2025-01-01 16:59:19.396857	91.2	55.5	-90.6	7.4
2025-01-01 16:59:20.517477	90.5	55.8	-90.5	3.2
2025-01-01 16:59:21.637571	89.8	56.0	-90.7	7.0
2025-01-01 16:59:22.758377	89.2	56.3	-91.0	7.6
2025-01-01 16:59:23.879519	88.5	56.5	-90.8	11.8
2025-01-01 16:59:24.999694	87.7	56.8	-90.7	9.6
2025-01-01 16:59:26.120465	87.0	57.0	-90.8	13.2
2025-01-01 16:59:27.254252	86.3	57.3	-90.4	16.4
2025-01-01 16:59:28.416497	85.5	57.5	-90.0	15.3
2025-01-01 16:59:29.573033	84.7	57.8	-89.9	13.3
2025-01-01 16:59:30.733581	83.9	58.0	-89.6	9.1
2025-01-01 16:59:31.894575	83.0	58.2	-89.7	10.1
2025-01-01 16:59:33.053434	82.2	58.5	-89.9	6.5
2025-01-01 16:59:34.218349	81.3	58.7	-90.3	8.4
2025-01-01 16:59:35.368477	80.5	58.9	-90.3	7.6
2025-01-01 16:59:36.515397	79.6	59.1	-90.5	6.4
2025-01-01 16:59:37.663870	78.7	59.3	-89.5	5.9
2025-01-01 16:59:38.814071	77.8	59.5	-89.5	6.4
2025-01-01 16:59:39.972385	76.9	59.7	-89.3	9.3
2025-01-01 16:59:41.138879	75.9	59.9	-89.4	13.9
2025-01-01 16:59:42.291982	75.0	60.1	-90.4	16.6
2025-01-01 16:59:43.440337	74.0	60.3	-89.9	15.1
2025-01-01 16:59:44.589720	73.1	60.4	-90.5	15.5
2025-01-01 16:59:45.730235	72.1	60.6	-90.4	14.7
2025-01-01 16:59:46.861626	71.1	60.8	-90.1	15.4
2025-01-01 16:59:48.014023	70.1	60.9	-90.2	14.7
2025-01-01 16:59:49.167965	69.1	61.0	-89.9	13.2
2025-01-01 16:59:50.318077	68.0	61.2	-90.2	12.8
2025-01-01 16:59:51.466032	67.0	61.3	-90.0	10.6
2025-01-01 16:59:52.615550	65.9	61.4	-89.8	7.3
2025-01-01 16:59:53.769538	64.9	61.5	-89.9	9.9
2025-01-01 16:59:54.913591	63.8	61.6	-90.0	6.7
2025-01-01 16:59:56.074187	62.7	61.7	-90.4	4.0
2025-01-01 16:59:57.225662	61.6	61.8	-90.4	7.5
2025-01-01 16:59:58.379435	60.5	61.9	-90.4	6.8
2025-01-01 16:59:59.536113	59.4	61.9	-90.4	2.8
2025-01-01 17:00:00.670946	58.3	62.0	-90.6	4.7
2025-01-01 17:00:01.812150	57.2	62.0	-90.0	6.3
2025-01-01 17:00:02.970748	56.1	62.1	-89.9	4.3
2025-01-01 17:00:04.119047	55.0	62.1	-89.7	4.4
2025-01-01 17:00:05.274020	53.9	62.1	-89.7	8.7
2025-01-01 17:00:06.432263	52.7	62.1	-89.6	4.3
2025-01-01 17:00:07.552437	51.6	62.1	-89.7	6.9
2025-01-01 17:00:08.671711	50.6	62.1	-90.6	9.1
2025-01-01 17:00:09.792299	49.5	62.1	-90.6	11.1
2025-01-01 17:00:10.913460	48.4	62.1	-90.7	12.9
2025-01-01 17:00:12.035544	47.3	62.0	-90.5	11.0
2025-01-01 17:00:13.156336	46.2	62.0	-90.5	12.8
2025-01-01 17:00:14.281947	45.1	61.9	-90.6	12.1
2025-01-01 17:00:15.402589	44.1	61.9	-90.4	14.0
2025-01-01 17:00:16.538558	43.0	61.8	-90.4	11.9
2025-01-01 17:00:17.664919	41.9	61.7	-90.3	15.4
2025-01-01 17:00:18.786865	40.9	61.6	-90.2	16.6
2025-01-01 17:00:19.908719	39.8	61.5	-90.7	13.8
2025-01-01 17:00:21.030267	38.8	61.4	-90.9	12.4
2025-01-01 17:00:22.151979	37.8	61.3	-90.9	16.5
2025-01-01 17:00:23.293981	36.7	61.2	-90.4	12.9
2025-01-01 17:00:24.430074	35.7	61.0	-91.2	13.7
2025-01-01 17:00:25.561415	34.7	60.9	-90.7	14.1
2025-01-01 17:00:26.689029	33.7	60.8	-90.8	14.0
2025-01-01 17:00:27.813169	32.7	60.6	-90.5	16.5
2025-01-01 17:00:28.935122	31.8	60.5	-90.5	10.9
2025-01-01 17:00:30.055529	30.8	60.3	-90.8	12.1
2025-01-01 17:00:31.177508	29.9	60.1	-90.8	11.3
2025-01-01 17:00:32.298290	29.0	59.9	-91.2	14.0
2025-01-01 17:00:33.418835	28.1	59.8	-90.7	10.7
2025-01-01 17:00:34.543006	27.2	59.6	-90.9	8.6
2025-01-01 17:00:35.663365	26.3	59.4	-90.8	7.5
2025-01-01 17:00:36.787007	25.4	59.2	-90.6	10.5
2025-01-01 17:00:37.907590	24.5	59.0	-90.9	10.7
2025-01-01 17:00:39.028041	23.7	58.8	-90.6	11.0
2025-01-01 17:00:40.149529	22.9	58.5	-91.2	10.9
2025-01-01 17:00:41.268983	22.1	58.3	-91.0	7.1
2025-01-01 17:00:42.390252	21.3	58.1	-91.0	5.0
2025-01-01 17:00:43.511698	20.5	57.9	-91.0	8.5
2025-01-01 17:00:44.634477	19.7	57.6	-90.6	8.5
2025-01-01 17:00:45.758412	18.9	57.4	-90.8	8.9
2025-01-01 17:00:46.882492	18.2	57.2	-90.7	10.2
2025-01-01 17:00:48.003769	17.4	56.9	-90.5	7.0
2025-01-01 17:00:49.127243	16.7	56.7	-90.5	3.4
2025-01-01 17:00:50.247802	16.0	56.4	-90.8	3.5
2025-01-01 17:00:51.392319	15.3	56.2	-90.6	6.7
2025-01-01 17:00:52.556528	14.6	55.9	-90.7	4.1
2025-01-01 17:00:53.717993	13.9	55.6	-90.9	7.7
2025-01-01 17:00:54.878432	13.2	55.3	-91.0	12.1
2025-01-01 17:00:56.042007	12.5	55.1	-91.3	4.1
2025-01-01 17:00:57.203703	11.9	54.8	-91.0	6.3
2025-01-01 17:00:58.362741	11.2	54.5	-91.0	10.1
2025-01-01 17:00:59.525771	10.6	54.2	-90.9	6.9
2025-01-01 17:01:00.682065	10.0	53.9	-91.3	10.5
2025-01-01 17:01:01.848274	9.4	53.7	-90.7	5.7
2025-01-01 17:01:03.009259	8.8	53.4	-90.8	12.8
2025-01-01 17:01:04.168449	8.2	53.1	-90.9	11.2
2025-01-01 17:01:05.329382	7.6	52.8	-90.5	5.9
2025-01-01 17:01:06.492015	7.1	52.5	-90.3	7.8
2025-01-01 17:01:07.654195	6.5	52.2	-90.5	8.9
2025-01-01 17:01:08.812207	6.0	51.9	-90.0	10.1
2025-01-01 17:01:09.975658	5.5	51.6	-90.0	10.4
2025-01-01 17:01:11.129487	5.0	51.3	-89.7	9.7
2025-01-01 17:01:12.294384	4.4	51.0	-90.3	6.0
2025-01-01 17:01:13.453366	4.0	50.7	-90.6	8.0
2025-01-01 17:01:14.615043	3.5	50.5	-90.3	5.1
2025-01-01 17:01:16.223747	2.8	50.0	-90.8	10.1
2025-01-01 17:01:17.386686	2.3	49.7	-90.0	8.6
2025-01-01 17:01:18.548976	1.9	49.4	-89.9	5.6
2025-01-01 17:01:19.712983	1.4	49.2	-89.6	7.7
2025-01-01 17:01:20.872781	1.0	48.9	-89.6	7.6
2025-01-01 17:01:22.036914	0.6	48.6	-89.7	3.8
2025-01-01 17:01:23.210597	0.1	48.3	-89.8	6.5
2025-01-01 17:01:24.371482	359.7	48.0	-89.7	7.3
2025-01-01 17:01:25.537116	359.3	47.7	-90.7	5.2
2025-01-01 17:01:26.700999	358.9	47.4	-90.9	6.9
2025-01-01 17:01:27.866637	358.5	47.1	-90.8	7.7
2025-01-01 17:01:29.028023	358.2	46.8	-90.8	7.9
2025-01-01 17:01:30.197614	357.8	46.5	-90.6	10.9
2025-01-01 17:01:31.364939	357.4	46.2	-90.7	13.5
2025-01-01 17:01:32.529221	357.0	45.9	-90.7	13.9
2025-01-01 17:01:33.692422	356.7	45.6	-90.7	16.4
2025-01-01 17:01:34.854922	356.3	45.3	-90.7	14.8
2025-01-01 17:01:36.025276	356.0	45.0	-90.9	17.2
2025-01-01 17:01:37.191813	355.7	44.7	-91.2	16.5
2025-01-01 17:01:38.353552	355.3	44.5	-90.9	17.1
2025-01-01 17:01:39.514787	355.0	44.2	-90.8	16.6
2025-01-01 17:01:40.673891	354.7	43.9	-91.0	17.8
2025-01-01 17:01:41.839716	354.4	43.6	-91.3	14.2
2025-01-01 17:01:43.003196	354.1	43.3	-90.9	11.2
2025-01-01 17:01:44.170538	353.8	43.0	-90.8	11.7
2025-01-01 17:01:45.325452	353.5	42.8	-90.6	9.6
2025-01-01 17:01:46.488068	353.2	42.5	-90.6	5.9
2025-01-01 17:01:47.651428	352.9	42.2	-91.1	8.1
2025-01-01 17:01:48.817169	352.6	41.9	-91.0	8.3
2025-01-01 17:01:49.979732	352.3	41.7	-90.2	5.2
2025-01-01 17:01:51.135792	352.1	41.4	-89.7	6.8
2025-01-01 17:01:52.298036	351.8	41.1	-90.2	9.0
2025-01-01 17:01:53.459899	351.5	40.8	-90.4	5.9
2025-01-01 17:01:54.624769	351.3	40.6	-90.6	9.1
2025-01-01 17:01:55.789238	351.0	40.3	-90.2	8.5
2025-01-01 17:01:56.954616	350.8	40.0	-91.2	10.8
2025-01-01 17:01:58.119262	350.5	39.8	-90.9	10.1
2025-01-01 17:01:59.284473	350.3	39.5	-90.9	14.2
2025-01-01 17:02:00.437008	350.0	39.2	-90.8	16.6
2025-01-01 17:02:01.592241	349.8	39.0	-90.8	12.6
2025-01-01 17:02:02.751643	349.6	38.7	-91.1	11.9
2025-01-01 17:02:03.914005	349.4	38.5	-91.3	16.2
2025-01-01 17:02:05.078352	349.1	38.2	-91.1	9.8
2025-01-01 17:02:06.240361	348.9	37.9	-90.8	11.3
2025-01-01 17:02:07.406836	348.7	37.7	-90.8	8.8
2025-01-01 17:02:08.564789	348.5	37.4	-91.3	6.3
2025-01-01 17:02:09.729167	348.3	37.2	-91.4	7.8
2025-01-01 17:02:10.890292	348.1	36.9	-91.1	7.0
2025-01-01 17:02:12.052285	347.9	36.7	-91.2	4.8
2025-01-01 17:02:13.219338	347.7	36.4	-91.2	7.8
2025-01-01 17:02:14.378844	347.5	36.2	-91.2	5.2
2025-01-01 17:02:15.542646	347.3	36.0	-90.8	6.4
2025-01-01 17:02:16.706380	347.1	35.7	-90.8	6.3
2025-01-01 17:02:17.870028	346.9	35.5	-91.0	8.3
2025-01-01 17:02:19.033653	346.7	35.2	-91.1	8.0
2025-01-01 17:02:20.204329	346.5	35.0	-91.3	10.4
2025-01-01 17:02:21.362062	346.4	34.8	-91.1	13.0
2025-01-01 17:02:22.526651	346.2	34.5	-90.9	7.2
2025-01-01 17:02:23.691195	346.0	34.3	-90.7	8.1
2025-01-01 17:02:24.851914	345.8	34.1	-91.3	7.2
2025-01-01 17:02:26.018600	345.7	33.8	-90.9	6.0
2025-01-01 17:02:27.182396	345.5	33.6	-90.6	4.6
2025-01-01 17:02:28.344869	345.3	33.4	-90.3	3.6
2025-01-01 17:02:29.499919	345.2	33.1	-90.6	3.1
2025-01-01 17:02:30.661148	345.0	32.9	-90.8	5.3
2025-01-01 17:02:31.815564	344.9	32.7	-90.8	3.7
2025-01-01 17:02:32.974428	344.7	32.5	-90.9	4.9
2025-01-01 17:02:34.136383	344.5	32.2	-91.0	7.7
2025-01-01 17:02:35.302335	344.4	32.0	-91.2	7.7
2025-01-01 17:02:36.466886	344.2	31.8	-91.1	2.8
2025-01-01 17:02:37.635236	344.1	31.6	-91.1	4.9
2025-01-01 17:02:38.797110	344.0	31.4	-91.0	7.4
2025-01-01 17:02:39.960010	343.8	31.2	-91.2	3.5
2025-01-01 17:02:41.119736	343.7	30.9	-91.4	5.2
2025-01-01 17:02:42.282575	343.5	30.7	-91.0	5.9
2025-01-01 17:02:43.436293	343.4	30.5	-91.0	5.3
2025-01-01 17:02:44.600139	343.3	30.3	-91.0	4.0
2025-01-01 17:02:45.760408	343.1	30.1	-91.2	2.9
2025-01-01 17:02:46.922543	343.0	29.9	-91.1	3.3
2025-01-01 17:02:48.089050	342.9	29.7	-91.5	2.4
2025-01-01 17:02:49.253640	342.7	29.5	-91.3	4.8
2025-01-01 17:02:50.423813	342.6	29.3	-91.2	4.7
2025-01-01 17:02:51.583019	342.5	29.1	-90.5	1.8
2025-01-01 17:02:52.738553	342.4	28.9	-90.7	5.8
2025-01-01 17:02:53.896349	342.2	28.7	-90.5	2.8
2025-01-01 17:02:55.040163	342.1	28.5	-90.7	9.9
2025-01-01 17:02:56.160645	342.0	28.3	-90.5	8.0
2025-01-01 17:02:57.280543	341.9	28.1	-90.2	5.4
2025-01-01 17:02:58.401029	341.8	27.9	-89.7	6.7
2025-01-01 17:02:59.521504	341.7	27.8	-90.0	1.7
2025-01-01 17:03:00.644670	341.6	27.6	-89.8	3.0
2025-01-01 17:03:01.765271	341.4	27.4	-90.5	5.1
2025-01-01 17:03:02.889799	341.3	27.2	-90.8	3.7
2025-01-01 17:03:04.010261	341.2	27.0	-90.8	2.7
2025-01-01 17:03:05.158784	341.1	26.8	-90.9	7.3
2025-01-01 17:03:06.306292	341.0	26.7	-91.1	6.2
2025-01-01 17:03:07.451551	340.9	26.5	-90.7	5.5
2025-01-01 17:03:08.602587	340.8	26.3	-90.4	7.5
2025-01-01 17:03:09.772890	340.7	26.1	-91.0	8.4
2025-01-01 17:03:10.925489	340.6	25.9	-90.9	7.2
2025-01-01 17:03:12.078492	340.5	25.7	-91.0	8.1
2025-01-01 17:03:13.234616	340.4	25.6	-91.1	3.1
2025-01-01 17:03:14.397870	340.3	25.4	-90.9	3.7
2025-01-01 17:03:15.565808	340.2	25.2	-91.1	2.6
2025-01-01 17:03:16.727617	340.1	25.0	-90.4	2.7
2025-01-01 17:03:17.892265	340.0	24.9	-91.2	4.5
2025-01-01 17:03:19.064691	339.9	24.7	-90.9	3.6
2025-01-01 17:03:20.229932	339.8	24.5	-91.1	3.1
2025-01-01 17:03:21.390851	339.7	24.3	-90.8	2.8
2025-01-01 17:03:22.554839	339.7	24.2	-90.5	2.9
2025-01-01 17:03:23.723497	339.6	24.0	-91.2	3.9
2025-01-01 17:03:24.885928	339.5	23.8	-91.3	15.5
2025-01-01 17:03:26.055676	339.4	23.7	-91.3	7.1
2025-01-01 17:03:27.223053	339.3	23.5	-91.4	4.6
2025-01-01 17:03:28.386820	339.2	23.3	-90.8	6.8
2025-01-01 17:03:29.545313	339.1	23.2	-90.6	2.1
2025-01-01 17:03:30.702992	339.0	23.0	-91.0	4.3
2025-01-01 17:03:31.861112	339.0	22.8	-90.8	5.3
2025-01-01 17:03:32.759143	338.9	22.7	-91.0	2.4
2025-01-01 17:03:33.914527	338.8	22.6	-91.0	3.7
2025-01-01 17:03:35.072744	338.7	22.4	-90.9	4.9
2025-01-01 17:03:36.236939	338.7	22.2	-90.7	4.7
2025-01-01 17:03:37.396495	338.6	22.1	-90.7	4.0
2025-01-01 17:03:38.553772	338.5	21.9	-90.9	5.2
2025-01-01 17:03:39.711969	338.4	21.8	-90.8	8.0
2025-01-01 17:03:40.875196	338.3	21.6	-90.8	11.5
2025-01-01 17:03:42.036188	338.3	21.5	-87.5	4.5
2025-01-01 17:03:43.192756	338.2	21.3	-90.0	6.3
2025-01-01 17:03:44.356576	338.1	21.1	-90.1	3.0
2025-01-01 17:03:45.518226	338.1	21.0	-90.0	3.6
2025-01-01 17:03:46.678670	338.0	20.8	-90.0	2.8
2025-01-01 17:03:47.839511	337.9	20.7	-90.0	3.1
2025-01-01 17:03:49.003554	337.8	20.5	-90.1	3.7
2025-01-01 17:03:50.166696	337.8	20.4	-91.0	4.2
2025-01-01 17:03:51.322837	337.7	20.3	-91.2	3.4
2025-01-01 17:03:52.484041	337.6	20.1	-90.9	6.7
2025-01-01 17:03:53.645557	337.6	20.0	-91.0	2.4
2025-01-01 17:03:54.815382	337.5	19.8	-90.8	3.4
2025-01-01 17:03:55.984522	337.4	19.7	-89.1	2.5
2025-01-01 17:03:57.150653	337.4	19.5	-90.6	3.7
2025-01-01 17:03:58.311961	337.3	19.4	-90.8	2.8
2025-01-01 17:03:59.471375	337.2	19.2	-91.1	2.4
2025-01-01 17:04:00.621799	337.2	19.1	-91.3	2.2
2025-01-01 17:04:01.776028	337.1	19.0	-91.0	2.0
2025-01-01 17:04:02.935663	337.0	18.8	-91.4	2.0
2025-01-01 17:04:04.096666	337.0	18.7	-91.3	1.4
2025-01-01 17:04:05.257324	336.9	18.5	-90.8	2.9
2025-01-01 17:04:06.425830	336.9	18.4	-91.0	6.1
2025-01-01 17:04:07.577923	336.8	18.3	-90.8	1.5
2025-01-01 17:04:08.742365	336.7	18.1	-90.6	2.1
2025-01-01 17:04:09.907179	336.7	18.0	-90.9	4.4
2025-01-01 17:04:11.071087	336.6	17.9	-90.6	1.9
2025-01-01 17:04:12.227385	336.6	17.7	-90.5	2.9
2025-01-01 17:04:13.389029	336.5	17.6	-90.5	2.3
2025-01-01 17:04:14.545711	336.4	17.5	-90.8	2.5
2025-01-01 17:04:15.667876	336.4	17.3	-91.1	2.4
2025-01-01 17:04:16.799125	336.3	17.2	-91.1	1.2
2025-01-01 17:04:17.957674	336.3	17.1	-91.1	1.6
2025-01-01 17:04:19.123626	336.2	16.9	-90.9	2.5
2025-01-01 17:04:20.285574	336.2	16.8	-91.0	3.6
2025-01-01 17:04:21.443210	336.1	16.7	-90.6	3.6
2025-01-01 17:04:22.608578	336.1	16.6	-90.7	2.2
2025-01-01 17:04:23.747617	336.0	16.4	-90.8	2.7
2025-01-01 17:04:25.008191	336.0	16.3	-90.7	3.8
2025-01-01 17:04:26.172791	335.9	16.2	-90.6	2.4
2025-01-01 17:04:27.336411	335.8	16.0	-90.7	1.7
2025-01-01 17:04:28.497992	335.8	15.9	-90.9	2.5
2025-01-01 17:04:29.662052	335.7	15.8	-90.7	2.3
2025-01-01 17:04:30.827746	335.7	15.7	-90.7	2.4
2025-01-01 17:04:31.983684	335.6	15.5	-90.7	1.8
2025-01-01 17:04:33.139452	335.6	15.4	-90.7	3.2
2025-01-01 17:04:34.267048	335.5	15.3	-90.8	4.8
2025-01-01 17:04:35.387805	335.5	15.2	-90.9	4.9
2025-01-01 17:04:36.508149	335.5	15.1	-90.9	3.7
2025-01-01 17:04:37.628903	335.4	15.0	-90.6	5.9
2025-01-01 17:04:38.749950	335.4	14.8	-90.9	3.8
2025-01-01 17:04:39.871128	335.3	14.7	-90.9	4.3
2025-01-01 17:04:40.996103	335.3	14.6	-91.3	4.0
2025-01-01 17:04:42.121188	335.2	14.5	-90.8	2.5
#Closed at: 2025-01-01 16:55:41.839541