passes_logs/2025/01/01/LEX_Murmansk/LEX_Murmansk__20250101_183634_NOAA_19_rec.log

#Pass ID: 20250101_183634_NOAA 19
#Satellite: NOAA 19
#Configuration: NOAA 19
#Start time: 2025-01-01 18:36:29.618054

#LorettStation: 1.0.0 05.05.2024
#Station: LEX_Murmansk
#Location: 33.156738 lon 68.926811 lat
#TLE: 1 33591U 09005A   24366.84452498  .00000596  00000+0  34214-3 0  9996
#TLE: 2 33591  99.0219  64.4961 0014693  95.1476 265.1373 14.13246120819287

#Time	Az	El	Level	SNR
2025-01-01 18:36:41.827122	181.6	16.3	-89.5	4.4
2025-01-01 18:36:42.995694	181.7	16.4	-90.0	2.7
2025-01-01 18:36:44.153547	181.7	16.5	-89.1	2.4
2025-01-01 18:36:45.321425	181.8	16.6	-89.3	3.1
2025-01-01 18:36:46.482734	181.9	16.8	-90.1	3.7
2025-01-01 18:36:47.652188	182.0	16.9	-89.8	2.1
2025-01-01 18:36:48.811589	182.1	17.0	-89.4	3.4
2025-01-01 18:36:49.967283	182.1	17.1	-89.9	3.3
2025-01-01 18:36:51.132550	182.2	17.3	-89.5	3.6
2025-01-01 18:36:52.290796	182.3	17.4	-89.8	3.3
2025-01-01 18:36:53.455544	182.4	17.5	-89.6	2.2
2025-01-01 18:36:54.600909	182.5	17.7	-90.2	1.2
2025-01-01 18:36:55.748421	182.6	17.8	-89.7	2.6
2025-01-01 18:36:56.879451	182.7	17.9	-89.7	4.1
2025-01-01 18:36:58.000450	182.7	18.0	-90.1	3.0
2025-01-01 18:36:59.121493	182.8	18.2	-89.8	2.8
2025-01-01 18:37:00.241972	182.9	18.3	-89.3	1.6
2025-01-01 18:37:01.364491	183.0	18.4	-89.3	4.5
2025-01-01 18:37:02.486015	183.1	18.5	-89.5	3.4
2025-01-01 18:37:03.608353	183.2	18.7	-89.7	4.1
2025-01-01 18:37:04.840499	183.3	18.8	-90.2	3.2
2025-01-01 18:37:06.000307	183.4	19.0	-90.5	2.1
2025-01-01 18:37:07.144790	183.5	19.1	-89.9	2.0
2025-01-01 18:37:08.305572	183.6	19.2	-89.8	6.0
2025-01-01 18:37:09.476455	183.7	19.4	-89.2	6.3
2025-01-01 18:37:10.610433	183.8	19.5	-89.5	4.1
2025-01-01 18:37:11.753045	183.9	19.6	-89.4	5.8
2025-01-01 18:37:12.915047	184.0	19.8	-89.6	3.4
2025-01-01 18:37:14.064414	184.1	19.9	-89.1	6.0
2025-01-01 18:37:15.216266	184.2	20.1	-89.5	4.5
2025-01-01 18:37:16.368856	184.3	20.2	-89.0	6.4
2025-01-01 18:37:17.534445	184.4	20.3	-88.9	5.3
2025-01-01 18:37:18.697252	184.5	20.5	-88.8	5.0
2025-01-01 18:37:19.853083	184.6	20.6	-89.2	1.8
2025-01-01 18:37:21.017114	184.7	20.8	-89.7	1.7
2025-01-01 18:37:22.176501	184.8	20.9	-89.5	1.7
2025-01-01 18:37:23.344708	184.9	21.1	-89.3	1.5
2025-01-01 18:37:24.506367	185.0	21.2	-89.6	5.5
2025-01-01 18:37:25.672074	185.1	21.4	-89.6	5.6
2025-01-01 18:37:26.833943	185.2	21.5	-89.5	8.7
2025-01-01 18:37:27.992473	185.3	21.7	-89.5	7.8
2025-01-01 18:37:29.152565	185.4	21.8	-89.4	5.9
2025-01-01 18:37:30.312883	185.6	22.0	-89.9	4.0
2025-01-01 18:37:31.482998	185.7	22.1	-90.0	6.7
2025-01-01 18:37:32.643899	185.8	22.3	-89.9	10.9
2025-01-01 18:37:33.802063	185.9	22.4	-90.1	10.1
2025-01-01 18:37:34.962985	186.0	22.6	-90.4	9.9
2025-01-01 18:37:36.122902	186.1	22.7	-90.3	5.5
2025-01-01 18:37:37.282293	186.3	22.9	-89.7	3.2
2025-01-01 18:37:38.445935	186.4	23.0	-89.2	0.4
2025-01-01 18:37:39.605434	186.5	23.2	-89.6	2.4
2025-01-01 18:37:40.772388	186.6	23.4	-89.8	4.2
2025-01-01 18:37:41.934479	186.8	23.5	-89.9	4.1
2025-01-01 18:37:43.095921	186.9	23.7	-89.7	6.6
2025-01-01 18:37:44.249390	187.0	23.8	-89.5	8.7
2025-01-01 18:37:45.410510	187.1	24.0	-90.1	8.0
2025-01-01 18:37:46.576614	187.3	24.2	-90.0	3.9
2025-01-01 18:37:47.739910	187.4	24.3	-89.7	4.3
2025-01-01 18:37:48.908088	187.5	24.5	-89.5	5.3
2025-01-01 18:37:50.067429	187.7	24.6	-89.3	9.1
2025-01-01 18:37:51.234644	187.8	24.8	-89.2	8.7
2025-01-01 18:37:52.397002	187.9	25.0	-89.4	5.3
2025-01-01 18:37:53.557989	188.1	25.2	-89.0	1.6
2025-01-01 18:37:54.710128	188.2	25.3	-89.3	2.0
2025-01-01 18:37:55.852639	188.3	25.5	-89.0	1.3
2025-01-01 18:37:56.974229	188.5	25.6	-89.8	1.1
2025-01-01 18:37:58.094321	188.6	25.8	-90.1	3.2
2025-01-01 18:37:59.215442	188.8	26.0	-89.9	2.5
2025-01-01 18:38:00.336815	188.9	26.1	-90.1	4.5
2025-01-01 18:38:01.458380	189.0	26.3	-90.2	7.2
2025-01-01 18:38:02.582921	189.2	26.5	-90.4	7.9
2025-01-01 18:38:03.704833	189.3	26.7	-90.5	5.0
2025-01-01 18:38:04.860721	189.5	26.8	-90.8	4.0
2025-01-01 18:38:06.022536	189.6	27.0	-90.7	5.3
2025-01-01 18:38:07.182913	189.8	27.2	-90.3	5.8
2025-01-01 18:38:08.336917	190.0	27.4	-90.2	7.8
2025-01-01 18:38:09.502945	190.1	27.5	-90.0	7.1
2025-01-01 18:38:10.661108	190.3	27.7	-90.1	4.5
2025-01-01 18:38:11.828423	190.4	27.9	-90.4	1.9
2025-01-01 18:38:12.985989	190.6	28.1	-90.0	2.1
2025-01-01 18:38:14.146430	190.8	28.3	-89.8	3.6
2025-01-01 18:38:15.320864	190.9	28.5	-90.0	2.7
2025-01-01 18:38:16.480489	191.1	28.6	-90.0	4.9
2025-01-01 18:38:17.646140	191.3	28.8	-90.2	7.6
2025-01-01 18:38:18.810132	191.5	29.0	-90.1	7.5
2025-01-01 18:38:19.972862	191.6	29.2	-90.1	8.5
2025-01-01 18:38:21.146295	191.8	29.4	-90.0	7.1
2025-01-01 18:38:22.312417	192.0	29.6	-90.3	5.3
2025-01-01 18:38:23.475658	192.2	29.8	-90.0	4.3
2025-01-01 18:38:24.633542	192.4	30.0	-90.3	4.2
2025-01-01 18:38:25.793465	192.5	30.2	-90.4	6.5
2025-01-01 18:38:26.961069	192.7	30.4	-90.5	6.7
2025-01-01 18:38:28.126559	192.9	30.6	-90.2	5.8
2025-01-01 18:38:29.294849	193.1	30.8	-90.4	1.1
2025-01-01 18:38:30.459739	193.3	31.0	-90.7	2.8
2025-01-01 18:38:31.615729	193.5	31.2	-90.4	2.2
2025-01-01 18:38:32.774474	193.7	31.4	-90.1	2.9
2025-01-01 18:38:33.902130	193.9	31.6	-90.7	4.0
2025-01-01 18:38:35.054480	194.1	31.8	-90.5	6.1
2025-01-01 18:38:36.205725	194.3	32.0	-90.4	6.2
2025-01-01 18:38:37.353314	194.5	32.2	-90.0	6.6
2025-01-01 18:38:38.513598	194.7	32.4	-90.0	7.9
2025-01-01 18:38:39.674365	195.0	32.6	-89.9	9.1
2025-01-01 18:38:40.832094	195.2	32.8	-90.1	7.0
2025-01-01 18:38:41.995633	195.4	33.0	-90.2	8.2
2025-01-01 18:38:43.160176	195.6	33.2	-89.7	6.7
2025-01-01 18:38:44.316971	195.8	33.4	-89.5	7.4
2025-01-01 18:38:45.476129	196.1	33.6	-89.7	8.3
2025-01-01 18:38:46.637834	196.3	33.8	-89.8	8.9
2025-01-01 18:38:47.800539	196.5	34.0	-89.6	6.7
2025-01-01 18:38:48.961834	196.8	34.2	-89.9	5.1
2025-01-01 18:38:50.123007	197.0	34.5	-89.4	4.2
2025-01-01 18:38:51.285442	197.3	34.7	-89.9	2.4
2025-01-01 18:38:52.449216	197.5	34.9	-90.0	2.9
2025-01-01 18:38:53.603185	197.8	35.1	-89.9	2.6
2025-01-01 18:38:54.760114	198.0	35.3	-89.4	3.4
2025-01-01 18:38:55.925145	198.3	35.5	-90.0	6.0
2025-01-01 18:38:57.088401	198.5	35.8	-90.2	7.7
2025-01-01 18:38:58.252330	198.8	36.0	-89.9	10.1
2025-01-01 18:38:59.416554	199.1	36.2	-90.1	9.9
2025-01-01 18:39:00.570091	199.3	36.4	-89.7	5.8
2025-01-01 18:39:01.729262	199.6	36.7	-90.0	5.1
2025-01-01 18:39:02.892325	199.9	36.9	-90.2	8.1
2025-01-01 18:39:04.057491	200.2	37.1	-89.9	9.8
2025-01-01 18:39:05.225242	200.5	37.3	-89.9	9.3
2025-01-01 18:39:06.381808	200.7	37.6	-90.0	10.3
2025-01-01 18:39:07.545096	201.0	37.8	-89.8	9.5
2025-01-01 18:39:08.710010	201.3	38.0	-90.0	6.8
2025-01-01 18:39:09.859327	201.6	38.2	-90.1	4.1
2025-01-01 18:39:11.014407	201.9	38.5	-90.2	4.0
2025-01-01 18:39:12.162899	202.2	38.7	-90.0	3.9
2025-01-01 18:39:13.293192	202.6	38.9	-90.1	3.1
2025-01-01 18:39:14.412490	202.9	39.1	-90.1	6.4
2025-01-01 18:39:15.532448	203.2	39.4	-89.8	7.2
2025-01-01 18:39:16.653302	203.5	39.6	-89.4	7.4
2025-01-01 18:39:17.773721	203.8	39.8	-89.6	12.5
2025-01-01 18:39:18.894294	204.1	40.0	-90.5	14.1
2025-01-01 18:39:20.019335	204.5	40.3	-90.0	16.0
2025-01-01 18:39:21.155445	204.8	40.5	-89.4	9.6
2025-01-01 18:39:22.313298	205.2	40.7	-90.0	7.9
2025-01-01 18:39:23.463709	205.5	40.9	-90.3	7.9
2025-01-01 18:39:24.625739	205.9	41.2	-89.8	6.3
2025-01-01 18:39:25.771499	206.2	41.4	-89.8	9.7
2025-01-01 18:39:26.927876	206.6	41.6	-90.3	15.0
2025-01-01 18:39:28.093868	207.0	41.9	-90.7	15.2
2025-01-01 18:39:29.257860	207.4	42.1	-90.4	15.8
2025-01-01 18:39:30.425183	207.7	42.4	-89.9	10.8
2025-01-01 18:39:31.588098	208.1	42.6	-89.8	9.1
2025-01-01 18:39:32.749645	208.5	42.8	-90.6	6.5
2025-01-01 18:39:33.907053	208.9	43.1	-90.0	3.8
2025-01-01 18:39:35.068324	209.4	43.3	-89.8	5.2
2025-01-01 18:39:36.236935	209.8	43.5	-89.8	2.1
2025-01-01 18:39:37.396311	210.2	43.8	-90.1	6.5
2025-01-01 18:39:38.558761	210.6	44.0	-89.7	6.8
2025-01-01 18:39:39.718588	211.1	44.2	-90.4	8.8
2025-01-01 18:39:40.880711	211.5	44.5	-90.2	9.2
2025-01-01 18:39:42.045558	211.9	44.7	-89.8	12.8
2025-01-01 18:39:43.210719	212.4	44.9	-89.9	9.3
2025-01-01 18:39:44.369695	212.9	45.2	-90.0	9.8
2025-01-01 18:39:45.537078	213.3	45.4	-90.1	10.9
2025-01-01 18:39:46.699979	213.8	45.6	-90.0	7.6
2025-01-01 18:39:47.866715	214.3	45.9	-89.7	4.9
2025-01-01 18:39:49.028600	214.8	46.1	-90.5	7.1
2025-01-01 18:39:50.187869	215.3	46.3	-90.1	5.1
2025-01-01 18:39:51.350458	215.8	46.5	-90.2	5.5
2025-01-01 18:39:52.516829	216.3	46.8	-90.2	6.7
2025-01-01 18:39:53.674966	216.8	47.0	-90.5	8.2
2025-01-01 18:39:54.823597	217.3	47.2	-90.4	9.7
2025-01-01 18:39:55.987294	217.9	47.4	-90.5	9.6
2025-01-01 18:39:57.148895	218.4	47.7	-90.3	7.8
2025-01-01 18:39:58.316066	218.9	47.9	-90.0	4.8
2025-01-01 18:39:59.480352	219.5	48.1	-90.1	4.6
2025-01-01 18:40:00.635761	220.1	48.3	-90.1	7.5
2025-01-01 18:40:01.794584	220.6	48.5	-90.4	2.9
2025-01-01 18:40:02.958075	221.2	48.7	-90.1	5.4
2025-01-01 18:40:04.119322	221.8	48.9	-89.9	6.6
2025-01-01 18:40:05.274903	222.4	49.1	-89.8	5.2
2025-01-01 18:40:06.439544	223.0	49.4	-90.1	7.7
2025-01-01 18:40:07.595330	223.6	49.6	-90.5	13.9
2025-01-01 18:40:08.755979	224.2	49.8	-90.1	10.5
2025-01-01 18:40:09.923003	224.8	50.0	-90.3	15.8
2025-01-01 18:40:11.080946	225.5	50.1	-89.8	15.5
2025-01-01 18:40:12.239687	226.1	50.3	-90.0	15.8
2025-01-01 18:40:13.406751	226.8	50.5	-90.3	16.0
2025-01-01 18:40:14.562402	227.4	50.7	-90.4	13.8
2025-01-01 18:40:15.729000	228.1	50.9	-90.6	8.9
2025-01-01 18:40:16.892022	228.7	51.1	-90.2	8.1
2025-01-01 18:40:18.056550	229.4	51.2	-90.1	10.5
2025-01-01 18:40:19.212886	230.1	51.4	-90.1	7.0
2025-01-01 18:40:20.371283	230.8	51.6	-90.1	7.0
2025-01-01 18:40:21.532884	231.5	51.7	-90.5	9.0
2025-01-01 18:40:22.701607	232.2	51.9	-90.3	5.5
2025-01-01 18:40:23.855837	232.9	52.1	-90.0	13.7
2025-01-01 18:40:25.008472	233.7	52.2	-89.7	10.3
2025-01-01 18:40:26.171886	234.4	52.4	-89.7	10.6
2025-01-01 18:40:27.334606	235.1	52.5	-89.9	8.4
2025-01-01 18:40:28.498799	235.9	52.6	-90.1	6.0
2025-01-01 18:40:29.662151	236.7	52.8	-90.3	11.7
2025-01-01 18:40:30.817616	237.4	52.9	-89.8	7.8
2025-01-01 18:40:31.962477	238.2	53.0	-90.1	8.1
2025-01-01 18:40:33.089332	238.9	53.1	-90.9	7.1
2025-01-01 18:40:34.211430	239.7	53.3	-90.3	4.4
2025-01-01 18:40:35.331885	240.4	53.4	-89.9	4.6
2025-01-01 18:40:36.451741	241.2	53.5	-90.4	4.1
2025-01-01 18:40:37.572449	242.0	53.6	-90.1	5.4
2025-01-01 18:40:38.692300	242.7	53.7	-90.3	3.3
2025-01-01 18:40:39.818754	243.5	53.7	-89.9	2.7
2025-01-01 18:40:40.961615	244.3	53.8	-90.5	5.7
2025-01-01 18:40:42.132545	245.1	53.9	-90.2	5.2
2025-01-01 18:40:43.282534	246.0	54.0	-89.8	2.8
2025-01-01 18:40:44.430388	246.8	54.0	-90.0	7.1
2025-01-01 18:40:45.555899	247.6	54.1	-90.1	4.2
2025-01-01 18:40:46.711852	248.4	54.2	-90.5	4.4
2025-01-01 18:40:47.859406	249.2	54.2	-90.4	6.5
2025-01-01 18:40:49.011506	250.1	54.3	-90.9	7.5
2025-01-01 18:40:50.169059	250.9	54.3	-90.6	6.2
2025-01-01 18:40:51.309199	251.7	54.3	-90.4	6.4
2025-01-01 18:40:52.437555	252.5	54.3	-90.5	5.6
2025-01-01 18:40:53.592398	253.4	54.4	-90.1	5.5
2025-01-01 18:40:54.736928	254.2	54.4	-89.8	10.2
2025-01-01 18:40:55.903978	255.1	54.4	-89.7	8.2
2025-01-01 18:40:57.060967	255.9	54.4	-89.9	11.0
2025-01-01 18:40:58.225593	256.8	54.4	-89.7	10.8
2025-01-01 18:40:59.384525	257.6	54.4	-89.9	15.1
2025-01-01 18:41:00.540642	258.4	54.4	-89.9	8.0
2025-01-01 18:41:01.701310	259.3	54.3	-90.5	11.6
2025-01-01 18:41:02.859753	260.1	54.3	-90.1	12.6
2025-01-01 18:41:04.012526	261.0	54.3	-89.9	14.8
2025-01-01 18:41:05.144861	261.8	54.2	-90.0	7.4
2025-01-01 18:41:06.299609	262.6	54.2	-89.8	12.3
2025-01-01 18:41:07.448204	263.4	54.1	-90.3	14.9
2025-01-01 18:41:08.604940	264.3	54.1	-90.6	7.5
2025-01-01 18:41:09.757992	265.1	54.0	-90.4	8.1
2025-01-01 18:41:10.919959	265.9	53.9	-90.1	12.3
2025-01-01 18:41:12.081974	266.7	53.9	-90.1	14.5
2025-01-01 18:41:13.246939	267.5	53.8	-90.2	3.6
2025-01-01 18:41:14.406510	268.3	53.7	-90.3	9.5
2025-01-01 18:41:15.557027	269.1	53.6	-90.8	7.6
2025-01-01 18:41:16.717744	269.9	53.5	-90.3	8.3
2025-01-01 18:41:17.856792	270.7	53.4	-90.5	5.7
2025-01-01 18:41:18.993373	271.5	53.3	-90.5	7.4
2025-01-01 18:41:20.152783	272.3	53.2	-89.9	10.9
2025-01-01 18:41:21.293865	273.0	53.1	-90.4	6.9
2025-01-01 18:41:22.454697	273.8	52.9	-90.2	9.4
2025-01-01 18:41:23.604606	274.6	52.8	-90.1	10.3
2025-01-01 18:41:24.757624	275.3	52.7	-90.3	7.1
2025-01-01 18:41:25.917331	276.1	52.5	-89.9	12.9
2025-01-01 18:41:27.073186	276.8	52.4	-90.5	6.5
2025-01-01 18:41:28.230615	277.5	52.3	-90.2	5.6
2025-01-01 18:41:29.379100	278.2	52.1	-89.9	8.9
2025-01-01 18:41:30.509783	278.9	52.0	-90.3	6.0
2025-01-01 18:41:31.665481	279.7	51.8	-90.3	5.8
2025-01-01 18:41:32.811279	280.4	51.6	-90.3	3.6
2025-01-01 18:41:33.967745	281.1	51.5	-90.0	6.5
2025-01-01 18:41:35.120257	281.7	51.3	-90.1	8.2
2025-01-01 18:41:36.267867	282.4	51.1	-90.4	4.2
2025-01-01 18:41:37.419303	283.1	51.0	-90.7	2.7
2025-01-01 18:41:38.569385	283.7	50.8	-89.9	8.6
2025-01-01 18:41:39.716167	284.4	50.6	-90.1	4.4
2025-01-01 18:41:40.849243	285.0	50.4	-90.3	5.3
2025-01-01 18:41:42.019982	285.7	50.2	-90.2	8.9
2025-01-01 18:41:43.164988	286.3	50.0	-90.2	4.9
2025-01-01 18:41:44.309595	286.9	49.8	-90.3	3.7
2025-01-01 18:41:45.457940	287.5	49.7	-90.4	6.5
2025-01-01 18:41:46.616609	288.1	49.5	-90.2	7.4
2025-01-01 18:41:47.771482	288.7	49.2	-90.2	4.8
2025-01-01 18:41:48.938232	289.3	49.0	-89.4	10.1
2025-01-01 18:41:50.093604	289.9	48.8	-90.0	3.5
2025-01-01 18:41:51.255248	290.5	48.6	-90.1	1.1
2025-01-01 18:41:52.412208	291.1	48.4	-89.8	6.3
2025-01-01 18:41:53.577068	291.6	48.2	-90.0	5.2
2025-01-01 18:41:54.713171	292.2	48.0	-89.6	2.4
2025-01-01 18:41:55.854531	292.7	47.8	-89.5	2.5
2025-01-01 18:41:57.011413	293.3	47.6	-90.1	9.0
2025-01-01 18:41:58.159159	293.8	47.3	-90.2	2.5
2025-01-01 18:41:59.311991	294.3	47.1	-89.8	10.4
2025-01-01 18:42:00.456410	294.8	46.9	-90.3	6.2
2025-01-01 18:42:01.615972	295.4	46.7	-90.0	5.5
2025-01-01 18:42:02.770057	295.9	46.5	-89.4	9.3
2025-01-01 18:42:03.922352	296.3	46.2	-89.8	10.2
2025-01-01 18:42:05.071450	296.8	46.0	-89.1	10.6
2025-01-01 18:42:06.217977	297.3	45.8	-89.7	5.9
2025-01-01 18:42:07.349088	297.8	45.6	-90.0	13.6
2025-01-01 18:42:08.515941	298.3	45.3	-90.4	8.2
2025-01-01 18:42:09.655941	298.7	45.1	-90.3	14.6
2025-01-01 18:42:10.811071	299.2	44.9	-89.9	5.0
2025-01-01 18:42:11.961486	299.6	44.6	-90.3	14.0
2025-01-01 18:42:13.108409	300.1	44.4	-89.8	12.4
2025-01-01 18:42:14.268463	300.5	44.2	-89.8	11.8
2025-01-01 18:42:15.432523	300.9	43.9	-90.1	12.7
2025-01-01 18:42:16.591362	301.3	43.7	-90.2	10.0
2025-01-01 18:42:17.758390	301.8	43.5	-90.4	15.4
2025-01-01 18:42:18.922355	302.2	43.2	-90.4	6.7
2025-01-01 18:42:20.084766	302.6	43.0	-89.7	11.9
2025-01-01 18:42:21.252179	303.0	42.8	-90.3	7.4
2025-01-01 18:42:22.413093	303.4	42.5	-89.1	4.7
2025-01-01 18:42:23.575019	303.8	42.3	-90.0	6.0
2025-01-01 18:42:24.732195	304.2	42.1	-90.3	7.1
2025-01-01 18:42:25.891422	304.5	41.8	-90.0	3.9
2025-01-01 18:42:27.046631	304.9	41.6	-89.9	5.7
2025-01-01 18:42:28.213526	305.3	41.4	-89.9	5.1
2025-01-01 18:42:29.373638	305.7	41.1	-89.9	3.1
2025-01-01 18:42:30.537175	306.0	40.9	-90.2	6.7
2025-01-01 18:42:31.697204	306.4	40.7	-90.4	4.8
2025-01-01 18:42:32.860255	306.7	40.4	-90.2	7.9
2025-01-01 18:42:34.015302	307.1	40.2	-90.3	6.3
2025-01-01 18:42:35.177720	307.4	40.0	-89.7	8.8
2025-01-01 18:42:36.342293	307.7	39.7	-89.7	5.4
2025-01-01 18:42:37.501367	308.1	39.5	-90.2	8.6
2025-01-01 18:42:38.662849	308.4	39.3	-90.2	13.0
2025-01-01 18:42:39.829885	308.7	39.0	-89.4	7.4
2025-01-01 18:42:40.994360	309.0	38.8	-90.7	14.6
2025-01-01 18:42:42.157815	309.3	38.6	-90.3	4.5
2025-01-01 18:42:43.323231	309.6	38.3	-90.2	9.0
2025-01-01 18:42:44.481345	310.0	38.1	-90.1	14.9
2025-01-01 18:42:45.643834	310.2	37.9	-90.1	11.3
2025-01-01 18:42:46.808009	310.5	37.7	-90.6	8.5
2025-01-01 18:42:47.967019	310.8	37.4	-91.2	6.3
2025-01-01 18:42:49.131831	311.1	37.2	-90.4	8.4
2025-01-01 18:42:50.271975	311.4	37.0	-90.4	3.5
2025-01-01 18:42:51.392799	311.7	36.8	-90.5	3.6
2025-01-01 18:42:52.513141	311.9	36.6	-90.6	4.6
2025-01-01 18:42:53.635259	312.2	36.3	-90.3	7.4
2025-01-01 18:42:54.755571	312.5	36.1	-90.2	3.6
2025-01-01 18:42:55.876280	312.7	35.9	-90.6	3.4
2025-01-01 18:42:57.001258	313.0	35.7	-90.4	5.2
2025-01-01 18:42:58.125804	313.2	35.5	-89.9	6.6
2025-01-01 18:42:59.277363	313.5	35.3	-90.6	3.3
2025-01-01 18:43:00.427757	313.7	35.1	-90.2	5.6
2025-01-01 18:43:01.572374	314.0	34.9	-90.2	9.9
2025-01-01 18:43:02.720179	314.2	34.6	-90.2	4.5
2025-01-01 18:43:03.872074	314.5	34.4	-90.6	3.6
2025-01-01 18:43:05.037471	314.7	34.2	-90.0	11.4
2025-01-01 18:43:06.193775	314.9	34.0	-89.7	9.0
2025-01-01 18:43:07.357410	315.2	33.8	-89.8	11.7
2025-01-01 18:43:08.517754	315.4	33.6	-90.5	10.9
2025-01-01 18:43:09.688852	315.6	33.4	-90.0	8.3
2025-01-01 18:43:10.848464	315.9	33.2	-89.9	5.7
2025-01-01 18:43:12.013313	316.1	33.0	-90.2	8.2
2025-01-01 18:43:13.176111	316.3	32.7	-89.8	7.2
2025-01-01 18:43:14.346832	316.5	32.5	-89.9	6.2
2025-01-01 18:43:15.505208	316.7	32.3	-90.3	6.2
2025-01-01 18:43:16.670740	316.9	32.1	-90.0	6.1
2025-01-01 18:43:17.834262	317.2	31.9	-90.1	6.2
2025-01-01 18:43:18.998744	317.4	31.7	-90.4	6.3
2025-01-01 18:43:20.168386	317.6	31.5	-90.1	3.6
2025-01-01 18:43:21.320476	317.8	31.3	-90.3	9.2
2025-01-01 18:43:22.479629	318.0	31.1	-90.3	7.8
2025-01-01 18:43:23.647632	318.2	30.9	-90.1	9.4
2025-01-01 18:43:24.808316	318.4	30.7	-90.7	9.7
2025-01-01 18:43:25.972648	318.5	30.5	-90.4	17.1
2025-01-01 18:43:27.132881	318.7	30.3	-90.4	9.7
2025-01-01 18:43:28.291620	318.9	30.1	-90.6	5.6
2025-01-01 18:43:29.450740	319.1	29.9	-90.7	8.8
2025-01-01 18:43:30.617257	319.3	29.8	-90.7	4.3
2025-01-01 18:43:31.782031	319.5	29.6	-90.3	2.6
2025-01-01 18:43:32.945367	319.7	29.4	-89.7	3.7
2025-01-01 18:43:34.103569	319.8	29.2	-90.6	4.9
2025-01-01 18:43:35.266744	320.0	29.0	-90.9	3.9
2025-01-01 18:43:36.424615	320.2	28.8	-90.4	3.5
2025-01-01 18:43:37.585274	320.4	28.6	-90.7	4.6
2025-01-01 18:43:38.750831	320.5	28.4	-90.4	4.6
2025-01-01 18:43:39.910356	320.7	28.3	-90.5	7.6
2025-01-01 18:43:41.073034	320.9	28.1	-90.4	6.7
2025-01-01 18:43:42.232126	321.0	27.9	-90.1	13.3
2025-01-01 18:43:43.390988	321.2	27.7	-90.0	9.0
2025-01-01 18:43:44.549798	321.3	27.5	-90.1	13.4
2025-01-01 18:43:45.711218	321.5	27.3	-90.4	6.0
2025-01-01 18:43:46.873197	321.7	27.2	-90.5	8.2
2025-01-01 18:43:48.038098	321.8	27.0	-90.6	5.6
2025-01-01 18:43:49.199362	322.0	26.8	-90.1	8.3
2025-01-01 18:43:50.365393	322.1	26.6	-90.3	3.6
2025-01-01 18:43:51.525327	322.3	26.5	-89.4	5.5
2025-01-01 18:43:52.685586	322.4	26.3	-89.6	5.1
2025-01-01 18:43:53.852533	322.6	26.1	-89.7	4.5
2025-01-01 18:43:55.015877	322.7	25.9	-90.4	7.6
2025-01-01 18:43:56.177888	322.9	25.8	-90.2	6.2
2025-01-01 18:43:57.335465	323.0	25.6	-89.6	8.6
2025-01-01 18:43:58.500542	323.1	25.4	-90.5	4.4
2025-01-01 18:43:59.662102	323.3	25.3	-90.4	3.2
2025-01-01 18:44:00.821901	323.4	25.1	-90.4	9.6
2025-01-01 18:44:01.982113	323.6	24.9	-90.4	9.7
2025-01-01 18:44:03.151313	323.7	24.8	-90.4	9.3
2025-01-01 18:44:04.318398	323.8	24.6	-90.3	5.3
2025-01-01 18:44:05.482359	324.0	24.4	-90.7	6.2
2025-01-01 18:44:06.644103	324.1	24.3	-90.5	5.0
2025-01-01 18:44:07.806795	324.2	24.1	-90.7	3.2
2025-01-01 18:44:08.976302	324.4	23.9	-90.8	7.1
2025-01-01 18:44:10.139154	324.5	23.8	-90.3	5.5
2025-01-01 18:44:11.302371	324.6	23.6	-90.2	4.4
2025-01-01 18:44:12.469982	324.7	23.5	-90.7	7.9
2025-01-01 18:44:13.631865	324.9	23.3	-89.9	9.0
2025-01-01 18:44:14.796237	325.0	23.2	-89.8	11.0
2025-01-01 18:44:15.951848	325.1	23.0	-90.4	11.2
2025-01-01 18:44:17.119457	325.2	22.8	-90.2	4.5
2025-01-01 18:44:18.278022	325.3	22.7	-90.1	5.4
2025-01-01 18:44:19.435862	325.5	22.5	-89.6	4.8
2025-01-01 18:44:20.582170	325.6	22.4	-90.0	5.7
2025-01-01 18:44:21.703198	325.7	22.2	-90.7	5.7
2025-01-01 18:44:22.823557	325.8	22.1	-90.3	3.2
2025-01-01 18:44:23.943940	325.9	21.9	-90.4	4.1
2025-01-01 18:44:25.064012	326.0	21.8	-90.6	3.6
2025-01-01 18:44:26.184662	326.1	21.7	-90.7	5.2
2025-01-01 18:44:27.305408	326.2	21.5	-90.7	5.3
2025-01-01 18:44:28.429175	326.3	21.4	-90.7	10.5
2025-01-01 18:44:29.581369	326.5	21.2	-90.7	9.1
2025-01-01 18:44:30.729948	326.6	21.1	-90.2	4.4
2025-01-01 18:44:31.854155	326.7	20.9	-90.2	5.2
2025-01-01 18:44:33.015563	326.8	20.8	-90.0	5.2
2025-01-01 18:44:34.161980	326.9	20.6	-90.2	4.3
2025-01-01 18:44:35.315126	327.0	20.5	-89.9	3.4
2025-01-01 18:44:36.458666	327.1	20.4	-90.7	1.7
2025-01-01 18:44:37.618893	327.2	20.2	-90.7	3.0
2025-01-01 18:44:38.777663	327.3	20.1	-90.5	2.6
2025-01-01 18:44:39.940143	327.4	19.9	-90.2	3.4
2025-01-01 18:44:41.099884	327.5	19.8	-90.1	1.6
2025-01-01 18:44:42.267244	327.6	19.7	-90.4	2.9
2025-01-01 18:44:43.428486	327.7	19.5	-90.5	3.8
2025-01-01 18:44:44.594185	327.8	19.4	-90.9	3.7
2025-01-01 18:44:45.750336	327.9	19.2	-90.4	3.6
2025-01-01 18:44:46.914191	328.0	19.1	-90.0	1.4
2025-01-01 18:44:48.080630	328.1	19.0	-90.0	7.1
2025-01-01 18:44:49.243286	328.2	18.8	-90.1	3.3
2025-01-01 18:44:50.404551	328.3	18.7	-90.2	3.4
2025-01-01 18:44:51.558845	328.4	18.6	-90.5	4.2
2025-01-01 18:44:52.724259	328.4	18.4	-90.3	4.1
2025-01-01 18:44:53.884533	328.5	18.3	-90.6	3.4
2025-01-01 18:44:55.047483	328.6	18.2	-90.3	4.0
2025-01-01 18:44:56.205156	328.7	18.0	-90.0	3.2
2025-01-01 18:44:57.372457	328.8	17.9	-89.4	2.5
2025-01-01 18:44:58.532403	328.9	17.8	-89.5	2.4
2025-01-01 18:44:59.699382	329.0	17.7	-89.7	1.6
2025-01-01 18:45:00.852150	329.1	17.5	-89.8	1.4
2025-01-01 18:45:02.008509	329.2	17.4	-90.2	2.6
2025-01-01 18:45:03.168906	329.2	17.3	-90.0	2.2
2025-01-01 18:45:04.333143	329.3	17.1	-90.0	2.9
2025-01-01 18:45:05.493766	329.4	17.0	-90.0	4.5
2025-01-01 18:45:06.671296	329.5	16.9	-90.2	4.5
2025-01-01 18:45:07.834492	329.6	16.8	-90.1	2.9
2025-01-01 18:45:08.996473	329.7	16.6	-89.9	2.9
2025-01-01 18:45:10.145621	329.7	16.5	-89.7	2.2
2025-01-01 18:45:11.293480	329.8	16.4	-90.1	4.3
2025-01-01 18:45:12.456538	329.9	16.3	-90.3	3.9
2025-01-01 18:45:13.614127	330.0	16.1	-90.0	4.4
2025-01-01 18:45:14.779115	330.1	16.0	-90.6	3.9
2025-01-01 18:45:15.934033	330.1	15.9	-90.1	3.0
2025-01-01 18:45:17.098391	330.2	15.8	-90.4	2.5
2025-01-01 18:45:18.262205	330.3	15.7	-90.3	0.8
2025-01-01 18:45:19.428666	330.4	15.5	-88.5	2.4
2025-01-01 18:45:20.590219	330.5	15.4	-90.7	4.2
2025-01-01 18:45:21.751485	330.5	15.3	-90.5	2.3
2025-01-01 18:45:22.907059	330.6	15.2	-91.0	2.3
2025-01-01 18:45:24.069098	330.7	15.1	-90.8	3.2
2025-01-01 18:45:25.211349	330.8	15.0	-90.8	2.4
2025-01-01 18:45:26.374950	330.8	14.8	-90.4	2.8
2025-01-01 18:45:27.531533	330.9	14.7	-89.8	4.2
2025-01-01 18:45:28.696135	331.0	14.6	-89.8	3.6
2025-01-01 18:45:29.860193	331.0	14.5	-89.6	3.4
#Closed at: 2025-01-01 18:36:34.639673