passes_logs/2025/01/01/LEX_Murmansk/LEX_Murmansk__20250101_083615_NOAA_19_rec.log

#Pass ID: 20250101_083615_NOAA 19
#Satellite: NOAA 19
#Configuration: NOAA 19
#Start time: 2025-01-01 08:36:10.762953

#LorettStation: 1.0.0 05.05.2024
#Station: LEX_Murmansk
#Location: 33.156738 lon 68.926811 lat
#TLE: 1 33591U 09005A   24366.84452498  .00000596  00000+0  34214-3 0  9996
#TLE: 2 33591  99.0219  64.4961 0014693  95.1476 265.1373 14.13246120819287

#Time	Az	El	Level	SNR
2025-01-01 08:36:22.964195	27.1	16.3	-91.9	3.4
2025-01-01 08:36:24.086518	27.1	16.4	-92.5	4.2
2025-01-01 08:36:25.207903	27.2	16.6	-92.3	1.8
2025-01-01 08:36:26.327421	27.2	16.7	-92.2	1.1
2025-01-01 08:36:27.448135	27.2	16.8	-92.7	4.5
2025-01-01 08:36:28.574259	27.2	16.9	-92.4	2.0
2025-01-01 08:36:29.695753	27.3	17.1	-91.7	3.6
2025-01-01 08:36:30.819220	27.3	17.2	-91.3	1.8
2025-01-01 08:36:31.970476	27.3	17.3	-91.6	3.1
2025-01-01 08:36:33.115793	27.4	17.5	-91.3	5.3
2025-01-01 08:36:34.255892	27.4	17.6	-92.1	5.6
2025-01-01 08:36:35.400649	27.4	17.7	-92.3	5.7
2025-01-01 08:36:36.540895	27.5	17.9	-92.2	9.0
2025-01-01 08:36:37.689143	27.5	18.0	-92.4	6.0
2025-01-01 08:36:38.833352	27.5	18.1	-92.2	5.2
2025-01-01 08:36:39.981866	27.6	18.3	-92.4	1.8
2025-01-01 08:36:41.136458	27.6	18.4	-92.3	3.4
2025-01-01 08:36:42.280404	27.6	18.6	-92.1	3.3
2025-01-01 08:36:43.425899	27.7	18.7	-92.5	5.5
2025-01-01 08:36:44.573230	27.7	18.8	-92.9	2.1
2025-01-01 08:36:45.717365	27.7	19.0	-92.4	3.4
2025-01-01 08:36:46.859988	27.8	19.1	-92.3	2.8
2025-01-01 08:36:48.002557	27.8	19.3	-92.3	3.3
2025-01-01 08:36:49.157203	27.8	19.4	-92.3	7.8
2025-01-01 08:36:50.306577	27.9	19.5	-92.3	10.7
2025-01-01 08:36:51.457738	27.9	19.7	-92.7	6.7
2025-01-01 08:36:52.612715	27.9	19.8	-92.7	6.5
2025-01-01 08:36:53.757255	28.0	20.0	-92.7	2.9
2025-01-01 08:36:54.902601	28.0	20.1	-92.7	8.3
2025-01-01 08:36:56.049283	28.0	20.3	-92.8	10.7
2025-01-01 08:36:57.195038	28.1	20.4	-92.6	10.0
2025-01-01 08:36:58.343913	28.1	20.6	-92.0	12.7
2025-01-01 08:36:59.486719	28.1	20.7	-92.8	7.6
2025-01-01 08:37:00.624309	28.2	20.9	-92.9	3.0
2025-01-01 08:37:01.773164	28.2	21.0	-92.8	1.6
2025-01-01 08:37:02.914269	28.3	21.2	-92.8	3.6
2025-01-01 08:37:04.062649	28.3	21.3	-92.4	4.5
2025-01-01 08:37:05.206658	28.3	21.5	-92.2	8.6
2025-01-01 08:37:06.351791	28.4	21.6	-92.7	14.0
2025-01-01 08:37:07.500693	28.4	21.8	-92.8	12.5
2025-01-01 08:37:08.646719	28.5	22.0	-92.8	8.1
2025-01-01 08:37:09.794700	28.5	22.1	-93.0	7.3
2025-01-01 08:37:10.945727	28.5	22.3	-93.0	10.0
2025-01-01 08:37:12.087183	28.6	22.4	-92.7	15.4
2025-01-01 08:37:13.237045	28.6	22.6	-92.9	10.8
2025-01-01 08:37:14.380455	28.7	22.8	-93.1	10.6
2025-01-01 08:37:15.532429	28.7	22.9	-92.7	8.8
2025-01-01 08:37:16.670563	28.7	23.1	-92.5	4.4
2025-01-01 08:37:17.818520	28.8	23.3	-92.8	3.3
2025-01-01 08:37:18.964926	28.8	23.4	-92.8	2.7
2025-01-01 08:37:20.111550	28.9	23.6	-92.5	7.1
2025-01-01 08:37:21.257569	28.9	23.8	-92.6	11.4
2025-01-01 08:37:22.399319	29.0	23.9	-92.7	11.6
2025-01-01 08:37:23.545278	29.0	24.1	-92.8	7.7
2025-01-01 08:37:24.693348	29.0	24.3	-92.8	6.6
2025-01-01 08:37:25.840562	29.1	24.5	-92.8	6.8
2025-01-01 08:37:26.985501	29.1	24.6	-92.9	6.7
2025-01-01 08:37:28.137570	29.2	24.8	-92.3	7.8
2025-01-01 08:37:29.282437	29.2	25.0	-92.6	10.8
2025-01-01 08:37:30.431979	29.3	25.2	-93.0	5.8
2025-01-01 08:37:31.578654	29.3	25.4	-92.7	10.1
2025-01-01 08:37:32.724781	29.4	25.5	-92.7	1.8
2025-01-01 08:37:33.871271	29.4	25.7	-91.5	2.5
2025-01-01 08:37:35.018358	29.5	25.9	-91.5	3.4
2025-01-01 08:37:36.167770	29.5	26.1	-91.3	2.9
2025-01-01 08:37:37.311486	29.6	26.3	-91.9	5.5
2025-01-01 08:37:38.457390	29.6	26.5	-91.6	9.9
2025-01-01 08:37:39.613173	29.7	26.6	-92.5	11.4
2025-01-01 08:37:40.760754	29.7	26.8	-92.7	8.4
2025-01-01 08:37:41.909779	29.8	27.0	-92.6	5.2
2025-01-01 08:37:43.055477	29.8	27.2	-92.6	5.8
2025-01-01 08:37:44.205911	29.9	27.4	-92.3	7.2
2025-01-01 08:37:45.354682	29.9	27.6	-92.6	11.6
2025-01-01 08:37:46.498825	30.0	27.8	-92.9	9.1
2025-01-01 08:37:47.648262	30.1	28.0	-92.5	7.5
2025-01-01 08:37:48.795884	30.1	28.2	-92.4	4.2
2025-01-01 08:37:49.942247	30.2	28.4	-92.8	2.6
2025-01-01 08:37:51.087820	30.2	28.6	-92.2	3.3
2025-01-01 08:37:52.236049	30.3	28.8	-92.6	1.9
2025-01-01 08:37:53.380544	30.3	29.0	-92.6	4.0
2025-01-01 08:37:54.523134	30.4	29.2	-92.6	6.2
2025-01-01 08:37:55.671875	30.5	29.4	-92.8	2.9
2025-01-01 08:37:56.811822	30.5	29.6	-92.7	7.0
2025-01-01 08:37:57.959805	30.6	29.9	-92.3	7.1
2025-01-01 08:37:59.107768	30.6	30.1	-92.5	4.8
2025-01-01 08:38:00.247686	30.7	30.3	-92.6	4.8
2025-01-01 08:38:01.396235	30.8	30.5	-93.0	9.4
2025-01-01 08:38:02.539784	30.8	30.7	-92.9	14.2
2025-01-01 08:38:03.689697	30.9	30.9	-92.5	8.5
2025-01-01 08:38:04.837703	31.0	31.2	-92.5	6.5
2025-01-01 08:38:05.989114	31.0	31.4	-92.7	4.2
2025-01-01 08:38:07.138875	31.1	31.6	-92.7	2.5
2025-01-01 08:38:08.290610	31.2	31.8	-92.3	1.6
2025-01-01 08:38:09.452907	31.2	32.1	-93.0	5.6
2025-01-01 08:38:10.602605	31.3	32.3	-92.7	7.8
2025-01-01 08:38:11.750610	31.4	32.5	-93.0	9.6
2025-01-01 08:38:12.903752	31.5	32.8	-92.3	14.9
2025-01-01 08:38:14.051649	31.5	33.0	-92.7	15.3
2025-01-01 08:38:15.200751	31.6	33.2	-92.4	8.8
2025-01-01 08:38:16.347199	31.7	33.5	-92.3	7.5
2025-01-01 08:38:17.496667	31.8	33.7	-92.6	11.0
2025-01-01 08:38:18.641195	31.8	33.9	-92.5	10.4
2025-01-01 08:38:19.787667	31.9	34.2	-92.4	15.8
2025-01-01 08:38:20.934238	32.0	34.4	-92.5	15.6
2025-01-01 08:38:22.080063	32.1	34.7	-92.6	14.9
2025-01-01 08:38:23.228437	32.2	34.9	-92.2	5.4
2025-01-01 08:38:24.378613	32.3	35.2	-92.7	7.5
2025-01-01 08:38:25.518476	32.3	35.4	-93.2	5.0
2025-01-01 08:38:26.667834	32.4	35.7	-92.4	1.0
2025-01-01 08:38:27.813883	32.5	35.9	-92.8	5.5
2025-01-01 08:38:28.955404	32.6	36.2	-92.5	10.4
2025-01-01 08:38:30.109874	32.7	36.5	-92.1	7.6
2025-01-01 08:38:31.252863	32.8	36.7	-92.6	14.7
2025-01-01 08:38:32.404669	32.9	37.0	-92.6	15.7
2025-01-01 08:38:33.548195	33.0	37.3	-92.7	7.5
2025-01-01 08:38:34.697124	33.1	37.5	-93.0	7.3
2025-01-01 08:38:35.847065	33.2	37.8	-93.0	6.4
2025-01-01 08:38:36.993410	33.3	38.1	-92.5	7.3
2025-01-01 08:38:38.145382	33.4	38.4	-91.2	13.6
2025-01-01 08:38:39.289676	33.5	38.6	-91.7	12.4
2025-01-01 08:38:40.437324	33.6	38.9	-91.0	10.4
2025-01-01 08:38:41.585340	33.7	39.2	-91.5	8.0
2025-01-01 08:38:42.735014	33.8	39.5	-92.8	4.5
2025-01-01 08:38:43.883987	33.9	39.8	-92.6	3.7
2025-01-01 08:38:45.033065	34.0	40.1	-92.6	5.0
2025-01-01 08:38:46.189160	34.1	40.4	-92.5	4.9
2025-01-01 08:38:47.335635	34.2	40.6	-92.7	9.3
2025-01-01 08:38:48.480023	34.3	40.9	-92.7	17.7
2025-01-01 08:38:49.626706	34.5	41.2	-92.2	17.9
2025-01-01 08:38:50.772747	34.6	41.5	-92.6	14.7
2025-01-01 08:38:51.925586	34.7	41.8	-93.0	15.9
2025-01-01 08:38:53.073990	34.8	42.1	-92.7	15.2
2025-01-01 08:38:54.224768	35.0	42.5	-92.6	6.6
2025-01-01 08:38:55.368821	35.1	42.8	-93.2	7.1
2025-01-01 08:38:56.516483	35.2	43.1	-93.0	17.6
2025-01-01 08:38:57.663346	35.4	43.4	-92.5	13.7
2025-01-01 08:38:58.812810	35.5	43.7	-92.8	14.3
2025-01-01 08:38:59.961063	35.6	44.0	-92.7	12.6
2025-01-01 08:39:01.101204	35.8	44.4	-92.7	9.8
2025-01-01 08:39:02.251278	35.9	44.7	-92.7	4.7
2025-01-01 08:39:03.404317	36.1	45.0	-93.1	3.1
2025-01-01 08:39:04.553183	36.2	45.3	-93.0	7.3
2025-01-01 08:39:05.700977	36.4	45.7	-92.9	4.2
2025-01-01 08:39:06.848079	36.5	46.0	-92.8	10.8
2025-01-01 08:39:07.999478	36.7	46.3	-92.8	11.5
2025-01-01 08:39:09.147567	36.9	46.7	-92.4	16.0
2025-01-01 08:39:10.291739	37.0	47.0	-92.5	16.1
2025-01-01 08:39:11.441814	37.2	47.4	-92.4	13.2
2025-01-01 08:39:12.589924	37.4	47.7	-92.9	3.4
2025-01-01 08:39:13.736546	37.6	48.1	-92.5	4.5
2025-01-01 08:39:14.882263	37.8	48.4	-92.7	8.1
2025-01-01 08:39:16.028646	37.9	48.8	-91.9	12.5
2025-01-01 08:39:17.174359	38.1	49.1	-91.4	9.7
2025-01-01 08:39:18.319947	38.3	49.5	-92.3	8.9
2025-01-01 08:39:19.463173	38.5	49.9	-91.9	7.4
2025-01-01 08:39:20.615141	38.7	50.2	-92.8	11.2
2025-01-01 08:39:21.763373	39.0	50.6	-92.9	6.8
2025-01-01 08:39:22.912577	39.2	51.0	-92.9	6.7
2025-01-01 08:39:24.059791	39.4	51.3	-92.7	3.9
2025-01-01 08:39:25.207305	39.6	51.7	-92.5	1.6
2025-01-01 08:39:26.358959	39.9	52.1	-92.7	5.1
2025-01-01 08:39:27.505940	40.1	52.5	-92.3	4.0
2025-01-01 08:39:28.658302	40.3	52.9	-92.3	9.1
2025-01-01 08:39:29.806918	40.6	53.3	-92.8	7.4
2025-01-01 08:39:30.959263	40.8	53.6	-92.7	12.5
2025-01-01 08:39:32.107029	41.1	54.0	-92.6	12.0
2025-01-01 08:39:33.255145	41.4	54.4	-92.2	11.3
2025-01-01 08:39:34.401018	41.7	54.8	-92.8	11.0
2025-01-01 08:39:35.548949	42.0	55.2	-93.2	9.6
2025-01-01 08:39:36.696361	42.2	55.6	-92.3	6.4
2025-01-01 08:39:37.841929	42.6	56.0	-92.4	4.2
2025-01-01 08:39:38.986973	42.9	56.4	-92.6	10.8
2025-01-01 08:39:40.134821	43.2	56.8	-92.2	14.1
2025-01-01 08:39:41.286187	43.5	57.2	-92.2	17.3
2025-01-01 08:39:42.435189	43.9	57.7	-91.7	13.3
2025-01-01 08:39:43.582959	44.2	58.1	-92.0	12.3
2025-01-01 08:39:44.733842	44.6	58.5	-91.7	11.1
2025-01-01 08:39:45.884313	45.0	58.9	-91.7	7.6
2025-01-01 08:39:47.032327	45.3	59.3	-92.6	6.8
2025-01-01 08:39:48.178918	45.7	59.7	-92.5	1.5
2025-01-01 08:39:49.322657	46.1	60.2	-92.1	1.0
2025-01-01 08:39:50.467323	46.6	60.6	-92.3	5.4
2025-01-01 08:39:51.616374	47.0	61.0	-92.6	7.2
2025-01-01 08:39:52.758908	47.5	61.4	-92.6	7.7
2025-01-01 08:39:53.913090	47.9	61.9	-92.7	11.5
2025-01-01 08:39:55.059250	48.4	62.3	-92.6	15.8
2025-01-01 08:39:56.206324	48.9	62.7	-92.0	15.9
2025-01-01 08:39:57.352698	49.4	63.1	-92.4	18.8
2025-01-01 08:39:58.498833	50.0	63.6	-92.7	16.6
2025-01-01 08:39:59.646519	50.5	64.0	-92.3	17.1
2025-01-01 08:40:00.778517	51.1	64.4	-92.8	11.4
2025-01-01 08:40:01.925205	51.7	64.9	-92.3	8.4
2025-01-01 08:40:03.069514	52.3	65.3	-92.0	10.6
2025-01-01 08:40:04.217662	53.0	65.7	-92.3	6.8
2025-01-01 08:40:05.367758	53.7	66.2	-92.3	8.6
2025-01-01 08:40:06.516080	54.4	66.6	-92.6	12.4
2025-01-01 08:40:07.667862	55.1	67.0	-92.8	13.0
2025-01-01 08:40:08.814271	55.9	67.4	-92.4	14.0
2025-01-01 08:40:09.962769	56.7	67.9	-92.6	13.5
2025-01-01 08:40:11.111820	57.5	68.3	-92.7	16.9
2025-01-01 08:40:12.259501	58.4	68.7	-92.6	18.0
2025-01-01 08:40:13.412050	59.3	69.1	-92.8	17.4
2025-01-01 08:40:14.559560	60.2	69.5	-92.3	11.3
2025-01-01 08:40:15.706650	61.2	70.0	-92.7	10.7
2025-01-01 08:40:16.855302	62.2	70.4	-92.9	8.3
2025-01-01 08:40:17.997075	63.3	70.8	-92.7	7.4
2025-01-01 08:40:19.146941	64.4	71.2	-92.7	4.6
2025-01-01 08:40:20.292197	65.6	71.6	-92.7	1.1
2025-01-01 08:40:21.440259	66.8	71.9	-92.6	4.3
2025-01-01 08:40:22.591444	68.1	72.3	-93.0	1.7
2025-01-01 08:40:23.735115	69.4	72.7	-93.2	2.5
2025-01-01 08:40:24.883914	70.8	73.1	-92.8	5.6
2025-01-01 08:40:26.031494	72.3	73.4	-92.9	6.4
2025-01-01 08:40:27.175436	73.8	73.8	-92.8	5.8
2025-01-01 08:40:28.324821	75.4	74.1	-92.1	12.7
2025-01-01 08:40:29.468522	77.1	74.4	-92.6	12.5
2025-01-01 08:40:30.620024	78.9	74.7	-93.0	15.6
2025-01-01 08:40:31.765674	80.7	75.0	-92.7	14.8
2025-01-01 08:40:32.916174	82.6	75.3	-93.0	19.9
2025-01-01 08:40:34.061754	84.5	75.6	-92.7	17.3
2025-01-01 08:40:35.206578	86.6	75.8	-92.5	14.2
2025-01-01 08:40:36.358989	88.7	76.1	-92.6	10.4
2025-01-01 08:40:37.504041	90.9	76.3	-92.5	18.9
2025-01-01 08:40:38.650190	93.1	76.5	-92.9	12.5
2025-01-01 08:40:39.794624	95.4	76.7	-92.7	9.8
2025-01-01 08:40:40.943437	97.8	76.8	-92.8	15.5
2025-01-01 08:40:42.085471	100.2	76.9	-92.7	14.4
2025-01-01 08:40:43.240911	102.7	77.1	-92.2	9.6
2025-01-01 08:40:44.390301	105.3	77.1	-92.6	10.7
2025-01-01 08:40:45.535009	107.8	77.2	-92.9	11.2
2025-01-01 08:40:46.682242	110.4	77.2	-92.0	6.9
2025-01-01 08:40:47.826525	112.9	77.2	-91.9	9.0
2025-01-01 08:40:48.967935	115.5	77.2	-92.1	11.3
2025-01-01 08:40:50.114920	118.1	77.2	-91.6	8.2
2025-01-01 08:40:51.261377	120.6	77.1	-92.4	8.6
2025-01-01 08:40:52.406975	123.1	77.0	-93.2	11.7
2025-01-01 08:40:53.556844	125.6	76.9	-92.6	5.6
2025-01-01 08:40:54.703696	128.0	76.8	-92.9	6.6
2025-01-01 08:40:55.849749	130.4	76.6	-93.1	12.7
2025-01-01 08:40:56.993616	132.7	76.5	-93.0	10.7
2025-01-01 08:40:58.139621	135.0	76.3	-92.7	13.7
2025-01-01 08:40:59.289880	137.1	76.0	-92.9	11.0
2025-01-01 08:41:00.427507	139.2	75.8	-92.5	13.7
2025-01-01 08:41:01.575532	141.3	75.6	-92.9	16.9
2025-01-01 08:41:02.719685	143.2	75.3	-92.7	9.6
2025-01-01 08:41:03.870277	145.1	75.0	-92.9	12.7
2025-01-01 08:41:05.018455	146.9	74.7	-93.0	11.6
2025-01-01 08:41:06.168723	148.7	74.4	-92.6	13.6
2025-01-01 08:41:07.315408	150.3	74.1	-92.6	15.5
2025-01-01 08:41:08.461847	151.9	73.7	-92.4	16.1
2025-01-01 08:41:09.605124	153.4	73.4	-92.8	16.2
2025-01-01 08:41:10.754837	154.9	73.0	-93.0	15.1
2025-01-01 08:41:11.903413	156.3	72.7	-92.5	14.9
2025-01-01 08:41:13.052332	157.6	72.3	-92.4	17.7
2025-01-01 08:41:14.203694	158.9	71.9	-92.5	18.2
2025-01-01 08:41:15.351368	160.1	71.5	-92.5	15.8
2025-01-01 08:41:16.500116	161.3	71.1	-92.6	16.0
2025-01-01 08:41:17.643457	162.4	70.7	-92.8	16.7
2025-01-01 08:41:18.794855	163.5	70.3	-92.4	14.0
2025-01-01 08:41:19.944707	164.5	69.9	-91.8	14.3
2025-01-01 08:41:21.092548	165.5	69.5	-92.4	17.2
2025-01-01 08:41:22.239161	166.4	69.1	-92.5	13.1
2025-01-01 08:41:23.385183	167.3	68.7	-92.5	11.2
2025-01-01 08:41:24.531235	168.2	68.2	-92.8	12.6
2025-01-01 08:41:25.679383	169.0	67.8	-92.8	11.0
2025-01-01 08:41:26.834296	169.8	67.4	-92.6	9.6
2025-01-01 08:41:27.975628	170.5	67.0	-93.0	14.6
2025-01-01 08:41:29.123516	171.3	66.5	-93.1	15.3
2025-01-01 08:41:30.272890	172.0	66.1	-92.9	14.7
2025-01-01 08:41:31.421013	172.7	65.7	-92.7	15.2
2025-01-01 08:41:32.567582	173.3	65.2	-92.4	12.6
2025-01-01 08:41:33.714353	173.9	64.8	-93.0	17.5
2025-01-01 08:41:34.860417	174.5	64.4	-92.7	17.2
2025-01-01 08:41:36.007056	175.1	63.9	-92.8	10.2
2025-01-01 08:41:37.151461	175.7	63.5	-92.9	16.0
2025-01-01 08:41:38.294366	176.2	63.1	-92.4	17.2
2025-01-01 08:41:39.443453	176.7	62.6	-92.9	10.9
2025-01-01 08:41:40.589747	177.2	62.2	-93.2	10.2
2025-01-01 08:41:41.738670	177.7	61.8	-92.7	18.2
2025-01-01 08:41:42.884097	178.2	61.4	-93.0	8.8
2025-01-01 08:41:44.033977	178.6	60.9	-92.9	7.6
2025-01-01 08:41:45.180022	179.1	60.5	-92.3	11.9
2025-01-01 08:41:46.312267	179.5	60.1	-92.6	16.4
2025-01-01 08:41:47.456418	179.9	59.7	-92.5	9.4
2025-01-01 08:41:48.601892	180.3	59.3	-92.6	5.9
2025-01-01 08:41:49.723359	180.7	58.8	-93.1	10.5
2025-01-01 08:41:50.843272	181.0	58.4	-91.9	7.9
2025-01-01 08:41:51.964005	181.4	58.0	-92.1	5.1
2025-01-01 08:41:53.085731	181.7	57.6	-91.6	7.8
2025-01-01 08:41:54.217618	182.1	57.2	-91.5	9.9
2025-01-01 08:41:55.338839	182.4	56.8	-92.3	5.0
2025-01-01 08:41:56.464740	182.7	56.4	-93.0	6.3
2025-01-01 08:41:57.600531	183.0	56.0	-92.9	1.9
2025-01-01 08:41:58.741136	183.3	55.6	-92.5	14.2
2025-01-01 08:41:59.886086	183.6	55.2	-93.2	10.0
2025-01-01 08:42:01.033336	183.9	54.8	-92.6	8.8
2025-01-01 08:42:02.169433	184.2	54.4	-92.2	13.7
2025-01-01 08:42:03.318176	184.4	54.0	-92.3	12.6
2025-01-01 08:42:04.468063	184.7	53.6	-92.3	18.3
2025-01-01 08:42:05.613909	185.0	53.3	-92.3	10.5
2025-01-01 08:42:06.759406	185.2	52.9	-92.8	14.1
2025-01-01 08:42:07.909052	185.5	52.5	-92.5	13.5
2025-01-01 08:42:09.054304	185.7	52.1	-92.4	12.1
2025-01-01 08:42:10.207421	185.9	51.7	-92.4	15.4
2025-01-01 08:42:11.351324	186.2	51.3	-92.8	17.1
2025-01-01 08:42:12.508202	186.4	51.0	-92.9	6.9
2025-01-01 08:42:13.653348	186.6	50.6	-92.8	3.6
2025-01-01 08:42:14.805293	186.8	50.2	-93.1	4.5
2025-01-01 08:42:15.950458	187.0	49.9	-93.0	11.7
2025-01-01 08:42:17.095206	187.2	49.5	-92.4	5.5
2025-01-01 08:42:18.246388	187.4	49.1	-92.7	16.3
2025-01-01 08:42:19.392123	187.6	48.8	-93.2	10.2
2025-01-01 08:42:20.539765	187.8	48.4	-92.6	7.9
2025-01-01 08:42:21.687746	188.0	48.1	-93.0	4.3
2025-01-01 08:42:22.835749	188.2	47.7	-93.0	22.3
2025-01-01 08:42:23.983569	188.3	47.4	-93.1	12.6
2025-01-01 08:42:25.138011	188.5	47.0	-92.7	16.8
2025-01-01 08:42:26.282964	188.7	46.7	-92.3	14.8
2025-01-01 08:42:27.427087	188.9	46.3	-92.7	17.8
2025-01-01 08:42:28.578752	189.0	46.0	-92.7	17.4
2025-01-01 08:42:29.726595	189.2	45.7	-92.1	18.4
2025-01-01 08:42:30.876545	189.3	45.3	-92.6	17.2
2025-01-01 08:42:32.023330	189.5	45.0	-93.0	15.7
2025-01-01 08:42:33.172601	189.6	44.7	-92.3	14.3
2025-01-01 08:42:34.321846	189.8	44.3	-92.4	15.9
2025-01-01 08:42:35.463403	189.9	44.0	-92.8	9.6
2025-01-01 08:42:36.609989	190.1	43.7	-92.7	8.9
2025-01-01 08:42:37.758411	190.2	43.4	-92.7	14.3
2025-01-01 08:42:38.902879	190.3	43.1	-92.8	10.5
2025-01-01 08:42:40.056060	190.5	42.7	-92.5	6.2
2025-01-01 08:42:41.198297	190.6	42.4	-92.3	15.0
2025-01-01 08:42:42.352846	190.7	42.1	-92.6	15.2
2025-01-01 08:42:43.498377	190.9	41.8	-92.6	9.7
2025-01-01 08:42:44.640228	191.0	41.5	-92.8	11.8
2025-01-01 08:42:45.791230	191.1	41.2	-93.0	7.8
2025-01-01 08:42:46.938094	191.2	40.9	-93.0	12.7
2025-01-01 08:42:48.075815	191.3	40.6	-92.3	15.2
2025-01-01 08:42:49.216417	191.4	40.3	-92.2	14.0
2025-01-01 08:42:50.338318	191.6	40.0	-92.9	15.1
2025-01-01 08:42:51.458260	191.7	39.8	-92.6	13.7
2025-01-01 08:42:52.580255	191.8	39.5	-92.8	8.2
2025-01-01 08:42:53.701933	191.9	39.2	-93.3	13.1
2025-01-01 08:42:54.823753	192.0	38.9	-91.6	8.6
2025-01-01 08:42:55.942197	192.1	38.6	-91.9	4.7
2025-01-01 08:42:57.066144	192.2	38.4	-91.6	3.7
2025-01-01 08:42:58.201490	192.3	38.1	-91.3	11.6
2025-01-01 08:42:59.347049	192.4	37.8	-92.7	10.8
2025-01-01 08:43:00.490312	192.5	37.5	-93.0	8.3
2025-01-01 08:43:01.636275	192.6	37.3	-93.0	11.8
2025-01-01 08:43:02.772754	192.7	37.0	-92.7	10.0
2025-01-01 08:43:03.919340	192.8	36.7	-92.5	13.7
2025-01-01 08:43:05.070928	192.9	36.5	-92.8	11.5
2025-01-01 08:43:06.219402	192.9	36.2	-92.7	11.5
2025-01-01 08:43:07.367528	193.0	36.0	-92.7	9.9
2025-01-01 08:43:08.514028	193.1	35.7	-92.8	9.9
2025-01-01 08:43:09.661878	193.2	35.4	-92.6	8.5
2025-01-01 08:43:10.813330	193.3	35.2	-92.5	7.4
2025-01-01 08:43:11.961137	193.4	34.9	-93.0	4.7
2025-01-01 08:43:13.106196	193.5	34.7	-92.6	2.1
2025-01-01 08:43:14.250724	193.5	34.4	-92.4	9.6
2025-01-01 08:43:15.399026	193.6	34.2	-93.0	6.4
2025-01-01 08:43:16.549234	193.7	33.9	-93.1	5.0
2025-01-01 08:43:17.691697	193.8	33.7	-92.8	11.8
2025-01-01 08:43:18.835347	193.9	33.5	-92.8	11.1
2025-01-01 08:43:19.983147	193.9	33.2	-93.1	8.9
2025-01-01 08:43:21.127563	194.0	33.0	-92.5	11.6
2025-01-01 08:43:22.276859	194.1	32.8	-92.5	12.6
2025-01-01 08:43:23.419127	194.1	32.5	-93.1	7.9
2025-01-01 08:43:24.570097	194.2	32.3	-92.7	9.0
2025-01-01 08:43:25.721322	194.3	32.1	-92.9	7.6
2025-01-01 08:43:26.865101	194.4	31.8	-93.0	10.5
2025-01-01 08:43:28.012632	194.4	31.6	-92.9	8.6
2025-01-01 08:43:29.166710	194.5	31.4	-92.8	12.2
2025-01-01 08:43:30.314302	194.6	31.2	-92.6	7.9
2025-01-01 08:43:31.457375	194.6	30.9	-92.9	4.3
2025-01-01 08:43:32.604245	194.7	30.7	-92.8	4.7
2025-01-01 08:43:33.758384	194.8	30.5	-92.9	6.5
2025-01-01 08:43:34.904013	194.8	30.3	-93.1	4.5
2025-01-01 08:43:36.043429	194.9	30.1	-92.6	4.7
2025-01-01 08:43:37.191122	195.0	29.8	-92.5	3.4
2025-01-01 08:43:38.334690	195.0	29.6	-92.6	4.4
2025-01-01 08:43:39.483942	195.1	29.4	-93.1	5.5
2025-01-01 08:43:40.634352	195.1	29.2	-93.0	4.6
2025-01-01 08:43:41.780814	195.2	29.0	-93.4	3.5
2025-01-01 08:43:42.933780	195.3	28.8	-93.3	6.0
2025-01-01 08:43:44.077929	195.3	28.6	-92.6	3.7
2025-01-01 08:43:45.223180	195.4	28.4	-92.9	9.8
2025-01-01 08:43:46.361403	195.4	28.2	-92.5	8.3
2025-01-01 08:43:47.483691	195.5	28.0	-93.2	3.2
2025-01-01 08:43:48.604999	195.5	27.8	-92.8	4.8
2025-01-01 08:43:49.725740	195.6	27.6	-93.1	11.7
2025-01-01 08:43:50.846729	195.6	27.4	-93.0	10.4
2025-01-01 08:43:51.967220	195.7	27.2	-92.5	9.8
2025-01-01 08:43:53.087976	195.7	27.0	-92.9	9.6
2025-01-01 08:43:54.212070	195.8	26.8	-92.9	9.7
2025-01-01 08:43:55.352363	195.8	26.7	-93.0	6.6
2025-01-01 08:43:56.496918	195.9	26.5	-93.5	6.7
2025-01-01 08:43:57.642260	196.0	26.3	-93.2	4.8
2025-01-01 08:43:58.786233	196.0	26.1	-93.1	7.0
2025-01-01 08:43:59.928390	196.1	25.9	-91.5	3.0
2025-01-01 08:44:01.071199	196.1	25.7	-91.8	4.3
2025-01-01 08:44:02.216568	196.1	25.5	-91.5	7.9
2025-01-01 08:44:03.370547	196.2	25.4	-92.1	8.1
2025-01-01 08:44:04.522921	196.2	25.2	-93.0	5.9
2025-01-01 08:44:05.668749	196.3	25.0	-93.3	12.8
2025-01-01 08:44:06.817453	196.3	24.8	-93.1	12.6
2025-01-01 08:44:07.959357	196.4	24.6	-93.0	12.8
2025-01-01 08:44:09.106394	196.4	24.5	-93.0	13.8
2025-01-01 08:44:10.254766	196.5	24.3	-92.7	15.0
2025-01-01 08:44:11.400171	196.5	24.1	-92.6	11.4
2025-01-01 08:44:12.548104	196.6	23.9	-93.1	7.5
2025-01-01 08:44:13.694315	196.6	23.8	-93.4	14.9
2025-01-01 08:44:14.843199	196.7	23.6	-92.7	12.6
2025-01-01 08:44:15.995651	196.7	23.4	-92.8	6.4
2025-01-01 08:44:17.140014	196.7	23.3	-92.5	11.3
2025-01-01 08:44:18.285198	196.8	23.1	-93.0	13.0
2025-01-01 08:44:19.433598	196.8	22.9	-92.9	10.5
2025-01-01 08:44:20.576518	196.9	22.8	-92.8	10.5
2025-01-01 08:44:21.718203	196.9	22.6	-92.7	11.8
2025-01-01 08:44:22.863073	196.9	22.4	-93.3	12.1
2025-01-01 08:44:24.012847	197.0	22.3	-93.3	12.6
2025-01-01 08:44:25.156824	197.0	22.1	-92.8	14.5
2025-01-01 08:44:26.305181	197.1	22.0	-93.1	13.4
2025-01-01 08:44:27.453578	197.1	21.8	-93.7	9.0
2025-01-01 08:44:28.597612	197.1	21.6	-93.0	6.2
2025-01-01 08:44:29.744180	197.2	21.5	-93.3	11.5
2025-01-01 08:44:30.894418	197.2	21.3	-93.6	6.6
2025-01-01 08:44:32.040533	197.3	21.2	-93.1	4.7
2025-01-01 08:44:33.196774	197.3	21.0	-93.2	8.6
2025-01-01 08:44:34.341247	197.3	20.9	-93.6	9.0
2025-01-01 08:44:35.490078	197.4	20.7	-93.5	8.1
2025-01-01 08:44:36.637005	197.4	20.6	-93.1	8.6
2025-01-01 08:44:37.789488	197.4	20.4	-92.7	6.0
2025-01-01 08:44:38.934100	197.5	20.3	-93.0	6.3
2025-01-01 08:44:40.080616	197.5	20.1	-93.1	4.1
2025-01-01 08:44:41.231256	197.6	20.0	-92.6	8.4
2025-01-01 08:44:42.375362	197.6	19.8	-93.4	5.5
2025-01-01 08:44:43.519974	197.6	19.7	-93.2	2.9
2025-01-01 08:44:44.666117	197.7	19.5	-93.0	7.8
2025-01-01 08:44:45.815841	197.7	19.4	-93.3	6.6
2025-01-01 08:44:46.966528	197.7	19.2	-93.8	6.8
2025-01-01 08:44:48.111928	197.8	19.1	-92.8	8.8
2025-01-01 08:44:49.262025	197.8	18.9	-93.0	8.9
2025-01-01 08:44:50.409968	197.8	18.8	-93.6	10.3
2025-01-01 08:44:51.554694	197.9	18.7	-93.1	7.7
2025-01-01 08:44:52.701805	197.9	18.5	-93.1	9.3
2025-01-01 08:44:53.834681	197.9	18.4	-93.1	9.5
2025-01-01 08:44:54.975545	198.0	18.2	-93.1	5.2
2025-01-01 08:44:56.123746	198.0	18.1	-93.5	5.0
2025-01-01 08:44:57.273704	198.0	18.0	-92.9	4.0
2025-01-01 08:44:58.419568	198.0	17.8	-93.4	2.8
2025-01-01 08:44:59.562643	198.1	17.7	-93.5	4.5
2025-01-01 08:45:00.703669	198.1	17.6	-93.0	4.1
2025-01-01 08:45:01.847337	198.1	17.4	-93.6	2.4
2025-01-01 08:45:02.994771	198.2	17.3	-92.9	0.2
2025-01-01 08:45:04.145044	198.2	17.2	-91.9	0.1
2025-01-01 08:45:05.396211	198.2	17.0	-92.0	0.5
2025-01-01 08:45:06.537953	198.3	16.9	-91.3	0.6
2025-01-01 08:45:07.689179	198.3	16.8	-92.7	3.8
2025-01-01 08:45:08.828951	198.3	16.6	-93.0	1.7
2025-01-01 08:45:09.983070	198.4	16.5	-92.8	2.5
2025-01-01 08:45:11.132989	198.4	16.4	-92.8	1.2
2025-01-01 08:45:12.279775	198.4	16.2	-92.7	2.0
2025-01-01 08:45:13.429528	198.4	16.1	-92.5	2.2
2025-01-01 08:45:14.573997	198.5	16.0	-92.8	2.4
2025-01-01 08:45:15.726411	198.5	15.9	-93.2	2.7
2025-01-01 08:45:16.869370	198.5	15.7	-93.0	3.7
2025-01-01 08:45:18.019556	198.5	15.6	-93.0	1.6
2025-01-01 08:45:19.162381	198.6	15.5	-92.8	1.3
2025-01-01 08:45:20.310335	198.6	15.4	-93.0	4.2
2025-01-01 08:45:21.457109	198.6	15.2	-92.9	2.2
2025-01-01 08:45:22.603204	198.7	15.1	-93.1	2.7
2025-01-01 08:45:23.754785	198.7	15.0	-93.1	2.0
2025-01-01 08:45:24.899945	198.7	14.9	-92.7	4.0
2025-01-01 08:45:26.048931	198.7	14.8	-93.0	2.8
2025-01-01 08:45:27.198808	198.8	14.6	-92.8	3.0
2025-01-01 08:45:28.339081	198.8	14.5	-93.2	3.4
#Closed at: 2025-01-01 08:36:15.812644