passes_logs/2026/01/18/R4.6S_Anadyr/R4.6S_Anadyr__20260118_140847_NOAA_20_JPSS-1_rec.log

#Pass ID: 20260118_140847_NOAA 20 (JPSS-1)
#Satellite: NOAA 20 (JPSS-1)
#Configuration: NOAA 20
#almurnet v.1.7.20251203
#Start time: 2026-01-18 14:08:48

#Version: 2.2.20231116
#Station: R4.6S_Anadyr
#Location: 177.4865 lon 64.73178 lat
#TLE: 1 43013U 17073A   26017.58553584  .00000066  00000+0  52288-4 0  9998
#TLE: 2 43013  98.7639 318.4977 0001406  35.6039 324.5231 14.19536575423107

#Time	Az	El	Level	Level2	SNR	BER	BlckErr	Temp	State	Recorded	gain1	gain2
2026-01-18 14:08:48.71	19.54	0.09	-49.6	-64.5	3.5	1.51e+00	0	34	0	0	60	60605
2026-01-18 14:08:49.71	19.56	0.15	-49.6	-64.9	3.6	1.51e+00	0	35	104	0	60	63231
2026-01-18 14:08:50.72	19.58	0.21	-49.6	-64.8	3.6	1.51e+00	0	35	104	0	60	62917
2026-01-18 14:08:51.73	19.60	0.27	-49.6	-64.8	3.6	1.51e+00	0	35	104	0	60	62817
2026-01-18 14:08:52.74	19.63	0.33	-49.6	-64.8	3.6	1.51e+00	0	35	104	0	60	63095
2026-01-18 14:08:53.75	19.65	0.39	-49.6	-64.8	3.6	1.51e+00	0	35	104	0	60	62970
2026-01-18 14:08:54.75	19.67	0.45	-49.6	-64.9	3.6	1.51e+00	0	35	104	0	60	63284
2026-01-18 14:08:55.76	19.69	0.51	-49.7	-64.9	3.6	1.51e+00	0	35	104	0	60	63333
2026-01-18 14:08:56.77	19.71	0.57	-49.7	-64.9	3.6	1.51e+00	0	35	104	0	60	63460
2026-01-18 14:08:57.78	19.74	0.63	-49.7	-64.9	3.6	1.51e+00	0	35	104	0	60	63595
2026-01-18 14:08:58.79	19.76	0.69	-49.7	-64.9	3.6	1.51e+00	0	35	104	0	60	63344
2026-01-18 14:08:59.80	19.78	0.75	-49.7	-64.9	3.6	1.51e+00	0	35	104	0	60	63407
2026-01-18 14:09:00.80	19.80	0.81	-49.7	-64.8	3.6	1.51e+00	0	35	104	0	60	63034
2026-01-18 14:09:01.82	19.83	0.87	-49.6	-64.8	3.6	1.51e+00	0	35	104	0	60	62859
2026-01-18 14:09:02.82	19.85	0.93	-49.6	-64.8	3.6	1.51e+00	0	35	104	0	60	62583
2026-01-18 14:09:03.83	19.87	1.00	-49.5	-64.7	3.6	1.51e+00	0	35	104	0	60	62252
2026-01-18 14:09:04.84	19.89	1.06	-49.4	-64.6	3.6	1.51e+00	0	35	104	0	60	61457
2026-01-18 14:09:05.85	19.92	1.12	-49.4	-64.5	3.6	1.51e+00	0	35	104	0	60	60637
2026-01-18 14:09:06.86	19.94	1.18	-49.2	-64.4	3.6	1.51e+00	0	35	104	0	60	59838
2026-01-18 14:09:07.86	19.96	1.24	-49.0	-64.2	3.6	1.51e+00	0	35	104	0	60	58745
2026-01-18 14:09:08.87	19.99	1.30	-49.0	-64.1	3.6	1.51e+00	0	35	104	0	60	57940
2026-01-18 14:09:09.88	20.01	1.36	-48.8	-64.0	3.6	1.51e+00	0	35	104	0	60	57032
2026-01-18 14:09:10.89	20.03	1.43	-48.7	-63.8	3.6	1.51e+00	0	35	104	0	60	55878
2026-01-18 14:09:11.90	20.06	1.49	-48.4	-63.6	3.6	1.51e+00	0	35	104	0	60	54746
2026-01-18 14:09:12.91	20.08	1.55	-48.2	-63.4	3.6	1.51e+00	0	35	104	0	60	53225
2026-01-18 14:09:13.92	20.10	1.61	-48.1	-63.3	3.6	1.51e+00	0	35	104	0	60	53137
2026-01-18 14:09:14.93	20.13	1.68	-48.1	-63.3	3.6	1.51e+00	0	35	104	0	60	52948
2026-01-18 14:09:15.94	20.15	1.74	-48.1	-63.3	3.6	1.51e+00	0	35	104	0	60	52961
2026-01-18 14:09:16.95	20.17	1.80	-48.1	-63.3	3.6	1.51e+00	0	36	104	0	60	53061
2026-01-18 14:09:17.96	20.20	1.87	-48.1	-63.3	3.6	1.51e+00	0	36	104	0	60	52913
2026-01-18 14:09:18.97	20.22	1.93	-48.1	-63.3	3.6	1.51e+00	0	36	104	0	60	52896
2026-01-18 14:09:19.98	20.25	1.99	-48.1	-63.1	3.6	1.51e+00	0	36	104	0	60	51870
2026-01-18 14:09:20.98	20.27	2.05	-48.1	-62.9	3.6	1.51e+00	0	36	104	0	60	50683
2026-01-18 14:09:22.00	20.29	2.12	-48.1	-62.4	3.6	1.51e+00	0	35	104	0	60	47493
2026-01-18 14:09:23.00	20.32	2.18	-48.1	-61.6	3.6	1.51e+00	0	36	104	0	60	43228
2026-01-18 14:09:24.01	20.34	2.25	-48.0	-60.2	3.6	1.50e+00	0	36	0	0	60	37051
2026-01-18 14:09:25.02	20.37	2.31	-48.0	-60.6	3.8	1.49e+00	0	36	104	0	60	38743
2026-01-18 14:09:26.03	20.39	2.37	-48.0	-60.3	3.9	1.47e+00	0	36	104	0	60	37604
2026-01-18 14:09:27.04	20.41	2.44	-48.0	-60.7	3.8	1.49e+00	0	36	104	0	60	39192
2026-01-18 14:09:28.05	20.44	2.50	-48.0	-61.2	3.6	1.50e+00	0	36	104	0	60	41441
2026-01-18 14:09:29.06	20.46	2.57	-48.0	-61.0	3.6	1.50e+00	0	36	104	0	60	40392
2026-01-18 14:09:30.07	20.49	2.63	-47.9	-59.5	4.2	1.48e+00	0	36	104	0	60	34015
2026-01-18 14:09:31.08	20.51	2.70	-47.6	-55.5	5.8	5.61e-01	0	36	0	1048576	60	21455
2026-01-18 14:09:32.08	20.54	2.76	-47.1	-53.1	8.6	8.81e-02	9	36	0	3145728	60	16287
2026-01-18 14:09:33.09	20.56	2.83	-46.3	-50.9	11.4	9.02e-03	0	36	0	4194304	60	12715
2026-01-18 14:09:34.10	20.59	2.89	-45.5	-49.1	13.2	3.81e-04	90	36	0	6291456	60	10309
2026-01-18 14:09:35.11	20.61	2.96	-44.7	-47.6	14.9	2.20e-06	0	36	0	8388608	60	8648
2026-01-18 14:09:36.12	20.64	3.02	-43.9	-46.3	16.1	0.00e+00	92	36	0	10485760	60	7438
2026-01-18 14:09:37.13	20.66	3.09	-43.3	-45.4	17.0	0.00e+00	0	36	0	12582912	60	6704
2026-01-18 14:09:38.14	20.69	3.15	-43.0	-44.9	17.4	0.00e+00	0	36	0	13631488	60	6390
2026-01-18 14:09:39.15	20.72	3.22	-42.5	-44.3	17.9	0.00e+00	0	36	0	15728640	58	6664
2026-01-18 14:09:40.16	20.74	3.29	-42.7	-44.5	17.8	0.00e+00	0	36	0	17825792	58	6826
2026-01-18 14:09:41.17	20.77	3.35	-42.8	-44.7	17.6	0.00e+00	61	36	0	19922944	58	6969
2026-01-18 14:09:42.18	20.79	3.42	-43.5	-45.7	16.5	0.00e+00	0	36	0	22020096	58	7835
2026-01-18 14:09:43.18	20.82	3.49	-44.1	-46.7	15.5	0.00e+00	90	36	0	24117248	60	7787
2026-01-18 14:09:44.19	20.84	3.55	-45.2	-48.4	13.7	0.00e+00	80	36	0	25165824	60	9551
2026-01-18 14:09:45.20	20.87	3.62	-46.2	-50.5	11.5	1.14e-04	0	36	0	27262976	60	12141
2026-01-18 14:09:46.21	20.90	3.69	-46.7	-51.8	10.8	3.12e-03	2	36	0	29360128	60	14017
2026-01-18 14:09:47.22	20.92	3.75	-42.4	-44.1	18.4	0.00e+00	0	36	0	31457280	56	7302
2026-01-18 14:09:48.23	20.95	3.82	-42.6	-44.4	18.3	0.00e+00	0	36	0	33554432	58	6760
2026-01-18 14:09:49.23	20.98	3.89	-48.0	-62.7	3.6	1.24e+00	0	36	104	33554432	60	49386
2026-01-18 14:09:50.24	21.00	3.96	-44.1	-46.6	16.3	1.39e+00	92	36	104	33554432	60	7758
2026-01-18 14:09:51.25	21.03	4.03	-47.9	-56.6	7.0	3.21e-01	1	36	0	34603008	60	24363
2026-01-18 14:09:52.26	21.06	4.09	-42.3	-44.0	18.1	0.00e+00	92	36	0	35651584	58	6455
2026-01-18 14:09:53.27	21.08	4.16	-42.2	-43.8	18.6	0.00e+00	80	36	0	37748736	58	6296
2026-01-18 14:09:54.28	21.11	4.23	-41.9	-43.5	18.9	0.00e+00	3	36	0	39845888	58	6071
2026-01-18 14:09:55.28	21.14	4.30	-41.8	-43.4	19.1	0.00e+00	0	36	0	41943040	58	5994
2026-01-18 14:09:56.29	21.16	4.37	-42.0	-43.6	18.8	0.00e+00	3	36	0	44040192	56	6924
2026-01-18 14:09:57.30	21.19	4.44	-41.7	-43.2	19.3	0.00e+00	92	36	0	45088768	56	6614
2026-01-18 14:09:58.31	21.22	4.51	-41.7	-43.1	19.4	0.00e+00	1	36	0	47185920	56	6537
2026-01-18 14:09:59.32	21.25	4.57	-41.4	-42.8	19.8	0.00e+00	92	36	0	49283072	56	6286
2026-01-18 14:10:00.33	21.28	4.64	-41.5	-42.9	19.5	0.00e+00	0	36	0	51380224	56	6347
2026-01-18 14:10:01.34	21.30	4.71	-41.4	-42.8	19.7	0.00e+00	0	36	0	53477376	56	6279
2026-01-18 14:10:02.35	21.33	4.78	-41.5	-43.0	19.6	0.00e+00	2	36	0	54525952	56	6412
2026-01-18 14:10:03.35	21.36	4.85	-41.7	-43.2	19.4	0.00e+00	0	36	0	56623104	56	6544
2026-01-18 14:10:04.36	21.39	4.92	-41.2	-42.6	20.0	0.00e+00	0	36	0	58720256	56	6131
2026-01-18 14:10:05.37	21.42	4.99	-41.3	-42.7	19.9	0.00e+00	2	36	0	60817408	56	6208
2026-01-18 14:10:06.38	21.44	5.06	-41.2	-42.5	20.1	0.00e+00	90	36	0	62914560	56	6102
2026-01-18 14:10:07.39	21.47	5.14	-41.2	-42.5	20.1	0.00e+00	0	36	0	65011712	56	6088
2026-01-18 14:10:08.39	21.50	5.21	-41.1	-42.5	20.0	0.00e+00	73	36	0	66060288	56	6067
2026-01-18 14:10:09.41	21.53	5.28	-41.3	-42.7	19.9	0.00e+00	74	36	0	68157440	56	6230
2026-01-18 14:10:10.41	21.56	5.35	-41.1	-42.4	20.2	0.00e+00	0	36	0	70254592	56	6007
2026-01-18 14:10:11.42	21.59	5.42	-41.0	-42.3	20.3	0.00e+00	0	36	0	72351744	56	5961
2026-01-18 14:10:12.43	21.62	5.49	-41.0	-42.3	20.4	0.00e+00	2	36	0	74448896	56	5918
2026-01-18 14:10:13.44	21.65	5.56	-41.1	-42.4	20.2	0.00e+00	92	36	0	75497472	56	6031
2026-01-18 14:10:14.45	21.67	5.64	-40.9	-42.2	20.4	0.00e+00	78	36	0	77594624	56	5882
2026-01-18 14:10:15.46	21.70	5.71	-40.9	-42.2	20.4	0.00e+00	90	36	0	79691776	56	5863
2026-01-18 14:10:16.47	21.73	5.78	-40.9	-42.2	20.4	0.00e+00	2	36	0	81788928	56	5884
2026-01-18 14:10:17.48	21.76	5.85	-41.1	-42.4	20.4	0.00e+00	6	36	0	83886080	56	5965
2026-01-18 14:10:18.49	21.79	5.93	-41.1	-42.4	20.4	0.00e+00	0	36	0	84934656	56	5990
2026-01-18 14:10:19.50	21.82	6.00	-40.9	-42.2	20.5	0.00e+00	5	36	0	87031808	56	5880
2026-01-18 14:10:20.50	21.85	6.07	-40.8	-42.1	20.7	0.00e+00	76	36	0	89128960	56	5783
2026-01-18 14:10:21.51	21.88	6.15	-40.8	-42.0	20.6	0.00e+00	6	36	0	91226112	54	6463
2026-01-18 14:10:22.52	21.91	6.22	-40.7	-42.0	20.7	0.00e+00	92	36	0	93323264	54	6424
2026-01-18 14:10:23.53	21.94	6.29	-40.7	-41.9	20.8	0.00e+00	5	36	0	94371840	54	6381
2026-01-18 14:10:24.54	21.97	6.37	-40.7	-41.9	20.8	0.00e+00	0	36	0	96468992	54	6389
2026-01-18 14:10:25.55	22.01	6.44	-40.7	-42.0	20.8	0.00e+00	0	36	0	98566144	54	6420
2026-01-18 14:10:26.55	22.04	6.52	-40.7	-42.0	20.7	0.00e+00	5	36	0	100663296	54	6422
2026-01-18 14:10:27.56	22.07	6.59	-40.8	-42.0	20.8	0.00e+00	0	36	0	102760448	54	6437
2026-01-18 14:10:28.57	22.10	6.67	-40.6	-41.9	20.9	0.00e+00	0	36	0	103809024	54	6320
2026-01-18 14:10:29.57	22.13	6.74	-40.6	-41.9	20.9	0.00e+00	92	36	0	105906176	54	6331
2026-01-18 14:10:30.58	22.16	6.82	-40.6	-41.8	21.0	0.00e+00	79	36	0	108003328	54	6256
2026-01-18 14:10:31.59	22.19	6.89	-40.6	-41.8	21.0	0.00e+00	91	36	0	110100480	54	6273
2026-01-18 14:10:32.60	22.22	6.97	-40.7	-42.0	20.8	0.00e+00	75	36	0	112197632	54	6409
2026-01-18 14:10:33.61	22.26	7.04	-40.6	-41.8	21.0	0.00e+00	0	36	0	113246208	54	6305
2026-01-18 14:10:34.61	22.29	7.12	-40.5	-41.7	21.0	0.00e+00	0	36	0	115343360	54	6241
2026-01-18 14:10:35.63	22.32	7.20	-40.6	-41.8	21.0	0.00e+00	79	36	0	117440512	54	6285
2026-01-18 14:10:36.63	22.35	7.27	-40.5	-41.6	21.2	0.00e+00	90	36	0	119537664	54	6163
2026-01-18 14:10:37.64	22.38	7.35	-40.6	-41.8	21.1	0.00e+00	4	36	0	121634816	54	6254
2026-01-18 14:10:38.65	22.42	7.43	-40.5	-41.6	21.2	0.00e+00	92	36	0	122683392	54	6155
2026-01-18 14:10:39.66	22.45	7.50	-40.3	-41.5	21.3	0.00e+00	6	36	0	124780544	54	6043
2026-01-18 14:10:40.67	22.48	7.58	-40.5	-41.7	21.2	0.00e+00	74	36	0	126877696	54	6210
2026-01-18 14:10:41.67	22.51	7.66	-40.5	-41.7	21.1	0.00e+00	6	36	0	128974848	54	6230
2026-01-18 14:10:42.69	22.55	7.74	-40.4	-41.6	21.3	0.00e+00	19	36	0	131072000	54	6144
2026-01-18 14:10:43.69	22.58	7.81	-40.5	-41.7	21.2	0.00e+00	92	36	0	132120576	54	6184
2026-01-18 14:10:44.70	22.61	7.89	-40.5	-41.7	21.1	0.00e+00	6	36	0	134217728	54	6220
2026-01-18 14:10:45.71	22.65	7.97	-40.3	-41.5	21.4	0.00e+00	90	36	0	136314880	54	6055
2026-01-18 14:10:46.72	22.68	8.05	-40.4	-41.5	21.3	0.00e+00	6	36	0	138412032	54	6098
2026-01-18 14:10:47.73	22.72	8.13	-40.3	-41.5	21.3	0.00e+00	0	36	0	140509184	54	6062
2026-01-18 14:10:48.74	22.75	8.21	-40.4	-41.5	21.4	0.00e+00	0	36	0	141557760	54	6076
2026-01-18 14:10:49.75	22.78	8.29	-40.3	-41.4	21.4	0.00e+00	8	36	0	143654912	54	6021
2026-01-18 14:10:50.76	22.82	8.37	-40.3	-41.4	21.5	0.00e+00	0	36	0	145752064	54	6013
2026-01-18 14:10:51.77	22.85	8.45	-40.4	-41.5	21.4	0.00e+00	79	36	0	147849216	54	6062
2026-01-18 14:10:52.78	22.89	8.53	-40.2	-41.3	21.5	0.00e+00	90	36	0	149946368	54	5962
2026-01-18 14:10:53.79	22.92	8.61	-40.2	-41.3	21.6	0.00e+00	80	36	0	150994944	54	5927
2026-01-18 14:10:54.80	22.96	8.69	-40.1	-41.2	21.7	0.00e+00	92	36	0	153092096	54	5883
2026-01-18 14:10:55.81	22.99	8.77	-40.1	-41.3	21.7	0.00e+00	0	36	0	155189248	54	5901
2026-01-18 14:10:56.82	23.03	8.85	-40.2	-41.4	21.6	0.00e+00	0	36	0	157286400	54	5975
2026-01-18 14:10:57.82	23.06	8.94	-40.3	-41.4	21.5	0.00e+00	67	36	0	159383552	54	6012
2026-01-18 14:10:58.83	23.10	9.02	-40.2	-41.4	21.6	0.00e+00	77	36	0	161480704	54	5976
2026-01-18 14:10:59.84	23.14	9.10	-40.1	-41.2	21.7	0.00e+00	92	36	0	162529280	54	5863
2026-01-18 14:11:00.85	23.17	9.18	-40.1	-41.2	21.7	0.00e+00	1	36	0	164626432	54	5855
2026-01-18 14:11:01.86	23.21	9.27	-40.2	-41.3	21.7	0.00e+00	92	36	0	166723584	54	5908
2026-01-18 14:11:02.87	23.24	9.35	-40.0	-41.1	21.8	0.00e+00	0	36	0	168820736	54	5823
2026-01-18 14:11:03.88	23.28	9.43	-40.1	-41.2	21.7	0.00e+00	0	36	0	170917888	54	5885
2026-01-18 14:11:04.89	23.32	9.52	-40.1	-41.2	21.7	0.00e+00	0	36	0	171966464	54	5884
2026-01-18 14:11:05.90	23.35	9.60	-40.0	-41.1	21.9	0.00e+00	0	36	0	174063616	54	5815
2026-01-18 14:11:06.91	23.39	9.68	-40.0	-41.1	21.8	0.00e+00	92	36	0	176160768	54	5782
2026-01-18 14:11:07.91	23.43	9.77	-40.2	-41.3	21.7	0.00e+00	1	36	0	178257920	54	5903
2026-01-18 14:11:08.92	23.47	9.85	-40.0	-41.1	21.8	0.00e+00	91	36	0	180355072	54	5790
2026-01-18 14:11:09.93	23.50	9.94	-40.1	-41.1	21.9	0.00e+00	0	36	0	181403648	54	5823
2026-01-18 14:11:10.94	23.54	10.02	-40.1	-41.2	21.7	0.00e+00	0	36	0	183500800	54	5860
2026-01-18 14:11:11.94	23.58	10.11	-40.1	-41.2	21.8	0.00e+00	0	36	0	185597952	54	5880
2026-01-18 14:11:12.95	23.62	10.19	-40.0	-41.1	21.8	0.00e+00	0	36	0	187695104	54	5776
2026-01-18 14:11:13.96	23.66	10.28	-40.0	-41.0	22.0	0.00e+00	2	36	0	189792256	54	5751
2026-01-18 14:11:14.97	23.70	10.37	-39.9	-41.0	22.0	0.00e+00	0	36	0	190840832	54	5727
2026-01-18 14:11:15.97	23.73	10.45	-39.9	-41.0	22.0	0.00e+00	92	36	0	192937984	54	5724
2026-01-18 14:11:16.98	23.77	10.54	-40.0	-41.0	22.0	0.00e+00	82	36	0	195035136	54	5761
2026-01-18 14:11:17.99	23.81	10.63	-40.0	-41.0	22.0	0.00e+00	90	36	0	197132288	54	5748
2026-01-18 14:11:19.00	23.85	10.71	-40.1	-41.1	21.9	0.00e+00	0	36	0	199229440	54	5822
2026-01-18 14:11:20.01	23.89	10.80	-40.0	-41.1	21.9	0.00e+00	80	36	0	200278016	54	5803
2026-01-18 14:11:21.02	23.93	10.89	-40.0	-41.0	22.0	0.00e+00	76	36	0	202375168	54	5748
2026-01-18 14:11:22.03	23.97	10.98	-40.0	-41.1	21.9	0.00e+00	75	36	0	204472320	54	5807
2026-01-18 14:11:23.04	24.01	11.07	-40.0	-41.1	22.0	0.00e+00	77	36	0	206569472	54	5765
2026-01-18 14:11:24.04	24.05	11.16	-40.0	-41.1	22.0	0.00e+00	81	36	0	208666624	54	5766
2026-01-18 14:11:25.05	24.09	11.25	-40.0	-41.1	22.0	0.00e+00	92	36	0	209715200	54	5769
2026-01-18 14:11:26.06	24.14	11.34	-39.9	-40.9	22.2	0.00e+00	82	36	0	211812352	54	5682
2026-01-18 14:11:27.07	24.18	11.43	-40.0	-41.1	22.0	0.00e+00	0	36	0	213909504	54	5786
2026-01-18 14:11:28.08	24.22	11.52	-40.0	-41.1	22.0	0.00e+00	0	36	0	216006656	54	5782
2026-01-18 14:11:29.09	24.26	11.61	-39.8	-40.9	22.2	0.00e+00	0	36	0	218103808	54	5662
2026-01-18 14:11:30.09	24.30	11.70	-39.9	-41.0	22.0	0.00e+00	92	36	0	219152384	54	5721
2026-01-18 14:11:31.10	24.34	11.79	-39.8	-40.8	22.3	0.00e+00	0	36	0	221249536	54	5603
2026-01-18 14:11:32.11	24.39	11.88	-39.8	-40.9	22.2	0.00e+00	92	36	0	223346688	54	5659
2026-01-18 14:11:33.11	24.43	11.97	-39.8	-40.8	22.2	0.00e+00	0	36	0	225443840	54	5629
2026-01-18 14:11:34.12	24.47	12.06	-39.9	-41.0	22.1	0.00e+00	71	36	0	227540992	54	5728
2026-01-18 14:11:35.13	24.51	12.16	-39.8	-40.8	22.2	0.00e+00	2	36	0	228589568	54	5614
2026-01-18 14:11:36.14	24.56	12.25	-39.8	-40.9	22.2	0.00e+00	0	36	0	230686720	52	6323
2026-01-18 14:11:37.15	24.60	12.34	-39.7	-40.7	22.4	0.00e+00	2	36	0	232783872	52	6236
2026-01-18 14:11:38.16	24.65	12.44	-39.7	-40.7	22.4	0.00e+00	0	36	0	234881024	52	6232
2026-01-18 14:11:39.17	24.69	12.53	-39.7	-40.7	22.5	0.00e+00	83	36	0	236978176	52	6212
2026-01-18 14:11:40.18	24.73	12.63	-39.7	-40.7	22.5	0.00e+00	0	36	0	238026752	52	6204
2026-01-18 14:11:41.19	24.78	12.72	-39.6	-40.6	22.5	0.00e+00	91	36	0	240123904	52	6163
2026-01-18 14:11:42.20	24.82	12.82	-39.7	-40.7	22.5	0.00e+00	81	36	0	242221056	52	6219
2026-01-18 14:11:43.20	24.87	12.91	-39.8	-40.9	22.3	0.00e+00	0	36	0	244318208	52	6327
2026-01-18 14:11:44.21	24.91	13.01	-39.5	-40.5	22.6	0.00e+00	0	36	0	246415360	52	6103
2026-01-18 14:11:45.22	24.96	13.10	-39.6	-40.7	22.5	0.00e+00	0	36	0	247463936	52	6185
2026-01-18 14:11:46.23	25.01	13.20	-39.5	-40.5	22.6	0.00e+00	92	36	0	249561088	52	6078
2026-01-18 14:11:47.24	25.05	13.30	-39.5	-40.5	22.6	0.00e+00	0	36	0	251658240	52	6054
2026-01-18 14:11:48.25	25.10	13.40	-39.6	-40.6	22.6	0.00e+00	92	36	0	253755392	52	6108
2026-01-18 14:11:49.26	25.15	13.49	-39.6	-40.6	22.5	0.00e+00	82	36	0	255852544	52	6160
2026-01-18 14:11:50.26	25.19	13.59	-39.6	-40.6	22.6	0.00e+00	10	36	0	256901120	52	6137
2026-01-18 14:11:51.27	25.24	13.69	-39.7	-40.7	22.5	0.00e+00	0	36	0	258998272	52	6244
2026-01-18 14:11:52.28	25.29	13.79	-39.5	-40.5	22.7	0.00e+00	2	36	0	261095424	52	6102
2026-01-18 14:11:53.29	25.34	13.89	-39.6	-40.7	22.6	0.00e+00	30	36	0	263192576	52	6178
2026-01-18 14:11:54.30	25.38	13.99	-39.5	-40.5	22.7	0.00e+00	0	36	0	265289728	52	6056
2026-01-18 14:11:55.31	25.43	14.09	-39.5	-40.5	22.6	0.00e+00	90	36	0	266338304	52	6089
2026-01-18 14:11:56.31	25.48	14.19	-39.6	-40.6	22.6	0.00e+00	0	36	0	268435456	52	6132
2026-01-18 14:11:57.32	25.53	14.29	-39.5	-40.5	22.6	0.00e+00	0	36	0	270532608	52	6101
2026-01-18 14:11:58.33	25.58	14.39	-39.5	-40.5	22.7	0.00e+00	0	36	0	272629760	52	6061
2026-01-18 14:11:59.34	25.63	14.49	-39.5	-40.5	22.7	0.00e+00	0	36	0	274726912	52	6060
2026-01-18 14:12:00.35	25.68	14.59	-39.4	-40.4	22.8	0.00e+00	0	36	0	275775488	52	6012
2026-01-18 14:12:01.36	25.73	14.70	-39.5	-40.5	22.7	0.00e+00	2	36	0	277872640	52	6053
2026-01-18 14:12:02.37	25.78	14.80	-39.4	-40.4	22.8	0.00e+00	92	36	0	279969792	52	6006
2026-01-18 14:12:03.38	25.83	14.90	-39.5	-40.4	22.8	0.00e+00	2	36	0	282066944	52	6025
2026-01-18 14:12:04.39	25.88	15.01	-39.4	-40.4	22.8	0.00e+00	90	36	0	284164096	52	5995
2026-01-18 14:12:05.39	25.93	15.11	-39.5	-40.5	22.7	0.00e+00	0	36	0	286261248	52	6058
2026-01-18 14:12:06.40	25.99	15.21	-39.4	-40.4	22.9	0.00e+00	0	36	0	287309824	52	5996
2026-01-18 14:12:07.41	26.04	15.32	-39.5	-40.5	22.7	0.00e+00	81	36	0	289406976	52	6056
2026-01-18 14:12:08.42	26.09	15.43	-39.4	-40.3	22.9	0.00e+00	0	36	0	291504128	52	5963
2026-01-18 14:12:09.43	26.14	15.53	-39.4	-40.4	22.8	0.00e+00	92	36	0	293601280	52	5974
2026-01-18 14:12:10.44	26.20	15.64	-39.3	-40.3	23.0	0.00e+00	0	36	0	295698432	52	5912
2026-01-18 14:12:11.45	26.25	15.75	-39.5	-40.4	22.8	0.00e+00	92	36	0	296747008	52	6022
2026-01-18 14:12:12.46	26.31	15.85	-39.3	-40.3	23.0	0.00e+00	0	36	0	298844160	52	5912
2026-01-18 14:12:13.47	26.36	15.96	-39.4	-40.4	22.9	0.00e+00	43	36	0	300941312	52	5999
2026-01-18 14:12:14.47	26.41	16.07	-39.3	-40.2	23.0	0.00e+00	0	36	0	303038464	52	5871
2026-01-18 14:12:15.48	26.47	16.18	-39.3	-40.2	23.0	0.00e+00	5	36	0	305135616	52	5877
2026-01-18 14:12:16.49	26.53	16.29	-39.3	-40.3	22.9	0.00e+00	8	36	0	306184192	52	5939
2026-01-18 14:12:17.50	26.58	16.40	-39.3	-40.2	23.0	0.00e+00	6	36	0	308281344	52	5883
2026-01-18 14:12:18.50	26.64	16.50	-39.2	-40.2	23.0	0.00e+00	92	36	0	310378496	52	5861
2026-01-18 14:12:19.51	26.69	16.62	-39.3	-40.3	23.0	0.00e+00	0	36	0	312475648	52	5899
2026-01-18 14:12:20.51	26.75	16.73	-39.2	-40.2	23.0	0.00e+00	92	36	0	314572800	52	5848
2026-01-18 14:12:21.53	26.81	16.84	-39.4	-40.4	22.9	0.00e+00	6	36	0	315621376	52	5969
2026-01-18 14:12:22.53	26.87	16.95	-39.2	-40.1	23.1	0.00e+00	0	36	0	317718528	52	5817
2026-01-18 14:12:23.54	26.92	17.06	-39.3	-40.3	23.0	0.00e+00	6	36	0	319815680	52	5912
2026-01-18 14:12:24.55	26.98	17.17	-39.1	-40.0	23.2	0.00e+00	0	36	0	321912832	52	5749
2026-01-18 14:12:25.56	27.04	17.29	-39.1	-40.1	23.1	0.00e+00	92	36	0	324009984	52	5776
2026-01-18 14:12:26.57	27.10	17.40	-39.1	-40.1	23.2	0.00e+00	0	36	0	325058560	52	5764
2026-01-18 14:12:27.57	27.16	17.52	-39.1	-40.0	23.2	0.00e+00	92	36	0	327155712	52	5745
2026-01-18 14:12:28.58	27.22	17.63	-39.2	-40.1	23.1	0.00e+00	0	36	0	329252864	52	5791
2026-01-18 14:12:29.59	27.28	17.75	-39.2	-40.2	23.0	0.00e+00	0	36	0	331350016	52	5831
2026-01-18 14:12:30.60	27.34	17.86	-39.1	-40.1	23.1	0.00e+00	83	36	0	333447168	52	5780
2026-01-18 14:12:31.61	27.40	17.98	-39.1	-40.0	23.2	0.00e+00	84	37	0	334495744	52	5730
2026-01-18 14:12:32.62	27.47	18.10	-39.1	-40.0	23.2	0.00e+00	0	36	0	336592896	52	5756
2026-01-18 14:12:33.63	27.53	18.21	-39.1	-40.1	23.2	0.00e+00	0	36	0	338690048	52	5784
2026-01-18 14:12:34.63	27.59	18.33	-39.1	-40.0	23.2	0.00e+00	91	36	0	340787200	52	5756
2026-01-18 14:12:35.64	27.65	18.45	-39.1	-40.0	23.3	0.00e+00	4	36	0	342884352	52	5721
2026-01-18 14:12:36.65	27.72	18.57	-39.1	-40.0	23.2	0.00e+00	92	36	0	343932928	52	5748
2026-01-18 14:12:37.66	27.78	18.69	-39.2	-40.1	23.2	0.00e+00	1	36	0	346030080	52	5794
2026-01-18 14:12:38.66	27.85	18.81	-39.1	-40.0	23.3	0.00e+00	3	36	0	348127232	52	5720
2026-01-18 14:12:39.67	27.91	18.93	-38.9	-39.9	23.4	0.00e+00	0	36	0	350224384	52	5644
2026-01-18 14:12:40.68	27.98	19.05	-38.9	-39.8	23.5	0.00e+00	6	36	0	352321536	52	5606
2026-01-18 14:12:41.69	28.04	19.17	-38.9	-39.8	23.4	0.00e+00	92	36	0	353370112	52	5617
2026-01-18 14:12:42.70	28.11	19.30	-38.8	-39.7	23.6	0.00e+00	7	36	0	355467264	52	5554
2026-01-18 14:12:43.71	28.18	19.42	-38.8	-39.7	23.5	0.00e+00	92	36	0	357564416	52	5560
2026-01-18 14:12:44.72	28.25	19.54	-38.9	-39.9	23.5	0.00e+00	2	36	0	359661568	52	5637
2026-01-18 14:12:45.73	28.31	19.67	-38.7	-39.6	23.6	0.00e+00	0	36	0	361758720	52	5493
2026-01-18 14:12:46.73	28.38	19.79	-38.9	-39.8	23.5	0.00e+00	0	36	0	362807296	50	6258
2026-01-18 14:12:47.74	28.45	19.92	-38.6	-39.6	23.6	0.00e+00	7	36	0	364904448	50	6105
2026-01-18 14:12:48.75	28.52	20.04	-38.7	-39.6	23.7	0.00e+00	80	36	0	367001600	50	6135
2026-01-18 14:12:49.76	28.59	20.17	-38.4	-39.3	23.9	0.00e+00	0	36	0	369098752	50	5944
2026-01-18 14:12:50.77	28.66	20.30	-38.5	-39.3	23.8	0.00e+00	92	36	0	371195904	50	5951
2026-01-18 14:12:51.78	28.73	20.43	-38.3	-39.2	24.0	0.00e+00	82	36	0	372244480	50	5836
2026-01-18 14:12:52.79	28.81	20.55	-38.2	-39.1	24.1	0.00e+00	81	36	0	374341632	50	5764
2026-01-18 14:12:53.80	28.88	20.68	-38.1	-38.9	24.2	0.00e+00	0	36	0	376438784	50	5664
2026-01-18 14:12:54.81	28.95	20.81	-38.1	-38.9	24.3	0.00e+00	81	36	0	378535936	50	5677
2026-01-18 14:12:55.82	29.03	20.94	-38.0	-38.9	24.3	0.00e+00	0	36	0	380633088	50	5636
2026-01-18 14:12:56.83	29.10	21.08	-37.9	-38.7	24.4	0.00e+00	79	36	0	382730240	50	5554
2026-01-18 14:12:57.83	29.17	21.21	-37.7	-38.6	24.5	0.00e+00	92	36	0	383778816	50	5442
2026-01-18 14:12:58.84	29.25	21.34	-37.7	-38.5	24.6	0.00e+00	1	37	0	385875968	48	6071
2026-01-18 14:12:59.85	29.33	21.47	-37.6	-38.4	24.6	0.00e+00	92	36	0	387973120	48	6021
2026-01-18 14:13:00.86	29.40	21.61	-37.7	-38.5	24.6	0.00e+00	82	37	0	390070272	48	6063
2026-01-18 14:13:01.87	29.48	21.74	-37.6	-38.4	24.7	0.00e+00	81	37	0	391118848	48	6022
2026-01-18 14:13:02.88	29.56	21.88	-37.6	-38.4	24.6	0.00e+00	0	36	0	393216000	48	6018
2026-01-18 14:13:03.89	29.64	22.01	-37.6	-38.4	24.7	0.00e+00	0	36	0	395313152	48	5979
2026-01-18 14:13:04.89	29.72	22.15	-37.4	-38.2	24.7	0.00e+00	92	36	0	397410304	48	5885
2026-01-18 14:13:05.90	29.80	22.28	-37.5	-38.3	24.8	0.00e+00	3	36	0	399507456	48	5943
2026-01-18 14:13:06.91	29.88	22.42	-37.5	-38.3	24.8	0.00e+00	91	36	0	400556032	48	5920
2026-01-18 14:13:07.91	29.96	22.56	-37.5	-38.3	24.8	0.00e+00	0	36	0	402653184	48	5912
2026-01-18 14:13:08.93	30.04	22.70	-37.4	-38.3	24.8	0.00e+00	0	36	0	404750336	48	5897
2026-01-18 14:13:09.93	30.12	22.84	-37.6	-38.4	24.7	0.00e+00	0	36	0	406847488	48	5969
2026-01-18 14:13:10.94	30.21	22.98	-37.5	-38.3	24.7	0.00e+00	0	36	0	408944640	48	5949
2026-01-18 14:13:11.95	30.29	23.12	-37.6	-38.4	24.7	0.00e+00	0	36	0	411041792	48	5996
2026-01-18 14:13:12.95	30.37	23.26	-37.7	-38.5	24.5	0.00e+00	0	36	0	412090368	48	6050
2026-01-18 14:13:13.96	30.46	23.40	-37.6	-38.5	24.6	0.00e+00	92	36	0	414187520	48	6047
2026-01-18 14:13:14.97	30.55	23.55	-37.5	-38.3	24.8	0.00e+00	3	36	0	416284672	48	5913
2026-01-18 14:13:15.98	30.63	23.69	-37.5	-38.3	24.8	0.00e+00	88	36	0	418381824	48	5924
2026-01-18 14:13:16.99	30.72	23.84	-37.6	-38.4	24.7	0.00e+00	0	36	0	420478976	48	6031
2026-01-18 14:13:18.00	30.81	23.98	-37.6	-38.4	24.8	0.00e+00	0	37	0	421527552	48	5980
2026-01-18 14:13:19.01	30.90	24.13	-37.5	-38.3	24.8	0.00e+00	0	37	0	423624704	48	5959
2026-01-18 14:13:20.02	30.99	24.28	-37.5	-38.3	24.8	0.00e+00	81	36	0	425721856	48	5926
2026-01-18 14:13:21.02	31.08	24.42	-37.6	-38.4	24.7	0.00e+00	92	37	0	427819008	48	6011
2026-01-18 14:13:22.03	31.17	24.57	-37.5	-38.3	24.8	0.00e+00	82	36	0	429916160	48	5960
2026-01-18 14:13:23.04	31.26	24.72	-37.4	-38.2	24.9	0.00e+00	92	37	0	430964736	48	5889
2026-01-18 14:13:24.05	31.36	24.87	-37.4	-38.2	24.9	0.00e+00	0	37	0	433061888	48	5849
2026-01-18 14:13:25.05	31.45	25.02	-37.5	-38.3	24.8	0.00e+00	82	36	0	435159040	48	5937
2026-01-18 14:13:26.07	31.55	25.18	-37.4	-38.2	24.9	0.00e+00	81	37	0	437256192	48	5864
2026-01-18 14:13:27.08	31.64	25.33	-37.5	-38.3	24.8	0.00e+00	0	36	0	439353344	48	5902
2026-01-18 14:13:28.09	31.74	25.48	-37.6	-38.4	24.7	0.00e+00	77	36	0	440401920	48	6008
2026-01-18 14:13:29.09	31.84	25.64	-37.7	-38.5	24.6	0.00e+00	2	37	0	442499072	48	6067
2026-01-18 14:13:30.10	31.94	25.79	-37.9	-38.8	24.4	0.00e+00	90	36	0	444596224	48	6268
2026-01-18 14:13:31.11	32.04	25.95	-37.7	-38.5	24.7	0.00e+00	0	37	0	446693376	48	6083
2026-01-18 14:13:32.12	32.14	26.10	-37.8	-38.7	24.5	0.00e+00	0	36	0	448790528	48	6194
2026-01-18 14:13:33.13	32.24	26.26	-37.7	-38.6	24.6	0.00e+00	0	37	0	449839104	48	6120
2026-01-18 14:13:34.14	32.34	26.42	-37.7	-38.6	24.6	0.00e+00	0	37	0	451936256	48	6114
2026-01-18 14:13:35.15	32.44	26.58	-37.8	-38.6	24.5	0.00e+00	0	36	0	454033408	48	6146
2026-01-18 14:13:36.16	32.55	26.74	-37.8	-38.6	24.5	0.00e+00	0	37	0	456130560	48	6156
2026-01-18 14:13:37.16	32.65	26.90	-37.9	-38.7	24.4	0.00e+00	92	36	0	458227712	48	6205
2026-01-18 14:13:38.18	32.76	27.06	-37.9	-38.8	24.4	0.00e+00	2	37	0	459276288	48	6256
2026-01-18 14:13:39.19	32.87	27.23	-37.9	-38.7	24.3	0.00e+00	0	37	0	461373440	48	6217
2026-01-18 14:13:40.19	32.98	27.39	-37.8	-38.7	24.1	0.00e+00	0	37	0	463470592	48	6176
2026-01-18 14:13:41.20	33.09	27.55	-37.9	-38.7	24.3	0.00e+00	0	37	0	465567744	48	6245
2026-01-18 14:13:42.21	33.20	27.72	-38.0	-38.8	24.3	0.00e+00	0	36	0	467664896	48	6308
2026-01-18 14:13:43.22	33.31	27.88	-38.1	-39.0	24.2	0.00e+00	81	36	0	468713472	48	6424
2026-01-18 14:13:44.22	33.42	28.05	-38.2	-39.1	24.1	0.00e+00	90	36	0	470810624	48	6498
2026-01-18 14:13:45.23	33.54	28.22	-38.4	-39.3	24.0	0.00e+00	82	36	0	472907776	48	6635
2026-01-18 14:13:46.24	33.65	28.39	-38.7	-39.6	23.7	0.00e+00	92	36	0	475004928	48	6917
2026-01-18 14:13:47.25	33.77	28.56	-38.9	-39.8	23.6	0.00e+00	0	36	0	477102080	50	6295
2026-01-18 14:13:48.26	33.89	28.73	-38.9	-39.8	23.6	0.00e+00	82	36	0	478150656	50	6313
2026-01-18 14:13:49.27	34.01	28.90	-39.2	-40.1	23.4	0.00e+00	0	36	0	480247808	50	6519
2026-01-18 14:13:50.27	34.13	29.07	-39.3	-40.3	23.2	0.00e+00	0	37	0	482344960	50	6624
2026-01-18 14:13:51.28	34.25	29.25	-39.5	-40.5	23.0	0.00e+00	90	37	0	484442112	50	6777
2026-01-18 14:13:52.29	34.37	29.42	-39.7	-40.6	22.8	0.00e+00	0	36	0	486539264	50	6916
2026-01-18 14:13:53.30	34.49	29.60	-39.9	-40.9	22.6	0.00e+00	89	37	0	487587840	52	6375
2026-01-18 14:13:54.31	34.62	29.77	-40.2	-41.2	22.3	0.00e+00	0	37	0	489684992	52	6579
2026-01-18 14:13:55.32	34.75	29.95	-40.4	-41.5	22.1	0.00e+00	0	36	0	491782144	52	6787
2026-01-18 14:13:56.33	34.87	30.13	-40.7	-41.8	21.8	0.00e+00	0	36	0	493879296	52	7046
2026-01-18 14:13:57.33	35.00	30.31	-41.0	-42.1	21.5	0.00e+00	2	36	0	495976448	54	6506
2026-01-18 14:13:58.34	35.13	30.49	-41.1	-42.3	21.2	0.00e+00	0	37	0	497025024	54	6640
2026-01-18 14:13:59.35	35.27	30.67	-41.3	-42.5	21.2	0.00e+00	0	37	0	499122176	54	6795
2026-01-18 14:14:00.36	35.40	30.85	-41.5	-42.7	20.9	0.00e+00	92	36	0	501219328	54	6968
2026-01-18 14:14:01.37	35.54	31.04	-41.7	-42.9	20.5	0.00e+00	81	37	0	503316480	54	7151
2026-01-18 14:14:02.38	35.67	31.22	-41.9	-43.2	20.5	0.00e+00	2	37	0	505413632	56	6568
2026-01-18 14:14:03.39	35.81	31.41	-42.0	-43.3	20.5	0.00e+00	0	36	0	507510784	56	6653
2026-01-18 14:14:04.40	35.95	31.59	-42.1	-43.4	20.3	0.00e+00	81	37	0	508559360	56	6730
2026-01-18 14:14:05.41	36.09	31.78	-42.2	-43.5	20.3	0.00e+00	0	37	0	510656512	56	6810
2026-01-18 14:14:06.41	36.23	31.97	-42.2	-43.5	20.3	0.00e+00	79	37	0	512753664	56	6832
2026-01-18 14:14:07.42	36.38	32.16	-42.2	-43.5	20.2	0.00e+00	92	37	0	514850816	56	6828
2026-01-18 14:14:08.43	36.52	32.35	-41.9	-43.2	20.5	0.00e+00	1	37	0	516947968	56	6581
2026-01-18 14:14:09.44	36.67	32.54	-41.7	-43.0	20.8	0.00e+00	92	36	0	517996544	56	6394
2026-01-18 14:14:10.45	36.82	32.73	-41.6	-42.8	20.9	0.00e+00	0	37	0	520093696	56	6293
2026-01-18 14:14:11.46	36.97	32.92	-41.5	-42.7	21.1	0.00e+00	0	37	0	522190848	56	6208
2026-01-18 14:14:12.46	37.12	33.12	-41.4	-42.6	21.2	0.00e+00	82	36	0	524288000	56	6138
2026-01-18 14:14:13.47	37.28	33.31	-40.9	-42.0	21.7	0.00e+00	0	36	0	526385152	56	5743
2026-01-18 14:14:14.48	37.44	33.51	-40.9	-42.0	21.6	0.00e+00	91	37	0	527433728	56	5757
2026-01-18 14:14:15.49	37.60	33.71	-40.8	-41.9	21.8	0.00e+00	6	37	0	529530880	56	5648
2026-01-18 14:14:16.50	37.76	33.91	-40.8	-42.0	21.6	0.00e+00	92	37	0	531628032	54	6400
2026-01-18 14:14:17.51	37.92	34.11	-40.7	-41.9	21.7	0.00e+00	0	37	0	533725184	54	6320
2026-01-18 14:14:18.52	38.08	34.31	-40.9	-42.1	21.5	0.00e+00	30	37	0	535822336	54	6467
2026-01-18 14:14:19.53	38.25	34.51	-41.1	-42.3	21.3	0.00e+00	6	36	0	536870912	54	6634
2026-01-18 14:14:20.54	38.42	34.71	-41.1	-42.3	21.4	0.00e+00	5	37	0	538968064	54	6642
2026-01-18 14:14:21.55	38.59	34.92	-41.2	-42.4	21.3	0.00e+00	0	36	0	541065216	54	6735
2026-01-18 14:14:22.55	38.76	35.12	-41.2	-42.3	21.3	0.00e+00	7	37	0	543162368	54	6692
2026-01-18 14:14:23.56	38.93	35.33	-41.1	-42.2	21.5	0.00e+00	92	36	0	545259520	54	6609
2026-01-18 14:14:24.57	39.11	35.53	-41.0	-42.1	21.5	0.00e+00	0	36	0	546308096	54	6493
2026-01-18 14:14:25.58	39.29	35.74	-40.9	-42.0	21.6	0.00e+00	92	36	0	548405248	54	6417
2026-01-18 14:14:26.59	39.47	35.95	-40.9	-42.0	21.6	0.00e+00	87	36	0	550502400	54	6453
2026-01-18 14:14:27.59	39.65	36.16	-40.5	-41.6	22.0	0.00e+00	86	36	0	552599552	54	6150
2026-01-18 14:14:28.60	39.84	36.37	-40.3	-41.4	22.2	0.00e+00	82	36	0	554696704	54	5990
2026-01-18 14:14:29.61	40.03	36.58	-40.1	-41.1	22.4	0.00e+00	0	37	0	555745280	54	5828
2026-01-18 14:14:30.62	40.22	36.80	-40.1	-41.1	22.4	0.00e+00	41	36	0	557842432	54	5797
2026-01-18 14:14:31.62	40.41	37.01	-40.0	-41.0	22.5	0.00e+00	1	36	0	559939584	54	5705
2026-01-18 14:14:32.63	40.60	37.23	-39.9	-40.9	22.6	0.00e+00	92	36	0	562036736	54	5649
2026-01-18 14:14:33.64	40.80	37.44	-39.8	-40.8	22.2	0.00e+00	6	37	0	564133888	54	5616
2026-01-18 14:14:34.65	41.00	37.66	-40.0	-41.1	22.6	0.00e+00	81	37	0	565182464	54	5763
2026-01-18 14:14:35.65	41.21	37.88	-40.0	-41.0	22.5	0.00e+00	6	36	0	567279616	54	5740
2026-01-18 14:14:36.66	41.41	38.10	-39.9	-40.9	22.6	0.00e+00	81	36	0	569376768	54	5678
2026-01-18 14:14:37.67	41.62	38.32	-39.9	-40.9	22.5	0.00e+00	67	36	0	571473920	54	5673
2026-01-18 14:14:38.68	41.83	38.54	-40.0	-41.0	22.6	0.00e+00	6	36	0	573571072	54	5746
2026-01-18 14:14:39.69	42.05	38.77	-40.2	-41.2	22.4	0.00e+00	92	36	0	574619648	54	5862
2026-01-18 14:14:40.70	42.26	38.99	-40.2	-41.2	22.4	0.00e+00	1	36	0	576716800	54	5867
2026-01-18 14:14:41.71	42.48	39.21	-40.1	-41.1	22.4	0.00e+00	91	36	0	578813952	54	5815
2026-01-18 14:14:42.72	42.71	39.44	-40.1	-41.2	22.3	0.00e+00	7	36	0	580911104	54	5839
2026-01-18 14:14:43.73	42.93	39.67	-39.7	-40.7	22.9	0.00e+00	0	37	0	583008256	52	6183
2026-01-18 14:14:44.74	43.16	39.90	-39.3	-40.2	23.3	0.00e+00	0	36	0	584056832	52	5885
2026-01-18 14:14:45.74	43.39	40.12	-39.1	-40.0	23.5	0.00e+00	7	36	0	586153984	52	5744
2026-01-18 14:14:46.75	43.63	40.35	-38.8	-39.6	23.7	0.00e+00	91	37	0	588251136	52	5495
2026-01-18 14:14:47.76	43.87	40.59	-38.7	-39.5	23.7	0.00e+00	7	37	0	590348288	50	6082
2026-01-18 14:14:48.77	44.11	40.82	-38.6	-39.5	23.8	0.00e+00	92	37	0	592445440	50	6052
2026-01-18 14:14:49.78	44.36	41.05	-38.9	-39.8	23.6	0.00e+00	81	37	0	593494016	50	6271
2026-01-18 14:14:50.79	44.61	41.28	-39.0	-39.9	23.4	0.00e+00	81	37	0	595591168	50	6341
2026-01-18 14:14:51.80	44.86	41.52	-39.3	-40.2	23.2	0.00e+00	81	37	0	597688320	50	6590
2026-01-18 14:14:52.81	45.12	41.76	-39.2	-40.1	23.3	0.00e+00	0	36	0	599785472	50	6530
2026-01-18 14:14:53.82	45.38	41.99	-39.1	-40.0	23.4	0.00e+00	87	37	0	601882624	50	6455
2026-01-18 14:14:54.82	45.64	42.23	-39.3	-40.2	23.3	0.00e+00	0	37	0	603979776	50	6589
2026-01-18 14:14:55.83	45.91	42.47	-39.3	-40.2	23.2	0.00e+00	92	37	0	605028352	50	6600
2026-01-18 14:14:56.84	46.18	42.71	-39.3	-40.2	23.3	0.00e+00	0	36	0	607125504	50	6566
2026-01-18 14:14:57.86	46.46	42.95	-39.3	-40.2	23.3	0.00e+00	0	37	0	609222656	50	6614
2026-01-18 14:14:58.87	46.74	43.19	-39.4	-40.3	23.0	0.00e+00	0	37	0	611319808	50	6678
2026-01-18 14:14:59.88	47.03	43.43	-39.4	-40.4	23.1	0.00e+00	0	37	0	613416960	50	6697
2026-01-18 14:15:00.88	47.31	43.67	-39.4	-40.3	23.1	0.00e+00	0	37	0	614465536	50	6685
2026-01-18 14:15:01.89	47.61	43.91	-39.6	-40.6	22.9	0.00e+00	0	37	0	616562688	50	6875
2026-01-18 14:15:02.90	47.90	44.16	-40.0	-41.0	22.7	0.00e+00	92	37	0	618659840	52	6399
2026-01-18 14:15:03.91	48.21	44.40	-40.3	-41.3	22.3	0.00e+00	0	37	0	620756992	52	6657
2026-01-18 14:15:04.92	48.51	44.65	-40.6	-41.7	21.9	0.00e+00	17	37	0	622854144	52	6938
2026-01-18 14:15:05.93	48.83	44.90	-40.7	-41.8	21.8	0.00e+00	0	37	0	623902720	52	7020
2026-01-18 14:15:06.94	49.14	45.14	-40.7	-41.8	21.8	0.00e+00	0	37	0	625999872	52	7045
2026-01-18 14:15:07.95	49.46	45.39	-40.6	-41.7	21.9	0.00e+00	0	37	0	628097024	52	6959
2026-01-18 14:15:08.96	49.79	45.64	-41.0	-42.1	21.6	0.00e+00	0	37	0	630194176	54	6480
2026-01-18 14:15:09.97	50.12	45.89	-41.3	-42.5	21.2	0.00e+00	91	37	0	632291328	54	6777
2026-01-18 14:15:10.98	50.46	46.13	-41.8	-43.0	20.7	0.00e+00	81	37	0	633339904	56	6451
2026-01-18 14:15:11.98	50.80	46.38	-41.8	-43.0	20.7	0.00e+00	90	37	0	635437056	56	6451
2026-01-18 14:15:12.99	51.14	46.63	-41.7	-43.0	20.9	0.00e+00	0	37	0	637534208	56	6400
2026-01-18 14:15:14.00	51.50	46.88	-41.4	-42.6	21.1	0.00e+00	83	37	0	639631360	56	6169
2026-01-18 14:15:15.01	51.85	47.13	-41.6	-42.8	20.9	0.00e+00	0	36	0	641728512	56	6291
2026-01-18 14:15:16.02	52.22	47.38	-41.4	-42.6	21.1	0.00e+00	81	36	0	642777088	56	6104
2026-01-18 14:15:17.03	52.59	47.63	-41.9	-43.1	20.6	0.00e+00	92	37	0	644874240	56	6516
2026-01-18 14:15:18.04	52.96	47.88	-42.3	-43.7	20.1	0.00e+00	0	37	0	646971392	56	6969
2026-01-18 14:15:19.05	53.35	48.14	-42.5	-43.9	19.9	0.00e+00	92	37	0	649068544	56	7112
2026-01-18 14:15:20.05	53.73	48.38	-42.6	-44.0	19.9	0.00e+00	0	37	0	651165696	56	7172
2026-01-18 14:15:21.06	54.12	48.64	-42.5	-43.9	20.0	0.00e+00	92	37	0	652214272	56	7103
2026-01-18 14:15:22.07	54.53	48.89	-42.3	-43.6	20.2	0.00e+00	0	36	0	654311424	56	6900
2026-01-18 14:15:23.08	54.93	49.14	-42.2	-43.5	20.3	0.00e+00	0	37	0	656408576	56	6803
2026-01-18 14:15:24.09	55.35	49.39	-41.9	-43.2	20.7	0.00e+00	0	37	0	658505728	56	6563
2026-01-18 14:15:25.10	55.77	49.64	-41.6	-42.9	20.9	0.00e+00	0	37	0	660602880	56	6339
2026-01-18 14:15:26.11	56.20	49.89	-41.9	-43.1	20.6	0.00e+00	92	36	0	661651456	56	6521
2026-01-18 14:15:27.12	56.63	50.14	-41.8	-43.1	20.7	0.00e+00	0	36	0	663748608	56	6498
2026-01-18 14:15:28.12	57.07	50.39	-41.5	-42.7	21.0	0.00e+00	92	37	0	665845760	56	6235
2026-01-18 14:15:29.13	57.52	50.64	-41.0	-42.1	21.7	0.00e+00	0	37	0	667942912	56	5800
2026-01-18 14:15:30.14	57.97	50.89	-40.6	-41.7	21.7	0.00e+00	2	37	0	670040064	54	6176
2026-01-18 14:15:31.14	58.43	51.14	-40.2	-41.3	22.3	0.00e+00	0	37	0	671088640	54	5911
2026-01-18 14:15:32.15	58.90	51.38	-40.2	-41.2	22.3	0.00e+00	0	37	0	673185792	54	5871
2026-01-18 14:15:33.16	59.38	51.63	-40.2	-41.2	22.3	0.00e+00	80	37	0	675282944	54	5885
2026-01-18 14:15:34.17	59.87	51.88	-40.0	-41.0	22.5	0.00e+00	0	37	0	677380096	54	5704
2026-01-18 14:15:35.18	60.37	52.12	-39.8	-40.7	22.8	0.00e+00	91	37	0	679477248	52	6231
2026-01-18 14:15:36.18	60.87	52.37	-39.7	-40.6	23.1	0.00e+00	81	37	0	680525824	52	6161
2026-01-18 14:15:37.19	61.38	52.61	-39.3	-40.2	23.2	0.00e+00	12	37	0	682622976	52	5873
2026-01-18 14:15:38.20	61.90	52.85	-39.1	-40.0	23.5	0.00e+00	0	37	0	684720128	52	5748
2026-01-18 14:15:39.21	62.43	53.10	-38.6	-39.5	23.8	0.00e+00	0	37	0	686817280	50	6080
2026-01-18 14:15:40.22	62.97	53.34	-38.7	-39.5	23.7	0.00e+00	70	37	0	688914432	50	6093
2026-01-18 14:15:41.23	63.51	53.57	-39.0	-39.9	23.6	0.00e+00	0	37	0	689963008	50	6328
2026-01-18 14:15:42.24	64.07	53.81	-39.1	-40.0	23.5	0.00e+00	92	37	0	692060160	50	6407
2026-01-18 14:15:43.25	64.63	54.05	-38.5	-39.4	24.0	0.00e+00	82	37	0	694157312	50	5990
2026-01-18 14:15:44.26	65.21	54.28	-38.1	-38.9	23.9	0.00e+00	65	37	0	696254464	50	5682
2026-01-18 14:15:45.27	65.79	54.51	-38.0	-38.8	24.4	0.00e+00	0	37	0	698351616	50	5591
2026-01-18 14:15:46.27	66.38	54.74	-38.3	-39.2	24.2	0.00e+00	0	37	0	700448768	50	5832
2026-01-18 14:15:47.28	66.98	54.97	-38.7	-39.6	23.7	0.00e+00	0	36	0	701497344	50	6119
2026-01-18 14:15:48.29	67.59	55.20	-39.1	-40.0	23.5	0.00e+00	0	37	0	703594496	50	6418
2026-01-18 14:15:49.29	68.21	55.42	-39.1	-40.0	23.4	0.00e+00	92	37	0	705691648	50	6413
2026-01-18 14:15:50.30	68.84	55.64	-38.8	-39.7	23.1	0.00e+00	0	37	0	707788800	50	6232
2026-01-18 14:15:51.31	69.48	55.86	-38.8	-39.7	23.7	0.00e+00	90	37	0	708837376	50	6186
2026-01-18 14:15:52.32	70.13	56.07	-39.0	-40.0	23.4	0.00e+00	0	37	0	710934528	50	6391
2026-01-18 14:15:53.33	70.79	56.29	-39.3	-40.2	23.2	0.00e+00	0	37	0	713031680	50	6601
2026-01-18 14:15:54.33	71.46	56.50	-39.5	-40.4	23.1	0.00e+00	2	37	0	715128832	50	6759
2026-01-18 14:15:55.34	72.14	56.70	-39.6	-40.6	22.9	0.00e+00	0	37	0	717225984	50	6879
2026-01-18 14:15:56.35	72.83	56.91	-39.8	-40.9	22.7	0.00e+00	92	37	0	718274560	52	6318
2026-01-18 14:15:57.36	73.53	57.11	-39.7	-40.7	22.8	0.00e+00	0	37	0	720371712	52	6175
2026-01-18 14:15:58.37	74.25	57.31	-39.7	-40.7	22.8	0.00e+00	92	37	0	722468864	52	6211
2026-01-18 14:15:59.38	74.97	57.50	-40.1	-41.2	22.5	0.00e+00	81	37	0	724566016	52	6544
2026-01-18 14:16:00.39	75.70	57.69	-40.1	-41.1	22.6	0.00e+00	81	37	0	726663168	52	6490
2026-01-18 14:16:01.40	76.44	57.88	-39.8	-40.8	22.8	0.00e+00	0	37	0	728760320	52	6312
2026-01-18 14:16:02.40	77.19	58.06	-39.5	-40.5	22.6	0.00e+00	2	37	0	729808896	52	6068
2026-01-18 14:16:03.42	77.96	58.24	-39.6	-40.6	22.9	0.00e+00	0	37	0	731906048	52	6125
2026-01-18 14:16:04.42	78.73	58.41	-39.8	-40.8	22.7	0.00e+00	0	37	0	734003200	52	6298
2026-01-18 14:16:05.43	79.51	58.58	-39.9	-40.9	22.6	0.00e+00	92	37	0	736100352	52	6320
2026-01-18 14:16:06.44	80.30	58.75	-39.8	-40.8	22.7	0.00e+00	0	37	0	738197504	52	6295
2026-01-18 14:16:07.45	81.11	58.91	-39.3	-40.2	23.4	0.00e+00	90	37	0	739246080	52	5889
2026-01-18 14:16:08.46	81.92	59.07	-39.2	-40.2	23.2	0.00e+00	81	37	0	741343232	52	5844
2026-01-18 14:16:09.47	82.74	59.22	-39.0	-39.9	23.4	0.00e+00	0	37	0	743440384	52	5684
2026-01-18 14:16:10.48	83.58	59.36	-39.1	-40.0	23.5	0.00e+00	0	37	0	745537536	52	5747
2026-01-18 14:16:11.49	84.42	59.51	-39.1	-40.0	23.6	0.00e+00	5	37	0	747634688	52	5721
2026-01-18 14:16:12.50	85.27	59.64	-39.1	-40.0	23.5	0.00e+00	92	37	0	748683264	52	5747
2026-01-18 14:16:13.51	86.13	59.77	-39.1	-40.0	23.4	0.00e+00	5	37	0	750780416	52	5729
2026-01-18 14:16:14.52	86.99	59.90	-39.2	-40.1	23.3	0.00e+00	92	37	0	752877568	52	5789
2026-01-18 14:16:15.53	87.87	60.02	-39.6	-40.6	22.9	0.00e+00	0	37	0	754974720	52	6110
2026-01-18 14:16:16.54	88.75	60.13	-39.8	-40.9	22.7	0.00e+00	0	37	0	757071872	52	6318
2026-01-18 14:16:17.55	89.64	60.24	-39.3	-40.3	23.1	0.00e+00	7	37	0	758120448	52	5922
2026-01-18 14:16:18.56	90.54	60.34	-39.0	-39.9	23.5	0.00e+00	0	37	0	760217600	52	5660
2026-01-18 14:16:19.57	91.45	60.44	-39.3	-40.2	23.3	0.00e+00	47	37	0	762314752	52	5863
2026-01-18 14:16:20.57	92.35	60.53	-39.8	-40.8	22.7	0.00e+00	86	37	0	764411904	52	6291
2026-01-18 14:16:21.58	93.27	60.61	-39.9	-40.8	22.6	0.00e+00	90	37	0	766509056	52	6312
2026-01-18 14:16:22.59	94.19	60.69	-39.8	-40.8	22.9	0.00e+00	0	37	0	767557632	52	6295
2026-01-18 14:16:23.60	95.12	60.76	-39.5	-40.5	23.1	0.00e+00	86	37	0	769654784	52	6051
2026-01-18 14:16:24.61	96.06	60.82	-39.0	-39.9	23.4	0.00e+00	85	37	0	771751936	52	5644
2026-01-18 14:16:25.62	97.00	60.88	-38.9	-39.7	23.7	0.00e+00	5	37	0	773849088	52	5566
2026-01-18 14:16:26.62	97.93	60.93	-39.5	-40.4	23.0	0.00e+00	62	37	0	775946240	52	6013
2026-01-18 14:16:27.63	98.88	60.97	-39.5	-40.5	23.1	0.00e+00	0	37	0	776994816	52	6050
2026-01-18 14:16:28.64	99.83	61.01	-39.8	-40.8	22.8	0.00e+00	92	37	0	779091968	52	6285
2026-01-18 14:16:29.64	100.77	61.04	-39.7	-40.7	22.8	0.00e+00	85	37	0	781189120	52	6183
2026-01-18 14:16:30.65	101.73	61.06	-39.2	-40.1	23.4	0.00e+00	91	37	0	783286272	52	5788
2026-01-18 14:16:31.66	102.68	61.08	-38.5	-39.3	24.1	0.00e+00	0	37	0	785383424	50	5938
2026-01-18 14:16:32.67	103.64	61.09	-38.5	-39.4	23.9	0.00e+00	3	37	0	786432000	50	5988
2026-01-18 14:16:33.68	104.60	61.09	-38.9	-39.8	23.7	0.00e+00	5	37	0	788529152	50	6269
2026-01-18 14:16:34.69	105.55	61.09	-38.1	-39.0	24.3	0.00e+00	3	37	0	790626304	50	5721
2026-01-18 14:16:35.70	106.51	61.08	-37.6	-38.4	24.8	0.00e+00	92	37	0	792723456	48	5993
2026-01-18 14:16:36.71	107.47	61.06	-37.7	-38.5	24.5	0.00e+00	7	37	0	794820608	48	6044
2026-01-18 14:16:37.72	108.42	61.03	-37.5	-38.3	24.9	0.00e+00	91	37	0	795869184	48	5925
2026-01-18 14:16:38.73	109.37	61.00	-37.2	-37.9	25.2	0.00e+00	7	37	0	797966336	48	5690
2026-01-18 14:16:39.74	110.32	60.96	-37.3	-38.0	25.1	0.00e+00	0	37	0	800063488	48	5755
2026-01-18 14:16:40.75	111.27	60.92	-37.5	-38.3	24.9	0.00e+00	0	37	0	802160640	48	5906
2026-01-18 14:16:41.76	112.21	60.87	-38.0	-38.8	24.4	0.00e+00	7	37	0	804257792	48	6286
2026-01-18 14:16:42.77	113.15	60.81	-38.6	-39.4	23.8	0.00e+00	0	37	0	805306368	48	6762
2026-01-18 14:16:43.77	114.07	60.74	-38.9	-39.8	23.6	0.00e+00	0	37	0	807403520	50	6266
2026-01-18 14:16:44.79	115.01	60.67	-38.9	-39.8	23.6	0.00e+00	92	37	0	809500672	50	6293
2026-01-18 14:16:45.80	115.94	60.59	-39.7	-40.7	22.8	0.00e+00	0	37	0	811597824	50	6962
2026-01-18 14:16:46.80	116.85	60.51	-40.3	-41.4	22.2	0.00e+00	92	37	0	813694976	52	6694
2026-01-18 14:16:47.81	117.76	60.42	-39.6	-40.6	22.9	0.00e+00	0	37	0	814743552	52	6136
2026-01-18 14:16:48.82	118.66	60.32	-39.9	-40.8	22.9	0.00e+00	0	37	0	816840704	52	6303
2026-01-18 14:16:49.83	119.56	60.22	-40.5	-41.6	22.0	0.00e+00	0	37	0	818937856	52	6859
2026-01-18 14:16:50.84	120.45	60.11	-41.3	-42.5	21.2	0.00e+00	81	37	0	821035008	54	6778
2026-01-18 14:16:51.85	121.33	59.99	-41.0	-42.1	21.6	0.00e+00	92	37	0	823132160	54	6532
2026-01-18 14:16:52.86	122.21	59.87	-40.1	-41.2	22.3	0.00e+00	0	37	0	825229312	54	5832
2026-01-18 14:16:53.87	123.08	59.75	-39.7	-40.7	22.9	0.00e+00	92	37	0	826277888	52	6177
2026-01-18 14:16:54.88	123.93	59.62	-39.7	-40.6	23.0	0.00e+00	0	37	0	828375040	52	6158
2026-01-18 14:16:55.88	124.77	59.48	-40.7	-41.8	21.8	0.00e+00	0	37	0	830472192	52	7022
2026-01-18 14:16:56.89	125.61	59.34	-40.8	-41.9	21.7	0.00e+00	0	37	0	832569344	54	6371
2026-01-18 14:16:57.90	126.45	59.19	-40.3	-41.3	22.4	0.00e+00	0	37	0	834666496	54	5946
2026-01-18 14:16:58.91	127.27	59.04	-40.0	-41.0	22.6	0.00e+00	76	37	0	835715072	54	5725
2026-01-18 14:16:59.92	128.08	58.88	-40.8	-41.9	21.7	0.00e+00	0	37	0	837812224	54	6377
2026-01-18 14:17:00.93	128.88	58.72	-40.7	-41.8	21.9	0.00e+00	92	37	0	839909376	54	6252
2026-01-18 14:17:01.94	129.67	58.55	-40.3	-41.3	22.3	0.00e+00	2	37	0	842006528	54	5928
2026-01-18 14:17:02.95	130.46	58.38	-40.3	-41.3	22.3	0.00e+00	0	37	0	844103680	54	5935
2026-01-18 14:17:03.95	131.22	58.20	-40.3	-41.3	22.3	0.00e+00	0	37	0	845152256	54	5924
2026-01-18 14:17:04.96	131.99	58.02	-40.6	-41.7	21.8	0.00e+00	0	37	0	847249408	54	6239
2026-01-18 14:17:05.97	132.74	57.84	-40.7	-41.8	21.8	0.00e+00	0	37	0	849346560	54	6280
2026-01-18 14:17:06.98	133.48	57.65	-40.4	-41.5	22.2	0.00e+00	0	37	0	851443712	54	6045
2026-01-18 14:17:07.99	134.21	57.46	-39.4	-40.3	23.3	0.00e+00	92	37	0	853540864	52	5934
2026-01-18 14:17:09.00	134.93	57.26	-38.8	-39.7	23.8	0.00e+00	0	37	0	854589440	52	5527
2026-01-18 14:17:10.01	135.64	57.07	-38.8	-39.7	23.7	0.00e+00	92	37	0	856686592	52	5533
2026-01-18 14:17:11.02	136.35	56.86	-39.2	-40.1	23.4	0.00e+00	0	37	0	858783744	52	5794
2026-01-18 14:17:12.03	137.04	56.66	-39.4	-40.3	23.3	0.00e+00	0	37	0	860880896	52	5945
2026-01-18 14:17:13.04	137.72	56.45	-38.6	-39.5	23.9	0.00e+00	65	37	0	862978048	50	6078
2026-01-18 14:17:14.04	138.38	56.24	-38.4	-39.2	24.0	0.00e+00	82	37	0	864026624	50	5885
2026-01-18 14:17:15.05	139.04	56.02	-38.2	-39.0	24.3	0.00e+00	92	37	0	866123776	50	5737
2026-01-18 14:17:16.06	139.69	55.81	-38.3	-39.1	23.8	0.00e+00	0	37	0	868220928	50	5805
2026-01-18 14:17:17.07	140.33	55.59	-37.6	-38.4	24.8	0.00e+00	90	37	0	870318080	48	6013
2026-01-18 14:17:18.08	140.96	55.36	-36.9	-37.6	25.5	0.00e+00	0	37	0	872415232	48	5488
2026-01-18 14:17:19.09	141.58	55.14	-36.9	-37.6	25.5	0.00e+00	0	37	0	873463808	48	5487
2026-01-18 14:17:20.10	142.19	54.91	-36.7	-37.5	25.6	0.00e+00	2	37	0	875560960	46	6047
2026-01-18 14:17:21.10	142.79	54.69	-36.2	-36.9	26.0	0.00e+00	2	37	0	877658112	46	5654
2026-01-18 14:17:22.11	143.38	54.45	-36.1	-36.8	26.2	0.00e+00	92	37	0	879755264	46	5576
2026-01-18 14:17:23.12	143.96	54.22	-36.1	-36.8	26.2	0.00e+00	0	37	0	881852416	46	5591
2026-01-18 14:17:24.13	144.54	53.99	-35.6	-36.3	26.5	0.00e+00	92	37	0	882900992	44	5901
2026-01-18 14:17:25.14	145.10	53.75	-35.3	-36.0	26.7	0.00e+00	2	37	0	884998144	44	5716
2026-01-18 14:17:26.15	145.65	53.51	-35.9	-36.6	26.3	0.00e+00	28	37	0	887095296	44	6142
2026-01-18 14:17:27.16	146.20	53.27	-36.6	-37.4	25.6	0.00e+00	0	37	0	889192448	44	6741
2026-01-18 14:17:28.17	146.74	53.03	-36.3	-37.0	26.0	0.00e+00	0	37	0	891289600	44	6464
2026-01-18 14:17:29.17	147.26	52.79	-35.8	-36.6	26.3	0.00e+00	87	37	0	893386752	44	6104
2026-01-18 14:17:30.19	147.78	52.54	-36.0	-36.7	26.2	0.00e+00	0	37	0	894435328	44	6233
2026-01-18 14:17:31.19	148.29	52.30	-36.4	-37.2	25.9	0.00e+00	92	37	0	896532480	44	6550
2026-01-18 14:17:32.20	148.79	52.06	-36.3	-37.0	25.9	0.00e+00	0	37	0	898629632	44	6452
2026-01-18 14:17:33.21	149.29	51.81	-36.2	-37.0	25.9	0.00e+00	92	37	0	900726784	44	6406
2026-01-18 14:17:34.22	149.78	51.56	-36.4	-37.1	25.8	0.00e+00	81	37	0	902823936	44	6508
2026-01-18 14:17:35.23	150.25	51.31	-36.8	-37.5	25.5	0.00e+00	0	37	0	903872512	44	6822
2026-01-18 14:17:36.24	150.72	51.06	-37.1	-37.9	25.2	0.00e+00	5	37	0	905969664	46	6364
2026-01-18 14:17:37.25	151.19	50.81	-37.9	-38.7	24.6	0.00e+00	0	37	0	908066816	46	6968
2026-01-18 14:17:38.26	151.64	50.56	-38.5	-39.4	23.9	0.00e+00	92	36	0	910163968	48	6741
2026-01-18 14:17:39.27	152.09	50.31	-38.7	-39.6	23.9	0.00e+00	0	37	0	911212544	48	6852
2026-01-18 14:17:40.28	152.53	50.06	-38.5	-39.4	24.1	0.00e+00	92	37	0	913309696	50	5976
2026-01-18 14:17:41.29	152.97	49.81	-39.1	-40.0	23.3	0.00e+00	0	37	0	915406848	50	6393
2026-01-18 14:17:42.30	153.39	49.56	-40.3	-41.3	22.3	0.00e+00	0	37	0	917504000	52	6659
2026-01-18 14:17:43.31	153.81	49.31	-41.5	-42.7	20.9	0.00e+00	0	37	0	919601152	54	6982
2026-01-18 14:17:44.32	154.23	49.05	-41.6	-42.8	21.2	0.00e+00	0	37	0	921698304	56	6292
2026-01-18 14:17:45.33	154.63	48.80	-41.5	-42.7	21.3	0.00e+00	92	37	0	922746880	56	6215
2026-01-18 14:17:46.34	155.03	48.55	-41.6	-42.8	21.1	0.00e+00	0	37	0	924844032	56	6255
2026-01-18 14:17:47.35	155.43	48.30	-41.7	-43.0	20.9	0.00e+00	92	37	0	926941184	56	6392
2026-01-18 14:17:48.36	155.81	48.05	-41.4	-42.6	21.2	0.00e+00	2	37	0	929038336	56	6138
2026-01-18 14:17:49.36	156.19	47.80	-41.5	-42.6	21.1	0.00e+00	90	37	0	931135488	56	6173
2026-01-18 14:17:50.37	156.56	47.54	-43.0	-44.5	19.2	0.00e+00	0	37	0	932184064	58	6822
2026-01-18 14:17:51.38	156.93	47.29	-44.3	-46.2	17.7	0.00e+00	81	37	0	934281216	60	7394
2026-01-18 14:17:52.39	157.30	47.04	-43.8	-45.5	18.6	0.00e+00	0	37	0	936378368	60	6848
2026-01-18 14:17:53.40	157.65	46.79	-43.5	-45.1	19.0	0.00e+00	81	37	0	938475520	60	6480
2026-01-18 14:17:54.41	158.01	46.54	-43.1	-44.6	19.4	0.00e+00	91	37	0	940572672	60	6109
2026-01-18 14:17:55.42	158.35	46.29	-44.0	-45.8	18.0	0.00e+00	0	37	0	941621248	60	7065
2026-01-18 14:17:56.43	158.69	46.04	-45.0	-47.3	16.6	0.00e+00	91	37	0	943718400	60	8362
2026-01-18 14:17:57.44	159.03	45.79	-44.3	-46.2	17.8	0.00e+00	0	37	0	945815552	60	7417
2026-01-18 14:17:58.45	159.36	45.54	-43.6	-45.2	19.1	0.00e+00	0	37	0	947912704	60	6571
2026-01-18 14:17:59.45	159.68	45.29	-42.4	-43.7	20.1	0.00e+00	0	37	0	950009856	58	6230
2026-01-18 14:18:00.46	160.00	45.04	-43.4	-45.1	18.6	0.00e+00	0	37	0	951058432	58	7299
2026-01-18 14:18:01.47	160.32	44.80	-44.3	-46.3	17.6	0.00e+00	92	37	0	953155584	60	7465
2026-01-18 14:18:02.48	160.63	44.55	-43.1	-44.8	19.3	0.00e+00	0	37	0	955252736	60	6281
2026-01-18 14:18:03.49	160.94	44.30	-41.0	-42.2	21.7	0.00e+00	92	37	0	957349888	56	5836
2026-01-18 14:18:04.50	161.24	44.06	-39.9	-40.9	22.7	0.00e+00	1	37	0	959447040	54	5665
2026-01-18 14:18:05.51	161.53	43.81	-39.6	-40.5	23.1	0.00e+00	64	37	0	960495616	52	6091
2026-01-18 14:18:06.52	161.83	43.57	-39.3	-40.2	23.3	0.00e+00	6	37	0	962592768	52	5866
2026-01-18 14:18:07.52	162.11	43.33	-39.3	-40.2	23.3	0.00e+00	0	37	0	964689920	52	5878
2026-01-18 14:18:08.53	162.40	43.09	-39.7	-40.6	23.0	0.00e+00	0	37	0	966787072	52	6172
2026-01-18 14:18:09.54	162.68	42.84	-40.1	-41.1	22.5	0.00e+00	5	37	0	968884224	52	6506
2026-01-18 14:18:10.55	162.95	42.60	-39.7	-40.7	23.0	0.00e+00	92	37	0	969932800	52	6190
2026-01-18 14:18:11.56	163.22	42.36	-39.1	-40.0	23.4	0.00e+00	0	37	0	972029952	52	5752
2026-01-18 14:18:12.57	163.49	42.12	-38.3	-39.1	24.3	0.00e+00	90	37	0	974127104	50	5812
2026-01-18 14:18:13.58	163.75	41.88	-37.8	-38.6	24.0	0.00e+00	0	37	0	976224256	50	5440
2026-01-18 14:18:14.59	164.01	41.65	-37.4	-38.2	25.0	0.00e+00	85	37	0	978321408	48	5875
2026-01-18 14:18:15.59	164.27	41.41	-38.7	-39.6	23.6	0.00e+00	0	37	0	979369984	48	6919
2026-01-18 14:18:16.60	164.52	41.18	-40.4	-41.5	21.9	0.00e+00	0	37	0	981467136	52	6843
2026-01-18 14:18:17.61	164.77	40.94	-40.2	-41.3	22.3	0.00e+00	90	37	0	983564288	52	6675
2026-01-18 14:18:18.62	165.02	40.71	-39.4	-40.4	23.1	0.00e+00	86	37	0	985661440	52	6023
2026-01-18 14:18:19.63	165.26	40.48	-39.0	-39.9	22.9	0.00e+00	90	37	0	987758592	52	5637
2026-01-18 14:18:20.64	165.50	40.24	-38.6	-39.4	24.0	0.00e+00	85	37	0	989855744	52	5358
2026-01-18 14:18:21.65	165.73	40.01	-37.8	-38.6	24.7	0.00e+00	85	37	0	990904320	50	5470
2026-01-18 14:18:22.66	165.96	39.78	-38.1	-38.9	24.4	0.00e+00	85	37	0	993001472	48	6335
2026-01-18 14:18:23.67	166.19	39.55	-39.0	-39.9	23.6	0.00e+00	1	37	0	995098624	50	6324
2026-01-18 14:18:24.68	166.42	39.33	-39.9	-40.9	22.8	0.00e+00	92	37	0	997195776	52	6335
2026-01-18 14:18:25.69	166.64	39.10	-40.1	-41.2	22.5	0.00e+00	0	37	0	999292928	52	6548
2026-01-18 14:18:26.69	166.86	38.88	-39.9	-40.9	22.8	0.00e+00	92	37	0	1000341504	52	6331
2026-01-18 14:18:27.70	167.08	38.65	-39.3	-40.3	23.4	0.00e+00	1	37	0	1002438656	52	5938
2026-01-18 14:18:28.71	167.29	38.43	-38.8	-39.7	23.8	0.00e+00	20	37	0	1004535808	52	5551
2026-01-18 14:18:29.72	167.50	38.20	-38.7	-39.6	23.8	0.00e+00	7	37	0	1006632960	50	6147
2026-01-18 14:18:30.73	167.71	37.98	-37.9	-38.7	24.6	0.00e+00	0	37	0	1008730112	50	5537
2026-01-18 14:18:31.74	167.92	37.76	-37.9	-38.7	24.5	0.00e+00	0	37	0	1009778688	48	6196
2026-01-18 14:18:32.75	168.12	37.54	-37.6	-38.4	24.8	0.00e+00	7	37	0	1011875840	48	5999
2026-01-18 14:18:33.76	168.32	37.32	-38.0	-38.8	24.4	0.00e+00	90	37	0	1013972992	48	6304
2026-01-18 14:18:34.77	168.52	37.11	-38.7	-39.6	23.7	0.00e+00	0	37	0	1016070144	48	6918
2026-01-18 14:18:35.77	168.71	36.89	-39.4	-40.3	23.2	0.00e+00	80	37	0	1018167296	50	6667
2026-01-18 14:18:36.78	168.90	36.68	-39.8	-40.8	22.8	0.00e+00	80	37	0	1019215872	52	6310
2026-01-18 14:18:37.79	169.09	36.46	-39.4	-40.4	23.2	0.00e+00	0	37	0	1021313024	52	5972
2026-01-18 14:18:38.80	169.28	36.25	-39.2	-40.1	23.4	0.00e+00	0	37	0	1023410176	52	5800
2026-01-18 14:18:39.81	169.47	36.04	-38.9	-39.8	23.8	0.00e+00	0	37	0	1025507328	52	5582
2026-01-18 14:18:40.82	169.65	35.82	-38.2	-39.1	24.3	0.00e+00	90	37	0	1027604480	50	5768
2026-01-18 14:18:41.82	169.83	35.62	-38.3	-39.1	24.2	0.00e+00	0	37	0	1028653056	50	5811
2026-01-18 14:18:42.83	170.01	35.41	-38.3	-39.1	24.3	0.00e+00	90	37	0	1030750208	50	5799
2026-01-18 14:18:43.84	170.18	35.20	-38.4	-39.2	24.2	0.00e+00	81	37	0	1032847360	50	5858
2026-01-18 14:18:44.85	170.36	34.99	-38.7	-39.5	23.9	0.00e+00	0	37	0	1034944512	50	6089
2026-01-18 14:18:45.86	170.53	34.79	-39.1	-40.0	23.5	0.00e+00	0	37	0	1037041664	50	6454
2026-01-18 14:18:46.87	170.70	34.58	-39.4	-40.4	23.2	0.00e+00	82	37	0	1038090240	50	6699
2026-01-18 14:18:47.87	170.86	34.38	-39.5	-40.4	23.1	0.00e+00	80	37	0	1040187392	50	6738
2026-01-18 14:18:48.88	171.03	34.18	-39.8	-40.8	22.8	0.00e+00	0	37	0	1042284544	52	6254
2026-01-18 14:18:49.89	171.19	33.98	-39.6	-40.6	23.0	0.00e+00	90	37	0	1044381696	52	6131
2026-01-18 14:18:50.90	171.36	33.78	-39.4	-40.3	23.2	0.00e+00	0	37	0	1046478848	52	5941
2026-01-18 14:18:51.91	171.52	33.58	-39.3	-40.2	23.3	0.00e+00	27	37	0	1047527424	52	5872
2026-01-18 14:18:52.92	171.67	33.38	-39.2	-40.1	23.4	0.00e+00	0	37	0	1049624576	52	5795
2026-01-18 14:18:53.93	171.83	33.18	-39.0	-39.8	23.6	0.00e+00	0	37	0	1051721728	52	5630
2026-01-18 14:18:54.94	171.99	32.98	-39.1	-40.0	23.5	0.00e+00	0	37	0	1053818880	52	5721
2026-01-18 14:18:55.94	172.14	32.79	-39.3	-40.2	23.3	0.00e+00	0	37	0	1055916032	52	5882
2026-01-18 14:18:56.95	172.29	32.60	-39.5	-40.4	23.1	0.00e+00	92	37	0	1056964608	52	6021
2026-01-18 14:18:57.96	172.44	32.40	-39.8	-40.8	22.8	0.00e+00	0	37	0	1059061760	52	6257
2026-01-18 14:18:58.97	172.58	32.21	-39.9	-40.9	22.9	0.00e+00	92	37	0	1061158912	52	6339
2026-01-18 14:18:59.97	172.73	32.02	-40.1	-41.1	22.5	0.00e+00	81	37	0	1063256064	52	6487
2026-01-18 14:19:00.98	172.87	31.83	-40.4	-41.4	22.2	0.00e+00	0	37	0	1065353216	52	6732
2026-01-18 14:19:01.99	173.01	31.64	-40.4	-41.5	22.0	0.00e+00	0	37	0	1066401792	52	6804
2026-01-18 14:19:03.00	173.16	31.46	-40.8	-41.9	21.8	0.00e+00	79	37	0	1068498944	52	7106
2026-01-18 14:19:04.01	173.29	31.27	-40.9	-42.0	21.6	0.00e+00	91	37	0	1070596096	54	6444
2026-01-18 14:19:05.02	173.43	31.08	-40.9	-42.0	21.6	0.00e+00	78	37	0	1072693248	54	6451
2026-01-18 14:19:06.03	173.57	30.90	-41.0	-42.1	21.6	0.00e+00	91	37	0	1074790400	54	6505
2026-01-18 14:19:07.04	173.70	30.71	-41.1	-42.3	21.4	0.00e+00	3	37	0	1075838976	54	6627
2026-01-18 14:19:08.05	173.84	30.53	-41.3	-42.5	21.3	0.00e+00	3	37	0	1077936128	54	6779
2026-01-18 14:19:09.06	173.97	30.35	-40.8	-42.0	21.7	0.00e+00	79	37	0	1080033280	54	6407
2026-01-18 14:19:10.07	174.10	30.17	-40.8	-42.0	21.8	0.00e+00	80	37	0	1082130432	54	6411
2026-01-18 14:19:11.08	174.23	29.99	-40.6	-41.7	22.0	0.00e+00	54	37	0	1084227584	54	6188
2026-01-18 14:19:12.08	174.35	29.81	-40.2	-41.3	22.3	0.00e+00	2	37	0	1086324736	54	5916
2026-01-18 14:19:13.09	174.48	29.63	-40.1	-41.2	22.4	0.00e+00	92	37	0	1087373312	54	5855
2026-01-18 14:19:14.10	174.61	29.45	-40.2	-41.2	22.4	0.00e+00	0	37	0	1089470464	54	5879
2026-01-18 14:19:15.11	174.73	29.28	-40.1	-41.1	22.3	0.00e+00	92	37	0	1091567616	54	5798
2026-01-18 14:19:16.12	174.85	29.10	-40.0	-41.0	22.4	0.00e+00	0	37	0	1093664768	54	5712
2026-01-18 14:19:17.13	174.97	28.93	-39.9	-41.0	22.5	0.00e+00	0	37	0	1095761920	54	5696
2026-01-18 14:19:18.14	175.09	28.76	-39.9	-40.9	22.6	0.00e+00	0	37	0	1096810496	54	5695
2026-01-18 14:19:19.14	175.21	28.59	-40.0	-41.0	22.5	0.00e+00	0	37	0	1098907648	54	5751
2026-01-18 14:19:20.15	175.33	28.41	-40.1	-41.1	22.5	0.00e+00	91	37	0	1101004800	54	5787
2026-01-18 14:19:21.16	175.44	28.24	-40.2	-41.3	22.3	0.00e+00	2	37	0	1103101952	54	5928
2026-01-18 14:19:22.17	175.56	28.07	-40.1	-41.2	22.3	0.00e+00	91	37	0	1104150528	54	5834
2026-01-18 14:19:23.18	175.67	27.91	-40.2	-41.3	22.2	0.00e+00	0	37	0	1106247680	54	5921
2026-01-18 14:19:24.19	175.78	27.74	-40.3	-41.4	22.2	0.00e+00	0	37	0	1108344832	54	6009
2026-01-18 14:19:25.19	175.90	27.57	-40.3	-41.4	22.2	0.00e+00	0	37	0	1110441984	54	5991
2026-01-18 14:19:26.20	176.01	27.41	-40.3	-41.4	22.2	0.00e+00	81	37	0	1112539136	54	5989
2026-01-18 14:19:27.21	176.12	27.24	-40.1	-41.1	22.5	0.00e+00	90	37	0	1114636288	54	5791
2026-01-18 14:19:28.22	176.22	27.08	-40.0	-41.0	22.6	0.00e+00	0	37	0	1115684864	54	5713
2026-01-18 14:19:29.23	176.33	26.91	-39.8	-40.8	22.7	0.00e+00	90	37	0	1117782016	54	5594
2026-01-18 14:19:30.24	176.44	26.75	-39.6	-40.6	23.0	0.00e+00	0	37	0	1119879168	52	6105
2026-01-18 14:19:31.25	176.54	26.59	-39.1	-40.0	23.4	0.00e+00	0	37	0	1121976320	52	5743
2026-01-18 14:19:32.25	176.64	26.43	-39.2	-40.1	23.4	0.00e+00	0	37	0	1124073472	52	5792
2026-01-18 14:19:33.26	176.75	26.27	-38.7	-39.6	23.8	0.00e+00	78	37	0	1125122048	52	5471
2026-01-18 14:19:34.27	176.85	26.11	-38.7	-39.6	23.8	0.00e+00	82	37	0	1127219200	50	6111
2026-01-18 14:19:35.28	176.95	25.95	-38.6	-39.5	23.8	0.00e+00	2	37	0	1129316352	50	6086
2026-01-18 14:19:36.29	177.05	25.80	-38.7	-39.6	23.7	0.00e+00	92	37	0	1131413504	50	6150
2026-01-18 14:19:37.30	177.15	25.64	-38.8	-39.7	23.6	0.00e+00	0	37	0	1133510656	50	6181
2026-01-18 14:19:38.31	177.25	25.48	-39.0	-39.9	23.5	0.00e+00	92	37	0	1134559232	50	6370
2026-01-18 14:19:39.32	177.35	25.33	-39.1	-40.1	23.3	0.00e+00	0	37	0	1136656384	50	6495
2026-01-18 14:19:40.33	177.44	25.18	-39.5	-40.4	23.0	0.00e+00	0	37	0	1138753536	50	6768
2026-01-18 14:19:41.34	177.54	25.02	-39.6	-40.6	22.9	0.00e+00	0	37	0	1140850688	50	6882
2026-01-18 14:19:42.34	177.63	24.87	-39.7	-40.7	22.8	0.00e+00	0	37	0	1142947840	50	6972
2026-01-18 14:19:43.35	177.73	24.72	-39.5	-40.5	22.9	0.00e+00	92	37	0	1143996416	50	6830
2026-01-18 14:19:44.36	177.82	24.57	-39.5	-40.5	23.0	0.00e+00	0	37	0	1146093568	50	6774
2026-01-18 14:19:45.37	177.91	24.42	-39.3	-40.3	23.2	0.00e+00	92	37	0	1148190720	50	6621
2026-01-18 14:19:46.38	178.00	24.27	-39.2	-40.2	23.2	0.00e+00	0	37	0	1150287872	50	6555
2026-01-18 14:19:47.39	178.09	24.12	-39.0	-39.9	23.4	0.00e+00	0	37	0	1152385024	50	6357
2026-01-18 14:19:48.40	178.18	23.97	-38.7	-39.6	23.7	0.00e+00	0	37	0	1153433600	50	6111
2026-01-18 14:19:49.41	178.27	23.83	-38.5	-39.4	23.9	0.00e+00	0	37	0	1155530752	50	5978
2026-01-18 14:19:50.41	178.36	23.68	-38.2	-39.0	24.2	0.00e+00	36	37	0	1157627904	50	5735
2026-01-18 14:19:51.42	178.45	23.54	-38.2	-39.1	24.2	0.00e+00	81	37	0	1159725056	50	5777
2026-01-18 14:19:52.43	178.53	23.39	-38.1	-39.0	24.2	0.00e+00	92	37	0	1161822208	50	5703
2026-01-18 14:19:53.44	178.62	23.25	-37.6	-38.5	24.7	0.00e+00	0	37	0	1162870784	48	6037
2026-01-18 14:19:54.45	178.70	23.10	-37.6	-38.4	24.7	0.00e+00	0	37	0	1164967936	48	5996
2026-01-18 14:19:55.46	178.79	22.96	-37.4	-38.2	24.9	0.00e+00	0	37	0	1167065088	48	5839
2026-01-18 14:19:56.47	178.87	22.82	-37.5	-38.3	24.8	0.00e+00	82	37	0	1169162240	48	5907
2026-01-18 14:19:57.48	178.95	22.68	-37.4	-38.2	24.8	0.00e+00	77	37	0	1171259392	48	5879
2026-01-18 14:19:58.49	179.04	22.54	-37.5	-38.4	24.7	0.00e+00	6	37	0	1172307968	48	5970
2026-01-18 14:19:59.50	179.12	22.40	-37.6	-38.4	24.7	0.00e+00	92	37	0	1174405120	48	5990
2026-01-18 14:20:00.51	179.20	22.26	-37.6	-38.4	24.7	0.00e+00	0	37	0	1176502272	48	6007
2026-01-18 14:20:01.51	179.28	22.12	-37.7	-38.6	24.5	0.00e+00	91	37	0	1178599424	48	6115
2026-01-18 14:20:02.52	179.36	21.99	-37.9	-38.8	24.4	0.00e+00	0	37	0	1180696576	48	6247
2026-01-18 14:20:03.53	179.44	21.85	-38.0	-38.9	24.4	0.00e+00	0	37	0	1182793728	48	6361
2026-01-18 14:20:04.53	179.51	21.71	-38.1	-39.0	24.2	0.00e+00	7	37	0	1183842304	48	6431
2026-01-18 14:20:05.54	179.59	21.58	-38.2	-39.1	24.2	0.00e+00	0	37	0	1185939456	48	6465
2026-01-18 14:20:06.55	179.67	21.44	-38.3	-39.2	24.0	0.00e+00	90	37	0	1188036608	48	6564
2026-01-18 14:20:07.56	179.74	21.31	-38.3	-39.2	24.0	0.00e+00	0	37	0	1190133760	48	6599
2026-01-18 14:20:08.57	179.82	21.18	-38.3	-39.2	23.9	0.00e+00	92	37	0	1192230912	48	6611
2026-01-18 14:20:09.58	179.90	21.04	-38.3	-39.1	24.0	0.00e+00	5	37	0	1193279488	48	6534
2026-01-18 14:20:10.59	179.97	20.91	-38.3	-39.1	24.1	0.00e+00	0	37	0	1195376640	48	6531
2026-01-18 14:20:11.60	180.04	20.78	-38.1	-39.0	24.1	0.00e+00	81	37	0	1197473792	48	6438
2026-01-18 14:20:12.61	180.12	20.65	-38.1	-39.0	24.1	0.00e+00	0	37	0	1199570944	48	6434
2026-01-18 14:20:13.62	180.19	20.52	-38.1	-38.9	24.1	0.00e+00	6	37	0	1200619520	48	6382
2026-01-18 14:20:14.63	180.26	20.39	-38.0	-38.9	24.1	0.00e+00	6	37	0	1202716672	48	6354
2026-01-18 14:20:15.63	180.33	20.26	-37.8	-38.6	24.4	0.00e+00	92	37	0	1204813824	48	6157
2026-01-18 14:20:16.64	180.40	20.13	-37.8	-38.7	24.4	0.00e+00	5	37	0	1206910976	48	6191
2026-01-18 14:20:17.65	180.47	20.01	-37.8	-38.6	24.5	0.00e+00	29	37	0	1209008128	48	6141
2026-01-18 14:20:18.66	180.54	19.88	-37.7	-38.6	24.5	0.00e+00	5	37	0	1211105280	48	6104
2026-01-18 14:20:19.67	180.61	19.75	-37.8	-38.6	24.4	0.00e+00	80	37	0	1212153856	48	6161
2026-01-18 14:20:20.67	180.68	19.63	-37.6	-38.4	24.6	0.00e+00	77	37	0	1214251008	48	6033
2026-01-18 14:20:21.68	180.75	19.50	-37.5	-38.3	24.6	0.00e+00	7	37	0	1216348160	48	5955
2026-01-18 14:20:22.69	180.82	19.38	-37.6	-38.5	24.6	0.00e+00	92	37	0	1218445312	48	6035
2026-01-18 14:20:23.70	180.88	19.25	-37.7	-38.5	24.3	0.00e+00	6	37	0	1220542464	48	6066
