passes_logs/2026/01/18/R4.6S_Anadyr/R4.6S_Anadyr__20260118_154639_AQUA_rec.log

#Pass ID: 20260118_154639_AQUA
#Satellite: AQUA
#Configuration: AQUA
#almurnet v.1.7.20251203
#Start time: 2026-01-18 15:46:41

#Version: 2.2.20231116
#Station: R4.6S_Anadyr
#Location: 177.4865 lon 64.73178 lat
#TLE: 1 27424U 02022A   26017.62394888  .00000781  00000+0  16630-3 0  9993
#TLE: 2 27424  98.4086 344.0954 0002010  75.0132 339.4723 14.61825944261279

#Time	Az	El	Level	Level2	SNR	BER	BlckErr	Temp	State	Recorded	gain1	gain2
2026-01-18 15:46:41.78	19.60	0.16	-49.4	-64.3	3.5	1.51e+00	0	36	0	0	60	59584
2026-01-18 15:46:42.79	19.62	0.22	-49.8	-67.6	3.5	3.02e+01	0	37	104	0	60	91870
2026-01-18 15:46:43.80	19.65	0.28	-49.8	-67.6	3.5	3.02e+01	0	37	104	0	60	92040
2026-01-18 15:46:44.81	19.68	0.35	-49.8	-67.5	3.5	3.02e+01	0	37	104	0	60	91132
2026-01-18 15:46:45.82	19.70	0.41	-49.7	-67.5	3.5	3.02e+01	0	37	104	0	60	91758
2026-01-18 15:46:46.83	19.73	0.47	-49.7	-67.6	3.5	3.02e+01	0	37	104	0	60	92055
2026-01-18 15:46:47.84	19.76	0.53	-49.8	-67.6	3.5	3.02e+01	0	37	104	0	60	92607
2026-01-18 15:46:48.85	19.78	0.59	-49.8	-67.7	3.5	3.02e+01	0	37	104	0	60	92869
2026-01-18 15:46:49.86	19.81	0.66	-49.9	-67.8	3.5	3.02e+01	0	37	104	0	60	94052
2026-01-18 15:46:50.87	19.84	0.72	-49.8	-67.7	3.5	3.02e+01	0	37	104	0	60	93250
2026-01-18 15:46:51.88	19.87	0.78	-49.8	-67.7	3.5	3.02e+01	0	38	104	0	60	93668
2026-01-18 15:46:52.89	19.89	0.84	-49.8	-67.7	3.5	3.02e+01	0	38	104	0	60	93158
2026-01-18 15:46:53.90	19.92	0.91	-49.6	-67.6	3.5	3.02e+01	0	38	104	0	60	91968
2026-01-18 15:46:54.91	19.95	0.97	-49.3	-67.7	3.5	3.02e+01	0	38	104	0	60	92956
2026-01-18 15:46:55.93	19.98	1.03	-49.5	-67.6	3.5	3.02e+01	0	38	104	0	60	92043
2026-01-18 15:46:56.94	20.01	1.10	-49.6	-67.5	3.5	3.02e+01	0	38	104	0	60	91602
2026-01-18 15:46:57.95	20.03	1.16	-49.3	-67.4	3.5	3.02e+01	0	38	104	0	60	90401
2026-01-18 15:46:58.96	20.06	1.22	-49.4	-67.3	3.5	3.02e+01	0	38	104	0	60	89377
2026-01-18 15:46:59.97	20.09	1.29	-49.4	-67.2	3.5	3.02e+01	0	38	104	0	60	87971
2026-01-18 15:47:00.98	20.12	1.35	-48.5	-67.0	3.5	3.02e+01	0	38	104	0	60	85671
2026-01-18 15:47:01.99	20.15	1.41	-49.1	-66.9	3.5	3.02e+01	0	38	104	0	60	85241
2026-01-18 15:47:03.00	20.18	1.48	-49.0	-66.8	3.5	3.02e+01	0	38	104	0	60	83718
2026-01-18 15:47:04.01	20.21	1.54	-48.8	-66.6	3.5	3.02e+01	0	38	104	0	60	81985
2026-01-18 15:47:05.02	20.24	1.61	-48.6	-66.3	3.5	3.02e+01	0	38	104	0	60	79142
2026-01-18 15:47:06.03	20.26	1.67	-48.5	-66.3	3.5	3.02e+01	0	38	104	0	60	79536
2026-01-18 15:47:07.04	20.29	1.74	-48.5	-66.2	3.5	3.02e+01	0	38	104	0	60	78944
2026-01-18 15:47:08.05	20.32	1.80	-48.5	-66.1	3.5	3.02e+01	0	38	104	0	60	77866
2026-01-18 15:47:09.06	20.35	1.87	-48.4	-65.9	3.5	3.02e+01	0	38	104	0	60	76280
2026-01-18 15:47:10.07	20.38	1.93	-48.4	-66.0	3.5	3.02e+01	0	38	104	0	60	76607
2026-01-18 15:47:11.08	20.41	2.00	-48.4	-66.1	3.5	3.02e+01	0	38	104	0	60	77514
2026-01-18 15:47:12.09	20.44	2.06	-48.4	-66.1	3.5	3.02e+01	0	38	104	0	60	77693
2026-01-18 15:47:13.10	20.47	2.13	-48.4	-66.2	3.5	3.02e+01	0	38	104	0	60	78664
2026-01-18 15:47:14.11	20.50	2.19	-48.4	-66.1	3.5	3.02e+01	0	38	104	0	60	77433
2026-01-18 15:47:15.12	20.53	2.26	-48.4	-65.7	3.5	3.02e+01	0	38	104	0	60	74447
2026-01-18 15:47:16.13	20.56	2.33	-48.4	-64.6	3.5	3.02e+01	0	38	104	0	60	65456
2026-01-18 15:47:17.13	20.59	2.39	-48.3	-65.8	3.5	3.02e+01	0	38	104	0	60	74837
2026-01-18 15:47:18.14	20.62	2.46	-48.3	-65.4	3.5	3.02e+01	0	38	104	0	60	72064
2026-01-18 15:47:19.16	20.65	2.53	-48.2	-64.9	3.5	3.02e+01	0	38	104	0	60	67758
2026-01-18 15:47:20.17	20.68	2.59	-48.1	-64.6	3.5	3.02e+01	0	38	104	0	60	65540
2026-01-18 15:47:21.18	20.72	2.66	-48.1	-64.3	3.5	3.02e+01	0	38	104	0	60	63423
2026-01-18 15:47:22.19	20.75	2.73	-48.1	-64.2	3.5	3.02e+01	0	38	104	0	60	62655
2026-01-18 15:47:23.20	20.78	2.79	-48.1	-64.7	3.5	3.02e+01	0	38	104	0	60	65941
2026-01-18 15:47:24.21	20.81	2.86	-48.2	-65.1	3.5	3.02e+01	0	38	104	0	60	69298
2026-01-18 15:47:25.22	20.84	2.93	-48.2	-65.2	3.5	3.02e+01	0	38	104	0	60	70261
2026-01-18 15:47:26.23	20.87	3.00	-47.9	-63.7	3.5	3.02e+01	0	38	104	0	60	59006
2026-01-18 15:47:27.24	20.90	3.07	-47.0	-61.0	3.5	3.02e+01	0	38	104	0	60	43394
2026-01-18 15:47:28.24	20.94	3.13	-45.7	-58.2	3.8	3.02e+01	0	38	104	0	60	31460
2026-01-18 15:47:29.25	20.97	3.20	-44.2	-55.9	3.7	3.02e+01	0	38	104	0	60	23914
2026-01-18 15:47:30.27	21.00	3.27	-43.0	-54.0	3.8	3.02e+01	0	38	104	0	60	19395
2026-01-18 15:47:31.28	21.03	3.34	-42.1	-53.0	4.0	3.02e+01	0	38	104	0	60	17102
2026-01-18 15:47:32.29	21.06	3.41	-41.0	-51.7	3.4	3.02e+01	0	38	104	0	58	16609
2026-01-18 15:47:33.30	21.10	3.48	-40.7	-51.4	3.5	3.02e+01	0	38	104	0	56	17917
2026-01-18 15:47:34.31	21.13	3.55	-40.6	-51.2	3.6	3.02e+01	0	38	104	0	56	17681
2026-01-18 15:47:35.32	21.16	3.62	-40.9	-51.6	3.6	3.02e+01	0	38	104	0	56	18394
2026-01-18 15:47:36.33	21.20	3.69	-41.5	-52.3	3.5	3.02e+01	0	38	104	0	56	20048
2026-01-18 15:47:37.34	21.23	3.76	-42.6	-53.7	3.5	3.02e+01	0	38	104	0	58	20968
2026-01-18 15:47:38.35	21.26	3.83	-43.8	-55.3	3.5	3.02e+01	0	38	104	0	60	22322
2026-01-18 15:47:39.36	21.30	3.90	-45.3	-57.5	3.6	3.02e+01	0	38	104	0	60	28933
2026-01-18 15:47:40.37	21.33	3.97	-45.0	-57.1	3.5	3.02e+01	0	38	104	0	60	27560
2026-01-18 15:47:41.38	21.36	4.04	-41.7	-52.6	3.5	3.02e+01	0	38	104	0	58	18467
2026-01-18 15:47:42.39	21.40	4.11	-47.0	-61.2	3.5	3.02e+01	0	38	104	0	60	44268
2026-01-18 15:47:43.40	21.43	4.18	-48.1	-64.2	3.5	3.02e+01	0	38	104	0	60	62221
2026-01-18 15:47:44.41	21.47	4.25	-43.2	-54.4	3.5	3.02e+01	0	38	104	0	60	20209
2026-01-18 15:47:45.42	21.50	4.32	-48.4	-65.7	3.5	3.02e+01	0	38	104	0	60	74089
2026-01-18 15:47:46.43	21.53	4.40	-43.8	-55.2	3.5	3.02e+01	0	38	104	0	60	22250
2026-01-18 15:47:47.44	21.57	4.47	-44.2	-55.7	3.5	3.02e+01	0	38	104	0	60	23502
2026-01-18 15:47:48.45	21.60	4.54	-43.8	-55.2	3.5	3.02e+01	0	38	104	0	60	22118
2026-01-18 15:47:49.46	21.64	4.61	-43.2	-54.4	3.5	3.02e+01	0	38	104	0	60	20273
2026-01-18 15:47:50.47	21.67	4.69	-45.1	-57.1	3.5	3.02e+01	0	38	104	0	60	27443
2026-01-18 15:47:51.48	21.71	4.76	-44.7	-56.4	3.7	3.02e+01	0	38	104	0	56	32034
2026-01-18 15:47:52.49	21.75	4.83	-48.3	-65.2	3.6	3.02e+01	0	38	104	0	60	69796
2026-01-18 15:47:53.50	21.78	4.90	-40.2	-50.8	3.5	3.02e+01	0	38	104	0	54	18841
2026-01-18 15:47:54.51	21.82	4.98	-45.4	-57.5	3.5	3.02e+01	0	38	104	0	60	28899
2026-01-18 15:47:55.52	21.85	5.05	-40.3	-51.0	3.5	3.02e+01	0	38	104	0	56	17163
2026-01-18 15:47:56.53	21.89	5.13	-39.5	-50.1	3.5	3.02e+01	0	38	104	0	54	17408
2026-01-18 15:47:57.54	21.93	5.20	-39.5	-50.0	3.5	3.02e+01	0	38	104	0	54	17280
2026-01-18 15:47:58.55	21.96	5.27	-39.1	-49.6	3.5	3.02e+01	0	38	104	0	54	16470
2026-01-18 15:47:59.55	22.00	5.35	-40.7	-51.3	3.5	3.02e+01	0	38	104	0	56	17871
2026-01-18 15:48:00.56	22.04	5.42	-45.6	-57.8	3.5	3.02e+01	0	38	104	0	58	33350
2026-01-18 15:48:01.57	22.07	5.50	-47.9	-63.3	3.6	3.02e+01	0	38	104	0	60	56575
2026-01-18 15:48:02.58	22.11	5.57	-43.2	-54.5	3.6	3.02e+01	0	38	104	0	54	28778
2026-01-18 15:48:03.59	22.15	5.65	-42.5	-53.5	3.5	3.02e+01	0	38	104	0	60	18294
2026-01-18 15:48:04.60	22.19	5.72	-39.9	-50.5	3.5	3.02e+01	0	38	104	0	54	18198
2026-01-18 15:48:05.61	22.22	5.80	-39.0	-49.5	3.5	3.02e+01	0	38	104	0	54	16267
2026-01-18 15:48:06.62	22.26	5.88	-39.0	-49.5	3.5	3.02e+01	0	38	104	0	52	18256
2026-01-18 15:48:07.63	22.30	5.95	-39.8	-50.4	3.5	3.02e+01	0	38	104	0	52	20104
2026-01-18 15:48:08.64	22.34	6.03	-40.5	-51.1	3.5	3.02e+01	0	38	104	0	56	17418
2026-01-18 15:48:09.65	22.38	6.11	-48.6	-65.7	3.5	3.02e+01	0	38	104	0	60	73801
2026-01-18 15:48:10.66	22.42	6.18	-46.8	-60.2	3.6	3.02e+01	0	38	104	0	60	39371
2026-01-18 15:48:11.67	22.46	6.26	-44.7	-56.4	3.5	3.02e+01	0	38	104	0	56	31982
2026-01-18 15:48:12.68	22.49	6.34	-45.1	-56.9	3.5	3.02e+01	0	38	104	0	60	27060
2026-01-18 15:48:13.69	22.53	6.42	-42.8	-53.9	3.5	3.02e+01	0	38	104	0	60	19026
2026-01-18 15:48:14.70	22.57	6.50	-42.8	-53.8	3.5	3.02e+01	0	38	104	0	60	18946
2026-01-18 15:48:15.70	22.61	6.57	-43.3	-54.4	3.5	3.02e+01	0	38	104	0	60	20189
2026-01-18 15:48:16.71	22.65	6.65	-41.8	-52.6	3.5	3.02e+01	0	38	104	0	58	18359
2026-01-18 15:48:17.73	22.69	6.73	-40.7	-51.4	3.5	3.02e+01	0	38	104	0	56	17991
2026-01-18 15:48:18.74	22.73	6.81	-48.6	-66.0	3.5	3.02e+01	0	38	104	0	60	76868
2026-01-18 15:48:19.75	22.77	6.89	-45.1	-57.0	3.5	3.02e+01	0	38	104	0	60	27380
2026-01-18 15:48:20.75	22.82	6.97	-45.4	-57.3	3.5	3.02e+01	0	38	104	0	58	31775
2026-01-18 15:48:21.77	22.86	7.05	-42.3	-53.1	3.6	3.02e+01	0	38	104	0	60	17293
2026-01-18 15:48:22.78	22.90	7.13	-40.3	-50.9	3.5	3.02e+01	0	38	104	0	56	17039
2026-01-18 15:48:23.79	22.94	7.21	-40.3	-50.9	3.5	3.02e+01	0	38	104	0	56	16933
2026-01-18 15:48:24.80	22.98	7.29	-40.6	-51.2	3.5	3.02e+01	0	38	104	0	56	17690
2026-01-18 15:48:25.81	23.02	7.37	-46.4	-59.1	3.5	3.02e+01	0	38	104	0	60	34504
2026-01-18 15:48:26.82	23.07	7.45	-40.4	-51.0	3.5	3.02e+01	0	38	104	0	56	17209
2026-01-18 15:48:27.83	23.11	7.54	-48.7	-66.0	3.5	3.02e+01	0	38	104	0	60	76472
2026-01-18 15:48:28.84	23.15	7.62	-41.9	-52.8	3.5	3.02e+01	0	38	104	0	60	16723
2026-01-18 15:48:29.84	23.19	7.70	-48.4	-64.0	3.5	3.02e+01	0	38	104	0	60	61069
2026-01-18 15:48:30.85	23.24	7.78	-40.0	-50.6	3.5	3.02e+01	0	38	104	0	56	16329
2026-01-18 15:48:31.86	23.28	7.86	-39.3	-49.8	3.5	3.02e+01	0	38	104	0	52	18867
2026-01-18 15:48:32.87	23.32	7.95	-39.2	-49.7	3.5	3.02e+01	0	38	104	0	52	18636
2026-01-18 15:48:33.88	23.37	8.03	-39.0	-49.5	3.5	3.02e+01	0	38	104	0	52	18148
2026-01-18 15:48:34.89	23.41	8.11	-41.5	-52.2	3.5	3.02e+01	0	38	104	0	54	22184
2026-01-18 15:48:35.90	23.46	8.20	-39.3	-49.9	3.5	3.02e+01	0	38	104	0	50	21307
2026-01-18 15:48:36.91	23.50	8.28	-48.8	-65.9	3.5	3.02e+01	0	38	104	0	60	76206
2026-01-18 15:48:37.92	23.55	8.37	-44.2	-55.8	3.5	3.02e+01	0	38	104	0	60	23681
2026-01-18 15:48:38.93	23.59	8.45	-49.0	-66.5	3.5	3.02e+01	0	38	104	0	60	81658
2026-01-18 15:48:39.94	23.64	8.54	-42.8	-53.7	3.5	3.02e+01	0	38	104	0	60	18670
2026-01-18 15:48:40.95	23.68	8.62	-41.4	-52.1	3.5	3.02e+01	0	38	104	0	58	17448
2026-01-18 15:48:41.96	23.73	8.71	-40.5	-51.0	3.5	3.02e+01	0	38	104	0	56	17235
2026-01-18 15:48:42.97	23.77	8.80	-39.9	-50.4	3.5	3.02e+01	0	38	104	0	56	16113
2026-01-18 15:48:43.98	23.82	8.88	-41.4	-52.1	3.5	3.02e+01	0	38	104	0	56	19508
2026-01-18 15:48:44.99	23.87	8.97	-39.8	-50.3	3.5	3.02e+01	0	38	104	0	54	17794
2026-01-18 15:48:46.00	23.91	9.06	-48.9	-66.1	3.5	3.02e+01	0	38	104	0	60	77916
2026-01-18 15:48:47.01	23.96	9.14	-43.5	-54.8	3.5	3.02e+01	0	38	104	0	60	21136
2026-01-18 15:48:48.02	24.01	9.23	-49.1	-66.6	3.5	3.02e+01	0	38	104	0	60	82297
2026-01-18 15:48:49.02	24.06	9.32	-40.3	-50.9	3.5	3.02e+01	0	38	104	0	56	16901
2026-01-18 15:48:50.03	24.11	9.41	-39.9	-50.5	3.5	3.02e+01	0	38	104	0	56	16139
2026-01-18 15:48:51.04	24.15	9.50	-39.3	-49.8	3.5	3.02e+01	0	38	104	0	54	16706
2026-01-18 15:48:52.05	24.20	9.58	-39.6	-50.1	3.5	3.02e+01	0	38	104	0	54	17293
2026-01-18 15:48:53.06	24.25	9.67	-41.7	-52.6	3.5	3.02e+01	0	38	104	0	56	20640
2026-01-18 15:48:54.07	24.30	9.76	-39.8	-50.3	3.5	3.02e+01	0	38	104	0	54	17725
2026-01-18 15:48:55.08	24.35	9.85	-48.9	-66.1	3.5	3.02e+01	0	38	104	0	60	78039
2026-01-18 15:48:56.09	24.40	9.94	-42.9	-54.0	3.5	3.02e+01	0	38	104	0	60	19227
2026-01-18 15:48:57.10	24.45	10.04	-49.1	-66.9	3.5	3.02e+01	0	38	104	0	60	84840
2026-01-18 15:48:58.11	24.50	10.13	-39.7	-50.2	3.5	3.02e+01	0	38	104	0	54	17661
2026-01-18 15:48:59.12	24.55	10.22	-39.6	-50.1	3.5	3.02e+01	0	38	104	0	54	17430
2026-01-18 15:49:00.13	24.60	10.31	-39.6	-50.1	3.5	3.02e+01	0	38	104	0	54	17425
2026-01-18 15:49:01.14	24.65	10.40	-39.5	-49.9	3.5	3.02e+01	0	38	104	0	54	17062
2026-01-18 15:49:02.15	24.71	10.50	-42.6	-53.6	3.5	3.02e+01	0	38	104	0	60	18501
2026-01-18 15:49:03.16	24.76	10.59	-39.2	-49.7	3.5	3.02e+01	0	38	104	0	54	16570
2026-01-18 15:49:04.18	24.81	10.68	-48.8	-66.0	3.5	3.02e+01	0	38	104	0	60	76978
2026-01-18 15:49:05.19	24.86	10.78	-42.3	-53.4	3.5	3.02e+01	0	38	104	0	60	17934
2026-01-18 15:49:06.20	24.92	10.87	-49.0	-66.6	3.5	3.02e+01	0	38	104	0	60	82704
2026-01-18 15:49:07.21	24.97	10.97	-42.1	-53.0	3.5	3.02e+01	0	38	104	0	60	17095
2026-01-18 15:49:08.22	25.02	11.06	-41.0	-51.7	3.6	3.02e+01	0	38	104	0	58	16603
2026-01-18 15:49:09.23	25.08	11.16	-39.9	-50.4	3.6	3.02e+01	0	38	104	0	56	16061
2026-01-18 15:49:10.24	25.13	11.25	-38.9	-49.3	3.5	3.02e+01	0	38	104	0	54	15852
2026-01-18 15:49:11.25	25.19	11.35	-38.6	-49.0	3.6	3.02e+01	0	38	104	0	52	17178
2026-01-18 15:49:12.26	25.24	11.44	-38.7	-49.1	3.5	3.02e+01	0	38	104	0	52	17423
2026-01-18 15:49:13.27	25.30	11.54	-48.7	-65.8	3.5	3.02e+01	0	38	104	0	60	75332
2026-01-18 15:49:14.28	25.35	11.64	-40.8	-51.4	3.4	3.02e+01	0	38	104	0	60	14236
2026-01-18 15:49:15.29	25.41	11.74	-49.0	-65.8	3.5	3.02e+01	0	38	104	0	60	75355
2026-01-18 15:49:16.30	25.47	11.84	-41.8	-52.6	3.6	3.02e+01	0	38	104	0	60	16400
2026-01-18 15:49:17.30	25.52	11.93	-42.0	-52.7	3.5	3.02e+01	0	38	104	0	58	18687
2026-01-18 15:49:18.32	25.58	12.03	-41.9	-52.7	3.5	3.02e+01	0	38	104	0	58	18538
2026-01-18 15:49:19.32	25.64	12.13	-40.7	-51.3	3.6	3.02e+01	0	38	104	0	58	15811
2026-01-18 15:49:20.33	25.70	12.23	-37.8	-48.2	3.6	3.02e+01	0	38	104	0	52	15591
2026-01-18 15:49:21.34	25.76	12.33	-38.7	-49.1	3.5	3.02e+01	0	38	104	0	52	17463
2026-01-18 15:49:22.36	25.82	12.43	-48.9	-65.9	3.5	3.02e+01	0	38	104	0	60	76036
2026-01-18 15:49:23.36	25.87	12.53	-37.8	-48.2	3.5	3.02e+01	0	38	104	0	52	15734
2026-01-18 15:49:24.37	25.93	12.64	-48.5	-63.7	3.5	3.02e+01	0	38	104	0	60	58713
2026-01-18 15:49:25.38	25.99	12.74	-37.8	-48.1	3.5	3.02e+01	0	38	104	0	50	17464
2026-01-18 15:49:26.39	26.05	12.84	-37.9	-48.2	3.5	3.02e+01	0	38	104	0	50	17608
2026-01-18 15:49:27.40	26.12	12.94	-37.7	-48.0	3.5	3.02e+01	0	38	104	0	50	17281
2026-01-18 15:49:28.41	26.18	13.05	-37.0	-47.3	3.6	3.02e+01	0	38	104	0	50	15926
2026-01-18 15:49:29.42	26.24	13.15	-38.4	-48.8	3.7	3.02e+01	0	38	104	0	52	16718
2026-01-18 15:49:30.43	26.30	13.26	-38.7	-49.1	3.5	3.02e+01	0	38	104	0	52	17358
2026-01-18 15:49:31.44	26.36	13.36	-49.1	-66.4	3.5	3.02e+01	0	38	104	0	60	80345
2026-01-18 15:49:32.45	26.43	13.47	-38.7	-49.1	3.5	3.02e+01	0	38	104	0	52	17368
2026-01-18 15:49:33.46	26.49	13.57	-47.5	-61.3	3.5	3.02e+01	0	38	104	0	60	44500
2026-01-18 15:49:34.47	26.56	13.68	-41.2	-51.8	3.5	3.02e+01	0	38	104	0	58	16819
2026-01-18 15:49:35.48	26.62	13.78	-40.8	-51.4	3.5	3.02e+01	0	38	104	0	56	17998
2026-01-18 15:49:36.49	26.68	13.89	-39.5	-50.0	3.5	3.02e+01	0	38	104	0	54	17146
2026-01-18 15:49:37.50	26.75	14.00	-38.3	-48.6	3.5	3.02e+01	0	38	104	0	52	16423
2026-01-18 15:49:38.51	26.82	14.11	-36.8	-47.0	3.5	3.02e+01	0	38	104	0	48	17239
2026-01-18 15:49:39.52	26.88	14.22	-41.7	-52.3	3.5	3.02e+01	0	38	104	0	52	25226
2026-01-18 15:49:40.53	26.95	14.33	-49.0	-65.6	3.5	3.02e+01	0	38	104	0	60	73728
2026-01-18 15:49:41.53	27.02	14.44	-41.0	-51.6	3.6	3.02e+01	0	38	104	0	52	23154
2026-01-18 15:49:42.54	27.08	14.55	-45.4	-57.3	3.5	3.02e+01	0	38	104	0	60	28181
2026-01-18 15:49:43.55	27.15	14.66	-40.9	-51.5	3.5	3.02e+01	0	38	104	0	58	16219
2026-01-18 15:49:44.56	27.22	14.77	-39.5	-49.9	3.5	3.02e+01	0	38	104	0	54	17037
2026-01-18 15:49:45.57	27.29	14.88	-38.7	-49.1	3.5	3.02e+01	0	38	104	0	52	17387
2026-01-18 15:49:46.58	27.36	14.99	-38.5	-48.9	3.5	3.02e+01	0	38	104	0	52	17000
2026-01-18 15:49:47.59	27.43	15.11	-36.8	-47.0	3.5	3.02e+01	0	38	104	0	48	17272
2026-01-18 15:49:48.60	27.50	15.22	-47.6	-61.2	3.4	3.02e+01	0	38	104	0	60	44221
2026-01-18 15:49:49.61	27.58	15.33	-43.6	-54.9	3.6	3.02e+01	0	38	104	0	60	21309
2026-01-18 15:49:50.62	27.65	15.45	-41.5	-52.3	3.5	3.02e+01	0	38	104	0	50	28119
2026-01-18 15:49:51.63	27.72	15.56	-40.8	-51.4	3.5	3.02e+01	0	38	104	0	60	14252
2026-01-18 15:49:52.63	27.79	15.68	-37.7	-48.0	3.5	3.02e+01	0	38	104	0	50	17189
2026-01-18 15:49:53.65	27.87	15.80	-37.7	-48.1	3.6	3.02e+01	0	38	104	0	50	17297
2026-01-18 15:49:54.66	27.94	15.91	-37.5	-47.9	3.5	3.02e+01	0	38	104	0	50	16946
2026-01-18 15:49:55.67	28.02	16.03	-37.3	-47.6	3.5	3.02e+01	0	38	104	0	48	18471
2026-01-18 15:49:56.67	28.09	16.15	-36.8	-47.1	3.5	3.02e+01	0	38	104	0	48	17341
2026-01-18 15:49:57.68	28.17	16.27	-48.1	-63.4	3.5	3.02e+01	0	38	104	0	60	56691
2026-01-18 15:49:58.69	28.24	16.39	-45.2	-57.0	3.6	3.02e+01	0	38	104	0	60	27144
2026-01-18 15:49:59.70	28.32	16.51	-43.1	-54.0	3.5	3.02e+01	0	38	104	0	52	30525
2026-01-18 15:50:00.71	28.40	16.63	-44.0	-55.1	3.5	3.02e+01	0	38	104	0	60	21941
2026-01-18 15:50:01.72	28.48	16.75	-41.5	-52.1	3.5	3.02e+01	0	38	104	0	56	19416
2026-01-18 15:50:02.73	28.56	16.87	-41.6	-52.2	3.5	3.02e+01	0	38	104	0	56	19836
2026-01-18 15:50:03.74	28.64	16.99	-41.2	-51.7	3.5	3.02e+01	0	38	104	0	56	18684
2026-01-18 15:50:04.75	28.72	17.12	-41.7	-52.3	3.5	3.02e+01	0	38	104	0	56	20002
2026-01-18 15:50:05.76	28.80	17.24	-39.1	-49.5	3.5	3.02e+01	0	38	104	0	54	16181
2026-01-18 15:50:06.77	28.88	17.36	-48.9	-64.6	3.5	3.02e+01	0	38	104	0	60	65637
2026-01-18 15:50:07.78	28.97	17.49	-43.4	-54.6	3.5	3.02e+01	0	38	104	0	60	20571
2026-01-18 15:50:08.79	29.05	17.61	-47.6	-61.0	3.5	3.02e+01	0	38	104	0	60	43302
2026-01-18 15:50:09.79	29.13	17.74	-42.5	-53.3	3.5	3.02e+01	0	38	104	0	60	17781
2026-01-18 15:50:10.81	29.22	17.87	-40.8	-51.3	3.5	3.02e+01	0	38	104	0	56	17874
2026-01-18 15:50:11.82	29.30	18.00	-39.2	-49.6	3.5	3.02e+01	0	38	104	0	54	16323
2026-01-18 15:50:12.83	29.39	18.12	-38.6	-49.0	3.5	3.02e+01	0	38	104	0	52	17166
2026-01-18 15:50:13.84	29.48	18.25	-38.7	-49.1	3.5	3.02e+01	0	38	104	0	52	17396
2026-01-18 15:50:14.85	29.56	18.38	-39.1	-49.4	3.5	3.02e+01	0	38	104	0	52	18065
2026-01-18 15:50:15.86	29.65	18.51	-48.7	-64.4	3.5	3.02e+01	0	38	104	0	60	64196
2026-01-18 15:50:16.87	29.74	18.65	-40.6	-51.2	3.5	3.02e+01	0	38	104	0	56	17572
2026-01-18 15:50:17.88	29.83	18.78	-48.5	-63.5	3.5	3.02e+01	0	38	104	0	60	57616
2026-01-18 15:50:18.89	29.92	18.91	-37.6	-47.9	3.5	3.02e+01	0	38	104	0	52	15220
2026-01-18 15:50:19.89	30.01	19.04	-37.3	-47.6	3.5	3.02e+01	0	38	104	0	50	16342
2026-01-18 15:50:20.90	30.11	19.18	-36.7	-47.0	3.5	3.02e+01	0	38	104	0	48	17130
2026-01-18 15:50:21.91	30.20	19.31	-36.5	-46.7	3.6	3.02e+01	0	38	104	0	48	16641
2026-01-18 15:50:22.92	30.29	19.45	-43.4	-54.4	3.5	3.02e+01	0	38	104	0	60	20286
2026-01-18 15:50:23.93	30.39	19.58	-38.4	-48.8	3.5	3.02e+01	0	38	104	0	48	21054
2026-01-18 15:50:24.94	30.48	19.72	-48.8	-64.5	3.5	3.02e+01	0	38	104	0	60	64525
2026-01-18 15:50:25.95	30.58	19.86	-42.7	-53.6	3.5	3.02e+01	0	38	104	0	60	18372
2026-01-18 15:50:26.96	30.68	20.00	-49.6	-67.0	3.5	3.02e+01	0	38	104	0	60	86079
2026-01-18 15:50:27.97	30.78	20.14	-41.3	-51.9	3.5	3.02e+01	0	38	104	0	58	17083
2026-01-18 15:50:28.98	30.88	20.28	-40.5	-51.0	3.5	3.02e+01	0	38	104	0	56	17216
2026-01-18 15:50:29.99	30.98	20.42	-40.9	-51.4	3.5	3.02e+01	0	38	104	0	56	18074
2026-01-18 15:50:31.00	31.08	20.56	-39.9	-50.4	3.5	3.02e+01	0	38	104	0	54	17964
2026-01-18 15:50:32.01	31.18	20.70	-37.5	-47.9	3.5	3.02e+01	0	38	104	0	50	16921
2026-01-18 15:50:33.02	31.28	20.84	-38.8	-49.2	3.5	3.02e+01	0	38	104	0	52	17579
2026-01-18 15:50:34.03	31.39	20.99	-49.1	-64.9	3.5	3.02e+01	0	38	104	0	60	67390
2026-01-18 15:50:35.04	31.49	21.13	-43.1	-54.1	3.5	3.02e+01	0	38	104	0	60	19448
2026-01-18 15:50:36.06	31.60	21.28	-49.6	-67.3	3.5	3.02e+01	0	38	104	0	60	89221
2026-01-18 15:50:37.07	31.70	21.43	-41.0	-51.6	3.5	3.02e+01	0	38	104	0	56	18411
2026-01-18 15:50:38.08	31.81	21.57	-40.6	-51.2	3.5	3.02e+01	0	38	104	0	56	17520
2026-01-18 15:50:39.09	31.92	21.72	-40.6	-51.2	3.5	3.02e+01	0	38	104	0	56	17677
2026-01-18 15:50:40.10	32.03	21.87	-40.9	-51.4	3.5	3.02e+01	0	38	104	0	56	18088
2026-01-18 15:50:41.11	32.14	22.02	-41.4	-52.0	3.5	3.02e+01	0	38	104	0	56	19388
2026-01-18 15:50:42.12	32.26	22.17	-38.6	-49.0	3.5	3.02e+01	0	38	104	0	54	15383
2026-01-18 15:50:43.13	32.37	22.32	-49.1	-64.9	3.5	3.02e+01	0	38	104	0	60	67452
2026-01-18 15:50:44.14	32.48	22.48	-43.0	-54.0	3.6	3.02e+01	0	38	104	0	60	19224
2026-01-18 15:50:45.15	32.60	22.63	-49.6	-67.2	3.5	3.02e+01	0	38	104	0	60	87799
2026-01-18 15:50:46.16	32.72	22.79	-38.6	-48.9	3.5	3.02e+01	0	38	104	0	52	16972
2026-01-18 15:50:47.17	32.83	22.94	-37.8	-48.1	3.5	3.02e+01	0	38	104	0	50	17410
2026-01-18 15:50:48.18	32.95	23.10	-37.3	-47.6	3.6	3.02e+01	0	38	104	0	50	16354
2026-01-18 15:50:49.19	33.07	23.25	-37.0	-47.3	3.5	3.02e+01	0	38	104	0	50	15785
2026-01-18 15:50:50.20	33.20	23.41	-39.6	-50.0	3.5	3.02e+01	0	38	104	0	54	17258
2026-01-18 15:50:51.21	33.32	23.57	-37.8	-48.2	3.5	3.02e+01	0	38	104	0	50	17499
2026-01-18 15:50:52.22	33.44	23.73	-49.1	-64.8	3.5	3.02e+01	0	38	104	0	60	67036
2026-01-18 15:50:53.23	33.57	23.89	-40.6	-51.2	3.7	3.02e+01	0	38	104	0	56	17557
2026-01-18 15:50:54.24	33.70	24.05	-49.4	-66.1	3.5	3.02e+01	0	38	104	0	60	77490
2026-01-18 15:50:55.25	33.82	24.22	-40.7	-51.2	3.5	3.02e+01	0	38	104	0	56	17593
2026-01-18 15:50:56.26	33.95	24.38	-39.8	-50.3	3.5	3.02e+01	0	38	104	0	54	17785
2026-01-18 15:50:57.27	34.08	24.55	-39.3	-49.7	3.5	3.02e+01	0	38	104	0	54	16629
2026-01-18 15:50:58.28	34.22	24.71	-38.6	-48.9	3.5	3.02e+01	0	38	104	0	52	16989
2026-01-18 15:50:59.29	34.35	24.88	-36.9	-47.2	3.5	3.02e+01	0	38	104	0	48	17644
2026-01-18 15:51:00.30	34.49	25.05	-38.0	-48.3	3.5	3.02e+01	0	38	104	0	52	15780
2026-01-18 15:51:01.30	34.62	25.21	-49.0	-64.8	3.5	3.02e+01	0	38	104	0	60	66544
2026-01-18 15:51:02.31	34.76	25.38	-40.7	-51.2	3.6	3.02e+01	0	38	104	0	60	14002
2026-01-18 15:51:03.32	34.90	25.56	-49.4	-66.5	3.5	3.02e+01	0	39	104	0	60	81569
2026-01-18 15:51:04.33	35.04	25.73	-41.0	-51.6	3.5	3.02e+01	0	38	104	0	56	18388
2026-01-18 15:51:05.34	35.18	25.90	-41.1	-51.7	3.6	3.02e+01	0	38	104	0	56	18555
2026-01-18 15:51:06.35	35.33	26.07	-40.9	-51.3	3.5	3.02e+01	0	38	104	0	56	17851
2026-01-18 15:51:07.36	35.47	26.25	-40.0	-50.3	3.5	3.02e+01	0	38	104	0	56	15918
2026-01-18 15:51:08.37	35.62	26.43	-39.4	-49.8	3.5	3.02e+01	0	38	104	0	54	16706
2026-01-18 15:51:09.38	35.77	26.60	-38.1	-48.4	3.5	3.02e+01	0	38	104	0	52	16007
2026-01-18 15:51:10.39	35.92	26.78	-49.2	-66.1	3.5	3.02e+01	0	38	104	0	60	77765
2026-01-18 15:51:11.40	36.07	26.96	-37.1	-47.4	3.5	3.02e+01	0	38	104	0	50	16080
2026-01-18 15:51:12.41	36.23	27.14	-46.3	-58.8	3.5	3.02e+01	0	38	104	0	60	33667
2026-01-18 15:51:13.42	36.38	27.32	-37.2	-47.4	3.5	3.02e+01	0	38	104	0	50	16018
2026-01-18 15:51:14.43	36.54	27.50	-37.2	-47.3	3.5	3.02e+01	0	38	104	0	48	17808
2026-01-18 15:51:15.44	36.70	27.69	-37.0	-47.3	3.5	3.02e+01	0	38	104	0	48	17827
2026-01-18 15:51:16.44	36.86	27.87	-38.3	-48.7	3.5	3.02e+01	0	38	104	0	48	20945
2026-01-18 15:51:17.45	37.02	28.06	-43.3	-54.4	3.5	3.02e+01	0	38	104	0	60	20126
2026-01-18 15:51:18.47	37.19	28.25	-39.4	-49.8	3.5	3.02e+01	0	38	104	0	50	21158
2026-01-18 15:51:19.47	37.36	28.43	-48.9	-64.6	3.6	3.02e+01	0	38	104	0	60	65603
2026-01-18 15:51:20.48	37.52	28.62	-36.6	-46.7	3.5	3.02e+01	0	38	104	0	48	16648
2026-01-18 15:51:21.49	37.70	28.81	-47.6	-61.2	3.5	3.02e+01	0	38	104	0	60	44058
2026-01-18 15:51:22.50	37.87	29.00	-41.3	-51.9	3.5	3.02e+01	0	38	104	0	56	19105
2026-01-18 15:51:23.51	38.04	29.20	-40.6	-51.2	3.5	3.02e+01	0	38	104	0	56	17490
2026-01-18 15:51:24.52	38.22	29.39	-41.2	-51.8	3.5	3.02e+01	0	38	104	0	56	18886
2026-01-18 15:51:25.53	38.40	29.59	-41.0	-51.6	3.5	3.02e+01	0	38	104	0	56	18330
2026-01-18 15:51:26.54	38.58	29.78	-40.5	-51.0	3.5	3.02e+01	0	38	104	0	58	15378
2026-01-18 15:51:27.55	38.77	29.98	-44.9	-56.4	3.5	3.02e+01	0	38	104	0	54	35799
2026-01-18 15:51:28.56	38.96	30.18	-46.4	-59.1	3.6	3.02e+01	0	39	104	0	60	34511
2026-01-18 15:51:29.57	39.14	30.38	-39.8	-50.1	3.8	3.02e+01	0	38	104	0	50	21996
2026-01-18 15:51:30.57	39.33	30.58	-45.2	-56.8	3.6	3.02e+01	0	38	104	0	60	26522
2026-01-18 15:51:31.58	39.53	30.78	-39.9	-50.3	3.5	3.02e+01	0	38	104	0	56	15919
2026-01-18 15:51:32.59	39.72	30.98	-38.5	-48.9	3.6	3.02e+01	0	38	104	0	52	16937
2026-01-18 15:51:33.61	39.92	31.19	-37.7	-48.0	3.6	3.02e+01	0	38	104	0	50	17103
2026-01-18 15:51:34.61	40.12	31.39	-37.1	-47.2	3.5	3.02e+01	0	38	104	0	48	17631
2026-01-18 15:51:35.62	40.33	31.60	-38.6	-48.9	3.5	3.02e+01	0	38	104	0	50	19066
2026-01-18 15:51:36.63	40.53	31.81	-46.5	-58.6	3.5	3.02e+01	0	38	104	0	58	36825
2026-01-18 15:51:37.64	40.74	32.02	-45.7	-57.7	3.5	3.02e+01	0	38	104	0	60	29563
2026-01-18 15:51:38.65	40.95	32.23	-41.3	-51.9	3.5	3.02e+01	0	39	104	0	50	26869
2026-01-18 15:51:39.66	41.17	32.44	-41.3	-52.0	3.5	3.02e+01	0	38	104	0	60	15280
2026-01-18 15:51:40.67	41.39	32.65	-37.9	-48.1	3.5	3.02e+01	0	39	104	0	50	17485
2026-01-18 15:51:41.69	41.61	32.87	-37.3	-47.6	3.5	3.02e+01	0	38	104	0	50	16327
2026-01-18 15:51:42.70	41.83	33.08	-37.2	-47.5	3.5	3.02e+01	0	38	104	0	50	16203
2026-01-18 15:51:43.70	42.06	33.29	-38.7	-49.0	3.5	3.02e+01	0	38	104	0	50	19341
2026-01-18 15:51:44.71	42.29	33.51	-39.7	-50.0	3.5	3.02e+01	0	38	104	0	52	19328
2026-01-18 15:51:45.72	42.52	33.73	-49.2	-65.5	3.5	3.02e+01	0	38	104	0	60	72289
2026-01-18 15:51:46.73	42.75	33.95	-41.9	-52.7	3.5	3.02e+01	0	38	104	0	60	16561
2026-01-18 15:51:47.74	42.99	34.17	-47.1	-59.6	3.5	3.02e+01	0	39	104	0	60	36893
2026-01-18 15:51:48.75	43.24	34.39	-42.9	-53.8	3.5	3.02e+01	0	38	104	0	60	18785
2026-01-18 15:51:49.76	43.48	34.62	-40.0	-50.5	3.5	3.02e+01	0	38	104	0	54	18135
2026-01-18 15:51:50.77	43.73	34.84	-39.4	-49.9	3.5	3.02e+01	0	39	104	0	54	16904
2026-01-18 15:51:51.78	43.98	35.07	-40.1	-50.6	3.5	3.02e+01	0	39	104	0	54	18428
2026-01-18 15:51:52.79	44.24	35.29	-42.7	-53.7	3.5	3.02e+01	0	39	104	0	58	20811
2026-01-18 15:51:53.80	44.50	35.52	-41.2	-51.7	3.5	3.02e+01	0	38	104	0	58	16692
2026-01-18 15:51:54.81	44.76	35.75	-49.3	-65.6	3.5	3.02e+01	0	39	104	0	60	73398
2026-01-18 15:51:55.82	45.03	35.98	-44.2	-55.6	3.5	3.02e+01	0	38	104	0	60	23249
2026-01-18 15:51:56.82	45.30	36.21	-48.1	-61.8	3.5	3.02e+01	0	39	104	0	60	47461
2026-01-18 15:51:57.84	45.58	36.44	-41.8	-52.6	3.4	3.02e+01	0	39	104	0	60	16408
2026-01-18 15:51:58.84	45.85	36.67	-41.8	-52.6	3.5	3.02e+01	0	38	104	0	58	18504
2026-01-18 15:51:59.85	46.13	36.91	-41.8	-52.6	3.5	3.02e+01	0	38	104	0	58	18372
2026-01-18 15:52:00.86	46.42	37.14	-41.3	-51.9	3.5	3.02e+01	0	38	104	0	56	19092
2026-01-18 15:52:01.87	46.71	37.38	-42.1	-52.9	3.5	3.02e+01	0	38	104	0	56	21384
2026-01-18 15:52:02.88	47.01	37.62	-40.8	-51.2	3.5	3.02e+01	0	38	104	0	56	17692
2026-01-18 15:52:03.89	47.31	37.85	-48.8	-64.7	3.5	3.02e+01	0	38	104	0	60	66375
2026-01-18 15:52:04.90	47.61	38.09	-44.8	-56.3	3.6	3.02e+01	0	38	104	0	60	25060
2026-01-18 15:52:05.91	47.92	38.33	-49.1	-66.6	3.5	3.02e+01	0	38	104	0	60	82147
2026-01-18 15:52:06.92	48.23	38.57	-41.6	-52.2	3.5	3.02e+01	0	39	104	0	60	15657
2026-01-18 15:52:07.93	48.55	38.82	-41.4	-52.1	3.5	3.02e+01	0	39	104	0	58	17340
2026-01-18 15:52:08.94	48.88	39.06	-39.8	-50.2	3.5	3.02e+01	0	39	104	0	56	15725
2026-01-18 15:52:09.95	49.20	39.30	-38.7	-48.9	3.5	3.02e+01	0	38	104	0	52	16989
2026-01-18 15:52:10.96	49.54	39.55	-42.4	-53.3	3.5	3.02e+01	0	38	104	0	56	22389
2026-01-18 15:52:11.97	49.87	39.79	-40.4	-50.9	3.5	3.02e+01	0	39	104	0	56	16968
2026-01-18 15:52:12.98	50.22	40.04	-49.2	-64.9	3.5	3.02e+01	0	38	104	0	60	67271
2026-01-18 15:52:13.99	50.57	40.28	-44.7	-56.1	3.5	3.02e+01	0	38	104	0	60	24698
2026-01-18 15:52:15.00	50.92	40.53	-49.6	-66.7	3.5	3.02e+01	0	39	104	0	60	83453
2026-01-18 15:52:16.01	51.28	40.78	-41.3	-51.9	3.5	3.02e+01	0	39	104	0	58	17038
2026-01-18 15:52:17.02	51.64	41.03	-41.4	-52.1	3.5	3.02e+01	0	39	104	0	56	19531
2026-01-18 15:52:18.03	52.01	41.28	-41.9	-52.5	3.5	3.02e+01	0	38	104	0	58	18150
2026-01-18 15:52:19.04	52.39	41.53	-40.0	-50.4	3.5	3.02e+01	0	38	104	0	56	16060
2026-01-18 15:52:20.05	52.77	41.78	-40.1	-50.6	3.6	3.02e+01	0	39	104	0	54	18484
2026-01-18 15:52:21.06	53.16	42.03	-38.9	-49.2	3.5	3.02e+01	0	39	104	0	54	15690
2026-01-18 15:52:22.07	53.56	42.28	-49.1	-64.2	3.5	3.02e+01	0	39	104	0	60	62215
2026-01-18 15:52:23.08	53.96	42.53	-44.3	-55.5	3.5	3.02e+01	0	39	104	0	60	23010
2026-01-18 15:52:24.09	54.36	42.78	-49.6	-66.6	3.5	3.02e+01	0	39	104	0	60	82299
2026-01-18 15:52:25.10	54.78	43.03	-39.7	-50.1	3.5	3.02e+01	0	39	104	0	54	17320
2026-01-18 15:52:26.11	55.20	43.28	-38.2	-48.5	3.5	3.02e+01	0	39	104	0	52	16242
2026-01-18 15:52:27.12	55.62	43.53	-36.9	-47.1	3.5	3.02e+01	0	39	104	0	50	15577
2026-01-18 15:52:28.13	56.06	43.79	-36.6	-46.8	3.5	3.02e+01	0	38	104	0	48	16856
2026-01-18 15:52:29.14	56.50	44.04	-37.0	-47.1	3.5	3.02e+01	0	38	104	0	48	17440
2026-01-18 15:52:30.15	56.94	44.29	-37.7	-48.0	3.6	3.02e+01	0	39	104	0	50	17154
2026-01-18 15:52:31.16	57.40	44.54	-48.9	-63.6	3.5	3.02e+01	0	39	104	0	60	58466
2026-01-18 15:52:32.17	57.86	44.79	-43.5	-54.5	3.6	3.02e+01	0	39	104	0	60	20375
2026-01-18 15:52:33.18	58.33	45.04	-49.6	-66.4	3.5	3.02e+01	0	39	104	0	60	80032
2026-01-18 15:52:34.19	58.81	45.29	-39.3	-49.7	3.5	3.02e+01	0	39	104	0	54	16644
2026-01-18 15:52:35.20	59.29	45.54	-37.3	-47.5	3.5	3.02e+01	0	39	104	0	50	16180
2026-01-18 15:52:36.21	59.78	45.79	-36.6	-46.9	3.5	3.02e+01	0	39	104	0	48	16991
2026-01-18 15:52:37.21	60.28	46.04	-36.1	-46.4	3.5	3.02e+01	0	39	104	0	48	15953
2026-01-18 15:52:38.22	60.79	46.28	-37.3	-47.5	3.5	3.02e+01	0	39	104	0	50	16269
2026-01-18 15:52:39.23	61.30	46.53	-36.6	-46.8	3.5	3.02e+01	0	39	104	0	48	16819
2026-01-18 15:52:40.24	61.83	46.78	-48.9	-63.5	3.5	3.02e+01	0	39	104	0	60	57774
2026-01-18 15:52:41.25	62.36	47.02	-40.7	-51.3	3.6	3.02e+01	0	39	104	0	60	14159
2026-01-18 15:52:42.26	62.90	47.27	-49.5	-66.0	3.5	3.02e+01	0	39	104	0	60	77111
2026-01-18 15:52:43.27	63.45	47.51	-36.5	-46.7	3.5	3.02e+01	0	38	104	0	48	16667
2026-01-18 15:52:44.28	64.01	47.75	-36.7	-46.9	3.5	3.02e+01	0	38	104	0	48	16913
2026-01-18 15:52:45.29	64.57	47.99	-36.3	-46.5	3.5	3.02e+01	0	38	104	0	48	16235
2026-01-18 15:52:46.30	65.15	48.23	-35.9	-46.2	3.5	3.02e+01	0	39	104	0	48	15711
2026-01-18 15:52:47.31	65.73	48.46	-40.8	-51.3	3.5	3.02e+01	0	39	104	0	58	15863
2026-01-18 15:52:48.32	66.33	48.70	-36.5	-46.8	3.5	3.02e+01	0	39	104	0	50	14900
2026-01-18 15:52:49.33	66.93	48.93	-48.9	-63.6	3.4	3.02e+01	0	39	104	0	60	58537
2026-01-18 15:52:50.34	67.54	49.16	-37.4	-47.7	3.5	3.02e+01	0	39	104	0	54	13159
2026-01-18 15:52:51.34	68.16	49.39	-49.0	-64.0	3.5	3.02e+01	0	39	104	0	60	61119
2026-01-18 15:52:52.35	68.79	49.61	-38.8	-49.0	3.4	3.02e+01	0	39	104	0	54	15352
2026-01-18 15:52:53.36	69.43	49.84	-37.3	-47.6	3.5	3.02e+01	0	39	104	0	50	16500
2026-01-18 15:52:54.38	70.08	50.06	-36.3	-46.5	3.5	3.02e+01	0	39	104	0	48	16314
2026-01-18 15:52:55.39	70.74	50.28	-36.1	-46.3	3.5	3.02e+01	0	39	104	0	48	15913
2026-01-18 15:52:56.39	71.40	50.49	-38.2	-48.5	3.5	3.02e+01	0	39	104	0	50	18242
2026-01-18 15:52:57.41	72.09	50.70	-37.1	-47.3	3.5	3.02e+01	0	39	104	0	48	17775
2026-01-18 15:52:58.41	72.77	50.91	-49.4	-65.6	3.6	3.02e+01	0	39	104	0	60	72954
2026-01-18 15:52:59.42	73.47	51.12	-37.1	-47.3	3.5	3.02e+01	0	39	104	0	52	14186
2026-01-18 15:53:00.43	74.17	51.32	-48.5	-62.6	3.5	3.02e+01	0	39	104	0	60	52153
2026-01-18 15:53:01.44	74.89	51.52	-39.8	-50.1	3.5	3.02e+01	0	39	104	0	54	17298
2026-01-18 15:53:02.45	75.62	51.71	-38.4	-48.8	3.5	3.02e+01	0	39	104	0	52	16805
2026-01-18 15:53:03.46	76.35	51.90	-37.2	-47.4	3.5	3.02e+01	0	39	104	0	50	15990
2026-01-18 15:53:04.47	77.10	52.09	-36.5	-46.7	3.5	3.02e+01	0	39	104	0	48	16676
2026-01-18 15:53:05.48	77.85	52.27	-40.5	-51.0	3.5	3.02e+01	0	39	104	0	56	17149
2026-01-18 15:53:06.49	78.61	52.45	-40.2	-50.8	3.8	3.02e+01	0	39	104	0	48	26560
2026-01-18 15:53:07.50	79.39	52.62	-45.3	-57.0	3.6	3.02e+01	0	39	104	0	60	27371
2026-01-18 15:53:08.51	80.17	52.79	-37.0	-47.3	3.5	3.02e+01	0	39	104	0	48	17744
2026-01-18 15:53:09.52	80.96	52.96	-45.4	-57.0	3.6	3.02e+01	0	39	104	0	60	27224
2026-01-18 15:53:10.53	81.76	53.12	-36.8	-47.0	3.5	3.02e+01	0	39	104	0	48	17236
2026-01-18 15:53:11.54	82.57	53.27	-36.6	-46.9	3.5	3.02e+01	0	38	104	0	48	16931
2026-01-18 15:53:12.55	83.38	53.42	-36.5	-46.7	3.5	3.02e+01	0	39	104	0	48	16593
2026-01-18 15:53:13.56	84.21	53.56	-37.5	-47.8	3.5	3.02e+01	0	39	104	0	48	18811
2026-01-18 15:53:14.57	85.04	53.70	-40.2	-50.6	3.5	3.02e+01	0	39	104	0	54	18468
2026-01-18 15:53:15.57	85.87	53.83	-41.7	-52.5	3.5	3.02e+01	0	39	104	0	50	28779
2026-01-18 15:53:16.58	86.72	53.96	-44.1	-55.4	3.5	3.02e+01	0	38	104	0	60	22562
2026-01-18 15:53:17.60	87.59	54.08	-38.6	-48.8	3.5	3.02e+01	0	39	104	0	50	18951
2026-01-18 15:53:18.60	88.44	54.19	-44.5	-55.7	3.5	3.02e+01	0	39	104	0	60	23524
2026-01-18 15:53:19.61	89.31	54.30	-39.6	-50.0	3.5	3.02e+01	0	39	104	0	54	17109
2026-01-18 15:53:20.63	90.20	54.41	-38.8	-49.2	3.5	3.02e+01	0	38	104	0	52	17578
2026-01-18 15:53:21.64	91.08	54.50	-38.4	-48.7	3.5	3.02e+01	0	38	104	0	52	16581
2026-01-18 15:53:22.65	91.97	54.59	-39.3	-49.6	3.4	3.02e+01	0	38	104	0	50	20786
2026-01-18 15:53:23.66	92.86	54.67	-41.7	-52.4	3.5	3.02e+01	0	39	104	0	56	20084
2026-01-18 15:53:24.67	93.76	54.75	-43.0	-54.0	3.5	3.02e+01	0	39	104	0	52	30487
2026-01-18 15:53:25.68	94.66	54.82	-43.2	-54.1	3.5	3.02e+01	0	39	104	0	60	19595
2026-01-18 15:53:26.69	95.57	54.88	-44.4	-55.7	3.5	3.02e+01	0	39	104	0	54	33027
2026-01-18 15:53:27.69	96.47	54.93	-42.0	-52.6	3.5	3.02e+01	0	39	104	0	60	16442
2026-01-18 15:53:28.70	97.39	54.98	-38.8	-49.1	3.5	3.02e+01	0	38	104	0	52	17413
2026-01-18 15:53:29.71	98.30	55.02	-37.5	-47.9	3.5	3.02e+01	0	39	104	0	50	16954
2026-01-18 15:53:30.72	99.22	55.06	-37.2	-47.4	3.5	3.02e+01	0	39	104	0	50	16066
2026-01-18 15:53:31.73	100.15	55.08	-40.3	-50.8	3.5	3.02e+01	0	39	104	0	52	21157
2026-01-18 15:53:32.74	101.07	55.10	-41.5	-52.1	3.5	3.02e+01	0	39	104	0	56	19507
2026-01-18 15:53:33.75	101.99	55.12	-48.2	-62.1	3.5	3.02e+01	0	38	104	0	60	48897
2026-01-18 15:53:34.76	102.92	55.12	-43.1	-54.0	3.5	3.02e+01	0	38	104	0	60	19345
2026-01-18 15:53:35.77	103.84	55.12	-45.5	-56.9	3.5	3.02e+01	0	38	104	0	56	33854
2026-01-18 15:53:36.78	104.77	55.11	-38.1	-48.4	3.5	3.02e+01	0	39	104	0	54	14289
2026-01-18 15:53:37.79	105.69	55.09	-37.0	-47.3	3.6	3.02e+01	0	39	104	0	50	15897
2026-01-18 15:53:38.80	106.62	55.07	-36.8	-47.1	3.5	3.02e+01	0	38	104	0	48	17298
2026-01-18 15:53:39.81	107.54	55.04	-36.9	-47.1	3.5	3.02e+01	0	39	104	0	48	17361
2026-01-18 15:53:40.82	108.46	55.00	-46.7	-59.1	3.5	3.02e+01	0	38	104	0	60	34753
2026-01-18 15:53:41.83	109.37	54.96	-43.0	-53.9	3.5	3.02e+01	0	39	104	0	60	19101
2026-01-18 15:53:42.84	110.29	54.90	-49.4	-65.6	3.5	3.02e+01	0	39	104	0	60	73411
2026-01-18 15:53:43.85	111.19	54.84	-45.9	-57.5	3.5	3.02e+01	0	39	104	0	60	28922
2026-01-18 15:53:44.86	112.10	54.78	-49.6	-66.2	3.5	3.02e+01	0	38	104	0	60	78788
2026-01-18 15:53:45.87	113.00	54.71	-40.8	-42.7	22.3	3.02e+01	58	39	104	0	58	5886
2026-01-18 15:53:46.88	113.90	54.63	-39.9	-41.4	25.7	3.02e+01	57	38	0	1048576	54	6370
2026-01-18 15:53:47.89	114.79	54.54	-39.3	-40.7	26.4	3.02e+01	45	38	0	3145728	54	5914
2026-01-18 15:53:48.90	115.67	54.45	-38.4	-39.8	27.2	3.02e+01	59	38	0	4718592	52	5928
2026-01-18 15:53:49.91	116.55	54.35	-38.9	-40.3	26.5	3.02e+01	62	38	0	6815744	52	6282
2026-01-18 15:53:50.92	117.43	54.24	-38.2	-39.6	27.1	3.02e+01	60	38	0	8388608	52	5799
2026-01-18 15:53:51.93	118.29	54.13	-37.9	-39.2	27.8	3.02e+01	60	38	0	10485760	50	6223
2026-01-18 15:53:52.94	119.15	54.01	-38.1	-39.4	27.6	3.02e+01	58	39	0	12582912	50	6401
2026-01-18 15:53:53.95	120.01	53.89	-37.4	-38.6	27.8	3.02e+01	56	38	0	14155776	50	5855
2026-01-18 15:53:54.96	120.85	53.76	-37.2	-38.5	28.3	3.02e+01	59	38	0	16252928	50	5734
2026-01-18 15:53:55.97	121.69	53.62	-36.5	-37.8	28.9	3.02e+01	46	39	0	17825792	48	5933
2026-01-18 15:53:56.98	122.52	53.48	-36.4	-37.7	28.9	3.02e+01	59	39	0	19922944	48	5880
2026-01-18 15:53:57.99	123.34	53.33	-36.3	-37.5	29.0	3.02e+01	63	38	0	22020096	48	5772
2026-01-18 15:53:58.99	124.14	53.18	-36.1	-37.3	29.2	3.02e+01	57	38	0	23592960	48	5626
2026-01-18 15:54:00.01	124.96	53.02	-36.2	-37.4	29.1	3.02e+01	61	38	0	25690112	48	5715
2026-01-18 15:54:01.02	125.75	52.86	-36.4	-37.6	29.0	3.02e+01	49	38	0	27262976	48	5829
2026-01-18 15:54:02.03	126.54	52.69	-36.2	-37.4	29.0	3.02e+01	59	38	0	29360128	48	5709
2026-01-18 15:54:03.04	127.32	52.52	-36.2	-37.4	29.2	3.02e+01	58	38	0	31457280	48	5692
2026-01-18 15:54:04.05	128.08	52.34	-36.6	-37.8	28.8	3.02e+01	46	38	0	33030144	48	5964
2026-01-18 15:54:05.06	128.84	52.16	-36.3	-37.5	29.1	3.02e+01	59	39	0	35127296	48	5778
2026-01-18 15:54:06.07	129.59	51.98	-36.3	-37.6	29.0	3.02e+01	61	38	0	36700160	48	5806
2026-01-18 15:54:07.08	130.33	51.79	-36.3	-37.5	29.0	3.02e+01	61	39	0	38797312	48	5759
2026-01-18 15:54:08.09	131.06	51.59	-36.3	-37.5	29.1	3.02e+01	63	38	0	40894464	48	5749
2026-01-18 15:54:09.10	131.79	51.39	-36.5	-37.7	28.9	3.02e+01	50	39	0	42467328	48	5892
2026-01-18 15:54:10.11	132.50	51.19	-36.8	-38.1	28.7	3.02e+01	61	39	0	44564480	48	6174
2026-01-18 15:54:11.12	133.20	50.99	-37.2	-38.4	28.4	3.02e+01	59	38	0	46137344	48	6413
2026-01-18 15:54:12.13	133.89	50.78	-37.0	-38.2	28.5	3.02e+01	60	38	0	48234496	48	6263
2026-01-18 15:54:13.14	134.58	50.57	-36.7	-38.0	28.6	3.02e+01	58	38	0	50331648	48	6094
2026-01-18 15:54:14.15	135.25	50.35	-36.8	-38.1	28.5	3.02e+01	38	39	0	51904512	48	6160
2026-01-18 15:54:15.16	135.91	50.14	-36.9	-38.1	28.6	3.02e+01	60	38	0	54001664	48	6178
2026-01-18 15:54:16.17	136.57	49.92	-37.2	-38.4	28.3	3.02e+01	61	39	0	56098816	48	6421
2026-01-18 15:54:17.18	137.21	49.69	-36.7	-38.0	28.6	3.02e+01	47	39	0	57671680	48	6074
2026-01-18 15:54:18.19	137.85	49.47	-36.8	-38.1	28.6	3.02e+01	60	38	0	59768832	48	6163
2026-01-18 15:54:19.20	138.47	49.24	-36.7	-38.0	28.7	3.02e+01	59	38	0	61341696	48	6079
2026-01-18 15:54:20.21	139.09	49.01	-37.0	-38.3	28.5	3.02e+01	59	39	0	63438848	48	6281
2026-01-18 15:54:21.22	139.70	48.78	-37.1	-38.4	28.3	3.02e+01	58	39	0	65536000	48	6399
2026-01-18 15:54:22.23	140.30	48.54	-37.0	-38.3	28.4	3.02e+01	51	39	0	67108864	48	6294
2026-01-18 15:54:23.23	140.88	48.31	-36.7	-37.9	28.8	3.02e+01	56	38	0	69206016	48	6050
2026-01-18 15:54:24.24	141.46	48.07	-36.7	-37.9	28.7	3.02e+01	60	39	0	71303168	48	6050
2026-01-18 15:54:25.25	142.03	47.83	-36.7	-38.0	28.7	3.02e+01	50	38	0	72876032	48	6067
2026-01-18 15:54:26.26	142.59	47.59	-37.0	-38.3	28.4	3.02e+01	58	38	0	74973184	48	6320
2026-01-18 15:54:27.27	143.15	47.35	-37.0	-38.2	28.4	3.02e+01	62	39	0	76546048	48	6255
2026-01-18 15:54:28.28	143.69	47.10	-36.8	-38.1	28.7	3.02e+01	59	38	0	78643200	48	6149
2026-01-18 15:54:29.29	144.23	46.86	-36.7	-37.9	28.7	3.02e+01	59	38	0	80740352	48	6059
2026-01-18 15:54:30.30	144.76	46.61	-36.5	-37.7	28.7	3.02e+01	53	38	0	82313216	48	5915
2026-01-18 15:54:31.30	145.27	46.37	-36.4	-37.6	28.9	3.02e+01	59	38	0	84410368	48	5843
2026-01-18 15:54:32.31	145.79	46.12	-36.6	-37.8	28.9	3.02e+01	57	39	0	85983232	48	5965
2026-01-18 15:54:33.32	146.29	45.87	-36.6	-37.9	28.8	3.02e+01	51	38	0	88080384	48	6016
2026-01-18 15:54:34.34	146.79	45.62	-36.6	-37.9	28.7	3.02e+01	59	38	0	90177536	48	6008
2026-01-18 15:54:35.34	147.27	45.37	-36.5	-37.7	29.0	3.02e+01	59	38	0	91750400	48	5893
2026-01-18 15:54:36.35	147.75	45.12	-36.4	-37.6	29.0	3.02e+01	58	39	0	93847552	48	5847
2026-01-18 15:54:37.36	148.23	44.87	-36.5	-37.7	28.9	3.02e+01	61	39	0	95420416	48	5912
2026-01-18 15:54:38.38	148.70	44.61	-36.4	-37.6	29.1	3.02e+01	52	38	0	97517568	48	5831
2026-01-18 15:54:39.39	149.16	44.36	-36.5	-37.8	28.9	3.02e+01	57	38	0	99614720	48	5930
2026-01-18 15:54:40.40	149.61	44.11	-36.4	-37.6	29.0	3.02e+01	60	39	0	101187584	48	5848
2026-01-18 15:54:41.41	150.05	43.85	-36.5	-37.8	28.9	3.02e+01	48	39	0	103284736	48	5929
2026-01-18 15:54:42.42	150.49	43.60	-36.4	-37.7	28.9	3.02e+01	59	38	0	104857600	48	5864
2026-01-18 15:54:43.43	150.92	43.35	-36.5	-37.7	28.8	3.02e+01	61	38	0	106954752	48	5895
2026-01-18 15:54:44.44	151.34	43.10	-36.4	-37.6	29.1	3.02e+01	58	38	0	109051904	48	5812
2026-01-18 15:54:45.45	151.76	42.84	-36.7	-37.9	28.8	3.02e+01	60	38	0	110624768	48	6028
2026-01-18 15:54:46.46	152.17	42.59	-36.7	-38.0	28.7	3.02e+01	51	38	0	112721920	48	6103
2026-01-18 15:54:47.47	152.57	42.34	-36.7	-37.9	28.7	3.02e+01	56	38	0	114294784	48	6052
2026-01-18 15:54:48.48	152.97	42.09	-37.0	-38.3	28.5	3.02e+01	60	38	0	116391936	48	6280
2026-01-18 15:54:49.49	153.36	41.84	-36.7	-38.0	28.6	3.02e+01	59	38	0	118489088	48	6088
2026-01-18 15:54:50.50	153.75	41.59	-36.7	-37.9	28.7	3.02e+01	56	38	0	120061952	48	6060
2026-01-18 15:54:51.51	154.12	41.33	-36.4	-37.6	29.0	3.02e+01	48	38	0	122159104	48	5827
2026-01-18 15:54:52.51	154.49	41.09	-36.5	-37.7	28.9	3.02e+01	60	39	0	124256256	48	5915
2026-01-18 15:54:53.53	154.87	40.83	-36.6	-37.8	28.9	3.02e+01	56	39	0	125829120	48	5972
2026-01-18 15:54:54.54	155.23	40.59	-37.1	-38.4	28.2	3.02e+01	50	38	0	127926272	48	6394
2026-01-18 15:54:55.55	155.58	40.34	-37.2	-38.5	28.2	3.02e+01	55	38	0	129499136	48	6454
2026-01-18 15:54:56.55	155.93	40.09	-37.2	-38.5	28.2	3.02e+01	58	39	0	131596288	48	6454
2026-01-18 15:54:57.56	156.28	39.84	-37.0	-38.2	28.5	3.02e+01	58	38	0	133693440	48	6274
2026-01-18 15:54:58.57	156.62	39.60	-37.1	-38.3	28.4	3.02e+01	63	38	0	135266304	48	6334
2026-01-18 15:54:59.58	156.95	39.35	-37.1	-38.4	28.3	3.02e+01	53	38	0	137363456	48	6363
2026-01-18 15:55:00.59	157.28	39.11	-36.9	-38.1	28.5	3.02e+01	57	38	0	138936320	48	6188
2026-01-18 15:55:01.60	157.61	38.86	-37.0	-38.3	28.5	3.02e+01	60	38	0	141033472	48	6292
2026-01-18 15:55:02.61	157.93	38.62	-36.9	-38.2	28.5	3.02e+01	45	38	0	143130624	48	6238
2026-01-18 15:55:03.62	158.25	38.38	-36.9	-38.1	28.6	3.02e+01	59	38	0	144703488	48	6159
2026-01-18 15:55:04.63	158.56	38.14	-36.6	-37.9	28.7	3.02e+01	59	38	0	146800640	48	6013
2026-01-18 15:55:05.64	158.86	37.90	-36.7	-37.9	28.7	3.02e+01	59	38	0	148897792	48	6064
2026-01-18 15:55:06.65	159.17	37.66	-36.5	-37.8	28.8	3.02e+01	57	38	0	150470656	48	5930
2026-01-18 15:55:07.66	159.46	37.42	-36.4	-37.6	28.9	3.02e+01	58	38	0	152567808	48	5855
2026-01-18 15:55:08.66	159.75	37.18	-36.6	-37.9	28.8	3.02e+01	60	39	0	154140672	48	6013
2026-01-18 15:55:09.67	160.04	36.95	-36.5	-37.7	28.8	3.02e+01	60	38	0	156237824	48	5891
2026-01-18 15:55:10.68	160.33	36.71	-36.4	-37.6	28.9	3.02e+01	42	38	0	158334976	48	5821
2026-01-18 15:55:11.69	160.61	36.48	-36.2	-37.4	29.1	3.02e+01	57	38	0	159907840	48	5698
2026-01-18 15:55:12.70	160.88	36.24	-36.0	-37.2	29.4	3.02e+01	57	38	0	162004992	48	5546
2026-01-18 15:55:13.71	161.16	36.01	-35.9	-37.1	29.4	3.02e+01	60	39	0	163577856	46	6196
2026-01-18 15:55:14.72	161.43	35.78	-35.8	-37.0	29.6	3.02e+01	61	38	0	165675008	46	6071
2026-01-18 15:55:15.73	161.69	35.55	-35.9	-37.1	29.5	3.02e+01	51	38	0	167772160	46	6149
2026-01-18 15:55:16.74	161.95	35.32	-35.7	-36.9	29.6	3.02e+01	61	38	0	169345024	46	6026
2026-01-18 15:55:17.75	162.21	35.09	-35.8	-37.0	29.4	3.02e+01	59	38	0	171442176	46	6117
2026-01-18 15:55:18.76	162.47	34.86	-35.8	-37.0	29.5	3.02e+01	55	38	0	173015040	46	6090
2026-01-18 15:55:19.77	162.72	34.64	-35.7	-36.9	29.5	3.02e+01	59	38	0	175112192	46	6026
2026-01-18 15:55:20.78	162.96	34.41	-35.7	-36.9	29.5	3.02e+01	61	38	0	177209344	46	6016
2026-01-18 15:55:21.79	163.21	34.19	-35.3	-36.5	29.8	3.02e+01	60	38	0	178782208	46	5755
2026-01-18 15:55:22.80	163.45	33.97	-35.4	-36.6	29.8	3.02e+01	62	38	0	180879360	46	5824
2026-01-18 15:55:23.82	163.69	33.74	-35.4	-36.6	29.8	3.02e+01	50	38	0	182452224	46	5802
2026-01-18 15:55:24.83	163.92	33.52	-35.1	-36.3	30.1	3.02e+01	57	38	0	184549376	46	5623
2026-01-18 15:55:25.84	164.15	33.31	-35.2	-36.4	29.9	3.02e+01	55	38	0	186646528	46	5685
2026-01-18 15:55:26.84	164.38	33.09	-35.0	-36.2	30.2	3.02e+01	62	38	0	188219392	46	5559
2026-01-18 15:55:27.85	164.60	32.87	-35.1	-36.3	30.1	3.02e+01	59	38	0	190316544	46	5604
2026-01-18 15:55:28.86	164.82	32.66	-35.1	-36.3	30.0	3.02e+01	44	38	0	192413696	46	5617
2026-01-18 15:55:29.87	165.04	32.44	-34.9	-36.0	30.2	3.02e+01	57	39	0	193986560	44	6133
2026-01-18 15:55:30.88	165.26	32.23	-34.7	-35.9	30.3	3.02e+01	57	38	0	196083712	44	5999
2026-01-18 15:55:31.89	165.47	32.02	-34.7	-35.9	30.3	3.02e+01	45	38	0	197656576	44	6008
2026-01-18 15:55:32.90	165.68	31.81	-34.8	-36.0	30.3	3.02e+01	60	38	0	199753728	44	6085
2026-01-18 15:55:33.91	165.89	31.60	-34.8	-36.0	30.3	3.02e+01	54	38	0	201850880	44	6066
2026-01-18 15:55:34.92	166.09	31.39	-35.0	-36.2	30.2	3.02e+01	61	38	0	203423744	44	6215
2026-01-18 15:55:35.93	166.30	31.19	-34.8	-36.0	30.2	3.02e+01	58	39	0	205520896	44	6092
2026-01-18 15:55:36.94	166.50	30.98	-35.0	-36.2	30.0	3.02e+01	59	39	0	207093760	44	6221
2026-01-18 15:55:37.95	166.69	30.77	-35.1	-36.3	30.0	3.02e+01	60	39	0	209190912	44	6306
2026-01-18 15:55:38.96	166.89	30.57	-35.2	-36.3	29.9	3.02e+01	60	38	0	211288064	44	6337
2026-01-18 15:55:39.97	167.08	30.37	-34.9	-36.1	30.1	3.02e+01	52	38	0	212860928	44	6152
2026-01-18 15:55:40.98	167.27	30.17	-34.8	-36.0	30.2	3.02e+01	62	38	0	214958080	44	6117
2026-01-18 15:55:41.99	167.46	29.97	-34.9	-36.0	30.2	3.02e+01	61	38	0	217055232	44	6104
2026-01-18 15:55:42.99	167.64	29.77	-35.0	-36.1	30.1	3.02e+01	61	38	0	218628096	44	6199
2026-01-18 15:55:44.00	167.82	29.57	-35.0	-36.2	30.1	3.02e+01	60	39	0	220725248	44	6215
2026-01-18 15:55:45.01	168.00	29.38	-35.1	-36.2	30.0	3.02e+01	46	38	0	222298112	44	6255
2026-01-18 15:55:46.02	168.18	29.18	-35.1	-36.3	30.1	3.02e+01	58	39	0	224395264	44	6287
2026-01-18 15:55:47.03	168.36	28.99	-35.1	-36.3	30.0	3.02e+01	57	39	0	226492416	44	6306
2026-01-18 15:55:48.04	168.53	28.80	-35.3	-36.5	29.9	3.02e+01	45	39	0	228065280	44	6441
2026-01-18 15:55:49.05	168.71	28.60	-35.3	-36.5	29.8	3.02e+01	59	38	0	230162432	44	6466
2026-01-18 15:55:50.06	168.88	28.41	-35.3	-36.5	29.8	3.02e+01	62	39	0	231735296	44	6469
2026-01-18 15:55:51.07	169.04	28.22	-35.4	-36.6	29.7	3.02e+01	60	38	0	233832448	44	6512
2026-01-18 15:55:52.08	169.21	28.04	-35.5	-36.7	29.7	3.02e+01	59	38	0	235929600	44	6592
2026-01-18 15:55:53.09	169.37	27.85	-35.3	-36.5	29.8	3.02e+01	44	39	0	237502464	44	6475
2026-01-18 15:55:54.10	169.54	27.66	-35.4	-36.6	29.7	3.02e+01	58	39	0	239599616	44	6562
2026-01-18 15:55:55.11	169.70	27.48	-35.3	-36.5	29.8	3.02e+01	56	38	0	241172480	44	6484
2026-01-18 15:55:56.13	169.86	27.29	-35.5	-36.7	29.7	3.02e+01	39	39	0	243269632	44	6600
2026-01-18 15:55:57.13	170.01	27.11	-35.5	-36.7	29.7	3.02e+01	60	38	0	245366784	44	6596
2026-01-18 15:55:58.14	170.17	26.93	-35.6	-36.8	29.6	3.02e+01	52	39	0	246939648	44	6692
2026-01-18 15:55:59.16	170.32	26.75	-35.7	-36.9	29.5	3.02e+01	58	39	0	249036800	44	6778
2026-01-18 15:56:00.17	170.47	26.57	-35.7	-36.9	29.6	3.02e+01	61	39	0	250609664	44	6738
2026-01-18 15:56:01.18	170.62	26.39	-35.8	-37.0	29.4	3.02e+01	48	39	0	252706816	44	6824
2026-01-18 15:56:02.19	170.77	26.21	-35.8	-37.0	29.5	3.02e+01	57	38	0	254803968	44	6876
2026-01-18 15:56:03.20	170.92	26.04	-35.8	-37.0	29.4	3.02e+01	61	39	0	256376832	44	6874
2026-01-18 15:56:04.21	171.06	25.86	-36.0	-37.3	29.2	3.02e+01	55	39	0	258473984	46	6279
2026-01-18 15:56:05.22	171.20	25.69	-35.7	-36.9	29.5	3.02e+01	61	39	0	260571136	46	6057
2026-01-18 15:56:06.23	171.35	25.51	-35.8	-37.0	29.4	3.02e+01	48	39	0	262144000	46	6078
2026-01-18 15:56:07.24	171.49	25.34	-35.9	-37.1	29.3	3.02e+01	57	39	0	264241152	46	6177
2026-01-18 15:56:08.25	171.62	25.17	-36.0	-37.2	29.4	3.02e+01	56	39	0	265814016	46	6222
2026-01-18 15:56:09.26	171.76	25.00	-35.9	-37.1	29.4	3.02e+01	49	38	0	267911168	46	6153
2026-01-18 15:56:10.27	171.90	24.83	-35.9	-37.1	29.3	3.02e+01	59	39	0	270008320	46	6150
2026-01-18 15:56:11.28	172.03	24.67	-36.0	-37.3	29.1	3.02e+01	63	39	0	271581184	46	6280
2026-01-18 15:56:12.29	172.16	24.50	-36.0	-37.3	29.1	3.02e+01	62	39	0	273678336	46	6281
2026-01-18 15:56:13.30	172.29	24.33	-36.1	-37.3	29.1	3.02e+01	60	38	0	275251200	46	6335
2026-01-18 15:56:14.31	172.42	24.17	-36.2	-37.4	29.0	3.02e+01	61	39	0	277348352	46	6409
2026-01-18 15:56:15.32	172.55	24.00	-36.4	-37.6	28.8	3.02e+01	55	38	0	279445504	46	6552
2026-01-18 15:56:16.33	172.68	23.84	-36.2	-37.4	28.9	3.02e+01	58	38	0	281018368	46	6401
2026-01-18 15:56:17.34	172.80	23.68	-36.1	-37.4	28.9	3.02e+01	48	38	0	283115520	46	6359
2026-01-18 15:56:18.35	172.93	23.52	-36.2	-37.4	28.9	3.02e+01	63	39	0	285212672	46	6370
2026-01-18 15:56:19.36	173.05	23.36	-36.0	-37.2	29.0	3.02e+01	59	39	0	286785536	46	6259
2026-01-18 15:56:20.37	173.17	23.20	-35.9	-37.1	29.1	3.02e+01	58	39	0	288882688	46	6162
2026-01-18 15:56:21.38	173.30	23.04	-36.0	-37.2	29.1	3.02e+01	61	39	0	290455552	46	6214
2026-01-18 15:56:22.39	173.41	22.88	-35.8	-37.0	29.3	3.02e+01	48	38	0	292552704	46	6081
2026-01-18 15:56:23.40	173.53	22.73	-35.9	-37.1	29.2	3.02e+01	58	39	0	294649856	46	6154
2026-01-18 15:56:24.41	173.65	22.57	-36.0	-37.2	29.0	3.02e+01	58	38	0	296222720	46	6264
2026-01-18 15:56:25.42	173.77	22.42	-35.9	-37.1	29.2	3.02e+01	46	39	0	298319872	46	6147
2026-01-18 15:56:26.43	173.88	22.26	-36.1	-37.3	29.1	3.02e+01	58	39	0	300417024	46	6311
2026-01-18 15:56:27.44	173.99	22.11	-35.8	-37.0	29.2	3.02e+01	60	39	0	301989888	46	6120
2026-01-18 15:56:28.45	174.11	21.96	-35.8	-37.0	29.3	3.02e+01	59	39	0	304087040	46	6116
2026-01-18 15:56:29.46	174.22	21.81	-35.8	-37.0	29.4	3.02e+01	59	39	0	305659904	46	6075
2026-01-18 15:56:30.47	174.33	21.66	-35.8	-37.0	29.4	3.02e+01	55	39	0	307757056	46	6118
2026-01-18 15:56:31.48	174.44	21.51	-36.0	-37.2	29.2	3.02e+01	61	39	0	309329920	46	6210
2026-01-18 15:56:32.49	174.55	21.36	-35.9	-37.1	29.3	3.02e+01	57	39	0	311427072	46	6158
2026-01-18 15:56:33.50	174.65	21.21	-36.0	-37.2	29.2	3.02e+01	59	39	0	313524224	46	6228
2026-01-18 15:56:34.51	174.76	21.07	-36.0	-37.3	29.1	3.02e+01	57	39	0	315097088	46	6283
2026-01-18 15:56:35.52	174.86	20.92	-36.1	-37.3	29.1	3.02e+01	47	39	0	317194240	46	6314
2026-01-18 15:56:36.53	174.97	20.78	-36.1	-37.3	29.1	3.02e+01	62	38	0	318767104	46	6330
2026-01-18 15:56:37.53	175.07	20.63	-36.1	-37.4	29.0	3.02e+01	59	38	0	320864256	46	6366
2026-01-18 15:56:38.54	175.17	20.49	-36.0	-37.2	29.2	3.02e+01	46	39	0	322961408	46	6232
2026-01-18 15:56:39.55	175.27	20.35	-36.1	-37.3	29.1	3.02e+01	64	38	0	324534272	46	6319
2026-01-18 15:56:40.56	175.37	20.20	-36.0	-37.2	29.1	3.02e+01	61	39	0	326631424	46	6255
2026-01-18 15:56:41.57	175.47	20.06	-36.0	-37.2	29.2	3.02e+01	62	38	0	328728576	46	6245
2026-01-18 15:56:42.58	175.57	19.92	-36.0	-37.2	29.2	3.02e+01	58	38	0	330301440	46	6241
2026-01-18 15:56:43.59	175.67	19.78	-36.1	-37.3	29.1	3.02e+01	50	39	0	332398592	46	6309
2026-01-18 15:56:44.60	175.77	19.65	-36.1	-37.3	29.0	3.02e+01	58	39	0	333971456	46	6346
2026-01-18 15:56:45.61	175.86	19.51	-36.0	-37.2	29.1	3.02e+01	62	38	0	336068608	46	6264
2026-01-18 15:56:46.62	175.96	19.37	-36.0	-37.3	29.0	3.02e+01	53	38	0	338165760	46	6289
2026-01-18 15:56:47.63	176.05	19.23	-35.9	-37.1	29.2	3.02e+01	59	39	0	339738624	46	6156
2026-01-18 15:56:48.64	176.14	19.10	-36.1	-37.3	29.0	3.02e+01	60	39	0	341835776	46	6318
2026-01-18 15:56:49.65	176.24	18.96	-35.7	-36.9	29.3	3.02e+01	63	39	0	343408640	46	6051
2026-01-18 15:56:50.66	176.33	18.83	-35.8	-37.0	29.4	3.02e+01	59	39	0	345505792	46	6067
2026-01-18 15:56:51.67	176.42	18.70	-35.6	-36.8	29.5	3.02e+01	59	39	0	347602944	46	5959
2026-01-18 15:56:52.68	176.51	18.56	-35.7	-36.9	29.4	3.02e+01	62	39	0	349175808	46	6044
2026-01-18 15:56:53.69	176.60	18.43	-35.7	-36.9	29.4	3.02e+01	57	39	0	351272960	46	6049
2026-01-18 15:56:54.70	176.69	18.30	-35.8	-37.0	29.3	3.02e+01	45	39	0	353370112	46	6073
2026-01-18 15:56:55.70	176.77	18.17	-35.7	-36.9	29.4	3.02e+01	58	39	0	354942976	46	6019
2026-01-18 15:56:56.71	176.86	18.04	-35.7	-36.9	29.3	3.02e+01	58	39	0	357040128	46	6045
2026-01-18 15:56:57.72	176.95	17.91	-35.6	-36.8	29.5	3.02e+01	58	38	0	358612992	46	5931
2026-01-18 15:56:58.73	177.03	17.78	-35.8	-37.0	29.2	3.02e+01	61	39	0	360710144	46	6091
2026-01-18 15:56:59.74	177.12	17.66	-35.5	-36.7	29.4	3.02e+01	57	39	0	362807296	46	5923
2026-01-18 15:57:00.75	177.20	17.53	-35.7	-36.9	29.4	3.02e+01	61	39	0	364380160	46	6043
2026-01-18 15:57:01.76	177.28	17.40	-35.6	-36.8	29.4	3.02e+01	59	39	0	366477312	46	5949
2026-01-18 15:57:02.77	177.36	17.28	-35.7	-36.9	29.4	3.02e+01	46	39	0	368050176	46	6042
2026-01-18 15:57:03.78	177.45	17.15	-35.5	-36.7	29.5	3.02e+01	63	39	0	370147328	46	5919
2026-01-18 15:57:04.79	177.53	17.03	-35.6	-36.8	29.4	3.02e+01	62	38	0	372244480	46	5964
2026-01-18 15:57:05.80	177.61	16.90	-35.6	-36.8	29.5	3.02e+01	58	39	0	373817344	46	5945
2026-01-18 15:57:06.81	177.69	16.78	-35.6	-36.8	29.4	3.02e+01	59	39	0	375914496	46	5984
2026-01-18 15:57:07.82	177.77	16.66	-35.5	-36.7	29.5	3.02e+01	54	38	0	377487360	46	5910
2026-01-18 15:57:08.83	177.85	16.54	-35.6	-36.8	29.5	3.02e+01	63	39	0	379584512	46	5946
2026-01-18 15:57:09.84	177.92	16.41	-35.6	-36.8	29.5	3.02e+01	61	39	0	381681664	46	5939
2026-01-18 15:57:10.84	178.00	16.30	-35.8	-37.0	29.3	3.02e+01	59	39	0	383254528	46	6132
2026-01-18 15:57:11.85	178.08	16.18	-35.8	-37.0	29.2	3.02e+01	56	39	0	385351680	46	6118
2026-01-18 15:57:12.86	178.15	16.06	-35.7	-36.9	29.3	3.02e+01	39	39	0	386924544	46	6064
2026-01-18 15:57:13.87	178.23	15.94	-35.7	-36.9	29.4	3.02e+01	56	39	0	389021696	46	6035
2026-01-18 15:57:14.88	178.30	15.82	-35.6	-36.8	29.4	3.02e+01	60	39	0	391118848	46	5983
2026-01-18 15:57:15.90	178.38	15.70	-35.6	-36.8	29.5	3.02e+01	47	39	0	392691712	46	5947
2026-01-18 15:57:16.90	178.45	15.58	-35.6	-36.9	29.4	3.02e+01	59	39	0	394788864	46	6001
2026-01-18 15:57:17.91	178.52	15.47	-35.5	-36.7	29.4	3.02e+01	57	39	0	396886016	46	5919
2026-01-18 15:57:18.92	178.60	15.35	-35.7	-36.9	29.3	3.02e+01	61	39	0	398458880	46	6046
2026-01-18 15:57:19.93	178.67	15.24	-35.6	-36.8	29.5	3.02e+01	59	38	0	400556032	46	5931
2026-01-18 15:57:20.94	178.74	15.12	-35.7	-36.9	29.3	3.02e+01	55	39	0	402128896	46	6032
2026-01-18 15:57:21.95	178.81	15.01	-35.8	-37.0	29.2	3.02e+01	61	39	0	404226048	46	6105
2026-01-18 15:57:22.96	178.88	14.89	-35.7	-36.9	29.3	3.02e+01	58	39	0	406323200	46	6061
2026-01-18 15:57:23.97	178.95	14.78	-35.7	-36.9	29.2	3.02e+01	47	39	0	407896064	46	6063
2026-01-18 15:57:24.98	179.02	14.67	-35.8	-37.0	29.3	3.02e+01	60	39	0	409993216	46	6099
2026-01-18 15:57:25.99	179.09	14.56	-35.9	-37.1	29.1	3.02e+01	62	39	0	411566080	46	6184
2026-01-18 15:57:27.00	179.16	14.44	-35.9	-37.1	29.1	3.02e+01	58	39	0	413663232	46	6192
2026-01-18 15:57:28.01	179.22	14.33	-35.8	-37.0	29.2	3.02e+01	59	39	0	415760384	46	6128
2026-01-18 15:57:29.02	179.29	14.22	-35.8	-37.0	29.2	3.02e+01	46	39	0	417333248	46	6096
2026-01-18 15:57:30.03	179.36	14.11	-35.7	-36.9	29.3	3.02e+01	61	39	0	419430400	46	6019
2026-01-18 15:57:31.04	179.42	14.00	-35.8	-37.0	29.2	3.02e+01	56	39	0	421527552	46	6086
2026-01-18 15:57:32.05	179.49	13.89	-35.7	-36.9	29.3	3.02e+01	37	39	0	423100416	46	6034
2026-01-18 15:57:33.06	179.56	13.79	-35.8	-37.0	29.2	3.02e+01	61	39	0	425197568	46	6093
2026-01-18 15:57:34.07	179.62	13.68	-35.9	-37.1	29.1	3.02e+01	59	39	0	426770432	46	6147
2026-01-18 15:57:35.08	179.68	13.57	-35.9	-37.1	29.1	3.02e+01	54	39	0	428867584	46	6185
2026-01-18 15:57:36.09	179.75	13.46	-35.9	-37.1	29.1	3.02e+01	57	39	0	430964736	46	6177
2026-01-18 15:57:37.10	179.81	13.36	-36.1	-37.3	29.0	3.02e+01	56	39	0	432537600	46	6325
2026-01-18 15:57:38.11	179.87	13.25	-35.9	-37.1	29.1	3.02e+01	60	39	0	434634752	46	6183
2026-01-18 15:57:39.12	179.94	13.15	-36.0	-37.2	29.0	3.02e+01	57	38	0	436207616	46	6244
2026-01-18 15:57:40.13	180.00	13.04	-36.1	-37.4	28.9	3.02e+01	58	39	0	438304768	46	6371
2026-01-18 15:57:41.14	180.06	12.94	-36.0	-37.3	29.0	3.02e+01	60	39	0	440401920	46	6281
2026-01-18 15:57:42.15	180.12	12.83	-36.0	-37.2	29.0	3.02e+01	52	39	0	441974784	46	6260
2026-01-18 15:57:43.16	180.18	12.73	-36.0	-37.3	29.0	3.02e+01	58	39	0	444071936	46	6279
2026-01-18 15:57:44.17	180.24	12.63	-36.0	-37.3	29.0	3.02e+01	62	39	0	445644800	46	6280
2026-01-18 15:57:45.18	180.30	12.52	-36.1	-37.4	28.9	3.02e+01	46	39	0	447741952	46	6357
2026-01-18 15:57:46.19	180.36	12.42	-36.0	-37.3	28.9	3.02e+01	60	39	0	449839104	46	6308
2026-01-18 15:57:47.20	180.42	12.32	-36.2	-37.4	28.8	3.02e+01	64	39	0	451411968	46	6399
2026-01-18 15:57:48.20	180.48	12.22	-36.2	-37.4	28.8	3.02e+01	56	39	0	453509120	46	6413
2026-01-18 15:57:49.22	180.54	12.12	-36.3	-37.6	28.8	3.02e+01	58	39	0	455081984	46	6510
2026-01-18 15:57:50.23	180.59	12.02	-36.2	-37.4	28.7	3.02e+01	50	39	0	457179136	46	6417
2026-01-18 15:57:51.24	180.65	11.92	-36.0	-37.3	28.9	3.02e+01	53	39	0	459276288	46	6290
2026-01-18 15:57:52.25	180.71	11.82	-36.1	-37.4	28.8	3.02e+01	60	39	0	460849152	46	6402
2026-01-18 15:57:53.26	180.77	11.72	-36.2	-37.5	28.7	3.02e+01	49	39	0	462946304	46	6447
2026-01-18 15:57:54.27	180.82	11.62	-36.2	-37.5	28.7	3.02e+01	54	39	0	465043456	46	6454
2026-01-18 15:57:55.28	180.88	11.52	-36.2	-37.5	28.7	3.02e+01	61	39	0	466616320	46	6436
2026-01-18 15:57:56.28	180.93	11.42	-36.1	-37.3	28.9	3.02e+01	62	39	0	468713472	46	6341
2026-01-18 15:57:57.29	180.99	11.33	-36.2	-37.5	28.6	3.02e+01	62	39	0	470286336	46	6468
2026-01-18 15:57:58.30	181.04	11.23	-36.2	-37.5	28.7	3.02e+01	59	39	0	472383488	46	6448
2026-01-18 15:57:59.31	181.10	11.13	-36.2	-37.5	28.7	3.02e+01	61	39	0	474480640	46	6467
2026-01-18 15:58:00.32	181.15	11.04	-36.3	-37.6	28.6	3.02e+01	58	39	0	476053504	46	6512
2026-01-18 15:58:01.33	181.20	10.94	-36.4	-37.7	28.5	3.02e+01	46	39	0	478150656	46	6595
2026-01-18 15:58:02.34	181.26	10.85	-36.4	-37.7	28.5	3.02e+01	61	39	0	479723520	46	6583
2026-01-18 15:58:03.35	181.31	10.75	-36.4	-37.7	28.5	3.02e+01	61	39	0	481820672	46	6613
2026-01-18 15:58:04.36	181.36	10.66	-36.6	-37.8	28.3	3.02e+01	61	39	0	483917824	46	6726
2026-01-18 15:58:05.37	181.42	10.56	-36.4	-37.7	28.5	3.02e+01	62	39	0	485490688	46	6608
2026-01-18 15:58:06.38	181.47	10.47	-36.4	-37.7	28.5	3.02e+01	60	39	0	487587840	46	6624
2026-01-18 15:58:07.39	181.52	10.37	-36.6	-37.9	28.3	3.02e+01	59	39	0	489684992	46	6740
2026-01-18 15:58:08.40	181.57	10.28	-36.6	-37.9	28.3	3.02e+01	59	39	0	491257856	46	6742
2026-01-18 15:58:09.41	181.62	10.19	-36.5	-37.8	28.3	3.02e+01	46	39	0	493355008	46	6679
2026-01-18 15:58:10.42	181.67	10.10	-36.5	-37.8	28.4	3.02e+01	58	39	0	494927872	46	6670
2026-01-18 15:58:11.43	181.72	10.00	-36.6	-37.9	28.4	3.02e+01	59	39	0	497025024	46	6775
2026-01-18 15:58:12.44	181.77	9.91	-36.6	-37.9	28.4	3.02e+01	58	39	0	499122176	46	6728
2026-01-18 15:58:13.45	181.82	9.82	-36.7	-38.0	28.3	3.02e+01	56	39	0	500695040	46	6829
2026-01-18 15:58:14.46	181.87	9.73	-36.5	-37.8	28.4	3.02e+01	57	39	0	502792192	46	6687
2026-01-18 15:58:15.47	181.92	9.64	-36.7	-37.9	28.2	3.02e+01	57	39	0	504365056	46	6796
2026-01-18 15:58:16.48	181.97	9.55	-36.6	-37.9	28.3	3.02e+01	59	39	0	506462208	46	6775
2026-01-18 15:58:17.48	182.02	9.46	-36.8	-38.1	28.1	3.02e+01	60	39	0	508559360	46	6929
2026-01-18 15:58:18.49	182.06	9.37	-36.8	-38.1	28.1	3.02e+01	56	39	0	510132224	46	6888
2026-01-18 15:58:19.50	182.11	9.28	-36.8	-38.1	28.2	3.02e+01	48	39	0	512229376	48	6162
2026-01-18 15:58:20.51	182.16	9.19	-36.9	-38.2	28.1	3.02e+01	59	39	0	513802240	48	6214
2026-01-18 15:58:21.52	182.21	9.10	-36.8	-38.1	28.1	3.02e+01	57	39	0	515899392	48	6146
2026-01-18 15:58:22.53	182.25	9.02	-36.9	-38.1	28.1	3.02e+01	53	39	0	517996544	48	6195
2026-01-18 15:58:23.54	182.30	8.93	-36.8	-38.1	28.1	3.02e+01	61	39	0	519569408	48	6160
2026-01-18 15:58:24.55	182.35	8.84	-36.9	-38.1	28.0	3.02e+01	59	39	0	521666560	48	6199
2026-01-18 15:58:25.56	182.39	8.75	-37.0	-38.3	27.9	3.02e+01	60	39	0	523239424	48	6287
2026-01-18 15:58:26.57	182.44	8.67	-36.8	-38.1	28.0	3.02e+01	61	39	0	525336576	48	6193
2026-01-18 15:58:27.57	182.48	8.58	-37.0	-38.3	27.9	3.02e+01	51	39	0	527433728	48	6313
2026-01-18 15:58:28.58	182.53	8.50	-37.2	-38.5	27.7	3.02e+01	62	39	0	529006592	48	6437
2026-01-18 15:58:29.59	182.58	8.41	-37.1	-38.4	27.7	3.02e+01	58	39	0	531103744	48	6397
2026-01-18 15:58:30.60	182.62	8.32	-37.2	-38.6	27.6	3.02e+01	52	39	0	533200896	48	6499
2026-01-18 15:58:31.61	182.66	8.24	-37.4	-38.7	27.4	3.02e+01	59	39	0	534773760	48	6648
2026-01-18 15:58:32.62	182.71	8.15	-37.3	-38.6	27.5	3.02e+01	59	39	0	536870912	48	6520
2026-01-18 15:58:33.63	182.75	8.07	-37.2	-38.5	27.7	3.02e+01	60	39	0	538443776	48	6451
2026-01-18 15:58:34.64	182.80	7.98	-37.3	-38.6	27.5	3.02e+01	59	39	0	540540928	48	6536
2026-01-18 15:58:35.65	182.84	7.90	-37.2	-38.5	27.6	3.02e+01	48	39	0	542638080	48	6494
2026-01-18 15:58:36.66	182.88	7.82	-37.3	-38.6	27.5	3.02e+01	56	39	0	544210944	48	6540
2026-01-18 15:58:37.67	182.93	7.73	-37.4	-38.7	27.4	3.02e+01	61	39	0	546308096	48	6648
2026-01-18 15:58:38.68	182.97	7.65	-37.3	-38.6	27.4	3.02e+01	44	39	0	547880960	48	6565
2026-01-18 15:58:39.69	183.01	7.57	-37.5	-38.8	27.2	3.02e+01	61	39	0	549978112	48	6709
2026-01-18 15:58:40.70	183.05	7.48	-37.3	-38.6	27.4	3.02e+01	59	39	0	552075264	48	6565
2026-01-18 15:58:41.71	183.10	7.40	-37.4	-38.7	27.4	3.02e+01	56	39	0	553648128	48	6607
2026-01-18 15:58:42.72	183.14	7.32	-37.5	-38.8	27.2	3.02e+01	58	39	0	555745280	48	6695
2026-01-18 15:58:43.73	183.18	7.24	-37.5	-38.8	27.2	3.02e+01	52	39	0	557842432	48	6712
2026-01-18 15:58:44.74	183.22	7.16	-37.5	-38.9	27.2	3.02e+01	61	39	0	559415296	48	6731
