passes_logs/2026/01/18/R4.6S_Anadyr/R4.6S_Anadyr__20260118_145851_NOAA_21_JPSS-2_rec.log

#Pass ID: 20260118_145851_NOAA 21 (JPSS-2)
#Satellite: NOAA 21 (JPSS-2)
#Configuration: NOAA-21
#almurnet v.1.7.20251203
#Start time: 2026-01-18 14:58:54

#Version: 2.2.20231116
#Station: R4.6S_Anadyr
#Location: 177.4865 lon 64.73178 lat
#TLE: 1 54234U 22150A   26017.62066529  .00000042  00000+0  40984-4 0  9994
#TLE: 2 54234  98.7502 318.4887 0000613 271.5460  88.5645 14.19535234165189

#Time	Az	El	Level	Level2	SNR	BER	BlckErr	Temp	State	Recorded	gain1	gain2
2026-01-18 14:58:54.46	21.05	0.20	-49.5	-60.8	3.3	1.54e+00	0	36	0	0	60	38697
2026-01-18 14:58:55.47	21.05	0.26	-49.4	-62.3	3.5	1.52e+00	0	36	104	0	60	45851
2026-01-18 14:58:56.48	21.04	0.32	-49.5	-62.4	3.5	1.52e+00	0	36	104	0	60	46141
2026-01-18 14:58:57.49	21.04	0.38	-49.5	-62.4	3.5	1.52e+00	0	36	104	0	60	46168
2026-01-18 14:58:58.50	21.04	0.44	-49.5	-62.4	3.4	1.52e+00	0	36	104	0	60	46335
2026-01-18 14:58:59.51	21.03	0.50	-49.6	-62.4	3.5	1.52e+00	0	36	104	0	60	46426
2026-01-18 14:59:00.52	21.03	0.57	-49.6	-62.4	3.5	1.51e+00	0	36	104	0	60	46411
2026-01-18 14:59:01.53	21.03	0.63	-49.5	-62.5	3.5	1.52e+00	0	36	104	0	60	46623
2026-01-18 14:59:02.54	21.02	0.69	-49.5	-62.4	3.5	1.52e+00	0	36	104	0	60	46330
2026-01-18 14:59:03.55	21.02	0.75	-49.5	-62.4	3.5	1.52e+00	0	36	104	0	60	46328
2026-01-18 14:59:04.56	21.02	0.81	-49.5	-62.4	3.5	1.52e+00	0	36	104	0	60	46100
2026-01-18 14:59:05.57	21.02	0.87	-49.4	-62.3	3.5	1.52e+00	0	36	104	0	60	45812
2026-01-18 14:59:06.58	21.01	0.94	-49.4	-62.3	3.5	1.52e+00	0	36	104	0	60	45734
2026-01-18 14:59:07.59	21.01	1.00	-49.3	-62.2	3.5	1.51e+00	0	36	104	0	60	45060
2026-01-18 14:59:08.60	21.01	1.06	-49.3	-62.1	3.5	1.52e+00	0	36	104	0	60	44574
2026-01-18 14:59:09.61	21.00	1.12	-49.1	-61.9	3.5	1.51e+00	0	36	104	0	60	43902
2026-01-18 14:59:10.62	21.00	1.18	-48.9	-61.8	3.5	1.52e+00	0	37	104	0	60	43166
2026-01-18 14:59:11.63	21.00	1.25	-48.9	-61.8	3.4	1.52e+00	0	36	104	0	60	42990
2026-01-18 14:59:12.64	20.99	1.31	-48.8	-61.6	3.5	1.52e+00	0	36	104	0	60	42256
2026-01-18 14:59:13.65	20.99	1.37	-48.6	-61.5	3.5	1.51e+00	0	36	104	0	60	41586
2026-01-18 14:59:14.66	20.99	1.44	-48.4	-61.2	3.5	1.52e+00	0	36	104	0	60	40490
2026-01-18 14:59:15.67	20.98	1.50	-48.1	-60.7	3.5	1.51e+00	0	37	104	0	60	37921
2026-01-18 14:59:16.67	20.98	1.56	-48.0	-60.7	3.5	1.52e+00	0	37	104	0	60	38205
2026-01-18 14:59:17.68	20.97	1.63	-48.0	-60.8	3.5	1.52e+00	0	37	104	0	60	38390
2026-01-18 14:59:18.69	20.97	1.69	-48.0	-60.9	3.5	1.52e+00	0	37	104	0	60	38811
2026-01-18 14:59:19.70	20.97	1.75	-48.0	-60.9	3.5	1.52e+00	0	36	104	0	60	38794
2026-01-18 14:59:20.71	20.96	1.82	-48.0	-60.9	3.5	1.52e+00	0	37	104	0	60	38891
2026-01-18 14:59:21.72	20.96	1.88	-48.0	-60.9	3.5	1.52e+00	0	37	104	0	60	38835
2026-01-18 14:59:22.73	20.96	1.94	-48.0	-60.8	3.5	1.52e+00	0	37	104	0	60	38348
2026-01-18 14:59:23.74	20.95	2.01	-48.0	-60.8	3.5	1.52e+00	0	37	104	0	60	38327
2026-01-18 14:59:24.75	20.95	2.07	-48.0	-60.7	3.5	1.52e+00	0	37	104	0	60	37973
2026-01-18 14:59:25.76	20.94	2.14	-48.0	-60.5	3.5	1.52e+00	0	37	104	0	60	37145
2026-01-18 14:59:26.77	20.94	2.20	-48.0	-60.2	3.5	1.52e+00	0	37	104	0	60	35863
2026-01-18 14:59:27.78	20.94	2.27	-47.9	-59.8	3.5	1.51e+00	0	37	104	0	60	34397
2026-01-18 14:59:28.79	20.93	2.33	-47.9	-59.7	3.5	1.52e+00	0	37	104	0	60	33825
2026-01-18 14:59:29.80	20.93	2.40	-47.9	-59.6	3.5	1.51e+00	0	37	104	0	60	33647
2026-01-18 14:59:30.81	20.92	2.46	-47.9	-59.8	3.5	1.51e+00	0	37	104	0	60	34125
2026-01-18 14:59:31.82	20.92	2.53	-47.9	-60.0	3.5	1.51e+00	0	37	104	0	60	35062
2026-01-18 14:59:32.83	20.92	2.59	-48.0	-60.1	3.5	1.52e+00	0	37	104	0	60	35301
2026-01-18 14:59:33.84	20.91	2.66	-47.8	-58.9	3.5	1.51e+00	0	37	104	0	60	31061
2026-01-18 14:59:34.85	20.91	2.73	-47.6	-56.8	3.7	1.51e+00	0	37	104	0	60	24411
2026-01-18 14:59:35.86	20.90	2.79	-47.1	-53.5	5.9	4.12e-01	123	37	0	0	60	16554
2026-01-18 14:59:36.87	20.90	2.86	-46.6	-51.7	7.9	5.42e-02	122	37	0	3145728	60	13469
2026-01-18 14:59:37.88	20.89	2.92	-45.8	-49.8	10.0	1.79e-02	123	37	0	6291456	60	10818
2026-01-18 14:59:38.89	20.89	2.99	-45.1	-48.4	11.6	1.70e-03	120	37	0	9437184	60	9256
2026-01-18 14:59:39.90	20.89	3.06	-44.3	-47.1	13.0	1.16e-04	122	37	0	12582912	60	7954
2026-01-18 14:59:40.91	20.88	3.13	-43.7	-46.1	14.0	5.30e-06	123	37	0	15728640	60	7089
2026-01-18 14:59:41.92	20.88	3.19	-43.3	-45.6	14.6	0.00e+00	123	37	0	18874368	60	6674
2026-01-18 14:59:42.93	20.87	3.26	-43.1	-45.4	14.9	7.00e-07	123	37	0	22020096	60	6503
2026-01-18 14:59:43.94	20.87	3.33	-43.2	-45.4	14.7	7.00e-07	120	37	0	25165824	60	6538
2026-01-18 14:59:44.95	20.86	3.39	-43.3	-45.6	14.5	0.00e+00	122	37	0	28311552	60	6690
2026-01-18 14:59:45.96	20.86	3.46	-43.7	-46.1	13.9	1.50e-06	120	37	0	31457280	60	7097
2026-01-18 14:59:46.97	20.85	3.53	-44.3	-47.1	12.9	1.44e-05	123	37	0	34603008	60	7966
2026-01-18 14:59:47.98	20.85	3.60	-45.2	-48.6	11.3	4.83e-04	122	37	0	38797312	60	9418
2026-01-18 14:59:48.99	20.84	3.67	-45.9	-50.0	9.7	5.49e-03	123	37	0	41943040	60	11109
2026-01-18 14:59:50.00	20.84	3.73	-39.7	-41.0	19.0	0.00e+00	120	37	0	45088768	52	6271
2026-01-18 14:59:51.01	20.83	3.80	-43.7	-46.2	13.5	0.00e+00	123	37	0	47185920	58	8014
2026-01-18 14:59:52.02	20.83	3.87	-47.8	-59.6	3.5	8.15e-01	0	37	104	49283072	60	33538
2026-01-18 14:59:53.03	20.82	3.94	-39.7	-41.3	18.4	1.42e+00	120	37	104	49283072	52	6486
2026-01-18 14:59:54.04	20.82	4.01	-48.0	-59.7	3.6	6.98e-01	0	37	104	49283072	60	33942
2026-01-18 14:59:55.05	20.81	4.08	-39.7	-41.4	18.4	1.41e+00	24	37	104	49283072	54	5798
2026-01-18 14:59:56.06	20.81	4.15	-39.8	-41.2	19.0	0.00e+00	123	37	0	50331648	52	6396
2026-01-18 14:59:57.07	20.80	4.22	-39.3	-40.6	19.6	0.00e+00	120	37	0	53477376	52	5940
2026-01-18 14:59:58.08	20.80	4.29	-39.8	-41.1	19.2	0.00e+00	120	37	0	56623104	52	6306
2026-01-18 14:59:59.09	20.79	4.36	-39.5	-40.8	19.5	0.00e+00	122	37	0	59768832	52	6090
2026-01-18 15:00:00.10	20.79	4.43	-39.3	-40.6	19.5	0.00e+00	121	37	0	62914560	52	5966
2026-01-18 15:00:01.11	20.78	4.50	-38.9	-40.1	20.1	0.00e+00	127	37	0	66060288	52	5650
2026-01-18 15:00:02.12	20.78	4.57	-39.1	-40.4	19.8	0.00e+00	120	37	0	69206016	52	5803
2026-01-18 15:00:03.13	20.77	4.64	-39.0	-40.2	20.1	0.00e+00	123	37	0	72351744	52	5675
2026-01-18 15:00:04.14	20.77	4.71	-38.7	-40.0	20.2	0.00e+00	120	37	0	75497472	52	5534
2026-01-18 15:00:05.15	20.76	4.78	-38.8	-40.0	20.1	0.00e+00	122	37	0	78643200	50	6268
2026-01-18 15:00:06.16	20.76	4.85	-38.7	-39.9	20.3	0.00e+00	123	37	0	81788928	50	6176
2026-01-18 15:00:07.17	20.75	4.92	-38.8	-40.0	20.4	0.00e+00	123	37	0	84934656	50	6245
2026-01-18 15:00:08.18	20.74	5.00	-38.9	-40.1	20.2	0.00e+00	122	37	0	88080384	50	6344
2026-01-18 15:00:09.19	20.74	5.07	-38.6	-39.8	20.4	0.00e+00	123	37	0	91226112	50	6119
2026-01-18 15:00:10.20	20.73	5.14	-38.6	-39.8	20.4	0.00e+00	123	37	0	94371840	50	6109
2026-01-18 15:00:11.21	20.73	5.21	-38.5	-39.6	20.6	0.00e+00	123	37	0	97517568	50	5988
2026-01-18 15:00:12.22	20.72	5.28	-38.6	-39.7	20.5	0.00e+00	122	37	0	100663296	50	6062
2026-01-18 15:00:13.23	20.72	5.36	-38.6	-39.8	20.5	0.00e+00	123	37	0	103809024	50	6084
2026-01-18 15:00:14.24	20.71	5.43	-38.6	-39.7	20.6	0.00e+00	122	37	0	106954752	50	6055
2026-01-18 15:00:15.25	20.70	5.50	-38.6	-39.8	20.5	0.00e+00	122	37	0	110100480	50	6081
2026-01-18 15:00:16.27	20.70	5.58	-38.4	-39.6	20.8	0.00e+00	123	37	0	113246208	50	5940
2026-01-18 15:00:17.28	20.69	5.65	-38.5	-39.7	20.6	0.00e+00	120	37	0	116391936	50	6011
2026-01-18 15:00:18.29	20.68	5.72	-38.6	-39.8	20.6	0.00e+00	122	37	0	119537664	50	6112
2026-01-18 15:00:19.30	20.68	5.80	-38.4	-39.6	20.7	0.00e+00	122	37	0	122683392	50	5952
2026-01-18 15:00:20.31	20.67	5.87	-38.5	-39.6	20.7	0.00e+00	123	37	0	125829120	50	5984
2026-01-18 15:00:21.32	20.67	5.95	-38.3	-39.5	20.9	0.00e+00	122	37	0	128974848	50	5867
2026-01-18 15:00:22.33	20.66	6.02	-38.4	-39.6	20.7	0.00e+00	120	37	0	132120576	50	5938
2026-01-18 15:00:23.34	20.65	6.09	-38.3	-39.5	20.9	0.00e+00	123	37	0	135266304	50	5862
2026-01-18 15:00:24.35	20.65	6.17	-38.2	-39.3	21.0	0.00e+00	121	37	0	138412032	50	5788
2026-01-18 15:00:25.36	20.64	6.24	-38.2	-39.3	21.1	0.00e+00	126	37	0	141557760	50	5791
2026-01-18 15:00:26.37	20.63	6.32	-38.1	-39.3	21.0	0.00e+00	122	37	0	144703488	50	5738
2026-01-18 15:00:27.38	20.63	6.40	-38.0	-39.1	21.2	0.00e+00	121	37	0	147849216	50	5635
2026-01-18 15:00:28.39	20.62	6.47	-38.3	-39.4	21.0	0.00e+00	120	37	0	150994944	50	5820
2026-01-18 15:00:29.40	20.61	6.55	-38.1	-39.3	21.1	0.00e+00	123	37	0	154140672	50	5738
2026-01-18 15:00:30.41	20.61	6.62	-38.1	-39.2	21.2	0.00e+00	120	37	0	157286400	50	5705
2026-01-18 15:00:31.41	20.60	6.70	-38.1	-39.2	21.1	0.00e+00	122	37	0	160432128	50	5696
2026-01-18 15:00:32.42	20.59	6.78	-38.0	-39.1	21.2	0.00e+00	123	37	0	163577856	50	5653
2026-01-18 15:00:33.43	20.58	6.85	-38.1	-39.2	21.1	0.00e+00	123	37	0	166723584	50	5689
2026-01-18 15:00:34.45	20.58	6.93	-37.9	-39.0	21.4	0.00e+00	122	37	0	169869312	50	5536
2026-01-18 15:00:35.46	20.57	7.01	-37.8	-38.9	21.3	0.00e+00	122	37	0	173015040	50	5516
2026-01-18 15:00:36.47	20.56	7.09	-37.8	-38.9	21.4	0.00e+00	123	37	0	176160768	50	5500
2026-01-18 15:00:37.48	20.56	7.16	-37.8	-38.9	21.4	0.00e+00	123	37	0	179306496	48	6175
2026-01-18 15:00:38.49	20.55	7.24	-37.7	-38.7	21.5	0.00e+00	122	37	0	182452224	48	6060
2026-01-18 15:00:39.50	20.54	7.32	-37.8	-38.9	21.5	0.00e+00	122	37	0	185597952	48	6156
2026-01-18 15:00:40.51	20.53	7.40	-37.6	-38.7	21.6	0.00e+00	120	37	0	188743680	48	6041
2026-01-18 15:00:41.52	20.53	7.48	-37.8	-38.9	21.5	0.00e+00	123	37	0	191889408	48	6143
2026-01-18 15:00:42.53	20.52	7.56	-37.8	-38.9	21.4	0.00e+00	122	37	0	195035136	48	6151
2026-01-18 15:00:43.54	20.51	7.64	-37.8	-38.9	21.5	0.00e+00	122	37	0	198180864	48	6183
2026-01-18 15:00:44.55	20.50	7.71	-37.6	-38.7	21.6	0.00e+00	123	37	0	201326592	48	6019
2026-01-18 15:00:45.56	20.50	7.79	-37.7	-38.8	21.6	0.00e+00	123	37	0	204472320	48	6097
2026-01-18 15:00:46.57	20.49	7.87	-37.4	-38.5	21.8	0.00e+00	123	37	0	207618048	48	5881
2026-01-18 15:00:47.59	20.48	7.96	-37.7	-38.8	21.6	0.00e+00	122	37	0	210763776	48	6078
2026-01-18 15:00:48.60	20.47	8.04	-37.5	-38.6	21.8	0.00e+00	122	37	0	213909504	48	5931
2026-01-18 15:00:49.61	20.46	8.12	-37.6	-38.7	21.7	0.00e+00	123	37	0	217055232	48	6001
2026-01-18 15:00:50.62	20.46	8.20	-37.4	-38.5	21.9	0.00e+00	122	37	0	220200960	48	5886
2026-01-18 15:00:51.62	20.45	8.28	-37.3	-38.3	22.1	0.00e+00	122	37	0	223346688	48	5761
2026-01-18 15:00:52.63	20.44	8.36	-37.3	-38.3	22.0	0.00e+00	123	37	0	226492416	48	5786
2026-01-18 15:00:53.64	20.43	8.44	-37.3	-38.4	22.0	0.00e+00	122	37	0	229638144	48	5793
2026-01-18 15:00:54.65	20.42	8.52	-37.2	-38.3	22.1	0.00e+00	123	37	0	232783872	48	5742
2026-01-18 15:00:55.66	20.41	8.61	-37.2	-38.2	22.1	0.00e+00	122	37	0	235929600	48	5723
2026-01-18 15:00:56.67	20.40	8.69	-37.4	-38.4	22.0	0.00e+00	123	37	0	239075328	48	5857
2026-01-18 15:00:57.68	20.40	8.77	-37.2	-38.3	22.0	0.00e+00	120	37	0	242221056	48	5727
2026-01-18 15:00:58.70	20.39	8.86	-37.1	-38.1	22.1	0.00e+00	122	37	0	245366784	48	5659
2026-01-18 15:00:59.70	20.38	8.94	-37.2	-38.2	22.2	0.00e+00	123	37	0	248512512	48	5720
2026-01-18 15:01:00.71	20.37	9.02	-37.0	-38.0	22.3	0.00e+00	123	37	0	251658240	48	5537
2026-01-18 15:01:01.72	20.36	9.11	-37.0	-38.1	22.3	0.00e+00	123	37	0	254803968	48	5605
2026-01-18 15:01:02.73	20.35	9.19	-37.1	-38.1	22.2	0.00e+00	123	37	0	257949696	48	5635
2026-01-18 15:01:03.74	20.34	9.27	-37.2	-38.2	22.1	0.00e+00	122	37	0	261095424	48	5710
2026-01-18 15:01:04.75	20.33	9.36	-37.0	-38.1	22.3	0.00e+00	121	37	0	264241152	48	5605
2026-01-18 15:01:05.77	20.32	9.45	-37.2	-38.3	22.1	0.00e+00	123	37	0	267386880	48	5731
2026-01-18 15:01:06.78	20.31	9.53	-37.1	-38.1	22.2	0.00e+00	120	37	0	270532608	48	5612
2026-01-18 15:01:07.79	20.31	9.62	-37.0	-38.0	22.4	0.00e+00	123	37	0	273678336	48	5556
2026-01-18 15:01:08.80	20.30	9.70	-37.0	-38.0	22.4	0.00e+00	123	37	0	276824064	48	5545
2026-01-18 15:01:09.80	20.29	9.79	-37.0	-38.0	22.4	0.00e+00	120	37	0	279969792	48	5571
2026-01-18 15:01:10.82	20.28	9.88	-36.7	-37.7	22.6	0.00e+00	123	37	0	283115520	46	6042
2026-01-18 15:01:11.82	20.27	9.96	-36.8	-37.8	22.5	0.00e+00	120	37	0	286261248	46	6094
2026-01-18 15:01:12.84	20.26	10.05	-36.7	-37.7	22.7	0.00e+00	123	37	0	290455552	46	6041
2026-01-18 15:01:13.85	20.25	10.14	-36.6	-37.6	22.8	0.00e+00	122	37	0	292552704	46	5928
2026-01-18 15:01:14.85	20.24	10.22	-36.6	-37.6	22.7	0.00e+00	123	37	0	295698432	46	5953
2026-01-18 15:01:15.87	20.23	10.31	-36.4	-37.4	22.9	0.00e+00	123	37	0	298844160	46	5832
2026-01-18 15:01:16.88	20.22	10.40	-36.6	-37.5	22.8	0.00e+00	123	37	0	303038464	46	5923
2026-01-18 15:01:17.89	20.21	10.49	-36.5	-37.4	22.8	0.00e+00	123	37	0	306184192	46	5845
2026-01-18 15:01:18.90	20.20	10.58	-36.4	-37.4	22.9	0.00e+00	122	37	0	309329920	46	5796
2026-01-18 15:01:19.91	20.19	10.67	-36.4	-37.4	22.9	0.00e+00	123	37	0	312475648	46	5833
2026-01-18 15:01:20.92	20.17	10.76	-36.5	-37.5	22.8	0.00e+00	122	37	0	315621376	46	5916
2026-01-18 15:01:21.93	20.16	10.85	-36.3	-37.3	23.0	0.00e+00	119	37	0	318767104	46	5740
2026-01-18 15:01:22.94	20.15	10.94	-36.4	-37.4	22.9	0.00e+00	122	37	0	321912832	46	5820
2026-01-18 15:01:23.95	20.14	11.03	-36.4	-37.3	23.0	0.00e+00	122	37	0	325058560	46	5783
2026-01-18 15:01:24.97	20.13	11.12	-36.4	-37.4	22.9	0.00e+00	122	37	0	328204288	46	5837
2026-01-18 15:01:25.98	20.12	11.21	-36.3	-37.3	23.1	0.00e+00	123	37	0	331350016	46	5726
2026-01-18 15:01:26.99	20.11	11.30	-36.1	-37.1	23.2	0.00e+00	122	37	0	334495744	46	5613
2026-01-18 15:01:28.00	20.10	11.40	-36.2	-37.2	23.1	0.00e+00	123	37	0	337641472	46	5661
2026-01-18 15:01:29.00	20.09	11.49	-36.2	-37.2	23.1	0.00e+00	123	37	0	340787200	46	5711
2026-01-18 15:01:30.02	20.08	11.58	-36.1	-37.1	23.2	0.00e+00	123	37	0	343932928	46	5642
2026-01-18 15:01:31.03	20.06	11.68	-36.1	-37.0	23.2	0.00e+00	123	37	0	347078656	46	5587
2026-01-18 15:01:32.04	20.05	11.77	-36.1	-37.1	23.1	0.00e+00	123	37	0	350224384	46	5621
2026-01-18 15:01:33.04	20.04	11.86	-36.0	-37.0	23.3	0.00e+00	120	37	0	353370112	46	5555
2026-01-18 15:01:34.05	20.03	11.96	-36.0	-37.0	23.3	0.00e+00	123	37	0	356515840	46	5562
2026-01-18 15:01:35.06	20.02	12.05	-36.1	-37.1	23.2	0.00e+00	123	37	0	359661568	46	5624
2026-01-18 15:01:36.07	20.01	12.15	-36.1	-37.0	23.3	0.00e+00	122	37	0	362807296	46	5590
2026-01-18 15:01:37.08	19.99	12.24	-36.1	-37.1	23.2	0.00e+00	122	37	0	365953024	46	5603
2026-01-18 15:01:38.09	19.98	12.34	-36.0	-37.0	23.3	0.00e+00	120	37	0	369098752	46	5551
2026-01-18 15:01:39.10	19.97	12.43	-35.9	-36.9	23.4	0.00e+00	123	37	0	372244480	46	5491
2026-01-18 15:01:40.11	19.96	12.53	-35.9	-36.9	23.4	0.00e+00	122	37	0	375390208	46	5486
2026-01-18 15:01:41.12	19.94	12.63	-36.0	-36.9	23.4	0.00e+00	122	37	0	378535936	46	5519
2026-01-18 15:01:42.13	19.93	12.72	-35.9	-36.9	23.4	0.00e+00	123	37	0	381681664	46	5491
2026-01-18 15:01:43.14	19.92	12.82	-36.0	-36.9	23.4	0.00e+00	123	37	0	384827392	46	5504
2026-01-18 15:01:44.15	19.91	12.92	-35.9	-36.8	23.5	0.00e+00	123	37	0	387973120	46	5440
2026-01-18 15:01:45.16	19.89	13.02	-35.9	-36.9	23.4	0.00e+00	120	37	0	391118848	46	5499
2026-01-18 15:01:46.17	19.88	13.12	-35.8	-36.8	23.5	0.00e+00	122	37	0	394264576	46	5415
2026-01-18 15:01:47.18	19.87	13.21	-36.0	-37.0	23.5	0.00e+00	123	37	0	397410304	46	5534
2026-01-18 15:01:48.19	19.85	13.31	-35.9	-36.9	23.4	0.00e+00	123	38	0	400556032	46	5486
2026-01-18 15:01:49.20	19.84	13.41	-35.8	-36.8	23.4	0.00e+00	123	37	0	403701760	46	5429
2026-01-18 15:01:50.21	19.83	13.51	-36.0	-36.9	23.5	0.00e+00	123	37	0	406847488	46	5524
2026-01-18 15:01:51.22	19.81	13.62	-35.8	-36.7	23.5	0.00e+00	120	37	0	409993216	46	5389
2026-01-18 15:01:52.23	19.80	13.72	-35.9	-36.8	23.5	0.00e+00	122	37	0	413138944	46	5448
2026-01-18 15:01:53.24	19.78	13.82	-35.8	-36.7	23.6	0.00e+00	123	37	0	416284672	46	5365
2026-01-18 15:01:54.25	19.77	13.92	-35.8	-36.7	23.6	0.00e+00	123	38	0	419430400	44	6051
2026-01-18 15:01:55.27	19.76	14.02	-35.8	-36.8	23.5	0.00e+00	123	38	0	422576128	44	6082
2026-01-18 15:01:56.27	19.74	14.13	-35.8	-36.7	23.5	0.00e+00	122	37	0	425721856	44	6055
2026-01-18 15:01:57.28	19.73	14.23	-35.9	-36.8	23.5	0.00e+00	122	37	0	428867584	44	6126
2026-01-18 15:01:58.30	19.71	14.33	-35.7	-36.7	23.7	0.00e+00	122	37	0	432013312	44	5996
2026-01-18 15:01:59.31	19.70	14.44	-35.8	-36.7	23.5	0.00e+00	122	37	0	435159040	44	6059
2026-01-18 15:02:00.32	19.68	14.54	-35.7	-36.7	23.6	0.00e+00	122	37	0	438304768	44	6008
2026-01-18 15:02:01.33	19.67	14.65	-35.7	-36.7	23.6	0.00e+00	123	37	0	441450496	44	6022
2026-01-18 15:02:02.34	19.65	14.75	-35.8	-36.8	23.5	0.00e+00	122	37	0	444596224	44	6072
2026-01-18 15:02:03.35	19.64	14.86	-35.9	-36.9	23.5	0.00e+00	123	37	0	447741952	44	6146
2026-01-18 15:02:04.36	19.62	14.97	-35.9	-36.9	23.4	0.00e+00	123	37	0	450887680	44	6139
2026-01-18 15:02:05.37	19.61	15.07	-36.0	-36.9	23.4	0.00e+00	122	37	0	454033408	44	6203
2026-01-18 15:02:06.38	19.59	15.18	-35.9	-36.9	23.5	0.00e+00	123	37	0	457179136	44	6163
2026-01-18 15:02:07.39	19.57	15.29	-35.6	-36.6	23.7	0.00e+00	123	37	0	460324864	44	5947
2026-01-18 15:02:08.40	19.56	15.40	-35.8	-36.7	23.6	0.00e+00	123	37	0	463470592	44	6045
2026-01-18 15:02:09.41	19.54	15.51	-35.7	-36.6	23.7	0.00e+00	123	37	0	466616320	44	5981
2026-01-18 15:02:10.42	19.53	15.62	-35.6	-36.6	23.7	0.00e+00	123	37	0	469762048	44	5932
2026-01-18 15:02:11.44	19.51	15.73	-35.8	-36.7	23.6	0.00e+00	120	37	0	472907776	44	6024
2026-01-18 15:02:12.45	19.49	15.84	-35.7	-36.6	23.7	0.00e+00	122	37	0	476053504	44	5988
2026-01-18 15:02:13.46	19.48	15.95	-35.8	-36.7	23.5	0.00e+00	120	37	0	479199232	44	6058
2026-01-18 15:02:14.47	19.46	16.06	-35.6	-36.6	23.7	0.00e+00	122	37	0	482344960	44	5927
2026-01-18 15:02:15.48	19.44	16.17	-35.7	-36.6	23.6	0.00e+00	121	37	0	485490688	44	5956
2026-01-18 15:02:16.49	19.43	16.28	-35.7	-36.6	23.7	0.00e+00	123	38	0	488636416	44	5970
2026-01-18 15:02:17.50	19.41	16.40	-35.7	-36.7	23.6	0.00e+00	123	37	0	491782144	44	5995
2026-01-18 15:02:18.51	19.39	16.51	-35.7	-36.6	23.7	0.00e+00	122	38	0	494927872	44	5994
2026-01-18 15:02:19.52	19.37	16.62	-35.8	-36.7	23.7	0.00e+00	122	37	0	498073600	44	6049
2026-01-18 15:02:20.53	19.35	16.74	-35.9	-36.8	23.5	0.00e+00	122	37	0	501219328	44	6128
2026-01-18 15:02:21.54	19.34	16.85	-35.8	-36.7	23.6	0.00e+00	123	38	0	504365056	44	6047
2026-01-18 15:02:22.55	19.32	16.97	-36.0	-36.9	23.4	0.00e+00	120	38	0	507510784	44	6177
2026-01-18 15:02:23.56	19.30	17.08	-35.9	-36.8	23.5	0.00e+00	123	37	0	510656512	44	6104
2026-01-18 15:02:24.57	19.28	17.20	-35.9	-36.8	23.5	0.00e+00	121	37	0	513802240	44	6128
2026-01-18 15:02:25.58	19.26	17.32	-35.8	-36.8	23.6	0.00e+00	123	37	0	516947968	44	6083
2026-01-18 15:02:26.59	19.24	17.44	-35.9	-36.9	23.5	0.00e+00	120	37	0	520093696	44	6140
2026-01-18 15:02:27.60	19.22	17.55	-35.9	-36.8	23.6	0.00e+00	123	38	0	523239424	44	6129
2026-01-18 15:02:28.61	19.21	17.67	-35.8	-36.7	23.6	0.00e+00	122	38	0	526385152	44	6027
2026-01-18 15:02:29.62	19.19	17.79	-35.8	-36.8	23.6	0.00e+00	122	38	0	529530880	44	6085
2026-01-18 15:02:30.63	19.17	17.91	-35.9	-36.8	23.6	0.00e+00	122	38	0	532676608	44	6112
2026-01-18 15:02:31.64	19.15	18.03	-35.9	-36.8	23.6	0.00e+00	123	38	0	535822336	44	6112
2026-01-18 15:02:32.65	19.13	18.15	-36.0	-36.9	23.4	0.00e+00	120	38	0	538968064	44	6193
2026-01-18 15:02:33.66	19.11	18.28	-35.9	-36.8	23.5	0.00e+00	123	37	0	542113792	44	6129
2026-01-18 15:02:34.67	19.09	18.40	-35.9	-36.8	23.5	0.00e+00	121	38	0	545259520	44	6109
2026-01-18 15:02:35.68	19.07	18.52	-35.9	-36.9	23.4	0.00e+00	123	37	0	548405248	44	6142
2026-01-18 15:02:36.69	19.04	18.65	-36.0	-36.9	23.4	0.00e+00	121	38	0	551550976	44	6180
2026-01-18 15:02:37.70	19.02	18.77	-36.1	-37.0	23.4	0.00e+00	120	38	0	554696704	44	6256
2026-01-18 15:02:38.71	19.00	18.89	-36.0	-37.0	23.4	0.00e+00	122	38	0	557842432	44	6248
2026-01-18 15:02:39.72	18.98	19.02	-36.0	-37.0	23.4	0.00e+00	120	37	0	560988160	44	6216
2026-01-18 15:02:40.73	18.96	19.15	-36.0	-37.0	23.4	0.00e+00	122	38	0	564133888	44	6217
2026-01-18 15:02:41.74	18.94	19.27	-36.0	-36.9	23.4	0.00e+00	120	38	0	567279616	44	6194
2026-01-18 15:02:42.75	18.92	19.40	-35.8	-36.7	23.5	0.00e+00	123	38	0	570425344	44	6051
2026-01-18 15:02:43.76	18.89	19.53	-35.9	-36.9	23.4	0.00e+00	120	38	0	573571072	44	6140
2026-01-18 15:02:44.78	18.87	19.66	-35.7	-36.7	23.7	0.00e+00	122	38	0	577765376	44	5996
2026-01-18 15:02:45.79	18.85	19.79	-35.8	-36.7	23.7	0.00e+00	122	38	0	580911104	44	6021
2026-01-18 15:02:46.80	18.82	19.92	-35.7	-36.6	23.8	0.00e+00	123	38	0	584056832	44	5985
2026-01-18 15:02:47.81	18.80	20.05	-35.7	-36.6	23.7	0.00e+00	123	38	0	586153984	44	5994
2026-01-18 15:02:48.81	18.78	20.18	-35.5	-36.5	23.8	0.00e+00	120	38	0	589299712	44	5877
2026-01-18 15:02:49.82	18.75	20.31	-35.7	-36.6	23.8	0.00e+00	122	38	0	592445440	44	5964
2026-01-18 15:02:50.84	18.73	20.45	-35.6	-36.5	23.8	0.00e+00	122	38	0	596639744	44	5900
2026-01-18 15:02:51.85	18.71	20.58	-35.6	-36.5	23.9	0.00e+00	123	38	0	599785472	44	5916
2026-01-18 15:02:52.86	18.68	20.71	-35.5	-36.4	24.0	0.00e+00	123	38	0	602931200	44	5824
2026-01-18 15:02:53.87	18.66	20.85	-35.4	-36.3	24.0	0.00e+00	122	38	0	606076928	44	5768
2026-01-18 15:02:54.88	18.63	20.98	-35.3	-36.2	24.1	0.00e+00	122	38	0	609222656	44	5705
2026-01-18 15:02:55.89	18.61	21.12	-35.4	-36.3	24.1	0.00e+00	122	38	0	612368384	44	5739
2026-01-18 15:02:56.90	18.58	21.26	-35.2	-36.1	24.3	0.00e+00	123	38	0	615514112	44	5611
2026-01-18 15:02:57.91	18.56	21.40	-35.2	-36.1	24.2	0.00e+00	122	37	0	618659840	44	5617
2026-01-18 15:02:58.92	18.53	21.53	-35.2	-36.1	24.2	0.00e+00	123	37	0	621805568	44	5636
2026-01-18 15:02:59.93	18.50	21.67	-35.0	-35.9	24.4	0.00e+00	123	37	0	624951296	44	5482
2026-01-18 15:03:00.94	18.48	21.81	-35.1	-36.0	24.3	0.00e+00	122	38	0	628097024	44	5588
2026-01-18 15:03:01.95	18.45	21.95	-35.0	-35.9	24.5	0.00e+00	123	38	0	631242752	44	5483
2026-01-18 15:03:02.96	18.42	22.10	-34.9	-35.8	24.5	0.00e+00	123	38	0	634388480	44	5442
2026-01-18 15:03:03.97	18.40	22.24	-34.9	-35.8	24.5	0.00e+00	122	38	0	637534208	44	5434
2026-01-18 15:03:04.99	18.37	22.38	-34.8	-35.7	24.4	0.00e+00	123	38	0	640679936	44	5374
2026-01-18 15:03:06.00	18.34	22.53	-34.8	-35.7	24.6	0.00e+00	123	37	0	643825664	42	6004
2026-01-18 15:03:07.01	18.31	22.67	-34.7	-35.6	24.6	0.00e+00	123	38	0	646971392	42	5953
2026-01-18 15:03:08.02	18.28	22.82	-34.4	-35.3	24.8	0.00e+00	122	38	0	650117120	42	5768
2026-01-18 15:03:09.03	18.25	22.97	-34.6	-35.5	24.7	0.00e+00	122	38	0	653262848	42	5862
2026-01-18 15:03:10.04	18.23	23.11	-34.4	-35.3	24.9	0.00e+00	121	38	0	656408576	42	5738
2026-01-18 15:03:11.05	18.20	23.26	-34.4	-35.3	24.8	0.00e+00	123	38	0	659554304	42	5748
2026-01-18 15:03:12.06	18.17	23.41	-34.4	-35.3	24.8	0.00e+00	122	38	0	662700032	42	5736
2026-01-18 15:03:13.07	18.14	23.56	-34.4	-35.3	24.7	0.00e+00	123	38	0	665845760	42	5741
2026-01-18 15:03:14.08	18.11	23.71	-34.3	-35.2	24.9	0.00e+00	122	38	0	668991488	42	5679
2026-01-18 15:03:15.09	18.08	23.86	-34.4	-35.3	24.7	0.00e+00	122	38	0	672137216	42	5765
2026-01-18 15:03:16.10	18.04	24.01	-34.3	-35.2	24.8	0.00e+00	122	38	0	675282944	42	5689
2026-01-18 15:03:17.11	18.01	24.17	-34.3	-35.2	24.8	0.00e+00	123	38	0	678428672	42	5687
2026-01-18 15:03:18.12	17.98	24.32	-34.4	-35.3	24.8	0.00e+00	121	38	0	681574400	42	5755
2026-01-18 15:03:19.13	17.95	24.48	-34.4	-35.3	24.7	0.00e+00	122	38	0	684720128	42	5758
2026-01-18 15:03:20.14	17.92	24.63	-34.4	-35.3	24.7	0.00e+00	123	38	0	687865856	42	5769
2026-01-18 15:03:21.15	17.88	24.79	-34.5	-35.3	24.7	0.00e+00	122	38	0	691011584	42	5786
2026-01-18 15:03:22.16	17.85	24.95	-34.6	-35.5	24.6	0.00e+00	121	38	0	694157312	42	5872
2026-01-18 15:03:23.17	17.82	25.11	-34.6	-35.5	24.5	0.00e+00	120	38	0	697303040	42	5888
2026-01-18 15:03:24.18	17.78	25.27	-34.7	-35.6	24.5	0.00e+00	121	38	0	700448768	42	5933
2026-01-18 15:03:25.19	17.75	25.43	-34.8	-35.7	24.3	0.00e+00	123	38	0	703594496	42	6015
2026-01-18 15:03:26.20	17.71	25.59	-35.0	-35.9	24.3	0.00e+00	123	38	0	706740224	42	6157
2026-01-18 15:03:27.22	17.68	25.76	-35.1	-36.0	24.1	0.00e+00	127	38	0	709885952	42	6252
2026-01-18 15:03:28.23	17.64	25.92	-35.0	-35.9	24.2	0.00e+00	120	38	0	713031680	42	6177
2026-01-18 15:03:29.24	17.61	26.08	-35.2	-36.1	24.0	0.00e+00	123	38	0	716177408	42	6339
2026-01-18 15:03:30.25	17.57	26.25	-35.4	-36.3	23.9	0.00e+00	122	38	0	719323136	42	6478
2026-01-18 15:03:31.26	17.53	26.42	-35.3	-36.2	23.9	0.00e+00	122	38	0	722468864	42	6423
2026-01-18 15:03:32.27	17.50	26.58	-35.5	-36.4	23.9	0.00e+00	120	38	0	725614592	42	6528
2026-01-18 15:03:33.28	17.46	26.75	-35.6	-36.5	23.8	0.00e+00	123	38	0	728760320	42	6595
2026-01-18 15:03:34.29	17.42	26.92	-35.7	-36.6	23.8	0.00e+00	121	38	0	731906048	42	6683
2026-01-18 15:03:35.30	17.38	27.09	-35.7	-36.6	23.7	0.00e+00	122	38	0	735051776	44	5989
2026-01-18 15:03:36.31	17.34	27.27	-35.8	-36.7	23.7	0.00e+00	123	38	0	738197504	44	6037
2026-01-18 15:03:37.32	17.30	27.44	-35.9	-36.9	23.6	0.00e+00	123	38	0	741343232	44	6155
2026-01-18 15:03:38.33	17.26	27.61	-35.9	-36.9	23.8	0.00e+00	122	38	0	744488960	44	6144
2026-01-18 15:03:39.34	17.22	27.79	-36.1	-37.0	23.6	0.00e+00	123	38	0	747634688	44	6255
2026-01-18 15:03:40.35	17.18	27.97	-36.1	-37.0	23.6	0.00e+00	123	38	0	750780416	44	6248
2026-01-18 15:03:41.36	17.14	28.14	-36.1	-37.1	23.6	0.00e+00	125	38	0	753926144	44	6287
2026-01-18 15:03:42.38	17.10	28.32	-36.2	-37.2	23.5	0.00e+00	122	38	0	757071872	44	6369
2026-01-18 15:03:43.39	17.05	28.50	-36.2	-37.1	23.6	0.00e+00	123	38	0	760217600	44	6321
2026-01-18 15:03:44.40	17.01	28.68	-36.3	-37.3	23.5	0.00e+00	123	38	0	763363328	44	6434
2026-01-18 15:03:45.40	16.97	28.86	-36.1	-37.1	23.5	0.00e+00	123	38	0	766509056	44	6291
2026-01-18 15:03:46.41	16.92	29.05	-36.1	-37.1	23.6	0.00e+00	120	38	0	769654784	44	6308
2026-01-18 15:03:47.42	16.88	29.23	-35.8	-36.7	23.7	0.00e+00	123	38	0	772800512	44	6062
2026-01-18 15:03:48.43	16.83	29.42	-35.5	-36.5	24.0	0.00e+00	123	38	0	775946240	44	5861
2026-01-18 15:03:49.44	16.79	29.60	-35.6	-36.5	23.9	0.00e+00	122	38	0	779091968	44	5880
2026-01-18 15:03:50.45	16.74	29.79	-35.6	-36.5	23.9	0.00e+00	123	38	0	782237696	44	5894
2026-01-18 15:03:51.46	16.69	29.98	-35.6	-36.5	23.8	0.00e+00	120	38	0	785383424	44	5894
2026-01-18 15:03:52.47	16.65	30.17	-35.4	-36.3	24.0	0.00e+00	123	38	0	788529152	44	5765
2026-01-18 15:03:53.48	16.60	30.36	-35.4	-36.3	23.8	0.00e+00	123	38	0	791674880	44	5742
2026-01-18 15:03:54.49	16.55	30.56	-35.2	-36.1	24.0	0.00e+00	122	38	0	794820608	44	5620
2026-01-18 15:03:55.50	16.50	30.75	-35.3	-36.2	23.7	0.00e+00	122	38	0	797966336	44	5715
2026-01-18 15:03:56.51	16.45	30.95	-35.2	-36.1	23.9	0.00e+00	123	38	0	801112064	44	5648
2026-01-18 15:03:57.52	16.40	31.14	-35.1	-36.1	23.8	0.00e+00	123	38	0	804257792	44	5595
2026-01-18 15:03:58.53	16.35	31.34	-35.3	-36.2	23.8	0.00e+00	120	38	0	807403520	44	5705
2026-01-18 15:03:59.53	16.30	31.54	-35.1	-36.0	23.9	0.00e+00	122	38	0	810549248	44	5546
2026-01-18 15:04:00.55	16.24	31.74	-35.0	-36.0	23.8	0.00e+00	123	38	0	813694976	44	5542
2026-01-18 15:04:01.55	16.19	31.94	-35.2	-36.2	23.7	0.00e+00	122	38	0	816840704	44	5671
2026-01-18 15:04:02.56	16.14	32.15	-35.1	-36.1	23.9	0.00e+00	123	38	0	819986432	44	5603
2026-01-18 15:04:03.57	16.08	32.35	-35.1	-36.0	23.8	0.00e+00	122	38	0	823132160	44	5591
2026-01-18 15:04:04.58	16.03	32.56	-35.2	-36.1	24.0	0.00e+00	123	38	0	826277888	44	5650
2026-01-18 15:04:05.59	15.97	32.77	-35.3	-36.2	23.9	0.00e+00	123	38	0	829423616	44	5696
2026-01-18 15:04:06.60	15.91	32.98	-35.2	-36.2	24.0	0.00e+00	122	38	0	832569344	44	5663
2026-01-18 15:04:07.61	15.85	33.19	-35.4	-36.3	24.0	0.00e+00	123	38	0	835715072	44	5758
2026-01-18 15:04:08.63	15.79	33.40	-35.3	-36.2	24.1	0.00e+00	122	38	0	838860800	44	5697
2026-01-18 15:04:09.63	15.74	33.61	-35.5	-36.4	24.0	0.00e+00	122	38	0	842006528	44	5797
2026-01-18 15:04:10.64	15.67	33.83	-35.6	-36.5	23.9	0.00e+00	122	38	0	845152256	44	5908
2026-01-18 15:04:11.65	15.61	34.04	-35.8	-36.8	23.7	0.00e+00	122	38	0	848297984	44	6076
2026-01-18 15:04:12.67	15.55	34.26	-35.8	-36.8	23.8	0.00e+00	123	38	0	851443712	44	6076
2026-01-18 15:04:13.67	15.49	34.48	-36.0	-36.9	23.6	0.00e+00	122	38	0	854589440	44	6197
2026-01-18 15:04:14.68	15.42	34.70	-36.2	-37.2	23.5	0.00e+00	122	38	0	857735168	44	6359
2026-01-18 15:04:15.69	15.36	34.92	-36.4	-37.3	23.4	0.00e+00	123	38	0	860880896	44	6470
2026-01-18 15:04:16.70	15.29	35.15	-36.4	-37.4	23.4	0.00e+00	120	38	0	864026624	44	6524
2026-01-18 15:04:17.71	15.23	35.37	-36.6	-37.5	23.3	0.00e+00	123	38	0	867172352	44	6636
2026-01-18 15:04:18.72	15.16	35.60	-36.7	-37.7	23.2	0.00e+00	120	38	0	870318080	44	6737
2026-01-18 15:04:19.73	15.09	35.83	-36.6	-37.6	23.2	0.00e+00	123	38	0	874512384	44	6672
2026-01-18 15:04:20.74	15.02	36.06	-36.8	-37.8	23.1	0.00e+00	122	38	0	877658112	46	6100
2026-01-18 15:04:21.75	14.95	36.29	-36.8	-37.8	23.1	0.00e+00	123	38	0	879755264	46	6110
2026-01-18 15:04:22.76	14.88	36.53	-36.9	-37.9	23.1	0.00e+00	122	38	0	882900992	46	6137
2026-01-18 15:04:23.77	14.80	36.76	-36.9	-37.9	23.0	0.00e+00	122	38	0	886046720	46	6196
2026-01-18 15:04:24.78	14.73	37.00	-37.0	-38.0	23.0	0.00e+00	123	38	0	890241024	46	6238
2026-01-18 15:04:25.79	14.65	37.24	-37.1	-38.1	22.9	0.00e+00	123	38	0	893386752	46	6327
2026-01-18 15:04:26.80	14.58	37.48	-37.3	-38.3	22.8	0.00e+00	123	38	0	896532480	46	6428
2026-01-18 15:04:27.81	14.50	37.72	-37.2	-38.2	22.9	0.00e+00	121	38	0	899678208	46	6373
2026-01-18 15:04:28.83	14.42	37.96	-37.4	-38.4	22.7	0.00e+00	123	38	0	902823936	46	6537
2026-01-18 15:04:29.84	14.34	38.21	-37.4	-38.4	22.7	0.00e+00	123	38	0	905969664	46	6537
2026-01-18 15:04:30.85	14.26	38.46	-36.9	-37.9	23.0	0.00e+00	122	38	0	909115392	46	6155
2026-01-18 15:04:31.86	14.17	38.70	-37.0	-37.9	23.1	0.00e+00	123	38	0	912261120	46	6188
2026-01-18 15:04:32.87	14.09	38.96	-37.0	-38.0	23.0	0.00e+00	120	38	0	915406848	46	6211
2026-01-18 15:04:33.87	14.00	39.20	-36.9	-37.8	23.1	0.00e+00	122	38	0	918552576	46	6132
2026-01-18 15:04:34.88	13.92	39.46	-37.0	-38.0	23.0	0.00e+00	120	38	0	921698304	46	6216
2026-01-18 15:04:35.90	13.83	39.72	-36.8	-37.7	23.1	0.00e+00	123	38	0	924844032	46	6057
2026-01-18 15:04:36.90	13.74	39.97	-37.1	-38.1	23.0	0.00e+00	122	38	0	927989760	46	6279
2026-01-18 15:04:37.91	13.65	40.23	-37.1	-38.1	22.7	0.00e+00	121	38	0	931135488	46	6318
2026-01-18 15:04:38.93	13.55	40.50	-37.2	-38.1	22.7	0.00e+00	123	38	0	934281216	46	6341
2026-01-18 15:04:39.94	13.46	40.76	-36.9	-37.9	22.8	0.00e+00	122	38	0	937426944	46	6147
2026-01-18 15:04:40.95	13.36	41.02	-36.9	-37.9	22.9	0.00e+00	122	38	0	940572672	46	6180
2026-01-18 15:04:41.96	13.26	41.29	-36.8	-37.8	23.1	0.00e+00	120	38	0	943718400	46	6101
2026-01-18 15:04:42.97	13.17	41.56	-36.7	-37.6	23.2	0.00e+00	122	38	0	946864128	46	5980
2026-01-18 15:04:43.98	13.06	41.83	-36.6	-37.6	23.2	0.00e+00	122	38	0	950009856	46	5954
2026-01-18 15:04:44.99	12.96	42.10	-36.9	-37.8	23.1	0.00e+00	123	38	0	953155584	46	6114
2026-01-18 15:04:46.00	12.86	42.38	-37.1	-38.0	22.9	0.00e+00	122	38	0	956301312	46	6275
2026-01-18 15:04:47.01	12.75	42.65	-37.2	-38.2	22.5	0.00e+00	123	38	0	959447040	46	6397
2026-01-18 15:04:48.02	12.64	42.93	-37.4	-38.5	22.2	0.00e+00	123	38	0	962592768	46	6588
2026-01-18 15:04:49.03	12.53	43.21	-37.7	-38.7	22.0	0.00e+00	121	38	0	965738496	46	6775
2026-01-18 15:04:50.04	12.42	43.49	-37.8	-38.8	21.8	0.00e+00	122	38	0	968884224	48	6126
2026-01-18 15:04:51.05	12.30	43.78	-37.9	-39.0	21.5	0.00e+00	123	38	0	972029952	48	6266
2026-01-18 15:04:52.06	12.19	44.07	-38.1	-39.2	21.7	0.00e+00	118	38	0	975175680	48	6372
2026-01-18 15:04:53.07	12.07	44.35	-38.3	-39.4	21.6	0.00e+00	123	38	0	978321408	48	6506
2026-01-18 15:04:54.08	11.94	44.64	-38.4	-39.5	21.7	0.00e+00	121	38	0	981467136	48	6583
2026-01-18 15:04:55.09	11.82	44.94	-38.5	-39.6	21.6	0.00e+00	122	38	0	984612864	48	6685
2026-01-18 15:04:56.10	11.69	45.23	-38.7	-39.7	21.5	0.00e+00	120	38	0	987758592	48	6791
2026-01-18 15:04:57.11	11.57	45.53	-38.9	-40.0	21.4	0.00e+00	120	38	0	990904320	50	6246
2026-01-18 15:04:58.12	11.44	45.82	-38.6	-39.7	21.5	0.00e+00	122	38	0	994050048	50	6042
2026-01-18 15:04:59.13	11.30	46.12	-38.5	-39.6	21.3	0.00e+00	122	38	0	997195776	50	5932
2026-01-18 15:05:00.14	11.17	46.43	-38.2	-39.2	21.5	0.00e+00	120	38	0	1000341504	50	5720
2026-01-18 15:05:01.15	11.03	46.73	-37.8	-38.9	21.8	0.00e+00	120	38	0	1003487232	50	5501
2026-01-18 15:05:02.16	10.88	47.04	-37.9	-38.9	21.9	0.00e+00	122	38	0	1006632960	50	5519
2026-01-18 15:05:03.17	10.74	47.35	-37.6	-38.6	22.1	0.00e+00	120	38	0	1009778688	48	5981
2026-01-18 15:05:04.18	10.59	47.66	-37.5	-38.5	22.3	0.00e+00	122	38	0	1012924416	48	5912
2026-01-18 15:05:05.19	10.44	47.97	-37.5	-38.5	22.4	0.00e+00	120	38	0	1016070144	48	5889
2026-01-18 15:05:06.20	10.29	48.28	-37.4	-38.4	22.5	0.00e+00	122	38	0	1019215872	48	5825
2026-01-18 15:05:07.21	10.13	48.60	-37.2	-38.2	22.6	0.00e+00	123	38	0	1022361600	48	5703
2026-01-18 15:05:08.22	9.97	48.92	-37.0	-38.0	22.6	0.00e+00	122	38	0	1025507328	48	5582
2026-01-18 15:05:09.23	9.81	49.24	-37.0	-38.0	22.7	0.00e+00	123	38	0	1028653056	48	5571
2026-01-18 15:05:10.24	9.64	49.56	-37.1	-38.2	22.6	0.00e+00	123	38	0	1031798784	48	5664
2026-01-18 15:05:11.25	9.47	49.89	-37.3	-38.3	22.5	0.00e+00	123	38	0	1034944512	48	5786
2026-01-18 15:05:12.26	9.29	50.22	-37.5	-38.6	22.3	0.00e+00	120	38	0	1038090240	48	5930
2026-01-18 15:05:13.27	9.11	50.54	-37.7	-38.8	22.2	0.00e+00	122	38	0	1041235968	48	6101
2026-01-18 15:05:14.28	8.93	50.88	-37.9	-39.0	22.0	0.00e+00	123	38	0	1044381696	48	6224
2026-01-18 15:05:15.29	8.74	51.21	-37.8	-38.8	22.2	0.00e+00	122	38	0	1047527424	48	6116
2026-01-18 15:05:16.30	8.55	51.54	-37.2	-38.2	22.6	0.00e+00	122	38	0	1050673152	48	5676
2026-01-18 15:05:17.31	8.36	51.88	-36.9	-37.9	22.7	0.00e+00	120	38	0	1053818880	48	5473
2026-01-18 15:05:18.32	8.16	52.22	-36.6	-37.6	22.9	0.00e+00	122	38	0	1056964608	46	5939
2026-01-18 15:05:19.33	7.95	52.56	-36.6	-37.6	23.1	0.00e+00	120	38	0	1060110336	46	5943
2026-01-18 15:05:20.34	7.74	52.90	-36.6	-37.5	23.3	0.00e+00	122	38	0	1063256064	46	5902
2026-01-18 15:05:21.35	7.52	53.25	-36.4	-37.4	23.4	0.00e+00	123	38	0	1066401792	46	5829
2026-01-18 15:05:22.36	7.30	53.60	-36.6	-37.5	23.3	0.00e+00	123	38	0	1069547520	46	5913
2026-01-18 15:05:23.38	7.08	53.95	-36.6	-37.5	23.4	0.00e+00	123	38	0	1072693248	46	5924
2026-01-18 15:05:24.39	6.84	54.30	-36.4	-37.3	23.3	0.00e+00	122	38	0	1075838976	46	5790
2026-01-18 15:05:25.40	6.61	54.65	-36.1	-37.0	23.6	0.00e+00	123	38	0	1078984704	46	5563
2026-01-18 15:05:26.41	6.36	55.01	-36.1	-37.1	23.6	0.00e+00	122	38	0	1082130432	46	5612
2026-01-18 15:05:27.42	6.11	55.37	-36.0	-37.0	23.7	0.00e+00	123	38	0	1085276160	46	5535
2026-01-18 15:05:28.43	5.86	55.72	-35.9	-36.8	23.9	0.00e+00	120	38	0	1088421888	46	5429
2026-01-18 15:05:29.44	5.59	56.08	-35.7	-36.7	23.9	0.00e+00	123	38	0	1091567616	44	6014
2026-01-18 15:05:30.45	5.32	56.45	-35.3	-36.2	24.0	0.00e+00	121	38	0	1094713344	44	5723
2026-01-18 15:05:31.46	5.05	56.81	-35.3	-36.2	24.0	0.00e+00	122	38	0	1097859072	44	5679
2026-01-18 15:05:32.47	4.76	57.18	-35.2	-36.2	24.0	0.00e+00	123	38	0	1101004800	44	5674
2026-01-18 15:05:33.48	4.47	57.54	-35.0	-35.9	24.3	0.00e+00	120	38	0	1104150528	44	5501
2026-01-18 15:05:34.49	4.17	57.91	-34.8	-35.7	24.6	0.00e+00	122	38	0	1107296256	44	5365
2026-01-18 15:05:35.50	3.86	58.28	-34.6	-35.5	24.9	0.00e+00	122	38	0	1110441984	42	5916
2026-01-18 15:05:36.51	3.54	58.65	-34.6	-35.4	24.9	0.00e+00	120	38	0	1113587712	42	5857
2026-01-18 15:05:37.53	3.21	59.03	-34.8	-35.7	24.7	0.00e+00	123	38	0	1116733440	42	6012
2026-01-18 15:05:38.54	2.87	59.41	-34.8	-35.6	24.8	0.00e+00	120	38	0	1119879168	42	5994
2026-01-18 15:05:39.55	2.52	59.78	-34.6	-35.5	24.6	0.00e+00	122	38	0	1123024896	42	5873
2026-01-18 15:05:40.56	2.17	60.16	-34.6	-35.5	24.5	0.00e+00	122	38	0	1126170624	42	5863
2026-01-18 15:05:41.57	1.80	60.54	-34.6	-35.5	24.6	0.00e+00	122	38	0	1129316352	42	5862
2026-01-18 15:05:42.58	1.42	60.92	-34.3	-35.2	25.0	0.00e+00	123	38	0	1132462080	42	5716
2026-01-18 15:05:43.59	1.03	61.30	-34.5	-35.4	24.8	0.00e+00	123	38	0	1135607808	42	5804
2026-01-18 15:05:44.60	0.62	61.68	-34.5	-35.4	24.9	0.00e+00	123	38	0	1138753536	42	5836
2026-01-18 15:05:45.61	0.21	62.06	-34.2	-35.1	25.1	0.00e+00	123	38	0	1141899264	42	5605
2026-01-18 15:05:46.62	359.78	62.45	-34.0	-34.9	24.9	0.00e+00	122	38	0	1145044992	42	5483
2026-01-18 15:05:47.63	359.33	62.83	-34.0	-34.9	25.0	0.00e+00	123	38	0	1149239296	42	5504
2026-01-18 15:05:48.64	358.88	63.22	-34.1	-35.0	25.0	0.00e+00	120	38	0	1151336448	42	5577
2026-01-18 15:05:49.65	358.40	63.60	-34.4	-35.3	24.8	0.00e+00	123	38	0	1154482176	42	5776
2026-01-18 15:05:50.66	357.91	63.99	-34.4	-35.3	24.9	0.00e+00	122	38	0	1157627904	42	5782
2026-01-18 15:05:51.67	357.41	64.38	-34.2	-35.1	25.1	0.00e+00	123	38	0	1160773632	42	5645
2026-01-18 15:05:52.68	356.88	64.76	-34.3	-35.2	25.1	0.00e+00	122	38	0	1164967936	42	5713
2026-01-18 15:05:53.69	356.34	65.15	-34.4	-35.3	25.0	0.00e+00	123	38	0	1168113664	42	5737
2026-01-18 15:05:54.70	355.78	65.53	-34.4	-35.3	24.9	0.00e+00	122	38	0	1171259392	42	5758
2026-01-18 15:05:55.71	355.20	65.92	-34.4	-35.3	24.9	0.00e+00	120	38	0	1173356544	42	5789
2026-01-18 15:05:56.72	354.59	66.31	-34.2	-35.1	25.1	0.00e+00	122	38	0	1176502272	42	5627
2026-01-18 15:05:57.73	353.97	66.69	-34.6	-35.5	24.8	0.00e+00	120	38	0	1180696576	42	5892
2026-01-18 15:05:58.74	353.32	67.07	-34.6	-35.5	24.8	0.00e+00	122	38	0	1183842304	42	5908
2026-01-18 15:05:59.75	352.65	67.46	-34.4	-35.3	24.8	0.00e+00	120	38	0	1186988032	42	5758
2026-01-18 15:06:00.76	351.95	67.84	-34.8	-35.7	24.6	0.00e+00	122	38	0	1190133760	42	6040
2026-01-18 15:06:01.77	351.23	68.22	-34.4	-35.3	24.9	0.00e+00	123	38	0	1193279488	42	5775
2026-01-18 15:06:02.78	350.47	68.60	-34.2	-35.0	25.1	0.00e+00	123	38	0	1196425216	42	5576
2026-01-18 15:06:03.79	349.69	68.97	-34.0	-34.9	25.2	0.00e+00	123	38	0	1199570944	42	5522
2026-01-18 15:06:04.80	348.88	69.35	-33.8	-34.7	25.3	0.00e+00	123	38	0	1202716672	42	5358
2026-01-18 15:06:05.81	348.04	69.72	-33.6	-34.5	25.5	0.00e+00	123	38	0	1205862400	40	5878
2026-01-18 15:06:06.82	347.16	70.09	-33.5	-34.3	25.5	0.00e+00	123	38	0	1209008128	40	5774
2026-01-18 15:06:07.83	346.24	70.45	-33.6	-34.5	25.2	0.00e+00	120	38	0	1212153856	40	5902
2026-01-18 15:06:08.85	345.28	70.82	-33.7	-34.5	25.4	0.00e+00	123	38	0	1215299584	40	5907
2026-01-18 15:06:09.85	344.30	71.17	-33.3	-34.2	25.5	0.00e+00	120	38	0	1218445312	40	5672
2026-01-18 15:06:10.86	343.27	71.53	-33.7	-34.5	25.4	0.00e+00	123	38	0	1221591040	40	5914
2026-01-18 15:06:11.87	342.20	71.88	-33.6	-34.4	25.1	0.00e+00	122	38	0	1224736768	40	5858
2026-01-18 15:06:12.88	341.08	72.22	-33.6	-34.5	24.8	0.00e+00	123	38	0	1227882496	40	5872
2026-01-18 15:06:13.89	339.91	72.56	-33.6	-34.5	25.4	0.00e+00	122	38	0	1231028224	40	5865
2026-01-18 15:06:14.90	338.70	72.89	-33.5	-34.3	25.5	0.00e+00	122	38	0	1234173952	40	5752
2026-01-18 15:06:15.91	337.44	73.22	-33.4	-34.2	25.6	0.00e+00	123	38	0	1237319680	40	5691
2026-01-18 15:06:16.92	336.12	73.53	-33.6	-34.4	25.4	0.00e+00	122	38	0	1240465408	40	5841
2026-01-18 15:06:17.93	334.75	73.84	-33.8	-34.7	25.4	0.00e+00	123	38	0	1243611136	40	6025
2026-01-18 15:06:18.94	333.33	74.15	-33.4	-34.2	25.7	0.00e+00	123	38	0	1246756864	40	5673
2026-01-18 15:06:19.95	331.85	74.44	-33.6	-34.4	25.5	0.00e+00	122	38	0	1249902592	40	5830
2026-01-18 15:06:20.96	330.31	74.72	-33.6	-34.5	25.4	0.00e+00	120	38	0	1253048320	40	5884
2026-01-18 15:06:21.97	328.71	74.99	-33.8	-34.6	25.5	0.00e+00	122	38	0	1256194048	40	5991
2026-01-18 15:06:22.98	327.05	75.26	-33.8	-34.7	25.5	0.00e+00	120	38	0	1259339776	40	6016
2026-01-18 15:06:23.99	325.33	75.51	-33.8	-34.6	25.3	0.00e+00	122	38	0	1262485504	40	5987
2026-01-18 15:06:25.00	323.55	75.74	-34.2	-35.1	25.0	0.00e+00	123	38	0	1265631232	40	6315
2026-01-18 15:06:26.01	321.70	75.97	-34.3	-35.2	25.0	0.00e+00	123	38	0	1268776960	40	6395
2026-01-18 15:06:27.02	319.80	76.17	-34.1	-35.0	25.0	0.00e+00	122	38	0	1271922688	40	6262
2026-01-18 15:06:28.03	317.84	76.37	-33.9	-34.8	25.2	0.00e+00	123	38	0	1275068416	40	6079
2026-01-18 15:06:29.04	315.82	76.55	-34.5	-35.4	24.8	0.00e+00	122	38	0	1278214144	40	6518
2026-01-18 15:06:30.05	313.75	76.71	-34.7	-35.6	24.8	0.00e+00	120	38	0	1281359872	42	5927
2026-01-18 15:06:31.06	311.63	76.85	-34.1	-35.0	25.2	0.00e+00	123	38	0	1284505600	42	5532
2026-01-18 15:06:32.07	309.47	76.98	-34.0	-34.9	25.2	0.00e+00	120	38	0	1287651328	42	5473
2026-01-18 15:06:33.08	307.26	77.09	-34.0	-34.9	25.0	0.00e+00	123	38	0	1290797056	42	5470
2026-01-18 15:06:34.09	305.02	77.18	-34.1	-35.0	25.0	0.00e+00	122	38	0	1293942784	42	5550
2026-01-18 15:06:35.10	302.75	77.25	-34.3	-35.2	24.8	0.00e+00	122	38	0	1297088512	42	5681
2026-01-18 15:06:36.11	300.45	77.30	-34.4	-35.3	24.5	0.00e+00	123	38	0	1300234240	42	5791
2026-01-18 15:06:37.12	298.14	77.33	-34.5	-35.4	24.0	0.00e+00	123	38	0	1303379968	42	5836
2026-01-18 15:06:38.13	295.83	77.34	-34.8	-35.7	24.4	0.00e+00	120	38	0	1306525696	42	6035
2026-01-18 15:06:39.14	293.51	77.33	-34.7	-35.6	24.6	0.00e+00	123	38	0	1309671424	42	5973
2026-01-18 15:06:40.15	291.20	77.30	-34.6	-35.5	24.4	0.00e+00	123	38	0	1312817152	42	5907
2026-01-18 15:06:41.16	288.91	77.25	-34.1	-35.0	24.8	0.00e+00	123	38	0	1315962880	42	5539
2026-01-18 15:06:42.17	286.63	77.18	-33.9	-34.8	25.0	0.00e+00	122	38	0	1319108608	42	5429
2026-01-18 15:06:43.19	284.37	77.09	-34.1	-35.0	24.7	0.00e+00	122	38	0	1322254336	42	5548
2026-01-18 15:06:44.20	282.16	76.99	-34.2	-35.1	24.9	0.00e+00	123	38	0	1325400064	42	5642
2026-01-18 15:06:45.20	280.01	76.86	-34.0	-34.8	25.2	0.00e+00	122	38	0	1328545792	42	5458
2026-01-18 15:06:46.21	277.89	76.72	-34.2	-35.1	24.7	0.00e+00	122	38	0	1331691520	42	5598
2026-01-18 15:06:47.22	275.82	76.55	-33.9	-34.8	24.9	0.00e+00	123	38	0	1334837248	42	5458
2026-01-18 15:06:48.23	273.80	76.38	-34.0	-34.9	24.7	0.00e+00	123	38	0	1337982976	42	5521
2026-01-18 15:06:49.24	271.83	76.18	-34.2	-35.1	25.1	0.00e+00	123	38	0	1341128704	42	5618
2026-01-18 15:06:50.25	269.93	75.97	-34.3	-35.2	24.9	0.00e+00	122	38	0	1344274432	42	5709
2026-01-18 15:06:51.26	268.08	75.75	-34.1	-35.0	25.1	0.00e+00	122	38	0	1347420160	42	5564
2026-01-18 15:06:52.27	266.29	75.51	-33.9	-34.7	25.3	0.00e+00	123	38	0	1350565888	42	5380
2026-01-18 15:06:53.29	264.55	75.26	-34.0	-34.9	25.3	0.00e+00	122	38	0	1353711616	42	5483
2026-01-18 15:06:54.29	262.91	75.00	-33.8	-34.7	25.3	0.00e+00	120	38	0	1356857344	42	5345
2026-01-18 15:06:55.31	261.29	74.73	-33.2	-34.0	25.7	0.00e+00	123	38	0	1360003072	40	5594
2026-01-18 15:06:56.32	259.75	74.45	-33.2	-34.0	25.8	0.00e+00	120	38	0	1363148800	40	5548
2026-01-18 15:06:57.33	258.26	74.15	-33.3	-34.1	25.6	0.00e+00	122	38	0	1366294528	40	5641
2026-01-18 15:06:58.34	256.83	73.85	-33.5	-34.4	25.1	0.00e+00	120	38	0	1369440256	40	5824
2026-01-18 15:06:59.35	255.46	73.54	-33.7	-34.6	24.9	0.00e+00	120	38	0	1372585984	40	5976
2026-01-18 15:07:00.35	254.16	73.23	-33.7	-34.6	25.2	0.00e+00	122	38	0	1375731712	40	5958
2026-01-18 15:07:01.36	252.89	72.90	-33.6	-34.4	25.5	0.00e+00	123	38	0	1378877440	40	5858
2026-01-18 15:07:02.37	251.68	72.57	-33.5	-34.3	25.6	0.00e+00	123	38	0	1382023168	40	5788
2026-01-18 15:07:03.38	250.51	72.23	-34.0	-34.9	25.2	0.00e+00	121	38	0	1385168896	40	6189
2026-01-18 15:07:04.39	249.39	71.89	-34.5	-35.4	24.8	0.00e+00	123	38	0	1388314624	40	6541
2026-01-18 15:07:05.40	248.31	71.54	-34.7	-35.7	24.4	0.00e+00	120	38	0	1391460352	42	6014
2026-01-18 15:07:06.41	247.28	71.18	-34.7	-35.6	24.4	0.00e+00	123	38	0	1394606080	42	5956
2026-01-18 15:07:07.42	246.28	70.82	-34.2	-35.1	24.8	0.00e+00	123	38	0	1397751808	42	5659
2026-01-18 15:07:08.43	245.33	70.46	-34.0	-34.9	25.0	0.00e+00	121	38	0	1400897536	42	5498
2026-01-18 15:07:09.45	244.41	70.09	-33.9	-34.8	25.3	0.00e+00	123	38	0	1404043264	42	5409
2026-01-18 15:07:10.45	243.53	69.73	-34.2	-35.1	25.0	0.00e+00	123	38	0	1407188992	42	5608
2026-01-18 15:07:11.46	242.69	69.35	-34.2	-35.2	24.9	0.00e+00	121	38	0	1410334720	42	5665
2026-01-18 15:07:12.47	241.87	68.98	-33.7	-34.6	25.0	0.00e+00	123	38	0	1413480448	40	5935
2026-01-18 15:07:13.48	241.09	68.60	-33.3	-34.1	25.1	0.00e+00	123	38	0	1416626176	40	5652
2026-01-18 15:07:14.50	240.33	68.22	-33.2	-34.0	25.2	0.00e+00	123	38	0	1419771904	40	5594
2026-01-18 15:07:15.50	239.61	67.84	-34.0	-34.8	25.1	0.00e+00	123	38	0	1422917632	40	6131
2026-01-18 15:07:16.51	238.91	67.46	-34.7	-35.6	24.7	0.00e+00	121	38	0	1426063360	40	6651
2026-01-18 15:07:17.52	238.24	67.08	-35.1	-36.1	24.3	0.00e+00	123	38	0	1429209088	42	6297
2026-01-18 15:07:18.53	237.59	66.69	-34.9	-35.8	24.1	0.00e+00	120	38	0	1432354816	42	6090
2026-01-18 15:07:19.54	236.96	66.31	-34.5	-35.5	23.8	0.00e+00	122	38	0	1435500544	42	5864
2026-01-18 15:07:20.55	236.36	65.92	-33.8	-34.7	24.6	0.00e+00	120	38	0	1438646272	42	5367
2026-01-18 15:07:21.56	235.77	65.53	-33.7	-34.5	25.3	0.00e+00	122	38	0	1441792000	40	5921
2026-01-18 15:07:22.57	235.21	65.15	-33.7	-34.6	25.3	0.00e+00	122	38	0	1444937728	40	5939
2026-01-18 15:07:23.58	234.67	64.76	-34.2	-35.1	24.9	0.00e+00	122	38	0	1448083456	40	6316
2026-01-18 15:07:24.59	234.14	64.37	-35.1	-36.0	24.4	0.00e+00	122	38	0	1451229184	42	6220
2026-01-18 15:07:25.60	233.63	63.98	-35.0	-36.0	24.1	0.00e+00	123	38	0	1454374912	42	6206
2026-01-18 15:07:26.62	233.14	63.59	-34.3	-35.3	24.3	0.00e+00	123	38	0	1457520640	42	5742
2026-01-18 15:07:27.63	232.66	63.21	-33.6	-34.5	25.2	0.00e+00	120	38	0	1461714944	40	5892
2026-01-18 15:07:28.63	232.21	62.82	-33.7	-34.5	25.3	0.00e+00	123	38	0	1464860672	40	5905
2026-01-18 15:07:29.65	231.76	62.44	-34.2	-35.0	25.1	0.00e+00	123	38	0	1466957824	40	6260
2026-01-18 15:07:30.65	231.33	62.05	-34.7	-35.5	24.5	0.00e+00	123	38	0	1470103552	40	6635
2026-01-18 15:07:31.66	230.92	61.67	-35.1	-36.0	24.0	0.00e+00	123	38	0	1473249280	42	6262
2026-01-18 15:07:32.67	230.51	61.29	-36.0	-36.9	23.5	0.00e+00	123	38	0	1476395008	44	6159
2026-01-18 15:07:33.68	230.12	60.91	-36.2	-37.1	23.0	0.00e+00	120	38	0	1480589312	44	6346
2026-01-18 15:07:34.69	229.74	60.53	-34.7	-35.6	23.0	0.00e+00	122	38	0	1483735040	44	5332
2026-01-18 15:07:35.70	229.37	60.15	-33.6	-34.5	24.0	0.00e+00	122	38	0	1486880768	40	5908
2026-01-18 15:07:36.71	229.01	59.77	-33.4	-34.2	25.0	0.00e+00	121	38	0	1488977920	40	5725
2026-01-18 15:07:37.72	228.66	59.39	-33.7	-34.6	25.2	0.00e+00	123	38	0	1492123648	40	5936
2026-01-18 15:07:38.73	228.33	59.01	-34.8	-35.6	24.5	0.00e+00	122	38	0	1496317952	40	6723
2026-01-18 15:07:39.74	228.00	58.64	-35.3	-36.2	24.2	0.00e+00	120	38	0	1499463680	42	6389
2026-01-18 15:07:40.75	227.68	58.27	-35.8	-36.8	23.8	0.00e+00	122	38	0	1502609408	42	6827
2026-01-18 15:07:41.76	227.37	57.90	-36.2	-37.3	23.0	0.00e+00	122	38	0	1505755136	44	6433
2026-01-18 15:07:42.77	227.07	57.53	-36.3	-37.4	22.5	0.00e+00	122	38	0	1508900864	44	6535
2026-01-18 15:07:43.78	226.77	57.16	-36.0	-37.0	22.9	0.00e+00	123	38	0	1512046592	44	6255
2026-01-18 15:07:44.79	226.49	56.79	-35.5	-36.4	23.7	0.00e+00	122	38	0	1515192320	44	5848
2026-01-18 15:07:45.80	226.21	56.43	-34.6	-35.5	24.8	0.00e+00	123	38	0	1518338048	44	5247
2026-01-18 15:07:46.81	225.94	56.06	-34.3	-35.1	24.9	0.00e+00	123	38	0	1521483776	42	5656
2026-01-18 15:07:47.82	225.68	55.70	-34.5	-35.3	24.5	0.00e+00	123	38	0	1524629504	42	5772
2026-01-18 15:07:48.83	225.42	55.34	-35.3	-36.1	23.6	0.00e+00	123	38	0	1527775232	42	6350
2026-01-18 15:07:49.84	225.17	54.98	-36.1	-37.1	23.3	0.00e+00	122	38	0	1530920960	44	6303
2026-01-18 15:07:50.85	224.92	54.63	-36.8	-37.8	22.7	0.00e+00	123	38	0	1534066688	46	6100
2026-01-18 15:07:51.86	224.69	54.27	-36.9	-38.0	22.0	0.00e+00	122	38	0	1537212416	46	6219
2026-01-18 15:07:52.87	224.45	53.92	-36.7	-37.8	22.2	0.00e+00	123	38	0	1540358144	46	6092
2026-01-18 15:07:53.88	224.23	53.57	-36.8	-37.8	22.9	0.00e+00	122	38	0	1543503872	46	6085
2026-01-18 15:07:54.89	224.01	53.22	-36.2	-37.1	23.6	0.00e+00	123	38	0	1546649600	46	5607
2026-01-18 15:07:55.90	223.79	52.88	-36.1	-37.0	23.7	0.00e+00	123	38	0	1549795328	46	5569
2026-01-18 15:07:56.91	223.58	52.53	-35.8	-36.8	24.0	0.00e+00	122	38	0	1552941056	46	5415
2026-01-18 15:07:57.93	223.37	52.19	-36.1	-37.0	23.6	0.00e+00	120	38	0	1556086784	46	5554
2026-01-18 15:07:58.94	223.17	51.85	-36.6	-37.6	23.0	0.00e+00	123	38	0	1559232512	46	5939
2026-01-18 15:07:59.95	222.97	51.51	-37.3	-38.4	22.4	0.00e+00	122	38	0	1562378240	46	6520
2026-01-18 15:08:00.96	222.78	51.17	-37.8	-38.8	22.1	0.00e+00	123	38	0	1565523968	48	6102
2026-01-18 15:08:01.97	222.59	50.84	-37.8	-38.9	22.1	0.00e+00	123	38	0	1568669696	48	6152
2026-01-18 15:08:02.98	222.41	50.50	-37.4	-38.5	21.7	0.00e+00	123	38	0	1571815424	48	5884
2026-01-18 15:08:03.99	222.23	50.17	-37.1	-38.2	22.2	0.00e+00	122	38	0	1574961152	48	5668
2026-01-18 15:08:05.00	222.06	49.85	-36.9	-37.8	22.9	0.00e+00	122	38	0	1578106880	48	5462
2026-01-18 15:08:06.01	221.88	49.52	-36.7	-37.6	23.2	0.00e+00	123	38	0	1581252608	46	5952
2026-01-18 15:08:07.02	221.72	49.20	-36.8	-37.8	23.1	0.00e+00	123	38	0	1584398336	46	6079
2026-01-18 15:08:08.03	221.55	48.87	-37.3	-38.3	22.7	0.00e+00	123	38	0	1587544064	46	6424
2026-01-18 15:08:09.04	221.39	48.55	-37.2	-38.2	22.7	0.00e+00	122	38	0	1590689792	46	6390
2026-01-18 15:08:10.05	221.23	48.24	-37.2	-38.2	22.7	0.00e+00	123	38	0	1593835520	46	6407
2026-01-18 15:08:11.06	221.08	47.92	-37.0	-37.9	22.9	0.00e+00	123	38	0	1596981248	46	6196
2026-01-18 15:08:12.07	220.93	47.61	-37.3	-38.3	22.7	0.00e+00	123	38	0	1600126976	46	6443
2026-01-18 15:08:13.08	220.78	47.30	-37.4	-38.4	22.6	0.00e+00	123	38	0	1603272704	46	6563
2026-01-18 15:08:14.09	220.64	46.99	-37.6	-38.6	22.4	0.00e+00	122	38	0	1606418432	46	6725
2026-01-18 15:08:15.10	220.49	46.68	-37.5	-38.5	22.3	0.00e+00	123	38	0	1609564160	46	6641
2026-01-18 15:08:16.11	220.35	46.37	-37.2	-38.3	21.7	0.00e+00	123	38	0	1612709888	46	6429
2026-01-18 15:08:17.12	220.22	46.07	-37.2	-38.3	21.1	0.00e+00	122	38	0	1615855616	46	6440
2026-01-18 15:08:18.13	220.08	45.77	-37.4	-38.5	21.2	0.00e+00	122	38	0	1619001344	46	6622
2026-01-18 15:08:19.14	219.95	45.47	-37.5	-38.5	21.9	0.00e+00	122	38	0	1622147072	46	6633
2026-01-18 15:08:20.15	219.82	45.17	-37.3	-38.3	22.5	0.00e+00	122	38	0	1625292800	46	6463
2026-01-18 15:08:21.16	219.70	44.88	-37.5	-38.4	22.6	0.00e+00	123	38	0	1628438528	46	6563
2026-01-18 15:08:22.17	219.57	44.58	-37.3	-38.3	22.6	0.00e+00	122	38	0	1631584256	46	6454
2026-01-18 15:08:23.18	219.45	44.29	-38.0	-39.1	22.0	0.00e+00	120	38	0	1634729984	48	6282
2026-01-18 15:08:24.19	219.33	44.00	-38.5	-39.6	21.5	0.00e+00	123	38	0	1637875712	48	6722
2026-01-18 15:08:25.20	219.21	43.72	-38.5	-39.6	21.6	0.00e+00	122	38	0	1641021440	50	5984
2026-01-18 15:08:26.21	219.10	43.43	-38.4	-39.4	21.8	0.00e+00	124	38	0	1644167168	50	5829
2026-01-18 15:08:27.21	218.99	43.15	-37.5	-38.5	22.4	0.00e+00	122	38	0	1647312896	48	5919
2026-01-18 15:08:28.22	218.88	42.87	-37.4	-38.4	22.5	0.00e+00	123	38	0	1650458624	48	5843
2026-01-18 15:08:29.24	218.77	42.59	-37.4	-38.4	22.5	0.00e+00	122	38	0	1653604352	48	5837
2026-01-18 15:08:30.25	218.66	42.31	-37.5	-38.5	22.4	0.00e+00	123	38	0	1656750080	48	5901
2026-01-18 15:08:31.26	218.55	42.03	-38.0	-39.0	21.8	0.00e+00	122	38	0	1659895808	48	6261
2026-01-18 15:08:32.27	218.45	41.76	-38.5	-39.6	21.2	0.00e+00	123	38	0	1663041536	48	6721
2026-01-18 15:08:33.28	218.35	41.49	-38.9	-40.1	20.8	0.00e+00	122	38	0	1666187264	50	6350
2026-01-18 15:08:34.29	218.25	41.22	-38.7	-39.9	21.1	0.00e+00	123	38	0	1669332992	50	6167
2026-01-18 15:08:35.30	218.15	40.95	-38.4	-39.5	21.4	0.00e+00	120	38	0	1672478720	50	5912
2026-01-18 15:08:36.31	218.05	40.69	-38.2	-39.4	21.4	0.00e+00	122	38	0	1675624448	50	5799
2026-01-18 15:08:37.32	217.96	40.42	-38.0	-39.1	21.9	0.00e+00	122	38	0	1678770176	50	5602
2026-01-18 15:08:38.33	217.86	40.16	-37.4	-38.4	22.4	0.00e+00	123	38	0	1681915904	48	5853
2026-01-18 15:08:39.34	217.77	39.90	-36.9	-37.9	22.8	0.00e+00	123	38	0	1685061632	48	5490
2026-01-18 15:08:40.35	217.68	39.64	-36.7	-37.7	22.8	0.00e+00	121	38	0	1688207360	46	6045
2026-01-18 15:08:41.36	217.59	39.38	-37.0	-38.0	22.6	0.00e+00	120	38	0	1691353088	46	6236
2026-01-18 15:08:42.37	217.51	39.13	-37.4	-38.4	22.1	0.00e+00	122	38	0	1694498816	46	6558
2026-01-18 15:08:43.38	217.42	38.88	-37.7	-38.8	21.9	0.00e+00	121	38	0	1697644544	46	6842
2026-01-18 15:08:44.39	217.34	38.62	-38.0	-39.1	21.6	0.00e+00	123	38	0	1700790272	48	6316
2026-01-18 15:08:45.39	217.25	38.38	-38.1	-39.2	21.6	0.00e+00	122	38	0	1703936000	48	6388
2026-01-18 15:08:46.40	217.17	38.13	-38.3	-39.4	21.5	0.00e+00	122	38	0	1707081728	48	6547
2026-01-18 15:08:47.41	217.09	37.88	-38.0	-39.0	22.0	0.00e+00	120	38	0	1710227456	48	6270
2026-01-18 15:08:48.42	217.01	37.64	-38.1	-39.2	22.0	0.00e+00	120	38	0	1713373184	48	6356
2026-01-18 15:08:49.43	216.93	37.40	-38.0	-39.1	22.0	0.00e+00	121	38	0	1716518912	48	6292
2026-01-18 15:08:50.44	216.86	37.16	-37.9	-39.0	22.1	0.00e+00	122	38	0	1719664640	48	6255
2026-01-18 15:08:51.45	216.78	36.92	-37.3	-38.3	22.6	0.00e+00	123	38	0	1722810368	48	5737
2026-01-18 15:08:52.47	216.70	36.68	-36.9	-37.8	23.0	0.00e+00	122	38	0	1725956096	48	5467
2026-01-18 15:08:53.48	216.63	36.44	-36.5	-37.4	23.4	0.00e+00	123	38	0	1729101824	46	5829
2026-01-18 15:08:54.49	216.56	36.21	-36.4	-37.4	23.4	0.00e+00	123	38	0	1732247552	46	5801
2026-01-18 15:08:55.50	216.49	35.97	-36.5	-37.5	23.2	0.00e+00	122	38	0	1735393280	46	5867
2026-01-18 15:08:56.51	216.42	35.74	-36.6	-37.5	23.0	0.00e+00	121	38	0	1738539008	46	5920
2026-01-18 15:08:57.52	216.35	35.51	-36.4	-37.3	23.3	0.00e+00	123	38	0	1741684736	46	5769
2026-01-18 15:08:58.53	216.28	35.28	-36.5	-37.5	23.2	0.00e+00	123	38	0	1744830464	46	5903
2026-01-18 15:08:59.54	216.21	35.06	-36.8	-37.7	23.0	0.00e+00	123	38	0	1747976192	46	6061
2026-01-18 15:09:00.55	216.14	34.83	-36.8	-37.8	23.1	0.00e+00	122	38	0	1751121920	46	6103
2026-01-18 15:09:01.56	216.08	34.61	-36.8	-37.7	23.2	0.00e+00	122	38	0	1754267648	46	6044
2026-01-18 15:09:02.57	216.01	34.39	-36.7	-37.6	23.2	0.00e+00	123	38	0	1757413376	46	5988
2026-01-18 15:09:03.58	215.95	34.17	-36.7	-37.6	23.2	0.00e+00	122	38	0	1760559104	46	5986
2026-01-18 15:09:04.59	215.89	33.95	-36.7	-37.7	23.2	0.00e+00	123	38	0	1763704832	46	6020
2026-01-18 15:09:05.60	215.83	33.73	-36.6	-37.6	23.3	0.00e+00	123	38	0	1766850560	46	5953
2026-01-18 15:09:06.61	215.77	33.52	-36.6	-37.5	23.3	0.00e+00	122	38	0	1769996288	46	5902
2026-01-18 15:09:07.62	215.71	33.30	-36.6	-37.6	23.2	0.00e+00	123	38	0	1773142016	46	5978
2026-01-18 15:09:08.63	215.65	33.09	-36.8	-37.8	23.0	0.00e+00	122	38	0	1777336320	46	6098
2026-01-18 15:09:09.64	215.59	32.88	-36.8	-37.8	22.9	0.00e+00	123	38	0	1780482048	46	6091
2026-01-18 15:09:10.65	215.53	32.67	-36.9	-37.9	22.9	0.00e+00	123	38	0	1782579200	46	6157
2026-01-18 15:09:11.66	215.47	32.46	-36.7	-37.7	23.0	0.00e+00	123	38	0	1785724928	46	6027
2026-01-18 15:09:12.67	215.42	32.25	-36.5	-37.5	23.3	0.00e+00	122	38	0	1788870656	46	5860
2026-01-18 15:09:13.68	215.36	32.05	-36.2	-37.2	23.5	0.00e+00	122	38	0	1793064960	46	5676
2026-01-18 15:09:14.69	215.31	31.84	-36.1	-37.1	23.5	0.00e+00	123	38	0	1796210688	46	5619
2026-01-18 15:09:15.70	215.25	31.64	-36.2	-37.2	23.4	0.00e+00	122	38	0	1799356416	46	5696
2026-01-18 15:09:16.71	215.20	31.44	-35.9	-36.8	23.5	0.00e+00	122	38	0	1802502144	46	5452
2026-01-18 15:09:17.72	215.15	31.24	-35.9	-36.9	23.5	0.00e+00	123	38	0	1804599296	46	5479
2026-01-18 15:09:18.73	215.10	31.04	-35.6	-36.5	23.9	0.00e+00	120	38	0	1808793600	44	5904
2026-01-18 15:09:19.74	215.04	30.84	-35.3	-36.2	24.2	0.00e+00	122	38	0	1811939328	44	5701
2026-01-18 15:09:20.75	214.99	30.65	-35.3	-36.2	24.3	0.00e+00	123	38	0	1815085056	44	5692
2026-01-18 15:09:21.76	214.94	30.45	-35.1	-36.0	24.4	0.00e+00	122	38	0	1818230784	44	5542
2026-01-18 15:09:22.77	214.89	30.26	-34.8	-35.7	24.6	0.00e+00	121	38	0	1821376512	44	5379
2026-01-18 15:09:23.78	214.85	30.07	-34.8	-35.7	24.7	0.00e+00	122	38	0	1824522240	44	5380
2026-01-18 15:09:24.79	214.80	29.87	-34.8	-35.7	23.2	0.00e+00	123	38	0	1827667968	44	5367
2026-01-18 15:09:25.80	214.75	29.68	-34.5	-35.4	25.0	0.00e+00	121	38	0	1830813696	42	5793
2026-01-18 15:09:26.81	214.70	29.50	-34.7	-35.5	24.9	0.00e+00	123	38	0	1833959424	42	5897
2026-01-18 15:09:27.82	214.66	29.31	-34.6	-35.4	24.9	0.00e+00	123	38	0	1837105152	42	5855
2026-01-18 15:09:28.83	214.61	29.12	-34.6	-35.4	24.9	0.00e+00	122	38	0	1840250880	42	5833
2026-01-18 15:09:29.84	214.57	28.94	-34.6	-35.5	24.9	0.00e+00	122	38	0	1843396608	42	5869
2026-01-18 15:09:30.85	214.52	28.75	-35.0	-35.8	24.6	0.00e+00	123	38	0	1846542336	42	6120
2026-01-18 15:09:31.86	214.48	28.57	-35.1	-35.9	24.6	0.00e+00	122	38	0	1849688064	42	6196
2026-01-18 15:09:32.87	214.43	28.39	-35.1	-36.0	24.5	0.00e+00	120	38	0	1852833792	42	6233
2026-01-18 15:09:33.88	214.39	28.21	-35.2	-36.1	24.5	0.00e+00	123	38	0	1855979520	42	6302
2026-01-18 15:09:34.89	214.35	28.03	-35.4	-36.3	24.3	0.00e+00	123	38	0	1859125248	42	6438
2026-01-18 15:09:35.90	214.31	27.85	-35.4	-36.3	24.2	0.00e+00	123	38	0	1862270976	42	6462
2026-01-18 15:09:36.91	214.27	27.67	-35.5	-36.4	24.2	0.00e+00	123	38	0	1865416704	42	6536
2026-01-18 15:09:37.92	214.22	27.50	-35.4	-36.3	24.3	0.00e+00	122	38	0	1868562432	42	6498
2026-01-18 15:09:38.93	214.18	27.32	-35.4	-36.3	24.3	0.00e+00	120	38	0	1871708160	42	6442
2026-01-18 15:09:39.94	214.14	27.15	-35.5	-36.5	24.3	0.00e+00	123	38	0	1874853888	42	6574
2026-01-18 15:09:40.95	214.10	26.98	-35.3	-36.2	24.4	0.00e+00	122	38	0	1877999616	42	6379
2026-01-18 15:09:41.96	214.07	26.81	-35.3	-36.2	24.3	0.00e+00	123	38	0	1881145344	42	6403
2026-01-18 15:09:42.97	214.03	26.64	-35.2	-36.1	24.5	0.00e+00	123	38	0	1884291072	42	6322
2026-01-18 15:09:43.98	213.99	26.47	-35.2	-36.1	24.5	0.00e+00	122	38	0	1887436800	42	6280
2026-01-18 15:09:44.99	213.95	26.30	-35.1	-36.0	24.5	0.00e+00	120	38	0	1890582528	42	6242
2026-01-18 15:09:46.00	213.91	26.13	-35.2	-36.1	24.5	0.00e+00	123	38	0	1893728256	42	6314
2026-01-18 15:09:47.01	213.88	25.96	-35.2	-36.1	24.4	0.00e+00	123	38	0	1896873984	42	6298
2026-01-18 15:09:48.02	213.84	25.80	-35.1	-36.0	24.5	0.00e+00	123	38	0	1900019712	42	6225
2026-01-18 15:09:49.03	213.80	25.63	-35.2	-36.2	24.4	0.00e+00	123	38	0	1903165440	42	6357
2026-01-18 15:09:50.04	213.77	25.47	-35.2	-36.2	24.3	0.00e+00	123	38	0	1906311168	42	6352
2026-01-18 15:09:51.05	213.73	25.31	-35.3	-36.2	24.4	0.00e+00	122	38	0	1909456896	42	6404
2026-01-18 15:09:52.06	213.70	25.15	-35.2	-36.1	24.4	0.00e+00	122	38	0	1912602624	42	6319
2026-01-18 15:09:53.07	213.66	24.99	-35.3	-36.2	24.4	0.00e+00	123	38	0	1915748352	42	6361
2026-01-18 15:09:54.08	213.63	24.83	-35.4	-36.4	24.2	0.00e+00	120	38	0	1918894080	42	6500
2026-01-18 15:09:55.09	213.60	24.67	-35.5	-36.5	24.1	0.00e+00	123	38	0	1922039808	42	6576
2026-01-18 15:09:56.10	213.56	24.51	-35.5	-36.5	24.1	0.00e+00	122	38	0	1925185536	42	6574
2026-01-18 15:09:57.11	213.53	24.36	-35.7	-36.6	23.9	0.00e+00	123	38	0	1928331264	42	6716
2026-01-18 15:09:58.12	213.50	24.20	-35.7	-36.7	23.9	0.00e+00	120	38	0	1931476992	44	6035
2026-01-18 15:09:59.13	213.47	24.04	-35.8	-36.8	23.8	0.00e+00	123	38	0	1934622720	44	6076
2026-01-18 15:10:00.14	213.43	23.89	-35.7	-36.7	23.8	0.00e+00	123	38	0	1937768448	44	6035
2026-01-18 15:10:01.15	213.40	23.74	-35.8	-36.7	23.8	0.00e+00	120	38	0	1940914176	44	6059
2026-01-18 15:10:02.16	213.37	23.59	-35.7	-36.6	23.9	0.00e+00	122	38	0	1944059904	44	5992
2026-01-18 15:10:03.17	213.34	23.43	-35.8	-36.7	23.8	0.00e+00	123	38	0	1947205632	44	6050
2026-01-18 15:10:04.18	213.31	23.28	-35.6	-36.6	24.0	0.00e+00	122	38	0	1950351360	44	5928
2026-01-18 15:10:05.19	213.28	23.13	-35.6	-36.5	24.0	0.00e+00	123	38	0	1953497088	44	5900
2026-01-18 15:10:06.20	213.25	22.99	-35.3	-36.3	24.1	0.00e+00	123	38	0	1956642816	44	5730
2026-01-18 15:10:07.21	213.22	22.84	-35.6	-36.5	24.0	0.00e+00	122	38	0	1959788544	44	5892
2026-01-18 15:10:08.22	213.19	22.69	-35.3	-36.2	24.2	0.00e+00	122	38	0	1962934272	44	5698
2026-01-18 15:10:09.23	213.16	22.54	-35.4	-36.3	24.0	0.00e+00	123	38	0	1966080000	44	5751
2026-01-18 15:10:10.24	213.13	22.40	-35.4	-36.3	24.0	0.00e+00	123	38	0	1969225728	44	5769
2026-01-18 15:10:11.25	213.10	22.26	-35.5	-36.4	23.9	0.00e+00	122	38	0	1972371456	44	5846
2026-01-18 15:10:12.26	213.08	22.11	-35.1	-36.0	24.2	0.00e+00	122	38	0	1975517184	44	5564
2026-01-18 15:10:13.27	213.05	21.97	-35.1	-36.1	24.1	0.00e+00	122	38	0	1978662912	44	5598
2026-01-18 15:10:14.28	213.02	21.83	-34.9	-35.8	24.3	0.00e+00	122	38	0	1981808640	44	5464
2026-01-18 15:10:15.29	212.99	21.68	-34.9	-35.8	24.4	0.00e+00	122	38	0	1984954368	44	5416
2026-01-18 15:10:16.30	212.97	21.54	-34.8	-35.7	24.5	0.00e+00	123	38	0	1988100096	42	6013
