passes_logs/2026/01/18/R4.6S_Anadyr/R4.6S_Anadyr__20260118_172413_AQUA_rec.log

#Pass ID: 20260118_172413_AQUA
#Satellite: AQUA
#Configuration: AQUA
#almurnet v.1.7.20251203
#Start time: 2026-01-18 17:24:15

#Version: 2.2.20231116
#Station: R4.6S_Anadyr
#Location: 177.4865 lon 64.73178 lat
#TLE: 1 27424U 02022A   26017.62394888  .00000781  00000+0  16630-3 0  9993
#TLE: 2 27424  98.4086 344.0954 0002010  75.0132 339.4723 14.61825944261279

#Time	Az	El	Level	Level2	SNR	BER	BlckErr	Temp	State	Recorded	gain1	gain2
2026-01-18 17:24:15.55	21.33	0.12	-49.6	-64.5	3.5	1.51e+00	0	38	0	0	60	60451
2026-01-18 17:24:16.56	21.30	0.18	-49.9	-67.8	3.5	3.02e+01	0	39	104	0	60	94030
2026-01-18 17:24:17.57	21.27	0.25	-49.9	-67.8	3.5	3.02e+01	0	39	104	0	60	94204
2026-01-18 17:24:18.58	21.24	0.31	-49.9	-67.7	3.5	3.02e+01	0	39	104	0	60	93873
2026-01-18 17:24:19.59	21.21	0.37	-49.9	-67.8	3.5	3.02e+01	0	39	104	0	60	94579
2026-01-18 17:24:20.60	21.18	0.43	-50.0	-67.8	3.5	3.02e+01	0	39	104	0	60	94294
2026-01-18 17:24:21.61	21.15	0.49	-49.9	-67.8	3.5	3.02e+01	0	39	104	0	60	94383
2026-01-18 17:24:22.62	21.12	0.55	-49.9	-67.8	3.5	3.02e+01	0	39	104	0	60	94893
2026-01-18 17:24:23.63	21.09	0.61	-50.0	-67.8	3.5	3.02e+01	0	39	104	0	60	94478
2026-01-18 17:24:24.63	21.06	0.68	-50.0	-67.8	3.5	3.02e+01	0	39	104	0	60	94375
2026-01-18 17:24:25.65	21.03	0.74	-49.9	-67.8	3.5	3.02e+01	0	39	104	0	60	94500
2026-01-18 17:24:26.66	21.00	0.80	-49.9	-67.8	3.5	3.02e+01	0	39	104	0	60	94368
2026-01-18 17:24:27.67	20.97	0.86	-49.9	-67.7	3.5	3.02e+01	0	40	104	0	60	93560
2026-01-18 17:24:28.67	20.94	0.93	-49.8	-67.8	3.5	3.02e+01	0	39	104	0	60	94075
2026-01-18 17:24:29.68	20.91	0.99	-49.8	-67.7	3.5	3.02e+01	0	39	104	0	60	93072
2026-01-18 17:24:30.70	20.87	1.05	-49.7	-67.6	3.5	3.02e+01	0	39	104	0	60	92432
2026-01-18 17:24:31.70	20.84	1.11	-49.7	-67.5	3.5	3.02e+01	0	40	104	0	60	91301
2026-01-18 17:24:32.71	20.81	1.18	-49.6	-67.4	3.5	3.02e+01	0	40	104	0	60	90046
2026-01-18 17:24:33.72	20.78	1.24	-49.4	-67.3	3.5	3.02e+01	0	40	104	0	60	88718
2026-01-18 17:24:34.74	20.75	1.30	-49.3	-67.1	3.5	3.02e+01	0	40	104	0	60	87492
2026-01-18 17:24:35.75	20.71	1.37	-49.2	-67.0	3.5	3.02e+01	0	39	104	0	60	85695
2026-01-18 17:24:36.76	20.68	1.43	-49.0	-66.9	3.5	3.02e+01	0	40	104	0	60	85214
2026-01-18 17:24:37.77	20.65	1.50	-48.8	-66.7	3.5	3.02e+01	0	40	104	0	60	82774
2026-01-18 17:24:38.78	20.62	1.56	-48.6	-66.5	3.5	3.02e+01	0	40	104	0	60	81126
2026-01-18 17:24:39.79	20.58	1.62	-48.5	-66.3	3.5	3.02e+01	0	40	104	0	60	79444
2026-01-18 17:24:40.80	20.55	1.69	-48.5	-66.3	3.5	3.02e+01	0	40	104	0	60	79312
2026-01-18 17:24:41.81	20.52	1.75	-48.5	-66.3	3.5	3.02e+01	0	40	104	0	60	79414
2026-01-18 17:24:42.82	20.49	1.82	-48.5	-66.3	3.5	3.02e+01	0	40	104	0	60	79414
2026-01-18 17:24:43.83	20.45	1.88	-48.5	-66.3	3.5	3.02e+01	0	40	104	0	60	79380
2026-01-18 17:24:44.84	20.42	1.95	-48.5	-66.3	3.5	3.02e+01	0	40	104	0	60	79599
2026-01-18 17:24:45.85	20.38	2.01	-48.4	-66.3	3.5	3.02e+01	0	40	104	0	60	79613
2026-01-18 17:24:46.86	20.35	2.08	-48.4	-66.2	3.5	3.02e+01	0	40	104	0	60	78696
2026-01-18 17:24:47.87	20.32	2.14	-48.4	-66.2	3.5	3.02e+01	0	40	104	0	60	78159
2026-01-18 17:24:48.88	20.28	2.21	-48.4	-66.1	3.5	3.02e+01	0	40	104	0	60	77935
2026-01-18 17:24:49.89	20.25	2.27	-48.4	-66.2	3.5	3.02e+01	0	40	104	0	60	78294
2026-01-18 17:24:50.90	20.21	2.34	-48.4	-66.2	3.5	3.02e+01	0	40	104	0	60	78605
2026-01-18 17:24:51.91	20.18	2.41	-48.4	-66.2	3.5	3.02e+01	0	40	104	0	60	78809
2026-01-18 17:24:52.92	20.14	2.47	-48.4	-66.3	3.5	3.02e+01	0	40	104	0	60	79694
2026-01-18 17:24:53.93	20.11	2.54	-48.4	-66.3	3.5	3.02e+01	0	40	104	0	60	79577
2026-01-18 17:24:54.94	20.07	2.61	-48.4	-66.2	3.5	3.02e+01	0	40	104	0	60	78526
2026-01-18 17:24:55.95	20.03	2.67	-48.4	-66.2	3.5	3.02e+01	0	40	104	0	60	78873
2026-01-18 17:24:56.96	20.00	2.74	-48.4	-66.3	3.5	3.02e+01	0	40	104	0	60	79293
2026-01-18 17:24:57.97	19.96	2.81	-48.4	-66.2	3.5	3.02e+01	0	40	104	0	60	78595
2026-01-18 17:24:58.98	19.93	2.87	-48.4	-64.4	3.5	3.02e+01	0	40	104	0	60	63564
2026-01-18 17:24:59.99	19.89	2.94	-48.3	-62.8	4.2	3.02e+01	0	40	104	0	60	53238
2026-01-18 17:25:01.00	19.85	3.01	-48.2	-61.2	3.8	3.02e+01	0	40	104	0	60	44190
2026-01-18 17:25:02.01	19.82	3.08	-48.2	-60.3	5.7	3.02e+01	80	40	104	0	60	39629
2026-01-18 17:25:03.01	19.78	3.14	-48.1	-59.0	5.8	3.02e+01	92	40	0	1048576	60	34303
2026-01-18 17:25:04.03	19.74	3.21	-48.2	-61.0	5.0	3.02e+01	0	40	104	1572864	60	43417
2026-01-18 17:25:05.04	19.70	3.28	-48.3	-62.5	4.2	3.02e+01	0	40	104	1572864	60	51026
2026-01-18 17:25:06.04	19.67	3.35	-48.3	-63.3	4.0	3.02e+01	0	40	104	1572864	60	56358
2026-01-18 17:25:07.05	19.63	3.42	-48.2	-61.1	5.2	3.02e+01	0	40	104	1572864	60	43769
2026-01-18 17:25:08.06	19.59	3.48	-47.8	-56.6	8.6	3.02e+01	50	40	0	3145728	60	25871
2026-01-18 17:25:09.07	19.55	3.55	-47.1	-53.3	12.1	3.02e+01	61	40	0	4718592	60	17875
2026-01-18 17:25:10.08	19.51	3.62	-46.5	-51.6	14.0	3.02e+01	59	40	0	6815744	60	14671
2026-01-18 17:25:11.09	19.47	3.69	-46.5	-51.7	14.0	3.02e+01	60	40	0	8388608	60	14716
2026-01-18 17:25:12.11	19.43	3.76	-45.8	-50.1	15.6	3.02e+01	61	40	0	10485760	60	12262
2026-01-18 17:25:13.11	19.39	3.83	-45.9	-50.2	14.9	3.02e+01	54	40	0	12582912	60	12390
2026-01-18 17:25:14.13	19.35	3.90	-48.2	-59.3	6.1	3.02e+01	92	40	104	13107200	60	35446
2026-01-18 17:25:15.14	19.31	3.97	-39.7	-41.3	24.4	3.02e+01	62	40	0	13631488	54	6330
2026-01-18 17:25:16.15	19.27	4.04	-48.3	-63.7	4.0	3.02e+01	0	40	104	14680064	60	59020
2026-01-18 17:25:17.16	19.23	4.11	-47.6	-54.7	12.9	3.02e+01	75	40	0	15204352	60	20884
2026-01-18 17:25:18.17	19.19	4.18	-44.2	-47.1	19.3	3.02e+01	45	40	0	17301504	60	8667
2026-01-18 17:25:19.17	19.15	4.25	-40.1	-41.8	24.0	3.02e+01	61	40	0	19398656	56	5939
2026-01-18 17:25:20.18	19.11	4.32	-39.6	-41.2	24.2	3.02e+01	56	40	0	20971520	54	6247
2026-01-18 17:25:21.19	19.07	4.39	-40.2	-41.9	23.7	3.02e+01	51	40	0	23068672	54	6743
2026-01-18 17:25:22.20	19.03	4.47	-39.9	-41.5	24.4	3.02e+01	58	40	0	24641536	54	6453
2026-01-18 17:25:23.21	18.99	4.54	-39.0	-40.6	25.0	3.02e+01	58	40	0	26738688	52	6517
2026-01-18 17:25:24.21	18.95	4.61	-38.8	-40.3	25.5	3.02e+01	58	40	0	28311552	52	6319
2026-01-18 17:25:25.23	18.90	4.68	-38.7	-40.2	25.6	3.02e+01	60	40	0	30408704	52	6211
2026-01-18 17:25:26.23	18.86	4.75	-38.7	-40.2	25.6	3.02e+01	61	40	0	32505856	52	6251
2026-01-18 17:25:27.24	18.82	4.82	-38.4	-39.9	26.0	3.02e+01	56	40	0	34078720	52	6010
2026-01-18 17:25:28.25	18.77	4.90	-38.3	-39.8	26.1	3.02e+01	58	40	0	36175872	52	5936
2026-01-18 17:25:29.26	18.73	4.97	-38.5	-40.0	25.7	3.02e+01	45	40	0	37748736	52	6084
2026-01-18 17:25:30.27	18.69	5.04	-38.5	-40.0	25.9	3.02e+01	59	40	0	39845888	52	6090
2026-01-18 17:25:31.29	18.64	5.12	-38.2	-39.6	26.2	3.02e+01	54	40	0	41943040	52	5815
2026-01-18 17:25:32.29	18.60	5.19	-38.1	-39.5	26.4	3.02e+01	57	40	0	43515904	52	5763
2026-01-18 17:25:33.30	18.56	5.26	-38.5	-39.9	25.9	3.02e+01	59	40	0	45613056	52	6038
2026-01-18 17:25:34.31	18.51	5.34	-38.3	-39.7	26.2	3.02e+01	60	40	0	47710208	52	5892
2026-01-18 17:25:35.32	18.47	5.41	-38.3	-39.8	26.1	3.02e+01	59	40	0	49283072	52	5930
2026-01-18 17:25:36.33	18.42	5.48	-38.2	-39.6	26.3	3.02e+01	58	40	0	51380224	52	5853
2026-01-18 17:25:37.34	18.38	5.56	-38.3	-39.7	26.1	3.02e+01	46	40	0	52953088	52	5910
2026-01-18 17:25:38.35	18.33	5.63	-38.2	-39.7	26.2	3.02e+01	60	40	0	55050240	52	5870
2026-01-18 17:25:39.36	18.28	5.71	-38.3	-39.8	26.1	3.02e+01	61	40	0	57147392	52	5950
2026-01-18 17:25:40.37	18.24	5.78	-38.4	-39.8	26.0	3.02e+01	59	40	0	58720256	52	5981
2026-01-18 17:25:41.38	18.19	5.86	-38.2	-39.6	26.2	3.02e+01	58	40	0	60817408	52	5858
2026-01-18 17:25:42.39	18.14	5.93	-38.4	-39.8	26.0	3.02e+01	45	40	0	62390272	52	5988
2026-01-18 17:25:43.40	18.10	6.01	-38.3	-39.8	26.1	3.02e+01	61	40	0	64487424	52	5934
2026-01-18 17:25:44.41	18.05	6.09	-38.1	-39.5	26.2	3.02e+01	58	40	0	66584576	52	5764
2026-01-18 17:25:45.42	18.00	6.16	-38.1	-39.5	26.4	3.02e+01	44	40	0	68157440	52	5753
2026-01-18 17:25:46.43	17.95	6.24	-38.1	-39.6	26.3	3.02e+01	62	40	0	70254592	52	5800
2026-01-18 17:25:47.44	17.91	6.31	-37.8	-39.2	26.7	3.02e+01	50	40	0	72351744	50	6246
2026-01-18 17:25:48.45	17.86	6.39	-38.0	-39.4	26.4	3.02e+01	59	40	0	73924608	50	6420
2026-01-18 17:25:49.46	17.81	6.47	-38.1	-39.5	26.4	3.02e+01	59	40	0	76021760	50	6467
2026-01-18 17:25:50.47	17.76	6.55	-38.1	-39.5	26.5	3.02e+01	51	40	0	77594624	50	6432
2026-01-18 17:25:51.47	17.71	6.62	-37.6	-39.0	26.9	3.02e+01	63	40	0	79691776	50	6092
2026-01-18 17:25:52.48	17.66	6.70	-37.7	-39.0	27.0	3.02e+01	59	40	0	81788928	50	6121
2026-01-18 17:25:53.49	17.61	6.78	-37.5	-38.9	27.0	3.02e+01	54	40	0	83361792	50	6032
2026-01-18 17:25:54.50	17.56	6.86	-37.6	-39.0	26.9	3.02e+01	61	40	0	85458944	50	6103
2026-01-18 17:25:55.50	17.51	6.93	-37.6	-38.9	27.0	3.02e+01	54	40	0	87031808	50	6051
2026-01-18 17:25:56.52	17.46	7.01	-37.6	-39.0	27.0	3.02e+01	62	40	0	89128960	50	6074
2026-01-18 17:25:57.53	17.41	7.09	-37.5	-38.8	27.1	3.02e+01	58	40	0	91226112	50	5969
2026-01-18 17:25:58.54	17.35	7.17	-37.4	-38.7	27.2	3.02e+01	45	40	0	92798976	50	5920
2026-01-18 17:25:59.54	17.30	7.25	-37.3	-38.7	27.4	3.02e+01	59	40	0	94896128	50	5860
2026-01-18 17:26:00.56	17.25	7.33	-37.5	-38.8	27.2	3.02e+01	61	40	0	96468992	50	5994
2026-01-18 17:26:01.57	17.20	7.41	-37.2	-38.5	27.5	3.02e+01	58	40	0	98566144	50	5747
2026-01-18 17:26:02.57	17.14	7.49	-37.3	-38.7	27.3	3.02e+01	58	40	0	100663296	50	5868
2026-01-18 17:26:03.58	17.09	7.57	-37.3	-38.6	27.4	3.02e+01	50	40	0	102236160	50	5834
2026-01-18 17:26:04.59	17.04	7.65	-37.2	-38.6	27.5	3.02e+01	57	40	0	104333312	50	5795
2026-01-18 17:26:05.60	16.98	7.73	-37.0	-38.4	27.7	3.02e+01	58	40	0	105906176	50	5660
2026-01-18 17:26:06.61	16.93	7.82	-37.0	-38.3	27.6	3.02e+01	45	40	0	108003328	48	6341
2026-01-18 17:26:07.62	16.87	7.90	-37.2	-38.6	27.4	3.02e+01	57	40	0	110100480	48	6517
2026-01-18 17:26:08.63	16.82	7.98	-37.0	-38.3	27.7	3.02e+01	56	40	0	111673344	48	6286
2026-01-18 17:26:09.64	16.76	8.06	-37.2	-38.5	27.6	3.02e+01	59	40	0	113770496	48	6471
2026-01-18 17:26:10.65	16.71	8.14	-36.8	-38.1	27.9	3.02e+01	60	40	0	115867648	48	6151
2026-01-18 17:26:11.66	16.65	8.23	-36.9	-38.2	27.8	3.02e+01	51	40	0	117440512	48	6252
2026-01-18 17:26:12.66	16.59	8.31	-36.9	-38.2	27.9	3.02e+01	59	40	0	119537664	48	6240
2026-01-18 17:26:13.67	16.54	8.39	-37.0	-38.2	27.9	3.02e+01	60	40	0	121110528	48	6274
2026-01-18 17:26:14.68	16.48	8.48	-36.9	-38.1	27.9	3.02e+01	46	40	0	123207680	48	6195
2026-01-18 17:26:15.69	16.42	8.56	-36.8	-38.1	27.9	3.02e+01	60	40	0	125304832	48	6168
2026-01-18 17:26:16.70	16.36	8.64	-36.9	-38.2	27.8	3.02e+01	58	40	0	126877696	48	6250
2026-01-18 17:26:17.70	16.31	8.73	-36.8	-38.1	28.0	3.02e+01	59	40	0	128974848	48	6174
2026-01-18 17:26:18.71	16.25	8.81	-36.7	-37.9	28.1	3.02e+01	61	40	0	130547712	48	6051
2026-01-18 17:26:19.72	16.19	8.90	-36.6	-37.9	28.2	3.02e+01	57	40	0	132644864	48	5996
2026-01-18 17:26:20.73	16.13	8.98	-36.7	-37.9	28.1	3.02e+01	58	40	0	134742016	48	6060
2026-01-18 17:26:21.74	16.07	9.07	-36.6	-37.8	28.2	3.02e+01	57	40	0	136314880	48	5982
2026-01-18 17:26:22.75	16.01	9.15	-36.6	-37.9	28.1	3.02e+01	48	40	0	138412032	48	6025
2026-01-18 17:26:23.76	15.95	9.24	-36.6	-37.9	28.2	3.02e+01	58	40	0	139984896	48	6048
2026-01-18 17:26:24.77	15.88	9.33	-36.8	-38.1	28.0	3.02e+01	47	40	0	142082048	48	6175
2026-01-18 17:26:25.78	15.82	9.41	-36.9	-38.2	28.0	3.02e+01	60	40	0	144179200	48	6209
2026-01-18 17:26:26.79	15.76	9.50	-36.7	-37.9	28.2	3.02e+01	55	40	0	145752064	48	6049
2026-01-18 17:26:27.80	15.70	9.59	-36.7	-38.0	28.1	3.02e+01	57	40	0	147849216	48	6070
2026-01-18 17:26:28.81	15.63	9.68	-36.8	-38.0	28.1	3.02e+01	59	40	0	149422080	48	6124
2026-01-18 17:26:29.82	15.57	9.76	-36.9	-38.2	28.0	3.02e+01	60	40	0	151519232	48	6225
2026-01-18 17:26:30.82	15.51	9.85	-36.6	-37.8	28.3	3.02e+01	58	40	0	153616384	48	5980
2026-01-18 17:26:31.83	15.44	9.94	-36.6	-37.9	28.2	3.02e+01	62	40	0	155189248	48	6036
2026-01-18 17:26:32.84	15.38	10.03	-36.5	-37.8	28.4	3.02e+01	46	40	0	157286400	48	5937
2026-01-18 17:26:33.85	15.31	10.12	-36.7	-38.0	28.0	3.02e+01	60	40	0	158859264	48	6080
2026-01-18 17:26:34.86	15.25	10.21	-36.4	-37.7	28.4	3.02e+01	53	40	0	160956416	48	5897
2026-01-18 17:26:35.87	15.18	10.30	-36.6	-37.9	28.3	3.02e+01	45	40	0	163053568	48	6025
2026-01-18 17:26:36.88	15.11	10.39	-36.4	-37.6	28.5	3.02e+01	58	40	0	164626432	48	5853
2026-01-18 17:26:37.89	15.05	10.48	-36.5	-37.8	28.4	3.02e+01	60	40	0	166723584	48	5942
2026-01-18 17:26:38.90	14.98	10.57	-36.3	-37.5	28.5	3.02e+01	59	40	0	168820736	48	5769
2026-01-18 17:26:39.91	14.91	10.66	-36.3	-37.6	28.5	3.02e+01	57	40	0	170393600	48	5810
2026-01-18 17:26:40.92	14.84	10.75	-36.3	-37.6	28.5	3.02e+01	54	40	0	172490752	48	5798
2026-01-18 17:26:41.93	14.77	10.84	-36.4	-37.6	28.5	3.02e+01	56	40	0	174063616	48	5846
2026-01-18 17:26:42.94	14.70	10.94	-36.3	-37.6	28.6	3.02e+01	60	40	0	176160768	48	5797
2026-01-18 17:26:43.95	14.63	11.03	-36.3	-37.6	28.5	3.02e+01	45	40	0	178257920	48	5807
2026-01-18 17:26:44.96	14.56	11.12	-36.3	-37.5	28.6	3.02e+01	57	40	0	179830784	48	5786
2026-01-18 17:26:45.97	14.49	11.21	-36.1	-37.3	28.8	3.02e+01	58	40	0	181927936	48	5645
2026-01-18 17:26:46.98	14.42	11.31	-36.3	-37.6	28.6	3.02e+01	62	40	0	184025088	48	5806
2026-01-18 17:26:47.99	14.35	11.40	-36.1	-37.3	28.8	3.02e+01	59	40	0	185597952	48	5633
2026-01-18 17:26:49.00	14.27	11.50	-36.0	-37.2	28.8	3.02e+01	60	40	0	187695104	48	5565
2026-01-18 17:26:50.01	14.20	11.59	-36.4	-37.6	28.6	3.02e+01	61	40	0	189267968	48	5835
2026-01-18 17:26:51.02	14.13	11.69	-36.1	-37.4	28.7	3.02e+01	50	40	0	191365120	48	5665
2026-01-18 17:26:52.03	14.05	11.78	-36.2	-37.4	28.6	3.02e+01	44	40	0	193462272	48	5711
2026-01-18 17:26:53.04	13.98	11.88	-36.0	-37.2	28.9	3.02e+01	61	40	0	195035136	48	5572
2026-01-18 17:26:54.05	13.90	11.97	-36.0	-37.2	28.9	3.02e+01	59	40	0	197132288	48	5566
2026-01-18 17:26:55.06	13.83	12.07	-36.0	-37.2	28.9	3.02e+01	64	40	0	198705152	46	6258
2026-01-18 17:26:56.07	13.75	12.17	-36.2	-37.4	28.7	3.02e+01	58	40	0	200802304	46	6386
2026-01-18 17:26:57.08	13.67	12.26	-36.0	-37.3	28.9	3.02e+01	52	40	0	202899456	46	6305
2026-01-18 17:26:58.09	13.59	12.36	-36.1	-37.4	28.8	3.02e+01	58	40	0	204472320	46	6381
2026-01-18 17:26:59.10	13.52	12.46	-36.2	-37.4	28.8	3.02e+01	57	40	0	206569472	46	6414
2026-01-18 17:27:00.11	13.44	12.56	-36.1	-37.4	28.8	3.02e+01	53	40	0	208142336	46	6362
2026-01-18 17:27:01.12	13.36	12.66	-36.1	-37.3	28.9	3.02e+01	58	40	0	210239488	46	6347
2026-01-18 17:27:02.13	13.28	12.76	-36.1	-37.3	28.8	3.02e+01	45	40	0	212336640	46	6346
2026-01-18 17:27:03.14	13.20	12.86	-36.1	-37.3	28.8	3.02e+01	58	40	0	213909504	46	6338
2026-01-18 17:27:04.15	13.11	12.96	-36.1	-37.4	28.8	3.02e+01	58	40	0	216006656	46	6351
2026-01-18 17:27:05.16	13.03	13.06	-36.0	-37.3	28.9	3.02e+01	51	40	0	217579520	46	6298
2026-01-18 17:27:06.17	12.95	13.16	-36.1	-37.3	28.9	3.02e+01	58	40	0	219676672	46	6338
2026-01-18 17:27:07.18	12.87	13.26	-36.1	-37.3	28.8	3.02e+01	61	40	0	221773824	46	6327
2026-01-18 17:27:08.19	12.78	13.36	-36.0	-37.3	28.9	3.02e+01	59	40	0	223346688	46	6290
2026-01-18 17:27:09.20	12.70	13.46	-36.1	-37.3	28.9	3.02e+01	57	40	0	225443840	46	6322
2026-01-18 17:27:10.21	12.61	13.57	-35.9	-37.1	29.1	3.02e+01	46	40	0	227016704	46	6160
2026-01-18 17:27:11.22	12.53	13.67	-36.0	-37.2	29.0	3.02e+01	60	40	0	229113856	46	6255
2026-01-18 17:27:12.23	12.44	13.77	-35.7	-36.9	29.2	3.02e+01	57	40	0	231211008	46	6059
2026-01-18 17:27:13.24	12.35	13.88	-35.8	-37.0	29.2	3.02e+01	38	40	0	232783872	46	6104
2026-01-18 17:27:14.25	12.27	13.98	-35.8	-37.0	29.2	3.02e+01	59	40	0	234881024	46	6118
2026-01-18 17:27:15.26	12.18	14.08	-35.8	-37.1	29.2	3.02e+01	58	40	0	236978176	46	6144
2026-01-18 17:27:16.27	12.09	14.19	-35.7	-36.9	29.2	3.02e+01	56	40	0	238551040	46	6050
2026-01-18 17:27:17.28	12.00	14.30	-35.8	-37.0	29.2	3.02e+01	60	40	0	240648192	46	6096
2026-01-18 17:27:18.29	11.91	14.40	-35.8	-37.0	29.2	3.02e+01	57	40	0	242221056	46	6133
2026-01-18 17:27:19.30	11.82	14.51	-35.9	-37.2	29.0	3.02e+01	60	40	0	244318208	46	6219
2026-01-18 17:27:20.31	11.72	14.61	-36.0	-37.2	29.0	3.02e+01	60	40	0	246415360	46	6241
2026-01-18 17:27:21.32	11.63	14.72	-35.7	-36.9	29.3	3.02e+01	53	40	0	247988224	46	6032
2026-01-18 17:27:22.33	11.54	14.83	-35.8	-37.0	29.2	3.02e+01	60	40	0	250085376	46	6131
2026-01-18 17:27:23.34	11.44	14.94	-35.7	-36.9	29.3	3.02e+01	61	40	0	252182528	46	6035
2026-01-18 17:27:24.35	11.35	15.05	-35.8	-37.0	29.2	3.02e+01	58	40	0	253755392	46	6074
2026-01-18 17:27:25.36	11.25	15.16	-35.8	-37.0	29.2	3.02e+01	57	40	0	255852544	46	6076
2026-01-18 17:27:26.37	11.15	15.27	-35.8	-37.0	29.2	3.02e+01	57	40	0	257425408	46	6128
2026-01-18 17:27:27.38	11.06	15.38	-35.7	-36.9	29.2	3.02e+01	61	40	0	259522560	46	6028
2026-01-18 17:27:28.39	10.96	15.49	-35.9	-37.1	29.1	3.02e+01	59	40	0	261619712	46	6158
2026-01-18 17:27:29.40	10.86	15.60	-35.7	-36.9	29.2	3.02e+01	43	40	0	263192576	46	6062
2026-01-18 17:27:30.41	10.76	15.71	-35.8	-37.0	29.2	3.02e+01	62	40	0	265289728	46	6127
2026-01-18 17:27:31.42	10.66	15.82	-35.8	-37.0	29.2	3.02e+01	51	40	0	266862592	46	6118
2026-01-18 17:27:32.43	10.56	15.93	-35.7	-36.9	29.3	3.02e+01	60	40	0	268959744	46	6037
2026-01-18 17:27:33.44	10.45	16.05	-35.8	-37.0	29.2	3.02e+01	62	40	0	271056896	46	6127
2026-01-18 17:27:34.45	10.35	16.16	-35.7	-36.9	29.3	3.02e+01	58	40	0	272629760	46	6026
2026-01-18 17:27:35.45	10.25	16.27	-35.7	-36.9	29.3	3.02e+01	60	40	0	274726912	46	6048
2026-01-18 17:27:36.46	10.14	16.39	-35.8	-37.0	29.3	3.02e+01	59	40	0	276299776	46	6092
2026-01-18 17:27:37.47	10.04	16.50	-35.8	-37.0	29.0	3.02e+01	56	40	0	278396928	46	6126
2026-01-18 17:27:38.48	9.93	16.62	-35.9	-37.2	29.1	3.02e+01	63	40	0	280494080	46	6208
2026-01-18 17:27:39.49	9.82	16.73	-35.8	-37.0	29.2	3.02e+01	46	40	0	282066944	46	6079
2026-01-18 17:27:40.50	9.71	16.85	-35.7	-36.9	29.3	3.02e+01	61	40	0	284164096	46	6048
2026-01-18 17:27:41.51	9.60	16.97	-35.6	-36.8	29.4	3.02e+01	60	40	0	285736960	46	5939
2026-01-18 17:27:42.52	9.49	17.08	-35.7	-36.9	29.4	3.02e+01	44	40	0	287834112	46	5998
2026-01-18 17:27:43.53	9.38	17.20	-35.8	-37.0	29.3	3.02e+01	62	40	0	289931264	46	6076
2026-01-18 17:27:44.54	9.27	17.32	-35.7	-36.9	29.4	3.02e+01	61	40	0	291504128	46	6027
2026-01-18 17:27:45.55	9.15	17.44	-35.8	-37.0	29.2	3.02e+01	60	40	0	293601280	46	6097
2026-01-18 17:27:46.56	9.04	17.56	-35.7	-36.9	29.3	3.02e+01	60	40	0	295174144	46	6028
2026-01-18 17:27:47.57	8.92	17.68	-35.8	-37.0	29.3	3.02e+01	52	40	0	297271296	46	6111
2026-01-18 17:27:48.58	8.81	17.80	-35.7	-36.9	29.4	3.02e+01	58	40	0	299368448	46	6042
2026-01-18 17:27:49.59	8.69	17.92	-35.7	-36.9	29.4	3.02e+01	59	40	0	300941312	46	6047
2026-01-18 17:27:50.60	8.57	18.04	-35.7	-36.9	29.4	3.02e+01	43	40	0	303038464	46	6043
2026-01-18 17:27:51.61	8.45	18.16	-35.8	-37.0	29.3	3.02e+01	54	40	0	305135616	46	6072
2026-01-18 17:27:52.62	8.33	18.29	-35.8	-37.0	29.3	3.02e+01	58	40	0	306708480	46	6108
2026-01-18 17:27:53.63	8.21	18.41	-35.7	-36.9	29.3	3.02e+01	60	40	0	308805632	46	6043
2026-01-18 17:27:54.64	8.09	18.53	-35.6	-36.8	29.4	3.02e+01	60	40	0	310378496	46	5989
2026-01-18 17:27:55.65	7.96	18.66	-35.7	-36.9	29.4	3.02e+01	50	40	0	312475648	46	6058
2026-01-18 17:27:56.66	7.84	18.78	-35.8	-37.1	29.2	3.02e+01	57	40	0	314572800	46	6138
2026-01-18 17:27:57.68	7.71	18.91	-35.8	-37.0	29.2	3.02e+01	57	40	0	316145664	46	6130
2026-01-18 17:27:58.69	7.58	19.03	-36.0	-37.2	29.2	3.02e+01	44	40	0	318242816	46	6264
2026-01-18 17:27:59.70	7.46	19.16	-36.0	-37.2	29.1	3.02e+01	60	40	0	320339968	46	6243
2026-01-18 17:28:00.71	7.33	19.29	-35.9	-37.2	29.2	3.02e+01	60	40	0	321912832	46	6214
2026-01-18 17:28:01.71	7.20	19.41	-35.9	-37.1	29.2	3.02e+01	56	40	0	324009984	46	6181
2026-01-18 17:28:02.72	7.06	19.54	-35.8	-37.0	29.3	3.02e+01	61	40	0	325582848	46	6110
2026-01-18 17:28:03.73	6.93	19.67	-35.9	-37.1	29.2	3.02e+01	49	40	0	327680000	46	6199
2026-01-18 17:28:04.74	6.80	19.80	-36.0	-37.2	29.1	3.02e+01	58	40	0	329777152	46	6244
2026-01-18 17:28:05.74	6.66	19.93	-36.1	-37.3	29.1	3.02e+01	60	40	0	331350016	46	6312
2026-01-18 17:28:06.76	6.52	20.06	-36.0	-37.2	29.2	3.02e+01	50	40	0	333447168	46	6263
2026-01-18 17:28:07.76	6.39	20.19	-36.0	-37.2	29.1	3.02e+01	61	40	0	335020032	46	6244
2026-01-18 17:28:08.78	6.25	20.32	-36.0	-37.2	29.2	3.02e+01	47	40	0	337117184	46	6241
2026-01-18 17:28:09.79	6.11	20.46	-35.9	-37.1	29.2	3.02e+01	60	40	0	339214336	46	6202
2026-01-18 17:28:10.79	5.97	20.59	-35.8	-37.0	29.3	3.02e+01	57	40	0	340787200	46	6130
2026-01-18 17:28:11.80	5.82	20.72	-36.0	-37.2	29.2	3.02e+01	57	40	0	342884352	46	6239
2026-01-18 17:28:12.81	5.68	20.86	-36.0	-37.2	29.2	3.02e+01	62	40	0	344457216	46	6266
2026-01-18 17:28:13.82	5.53	20.99	-36.1	-37.3	29.2	3.02e+01	61	40	0	346554368	46	6288
2026-01-18 17:28:14.83	5.38	21.12	-35.9	-37.1	29.2	3.02e+01	57	40	0	348651520	46	6205
2026-01-18 17:28:15.84	5.24	21.26	-36.0	-37.2	29.2	3.02e+01	58	40	0	350224384	46	6239
2026-01-18 17:28:16.85	5.09	21.40	-35.9	-37.1	29.2	3.02e+01	49	40	0	352321536	46	6198
2026-01-18 17:28:17.85	4.94	21.53	-36.1	-37.3	29.2	3.02e+01	62	40	0	353894400	46	6337
2026-01-18 17:28:18.87	4.78	21.67	-36.2	-37.4	29.1	3.02e+01	58	40	0	355991552	46	6371
2026-01-18 17:28:19.87	4.63	21.81	-36.1	-37.3	29.1	3.02e+01	46	40	0	358088704	46	6313
2026-01-18 17:28:20.89	4.47	21.95	-36.1	-37.3	29.2	3.02e+01	53	40	0	359661568	46	6318
2026-01-18 17:28:21.90	4.31	22.09	-36.1	-37.3	29.1	3.02e+01	59	40	0	361758720	46	6319
2026-01-18 17:28:22.90	4.16	22.23	-36.0	-37.2	29.2	3.02e+01	60	40	0	363331584	46	6268
2026-01-18 17:28:23.91	3.99	22.37	-36.1	-37.3	29.1	3.02e+01	58	40	0	365428736	46	6348
2026-01-18 17:28:24.92	3.83	22.51	-36.2	-37.4	29.0	3.02e+01	59	40	0	367525888	46	6368
2026-01-18 17:28:25.93	3.67	22.65	-36.3	-37.5	28.9	3.02e+01	58	40	0	369098752	46	6480
2026-01-18 17:28:26.94	3.50	22.79	-36.2	-37.4	29.0	3.02e+01	61	40	0	371195904	46	6394
2026-01-18 17:28:27.95	3.34	22.94	-36.2	-37.4	29.1	3.02e+01	50	40	0	373293056	46	6375
2026-01-18 17:28:28.96	3.17	23.08	-36.2	-37.5	29.0	3.02e+01	57	40	0	374865920	46	6430
2026-01-18 17:28:29.97	3.00	23.22	-36.1	-37.3	29.2	3.02e+01	58	40	0	376963072	46	6295
2026-01-18 17:28:30.98	2.82	23.37	-36.1	-37.3	29.1	3.02e+01	59	40	0	378535936	46	6338
2026-01-18 17:28:31.99	2.65	23.52	-36.1	-37.4	29.1	3.02e+01	60	40	0	380633088	46	6359
2026-01-18 17:28:33.00	2.48	23.66	-36.1	-37.3	29.2	3.02e+01	48	40	0	382730240	46	6314
2026-01-18 17:28:34.01	2.30	23.81	-36.2	-37.4	29.0	3.02e+01	58	40	0	384303104	46	6365
2026-01-18 17:28:35.02	2.12	23.96	-36.0	-37.2	29.2	3.02e+01	59	40	0	386400256	46	6257
2026-01-18 17:28:36.03	1.94	24.10	-36.1	-37.3	29.2	3.02e+01	46	40	0	388497408	46	6292
2026-01-18 17:28:37.04	1.76	24.25	-36.0	-37.2	29.3	3.02e+01	61	40	0	390070272	46	6220
2026-01-18 17:28:38.05	1.57	24.40	-36.1	-37.4	29.1	3.02e+01	58	40	0	392167424	46	6357
2026-01-18 17:28:39.06	1.38	24.55	-36.0	-37.2	29.2	3.02e+01	57	40	0	393740288	46	6277
2026-01-18 17:28:40.07	1.20	24.70	-36.2	-37.5	29.0	3.02e+01	61	40	0	395837440	46	6426
2026-01-18 17:28:41.07	1.01	24.85	-36.5	-37.7	28.8	3.02e+01	56	40	0	397934592	46	6624
2026-01-18 17:28:42.09	0.81	25.00	-36.5	-37.8	28.7	3.02e+01	58	40	0	399507456	46	6673
2026-01-18 17:28:43.09	0.62	25.15	-36.4	-37.7	28.9	3.02e+01	59	40	0	401604608	46	6578
2026-01-18 17:28:44.10	0.43	25.31	-36.5	-37.7	28.8	3.02e+01	55	40	0	403177472	46	6606
2026-01-18 17:28:45.11	0.23	25.46	-36.3	-37.5	29.0	3.02e+01	57	40	0	405274624	46	6452
2026-01-18 17:28:46.12	0.03	25.62	-36.2	-37.4	29.1	3.02e+01	45	40	0	407371776	46	6380
2026-01-18 17:28:47.13	359.83	25.77	-36.2	-37.4	29.1	3.02e+01	57	40	0	408944640	46	6380
2026-01-18 17:28:48.14	359.62	25.92	-35.8	-37.0	29.4	3.02e+01	59	40	0	411041792	46	6102
2026-01-18 17:28:49.15	359.41	26.08	-35.8	-37.0	29.4	3.02e+01	53	40	0	412614656	46	6115
2026-01-18 17:28:50.16	359.21	26.24	-35.8	-37.1	29.4	3.02e+01	59	40	0	414711808	46	6135
2026-01-18 17:28:51.17	359.00	26.39	-35.7	-36.9	29.5	3.02e+01	59	40	0	416808960	46	6048
2026-01-18 17:28:52.18	358.78	26.55	-35.8	-37.0	29.4	3.02e+01	51	40	0	418381824	46	6079
2026-01-18 17:28:53.19	358.57	26.71	-35.9	-37.1	29.3	3.02e+01	60	40	0	420478976	46	6188
2026-01-18 17:28:54.20	358.35	26.87	-36.0	-37.3	29.3	3.02e+01	44	40	0	422051840	46	6287
2026-01-18 17:28:55.21	358.13	27.03	-35.9	-37.1	29.4	3.02e+01	56	40	0	424148992	46	6182
2026-01-18 17:28:56.22	357.91	27.19	-36.1	-37.3	29.3	3.02e+01	59	40	0	426246144	46	6299
2026-01-18 17:28:57.23	357.68	27.35	-35.9	-37.1	29.3	3.02e+01	45	40	0	427819008	46	6190
2026-01-18 17:28:58.24	357.46	27.51	-35.8	-37.0	29.5	3.02e+01	60	40	0	429916160	46	6087
2026-01-18 17:28:59.25	357.23	27.67	-36.0	-37.2	29.3	3.02e+01	58	40	0	431489024	46	6248
2026-01-18 17:29:00.26	356.99	27.83	-35.9	-37.1	29.4	3.02e+01	55	40	0	433586176	46	6143
2026-01-18 17:29:01.26	356.76	27.99	-35.9	-37.1	29.4	3.02e+01	58	40	0	435683328	46	6185
2026-01-18 17:29:02.27	356.53	28.15	-35.8	-37.0	29.4	3.02e+01	56	40	0	437256192	46	6098
2026-01-18 17:29:03.28	356.29	28.32	-35.7	-36.9	29.5	3.02e+01	56	40	0	439353344	46	6053
2026-01-18 17:29:04.29	356.04	28.48	-35.4	-36.6	29.8	3.02e+01	60	40	0	441450496	46	5835
2026-01-18 17:29:05.30	355.80	28.65	-35.5	-36.7	29.8	3.02e+01	45	40	0	443023360	46	5860
2026-01-18 17:29:06.31	355.55	28.81	-35.4	-36.6	29.8	3.02e+01	59	40	0	445120512	46	5847
2026-01-18 17:29:07.32	355.30	28.98	-35.5	-36.7	29.9	3.02e+01	62	40	0	446693376	46	5864
2026-01-18 17:29:08.33	355.05	29.14	-35.4	-36.6	29.8	3.02e+01	61	40	0	448790528	46	5841
2026-01-18 17:29:09.34	354.79	29.31	-35.6	-36.8	29.6	3.02e+01	58	40	0	450887680	46	5960
2026-01-18 17:29:10.35	354.54	29.47	-35.6	-36.8	29.7	3.02e+01	45	40	0	452460544	46	5948
2026-01-18 17:29:11.36	354.28	29.64	-35.4	-36.6	29.8	3.02e+01	61	40	0	454557696	46	5856
2026-01-18 17:29:12.37	354.01	29.81	-35.5	-36.6	29.8	3.02e+01	57	40	0	456654848	46	5856
2026-01-18 17:29:13.38	353.75	29.98	-35.3	-36.5	29.9	3.02e+01	45	40	0	458227712	46	5733
2026-01-18 17:29:14.38	353.48	30.14	-35.1	-36.3	30.1	3.02e+01	61	40	0	460324864	46	5635
2026-01-18 17:29:15.39	353.21	30.31	-35.2	-36.3	30.0	3.02e+01	61	40	0	461897728	46	5658
2026-01-18 17:29:16.40	352.93	30.48	-35.2	-36.4	30.0	3.02e+01	60	40	0	463994880	46	5674
2026-01-18 17:29:17.41	352.65	30.65	-35.3	-36.5	30.0	3.02e+01	60	40	0	465567744	46	5735
2026-01-18 17:29:18.42	352.37	30.82	-35.3	-36.5	29.9	3.02e+01	59	40	0	467664896	46	5763
2026-01-18 17:29:19.43	352.09	30.99	-35.3	-36.5	29.9	3.02e+01	58	40	0	469762048	46	5760
2026-01-18 17:29:20.45	351.80	31.16	-35.4	-36.6	29.8	3.02e+01	57	40	0	471334912	46	5810
2026-01-18 17:29:21.46	351.50	31.33	-35.4	-36.6	29.9	3.02e+01	60	40	0	473432064	46	5819
2026-01-18 17:29:22.46	351.21	31.50	-35.3	-36.4	30.0	3.02e+01	60	40	0	475004928	46	5717
2026-01-18 17:29:23.47	350.92	31.67	-35.1	-36.3	30.1	3.02e+01	50	40	0	477102080	46	5597
2026-01-18 17:29:24.48	350.61	31.84	-35.2	-36.4	30.1	3.02e+01	58	40	0	479199232	46	5678
2026-01-18 17:29:25.49	350.31	32.01	-35.3	-36.5	29.9	3.02e+01	58	40	0	480772096	46	5762
2026-01-18 17:29:26.50	350.00	32.18	-35.5	-36.7	29.8	3.02e+01	47	40	0	482869248	46	5913
2026-01-18 17:29:27.51	349.69	32.35	-35.6	-36.8	29.6	3.02e+01	60	40	0	484966400	46	5982
2026-01-18 17:29:28.52	349.38	32.52	-35.4	-36.6	29.9	3.02e+01	57	40	0	486539264	46	5797
2026-01-18 17:29:29.53	349.06	32.70	-35.4	-36.6	29.8	3.02e+01	58	40	0	488636416	46	5830
2026-01-18 17:29:30.54	348.74	32.87	-35.4	-36.6	29.9	3.02e+01	51	40	0	490209280	46	5841
2026-01-18 17:29:31.55	348.41	33.04	-35.5	-36.6	29.8	3.02e+01	50	40	0	492306432	46	5850
2026-01-18 17:29:32.56	348.09	33.21	-35.6	-36.7	29.8	3.02e+01	62	40	0	494403584	46	5926
2026-01-18 17:29:33.57	347.75	33.38	-35.6	-36.8	29.7	3.02e+01	54	40	0	495976448	46	5955
2026-01-18 17:29:34.58	347.42	33.55	-35.6	-36.8	29.7	3.02e+01	50	40	0	498073600	46	5949
2026-01-18 17:29:35.59	347.08	33.73	-35.7	-36.9	29.6	3.02e+01	60	40	0	499646464	46	6014
2026-01-18 17:29:36.60	346.74	33.90	-35.8	-37.0	29.6	3.02e+01	57	40	0	501743616	46	6096
2026-01-18 17:29:37.61	346.39	34.07	-36.0	-37.2	29.3	3.02e+01	60	40	0	503840768	46	6263
2026-01-18 17:29:38.62	346.04	34.24	-36.0	-37.2	29.3	3.02e+01	59	40	0	505413632	46	6272
2026-01-18 17:29:39.63	345.69	34.41	-36.1	-37.3	29.4	3.02e+01	58	40	0	507510784	46	6288
2026-01-18 17:29:40.64	345.33	34.58	-35.9	-37.2	29.5	3.02e+01	56	40	0	509607936	46	6207
2026-01-18 17:29:41.65	344.97	34.75	-36.1	-37.3	29.3	3.02e+01	61	40	0	511180800	46	6314
2026-01-18 17:29:42.65	344.60	34.92	-36.0	-37.2	29.3	3.02e+01	51	40	0	513277952	46	6262
2026-01-18 17:29:43.66	344.23	35.09	-36.2	-37.4	29.2	3.02e+01	61	40	0	514850816	46	6381
2026-01-18 17:29:44.67	343.86	35.26	-36.4	-37.6	29.0	3.02e+01	58	40	0	516947968	46	6524
2026-01-18 17:29:45.68	343.48	35.43	-36.4	-37.6	29.0	3.02e+01	58	40	0	519045120	46	6559
2026-01-18 17:29:46.69	343.10	35.59	-36.4	-37.6	29.0	3.02e+01	59	40	0	520617984	46	6534
2026-01-18 17:29:47.70	342.71	35.76	-36.4	-37.7	29.0	3.02e+01	51	40	0	522715136	46	6589
2026-01-18 17:29:48.71	342.32	35.93	-36.4	-37.6	29.1	3.02e+01	57	40	0	524288000	46	6528
2026-01-18 17:29:49.72	341.93	36.10	-36.6	-37.9	28.8	3.02e+01	59	40	0	526385152	46	6744
2026-01-18 17:29:50.73	341.53	36.26	-37.0	-38.3	28.5	3.02e+01	51	40	0	528482304	48	6288
2026-01-18 17:29:51.74	341.13	36.43	-37.0	-38.3	28.5	3.02e+01	58	40	0	530055168	48	6284
2026-01-18 17:29:52.75	340.72	36.59	-36.8	-38.1	28.6	3.02e+01	57	40	0	532152320	48	6167
2026-01-18 17:29:53.76	340.31	36.76	-36.9	-38.2	28.5	3.02e+01	56	40	0	533725184	48	6214
2026-01-18 17:29:54.77	339.89	36.92	-36.8	-38.0	28.7	3.02e+01	59	40	0	535822336	48	6096
2026-01-18 17:29:55.78	339.47	37.08	-37.1	-38.3	28.5	3.02e+01	55	40	0	537919488	48	6339
2026-01-18 17:29:56.79	339.05	37.24	-37.2	-38.5	28.3	3.02e+01	59	40	0	539492352	48	6473
2026-01-18 17:29:57.80	338.62	37.40	-37.1	-38.4	28.3	3.02e+01	61	40	0	541589504	48	6360
2026-01-18 17:29:58.82	338.18	37.56	-37.2	-38.5	28.2	3.02e+01	59	40	0	543686656	48	6450
2026-01-18 17:29:59.82	337.75	37.72	-37.5	-38.8	28.0	3.02e+01	59	40	0	545259520	48	6662
2026-01-18 17:30:00.83	337.31	37.88	-37.4	-38.7	28.1	3.02e+01	45	40	0	547356672	48	6585
2026-01-18 17:30:01.84	336.86	38.03	-37.4	-38.7	28.2	3.02e+01	57	40	0	548929536	48	6608
2026-01-18 17:30:02.85	336.41	38.19	-37.5	-38.8	27.9	3.02e+01	58	40	0	551026688	48	6660
2026-01-18 17:30:03.86	335.96	38.34	-37.5	-38.7	28.1	3.02e+01	50	40	0	553123840	48	6646
2026-01-18 17:30:04.87	335.50	38.50	-37.5	-38.8	28.0	3.02e+01	59	40	0	554696704	48	6710
2026-01-18 17:30:05.88	335.03	38.65	-37.5	-38.8	28.0	3.02e+01	62	40	0	556793856	48	6711
2026-01-18 17:30:06.89	334.57	38.80	-37.3	-38.6	28.2	3.02e+01	57	40	0	558366720	48	6529
2026-01-18 17:30:07.90	334.09	38.94	-37.3	-38.6	28.2	3.02e+01	61	40	0	560463872	48	6535
2026-01-18 17:30:08.91	333.62	39.09	-37.4	-38.7	28.1	3.02e+01	56	40	0	562561024	48	6600
2026-01-18 17:30:09.92	333.14	39.24	-37.4	-38.7	28.1	3.02e+01	57	40	0	564133888	48	6644
2026-01-18 17:30:10.93	332.65	39.38	-37.3	-38.6	28.2	3.02e+01	60	40	0	566231040	48	6503
2026-01-18 17:30:11.94	332.16	39.52	-37.6	-38.9	27.9	3.02e+01	44	40	0	567803904	48	6786
2026-01-18 17:30:12.95	331.66	39.66	-37.5	-38.8	28.0	3.02e+01	56	40	0	569901056	48	6672
2026-01-18 17:30:13.96	331.17	39.80	-37.4	-38.7	28.1	3.02e+01	57	40	0	571998208	48	6600
2026-01-18 17:30:14.97	330.66	39.94	-37.2	-38.4	28.3	3.02e+01	59	40	0	573571072	48	6408
2026-01-18 17:30:15.98	330.15	40.07	-37.6	-38.9	27.9	3.02e+01	60	40	0	575668224	48	6759
2026-01-18 17:30:16.99	329.64	40.20	-37.6	-38.9	27.9	3.02e+01	49	40	0	577765376	48	6756
2026-01-18 17:30:18.00	329.13	40.33	-37.5	-38.8	28.1	3.02e+01	61	40	0	579338240	48	6651
2026-01-18 17:30:19.01	328.61	40.46	-37.6	-38.9	28.0	3.02e+01	60	40	0	581435392	48	6730
2026-01-18 17:30:20.01	328.09	40.59	-37.4	-38.7	28.2	3.02e+01	46	40	0	583008256	48	6629
2026-01-18 17:30:21.03	327.55	40.71	-37.3	-38.5	28.2	3.02e+01	62	40	0	585105408	48	6476
2026-01-18 17:30:22.04	327.02	40.83	-37.5	-38.8	28.0	3.02e+01	63	40	0	587202560	48	6721
2026-01-18 17:30:23.05	326.48	40.95	-37.7	-39.0	27.9	3.02e+01	64	40	0	588775424	48	6833
2026-01-18 17:30:24.05	325.95	41.07	-37.3	-38.6	28.2	3.02e+01	59	40	0	590872576	48	6516
2026-01-18 17:30:25.06	325.40	41.18	-37.2	-38.5	28.2	3.02e+01	54	40	0	592445440	48	6466
2026-01-18 17:30:26.07	324.85	41.29	-36.8	-38.1	28.6	3.02e+01	58	40	0	594542592	48	6154
2026-01-18 17:30:27.08	324.30	41.40	-37.3	-38.6	28.2	3.02e+01	58	40	0	596639744	48	6552
2026-01-18 17:30:28.09	323.74	41.51	-37.2	-38.4	28.3	3.02e+01	44	40	0	598212608	48	6394
2026-01-18 17:30:29.10	323.18	41.61	-37.2	-38.5	28.3	3.02e+01	57	40	0	600309760	48	6456
2026-01-18 17:30:30.11	322.62	41.71	-37.0	-38.2	28.5	3.02e+01	60	40	0	601882624	48	6266
2026-01-18 17:30:31.12	322.05	41.81	-37.0	-38.3	28.4	3.02e+01	53	40	0	603979776	48	6304
2026-01-18 17:30:32.13	321.48	41.90	-37.1	-38.4	28.4	3.02e+01	59	40	0	606076928	48	6353
2026-01-18 17:30:33.13	320.91	42.00	-37.1	-38.3	28.4	3.02e+01	53	40	0	607649792	48	6329
2026-01-18 17:30:34.14	320.34	42.08	-37.2	-38.4	28.4	3.02e+01	53	40	0	609746944	48	6391
2026-01-18 17:30:35.15	319.75	42.17	-36.7	-37.9	28.8	3.02e+01	60	40	0	611319808	48	6064
2026-01-18 17:30:36.16	319.17	42.25	-36.8	-38.0	28.7	3.02e+01	55	40	0	613416960	48	6112
2026-01-18 17:30:37.17	318.58	42.33	-37.3	-38.6	28.2	3.02e+01	60	40	0	615514112	48	6505
2026-01-18 17:30:38.17	318.00	42.41	-37.0	-38.3	28.5	3.02e+01	46	40	0	617086976	48	6310
2026-01-18 17:30:39.19	317.40	42.48	-37.0	-38.3	28.5	3.02e+01	60	40	0	619184128	48	6312
2026-01-18 17:30:40.19	316.81	42.55	-37.0	-38.3	28.5	3.02e+01	57	40	0	621281280	48	6287
2026-01-18 17:30:41.20	316.21	42.62	-37.3	-38.5	28.3	3.02e+01	44	40	0	622854144	48	6474
2026-01-18 17:30:42.21	315.61	42.68	-37.7	-39.0	27.9	3.02e+01	61	40	0	624951296	48	6820
2026-01-18 17:30:43.22	315.01	42.74	-37.1	-38.4	28.3	3.02e+01	59	40	0	626524160	48	6381
2026-01-18 17:30:44.23	314.40	42.80	-36.7	-37.9	28.9	3.02e+01	60	40	0	628621312	48	6019
2026-01-18 17:30:45.24	313.80	42.86	-37.0	-38.2	28.5	3.02e+01	59	40	0	630718464	48	6243
2026-01-18 17:30:46.25	313.19	42.90	-37.2	-38.4	28.4	3.02e+01	47	40	0	632291328	48	6400
2026-01-18 17:30:47.26	312.58	42.95	-36.9	-38.1	28.7	3.02e+01	58	40	0	634388480	48	6174
2026-01-18 17:30:48.27	311.96	42.99	-36.9	-38.2	28.5	3.02e+01	61	40	0	635961344	48	6232
2026-01-18 17:30:49.28	311.35	43.03	-36.8	-38.1	28.7	3.02e+01	45	40	0	638058496	48	6153
2026-01-18 17:30:50.29	310.73	43.07	-37.1	-38.3	28.5	3.02e+01	63	40	0	640155648	48	6320
2026-01-18 17:30:51.30	310.11	43.10	-37.1	-38.4	28.5	3.02e+01	56	40	0	641728512	48	6381
2026-01-18 17:30:52.30	309.50	43.13	-36.8	-38.0	28.7	3.02e+01	60	40	0	643825664	48	6128
2026-01-18 17:30:53.31	308.88	43.15	-37.0	-38.2	28.5	3.02e+01	61	40	0	645398528	48	6252
2026-01-18 17:30:54.32	308.26	43.17	-36.9	-38.2	28.5	3.02e+01	55	40	0	647495680	48	6230
2026-01-18 17:30:55.33	307.64	43.19	-37.2	-38.4	28.3	3.02e+01	60	40	0	649592832	48	6396
2026-01-18 17:30:56.34	307.02	43.20	-37.1	-38.4	28.4	3.02e+01	61	40	0	651165696	48	6380
2026-01-18 17:30:57.35	306.40	43.21	-36.6	-37.9	28.9	3.02e+01	46	40	0	653262848	48	6020
2026-01-18 17:30:58.36	305.77	43.22	-36.6	-37.8	28.8	3.02e+01	62	40	0	654835712	48	5963
2026-01-18 17:30:59.37	305.15	43.22	-37.2	-38.4	28.4	3.02e+01	59	40	0	656932864	48	6403
2026-01-18 17:31:00.38	304.53	43.22	-36.7	-37.9	28.9	3.02e+01	57	40	0	659030016	48	6015
2026-01-18 17:31:01.39	303.90	43.21	-36.6	-37.8	28.9	3.02e+01	60	40	0	660602880	48	5968
2026-01-18 17:31:02.40	303.28	43.21	-36.7	-37.9	28.8	3.02e+01	58	40	0	662700032	48	6042
2026-01-18 17:31:03.41	302.66	43.19	-36.8	-38.1	28.7	3.02e+01	62	40	0	664272896	48	6138
2026-01-18 17:31:04.42	302.04	43.18	-37.3	-38.6	28.1	3.02e+01	60	40	0	666370048	48	6550
2026-01-18 17:31:05.43	301.42	43.16	-37.0	-38.3	28.4	3.02e+01	57	40	0	668467200	48	6327
2026-01-18 17:31:06.44	300.80	43.13	-36.3	-37.5	29.1	3.02e+01	61	40	0	670040064	46	6436
2026-01-18 17:31:07.45	300.18	43.10	-36.6	-37.9	28.9	3.02e+01	50	40	0	672137216	46	6747
2026-01-18 17:31:08.46	299.56	43.07	-36.8	-38.0	28.7	3.02e+01	57	40	0	674234368	46	6837
2026-01-18 17:31:09.47	298.94	43.04	-36.5	-37.7	29.1	3.02e+01	58	40	0	675807232	46	6600
2026-01-18 17:31:10.48	298.33	43.00	-36.5	-37.7	29.1	3.02e+01	49	40	0	677904384	46	6617
2026-01-18 17:31:11.49	297.72	42.96	-37.1	-38.3	28.4	3.02e+01	58	40	0	679477248	48	6339
2026-01-18 17:31:12.50	297.10	42.91	-37.8	-39.2	27.7	3.02e+01	55	40	0	681574400	50	6210
2026-01-18 17:31:13.51	296.49	42.86	-36.8	-38.1	28.7	3.02e+01	58	40	0	683671552	50	5483
2026-01-18 17:31:14.52	295.89	42.81	-36.9	-38.1	28.6	3.02e+01	58	40	0	685244416	48	6157
2026-01-18 17:31:15.53	295.28	42.75	-37.0	-38.2	28.4	3.02e+01	48	40	0	687341568	48	6277
2026-01-18 17:31:16.54	294.68	42.69	-36.6	-37.8	28.6	3.02e+01	57	40	0	689438720	48	5956
2026-01-18 17:31:17.55	294.07	42.63	-36.0	-37.1	29.1	3.02e+01	56	40	0	691011584	46	6186
2026-01-18 17:31:18.56	293.47	42.56	-35.8	-37.0	29.4	3.02e+01	48	40	0	693108736	46	6070
2026-01-18 17:31:19.57	292.88	42.49	-36.5	-37.7	29.0	3.02e+01	59	40	0	694681600	48	5860
2026-01-18 17:31:20.58	292.28	42.42	-36.6	-37.8	28.9	3.02e+01	57	40	0	696778752	48	5945
2026-01-18 17:31:21.59	291.69	42.34	-36.4	-37.6	28.6	3.02e+01	58	40	0	698875904	48	5834
2026-01-18 17:31:22.60	291.11	42.26	-36.8	-38.1	28.2	3.02e+01	62	40	0	700448768	48	6141
2026-01-18 17:31:23.61	290.52	42.18	-37.4	-38.7	27.8	3.02e+01	50	40	0	702545920	48	6618
2026-01-18 17:31:24.62	289.94	42.09	-36.5	-37.7	28.8	3.02e+01	56	40	0	704118784	48	5881
2026-01-18 17:31:25.63	289.36	42.01	-36.2	-37.4	28.4	3.02e+01	58	40	0	706215936	46	6413
2026-01-18 17:31:26.64	288.78	41.91	-35.6	-36.8	28.7	3.02e+01	51	40	0	708313088	46	5936
2026-01-18 17:31:27.65	288.21	41.82	-35.9	-37.0	29.2	3.02e+01	61	40	0	709885952	46	6085
2026-01-18 17:31:28.66	287.64	41.72	-36.1	-37.3	29.2	3.02e+01	55	40	0	711983104	48	5615
2026-01-18 17:31:29.67	287.08	41.62	-36.1	-37.2	28.7	3.02e+01	57	40	0	714080256	48	5571
2026-01-18 17:31:30.67	286.52	41.52	-37.0	-38.3	27.5	3.02e+01	61	40	0	715653120	50	5636
2026-01-18 17:31:31.69	285.96	41.41	-38.0	-39.4	27.0	3.02e+01	44	40	0	717750272	50	6364
2026-01-18 17:31:32.70	285.41	41.30	-37.5	-38.9	27.9	3.02e+01	57	40	0	719323136	48	6745
2026-01-18 17:31:33.71	284.86	41.19	-37.0	-38.2	28.3	3.02e+01	60	40	0	721420288	48	6271
2026-01-18 17:31:34.72	284.31	41.08	-36.7	-37.9	28.3	3.02e+01	45	40	0	723517440	48	6015
2026-01-18 17:31:35.73	283.77	40.96	-36.5	-37.7	28.5	3.02e+01	59	40	0	725090304	48	5872
2026-01-18 17:31:36.74	283.23	40.84	-36.4	-37.5	29.0	3.02e+01	58	40	0	727187456	48	5774
2026-01-18 17:31:37.75	282.69	40.72	-36.8	-38.0	28.2	3.02e+01	60	40	0	728760320	50	5420
2026-01-18 17:31:38.76	282.16	40.60	-37.9	-39.3	27.0	3.02e+01	58	40	0	730857472	50	6327
2026-01-18 17:31:39.77	281.64	40.47	-37.9	-39.3	27.4	3.02e+01	55	40	0	732954624	48	7044
2026-01-18 17:31:40.78	281.12	40.34	-36.3	-37.5	28.5	3.02e+01	59	40	0	734527488	48	5730
2026-01-18 17:31:41.79	280.60	40.21	-36.6	-37.8	28.7	3.02e+01	60	40	0	736624640	50	5291
2026-01-18 17:31:42.80	280.09	40.08	-37.4	-38.7	27.5	3.02e+01	52	40	0	738197504	50	5905
2026-01-18 17:31:43.81	279.58	39.94	-37.4	-38.8	27.9	3.02e+01	63	40	0	740294656	48	6683
2026-01-18 17:31:44.82	279.07	39.81	-37.4	-38.6	27.4	3.02e+01	47	40	0	742391808	48	6562
2026-01-18 17:31:45.83	278.57	39.67	-36.5	-37.6	28.9	3.02e+01	56	40	0	743964672	48	5858
2026-01-18 17:31:46.84	278.08	39.53	-37.0	-38.3	27.7	3.02e+01	60	40	0	746061824	48	6279
2026-01-18 17:31:47.85	277.58	39.39	-37.6	-39.0	27.7	3.02e+01	46	40	0	747634688	48	6833
2026-01-18 17:31:48.86	277.10	39.24	-36.4	-37.6	28.3	3.02e+01	59	40	0	749731840	48	5817
2026-01-18 17:31:49.87	276.61	39.10	-37.5	-38.7	27.7	3.02e+01	58	40	0	751828992	50	5921
2026-01-18 17:31:50.88	276.14	38.95	-38.3	-39.6	27.1	3.02e+01	58	40	0	753401856	50	6571
2026-01-18 17:31:51.89	275.66	38.80	-36.6	-37.8	28.3	3.02e+01	57	40	0	755499008	48	5941
2026-01-18 17:31:52.90	275.19	38.65	-36.9	-38.1	28.4	3.02e+01	54	40	0	757596160	48	6157
2026-01-18 17:31:53.91	274.73	38.50	-39.0	-40.5	26.3	3.02e+01	50	40	0	759169024	50	7274
2026-01-18 17:31:54.92	274.27	38.35	-37.1	-38.2	27.6	3.02e+01	58	40	0	761266176	48	6272
2026-01-18 17:31:55.93	273.81	38.20	-38.4	-39.8	26.0	3.02e+01	53	40	0	762839040	52	5951
2026-01-18 17:31:56.93	273.36	38.04	-38.9	-40.3	26.4	3.02e+01	58	40	0	764936192	50	7099
2026-01-18 17:31:57.94	272.92	37.89	-37.8	-39.0	27.9	3.02e+01	60	40	0	767033344	50	6094
2026-01-18 17:31:58.95	272.47	37.73	-39.0	-40.4	26.4	3.02e+01	60	40	0	768606208	52	6415
2026-01-18 17:31:59.96	272.03	37.57	-38.2	-39.4	27.4	3.02e+01	59	40	0	770703360	52	5700
2026-01-18 17:32:00.97	271.60	37.41	-39.0	-40.4	26.0	3.02e+01	48	40	0	772276224	52	6379
2026-01-18 17:32:01.98	271.17	37.25	-37.3	-38.5	27.7	3.02e+01	61	40	0	774373376	50	5739
2026-01-18 17:32:02.99	270.74	37.09	-38.3	-39.6	26.8	3.02e+01	54	40	0	776470528	50	6559
2026-01-18 17:32:04.00	270.32	36.92	-37.0	-38.2	28.2	3.02e+01	46	40	0	778043392	48	6261
2026-01-18 17:32:05.01	269.91	36.76	-37.8	-39.2	27.5	3.02e+01	60	40	0	780140544	50	6211
2026-01-18 17:32:06.02	269.49	36.60	-37.6	-38.9	27.9	3.02e+01	60	40	0	782237696	50	6025
2026-01-18 17:32:07.03	269.08	36.43	-37.8	-39.1	27.6	3.02e+01	61	40	0	783810560	50	6183
2026-01-18 17:32:08.04	268.68	36.27	-37.7	-39.0	27.7	3.02e+01	61	40	0	785907712	50	6095
2026-01-18 17:32:09.05	268.28	36.10	-38.9	-40.3	26.6	3.02e+01	47	40	0	787480576	50	7108
2026-01-18 17:32:10.06	267.88	35.93	-37.1	-38.3	28.5	3.02e+01	59	40	0	789577728	50	5622
2026-01-18 17:32:11.07	267.49	35.76	-38.1	-39.5	27.2	3.02e+01	59	40	0	791674880	50	6453
2026-01-18 17:32:12.08	267.10	35.60	-37.3	-38.6	28.2	3.02e+01	45	40	0	793247744	50	5814
2026-01-18 17:32:13.09	266.72	35.43	-38.0	-39.3	27.6	3.02e+01	52	40	0	795344896	50	6321
2026-01-18 17:32:14.10	266.34	35.26	-37.0	-38.2	28.5	3.02e+01	54	40	0	796917760	50	5582
2026-01-18 17:32:15.11	265.97	35.09	-37.2	-38.4	28.2	3.02e+01	57	40	0	799014912	48	6392
2026-01-18 17:32:16.12	265.60	34.92	-37.4	-38.7	28.0	3.02e+01	58	40	0	801112064	48	6600
2026-01-18 17:32:17.13	265.23	34.75	-37.0	-38.2	28.4	3.02e+01	53	40	0	802684928	48	6258
2026-01-18 17:32:18.14	264.86	34.58	-38.0	-39.4	27.4	3.02e+01	60	40	0	804782080	48	7126
2026-01-18 17:32:19.15	264.50	34.41	-37.9	-39.2	28.1	3.02e+01	59	40	0	806354944	50	6214
2026-01-18 17:32:20.16	264.15	34.23	-37.8	-39.1	28.1	3.02e+01	58	40	0	808452096	50	6173
2026-01-18 17:32:21.17	263.80	34.06	-36.9	-38.2	28.6	3.02e+01	62	40	0	810549248	50	5537
2026-01-18 17:32:22.18	263.45	33.89	-36.5	-37.7	29.0	3.02e+01	45	40	0	812122112	48	5881
2026-01-18 17:32:23.19	263.11	33.72	-37.1	-38.3	28.4	3.02e+01	58	40	0	814219264	48	6323
2026-01-18 17:32:24.20	262.76	33.55	-37.3	-38.6	28.2	3.02e+01	58	40	0	815792128	48	6561
2026-01-18 17:32:25.20	262.43	33.38	-37.2	-38.4	28.4	3.02e+01	44	40	0	817889280	48	6405
2026-01-18 17:32:26.21	262.10	33.20	-37.0	-38.3	28.5	3.02e+01	57	40	0	819986432	48	6282
2026-01-18 17:32:27.22	261.77	33.03	-37.1	-38.4	28.3	3.02e+01	60	40	0	821559296	48	6365
2026-01-18 17:32:28.23	261.44	32.86	-36.5	-37.6	29.0	3.02e+01	58	40	0	823656448	48	5857
2026-01-18 17:32:29.24	261.12	32.69	-36.8	-38.0	28.7	3.02e+01	60	40	0	825753600	48	6122
2026-01-18 17:32:30.25	260.80	32.52	-37.2	-38.4	28.4	3.02e+01	63	40	0	827326464	48	6417
2026-01-18 17:32:31.26	260.49	32.34	-36.9	-38.1	28.6	3.02e+01	58	40	0	829423616	48	6174
2026-01-18 17:32:32.27	260.17	32.17	-36.6	-37.8	29.0	3.02e+01	51	40	0	830996480	48	5936
2026-01-18 17:32:33.28	259.86	32.00	-36.7	-38.0	28.7	3.02e+01	53	40	0	833093632	48	6084
2026-01-18 17:32:34.29	259.56	31.83	-36.8	-38.1	28.6	3.02e+01	59	40	0	835190784	48	6175
2026-01-18 17:32:35.30	259.26	31.66	-36.7	-37.9	28.7	3.02e+01	61	40	0	836763648	48	6029
2026-01-18 17:32:36.31	258.96	31.49	-36.6	-37.8	28.9	3.02e+01	58	40	0	838860800	48	5933
2026-01-18 17:32:37.32	258.66	31.32	-36.3	-37.5	29.1	3.02e+01	59	40	0	840433664	48	5791
2026-01-18 17:32:38.33	258.37	31.14	-36.9	-38.1	28.6	3.02e+01	46	40	0	842530816	48	6192
2026-01-18 17:32:39.34	258.08	30.97	-36.5	-37.8	28.8	3.02e+01	57	40	0	844627968	48	5944
2026-01-18 17:32:40.35	257.80	30.80	-36.1	-37.3	29.3	3.02e+01	59	40	0	846200832	48	5650
2026-01-18 17:32:41.36	257.51	30.63	-36.3	-37.5	29.2	3.02e+01	51	40	0	848297984	48	5746
2026-01-18 17:32:42.37	257.23	30.46	-36.6	-37.9	28.8	3.02e+01	61	40	0	850395136	48	6014
2026-01-18 17:32:43.38	256.96	30.29	-36.7	-38.0	28.7	3.02e+01	60	40	0	851968000	48	6071
2026-01-18 17:32:44.39	256.68	30.13	-36.2	-37.4	29.2	3.02e+01	58	40	0	854065152	48	5703
2026-01-18 17:32:45.40	256.41	29.96	-36.1	-37.3	29.3	3.02e+01	60	40	0	855638016	46	6293
2026-01-18 17:32:46.42	256.14	29.79	-36.6	-37.8	28.9	3.02e+01	59	40	0	857735168	46	6715
2026-01-18 17:32:47.43	255.88	29.62	-36.8	-38.0	28.7	3.02e+01	59	40	0	859832320	46	6858
2026-01-18 17:32:48.44	255.62	29.45	-36.5	-37.7	28.9	3.02e+01	60	40	0	861405184	46	6641
2026-01-18 17:32:49.45	255.36	29.28	-36.5	-37.7	29.1	3.02e+01	56	40	0	863502336	46	6590
2026-01-18 17:32:50.46	255.10	29.12	-36.4	-37.6	29.1	3.02e+01	60	40	0	865075200	46	6539
2026-01-18 17:32:51.47	254.85	28.95	-36.8	-38.0	28.7	3.02e+01	45	40	0	867172352	46	6878
2026-01-18 17:32:52.48	254.60	28.78	-36.7	-38.0	28.7	3.02e+01	59	40	0	869269504	46	6809
2026-01-18 17:32:53.49	254.35	28.62	-36.5	-37.7	28.9	3.02e+01	60	40	0	870842368	46	6628
2026-01-18 17:32:54.50	254.10	28.45	-36.5	-37.7	29.0	3.02e+01	53	40	0	872939520	46	6645
2026-01-18 17:32:55.51	253.86	28.29	-36.7	-37.9	28.9	3.02e+01	60	40	0	874512384	46	6753
2026-01-18 17:32:56.52	253.62	28.13	-36.9	-38.1	28.6	3.02e+01	56	40	0	876609536	48	6172
2026-01-18 17:32:57.53	253.38	27.96	-36.9	-38.2	28.6	3.02e+01	59	40	0	878706688	48	6245
2026-01-18 17:32:58.54	253.15	27.80	-36.8	-38.0	28.7	3.02e+01	57	40	0	880279552	48	6112
2026-01-18 17:32:59.54	252.92	27.64	-37.0	-38.2	28.5	3.02e+01	47	40	0	882376704	48	6263
2026-01-18 17:33:00.55	252.69	27.48	-36.8	-38.1	28.6	3.02e+01	59	40	0	883949568	48	6145
2026-01-18 17:33:01.56	252.46	27.32	-36.9	-38.2	28.5	3.02e+01	56	40	0	886046720	48	6253
2026-01-18 17:33:02.57	252.23	27.15	-36.8	-38.1	28.6	3.02e+01	51	40	0	888143872	48	6138
2026-01-18 17:33:03.58	252.01	26.99	-36.7	-37.9	28.8	3.02e+01	60	40	0	889716736	48	6022
2026-01-18 17:33:04.59	251.79	26.83	-36.4	-37.6	29.1	3.02e+01	56	40	0	891813888	48	5797
2026-01-18 17:33:05.60	251.57	26.68	-36.6	-37.8	28.8	3.02e+01	61	40	0	893911040	48	5983
2026-01-18 17:33:06.61	251.35	26.52	-37.0	-38.2	28.6	3.02e+01	58	40	0	895483904	48	6265
2026-01-18 17:33:07.62	251.14	26.36	-37.0	-38.3	28.4	3.02e+01	50	40	0	897581056	48	6309
2026-01-18 17:33:08.63	250.93	26.20	-36.9	-38.1	28.5	3.02e+01	57	40	0	899153920	48	6186
2026-01-18 17:33:09.64	250.72	26.04	-36.8	-38.1	28.7	3.02e+01	58	40	0	901251072	48	6145
2026-01-18 17:33:10.65	250.51	25.89	-36.7	-37.9	28.7	3.02e+01	50	40	0	903348224	48	6020
2026-01-18 17:33:11.66	250.31	25.73	-36.7	-37.9	28.7	3.02e+01	61	40	0	904921088	48	6056
2026-01-18 17:33:12.67	250.10	25.58	-36.8	-38.0	28.7	3.02e+01	60	40	0	907018240	48	6110
2026-01-18 17:33:13.68	249.90	25.42	-36.8	-38.0	28.6	3.02e+01	59	40	0	908591104	48	6108
2026-01-18 17:33:14.69	249.70	25.27	-36.7	-37.9	28.7	3.02e+01	57	40	0	910688256	48	6020
2026-01-18 17:33:15.70	249.51	25.11	-36.7	-37.9	28.8	3.02e+01	53	40	0	912785408	48	6029
2026-01-18 17:33:16.71	249.31	24.96	-36.8	-38.0	28.7	3.02e+01	58	40	0	914358272	48	6112
2026-01-18 17:33:17.72	249.12	24.81	-36.9	-38.2	28.5	3.02e+01	58	40	0	916455424	48	6223
2026-01-18 17:33:18.73	248.93	24.66	-37.0	-38.3	28.4	3.02e+01	52	40	0	918552576	48	6327
2026-01-18 17:33:19.74	248.74	24.51	-36.9	-38.1	28.5	3.02e+01	59	40	0	920125440	48	6198
2026-01-18 17:33:20.75	248.55	24.36	-36.9	-38.1	28.6	3.02e+01	61	40	0	922222592	48	6192
2026-01-18 17:33:21.76	248.36	24.21	-36.9	-38.2	28.5	3.02e+01	62	40	0	923795456	48	6210
2026-01-18 17:33:22.77	248.18	24.06	-36.9	-38.2	28.5	3.02e+01	61	40	0	925892608	48	6225
2026-01-18 17:33:23.78	248.00	23.91	-36.8	-38.1	28.5	3.02e+01	55	40	0	927989760	48	6136
2026-01-18 17:33:24.79	247.82	23.76	-36.8	-38.1	28.6	3.02e+01	61	40	0	929562624	48	6146
2026-01-18 17:33:25.80	247.64	23.61	-36.6	-37.9	28.7	3.02e+01	58	40	0	931659776	48	6007
2026-01-18 17:33:26.81	247.47	23.47	-36.6	-37.8	28.8	3.02e+01	59	40	0	933232640	48	5976
2026-01-18 17:33:27.82	247.29	23.32	-36.6	-37.8	28.8	3.02e+01	60	40	0	935329792	48	5959
2026-01-18 17:33:28.83	247.12	23.18	-36.6	-37.9	28.8	3.02e+01	47	40	0	937426944	48	6000
2026-01-18 17:33:29.84	246.95	23.03	-36.9	-38.1	28.6	3.02e+01	59	40	0	938999808	48	6173
2026-01-18 17:33:30.85	246.78	22.89	-37.0	-38.3	28.4	3.02e+01	59	40	0	941096960	48	6307
2026-01-18 17:33:31.86	246.61	22.74	-37.0	-38.3	28.4	3.02e+01	45	40	0	942669824	48	6307
2026-01-18 17:33:32.87	246.44	22.60	-37.0	-38.3	28.4	3.02e+01	60	40	0	944766976	48	6287
2026-01-18 17:33:33.88	246.28	22.46	-36.7	-38.0	28.6	3.02e+01	59	40	0	946864128	48	6067
2026-01-18 17:33:34.89	246.12	22.32	-36.6	-37.8	28.8	3.02e+01	59	40	0	948436992	48	5972
2026-01-18 17:33:35.90	245.95	22.17	-36.5	-37.7	28.8	3.02e+01	61	40	0	950534144	48	5921
2026-01-18 17:33:36.91	245.79	22.03	-36.6	-37.9	28.7	3.02e+01	57	40	0	952107008	48	6008
2026-01-18 17:33:37.92	245.64	21.89	-36.7	-37.9	28.7	3.02e+01	59	40	0	954204160	48	6027
2026-01-18 17:33:38.93	245.48	21.75	-36.7	-37.9	28.6	3.02e+01	58	40	0	956301312	48	6039
2026-01-18 17:33:39.94	245.32	21.62	-36.6	-37.9	28.7	3.02e+01	45	40	0	957874176	48	6008
2026-01-18 17:33:40.95	245.17	21.48	-36.4	-37.7	28.9	3.02e+01	60	40	0	959971328	48	5865
2026-01-18 17:33:41.97	245.02	21.34	-36.5	-37.8	28.8	3.02e+01	58	40	0	962068480	48	5927
2026-01-18 17:33:42.98	244.87	21.20	-36.6	-37.9	28.7	3.02e+01	60	40	0	963641344	48	6013
2026-01-18 17:33:43.99	244.72	21.07	-36.8	-38.0	28.6	3.02e+01	59	40	0	965738496	48	6110
2026-01-18 17:33:45.00	244.57	20.93	-36.9	-38.1	28.5	3.02e+01	61	40	0	967311360	48	6176
2026-01-18 17:33:46.01	244.42	20.79	-36.8	-38.0	28.6	3.02e+01	58	40	0	969408512	48	6108
2026-01-18 17:33:47.02	244.28	20.66	-36.6	-37.9	28.7	3.02e+01	59	40	0	971505664	48	6003
2026-01-18 17:33:48.03	244.13	20.53	-36.7	-38.0	28.6	3.02e+01	46	40	0	973078528	48	6077
2026-01-18 17:33:49.04	243.99	20.39	-36.7	-38.0	28.6	3.02e+01	60	40	0	975175680	48	6074
2026-01-18 17:33:50.05	243.85	20.26	-36.7	-38.0	28.6	3.02e+01	57	40	0	976748544	48	6076
2026-01-18 17:33:51.06	243.71	20.13	-36.8	-38.0	28.6	3.02e+01	61	40	0	978845696	48	6110
2026-01-18 17:33:52.07	243.57	20.00	-36.7	-37.9	28.7	3.02e+01	57	40	0	980942848	48	6035
2026-01-18 17:33:53.08	243.43	19.87	-36.8	-38.0	28.6	3.02e+01	50	40	0	982515712	48	6107
2026-01-18 17:33:54.09	243.29	19.74	-36.7	-38.0	28.7	3.02e+01	60	40	0	984612864	48	6071
2026-01-18 17:33:55.11	243.16	19.60	-36.7	-37.9	28.6	3.02e+01	60	40	0	986710016	48	6061
2026-01-18 17:33:56.12	243.02	19.47	-36.6	-37.8	28.8	3.02e+01	55	40	0	988282880	48	5969
2026-01-18 17:33:57.13	242.89	19.35	-36.7	-37.9	28.7	3.02e+01	59	40	0	990380032	48	6046
2026-01-18 17:33:58.14	242.76	19.22	-36.7	-37.9	28.7	3.02e+01	47	40	0	991952896	48	6041
2026-01-18 17:33:59.15	242.63	19.09	-36.8	-38.1	28.5	3.02e+01	58	40	0	994050048	48	6149
2026-01-18 17:34:00.15	242.50	18.96	-36.7	-37.9	28.7	3.02e+01	59	40	0	996147200	48	6027
2026-01-18 17:34:01.16	242.37	18.84	-36.8	-38.1	28.4	3.02e+01	51	40	0	997720064	48	6153
2026-01-18 17:34:02.17	242.25	18.71	-36.7	-37.9	28.6	3.02e+01	59	40	0	999817216	48	6041
2026-01-18 17:34:03.19	242.12	18.59	-36.8	-38.0	28.6	3.02e+01	58	40	0	1001390080	48	6092
2026-01-18 17:34:04.20	242.00	18.46	-36.6	-37.9	28.6	3.02e+01	58	40	0	1003487232	48	6003
2026-01-18 17:34:05.21	241.87	18.34	-36.6	-37.8	28.7	3.02e+01	59	40	0	1005584384	48	5969
2026-01-18 17:34:06.22	241.75	18.21	-36.7	-37.9	28.6	3.02e+01	45	40	0	1007157248	48	6041
2026-01-18 17:34:07.23	241.63	18.09	-36.7	-37.9	28.6	3.02e+01	56	40	0	1009254400	48	6019
2026-01-18 17:34:08.23	241.51	17.97	-36.9	-38.2	28.4	3.02e+01	53	40	0	1011351552	48	6215
2026-01-18 17:34:09.24	241.39	17.85	-37.0	-38.2	28.4	3.02e+01	46	40	0	1012924416	48	6275
2026-01-18 17:34:10.25	241.27	17.73	-36.9	-38.2	28.4	3.02e+01	58	40	0	1015021568	48	6230
2026-01-18 17:34:11.26	241.16	17.61	-36.6	-37.9	28.6	3.02e+01	57	40	0	1016594432	48	6021
2026-01-18 17:34:12.27	241.04	17.48	-36.5	-37.7	28.7	3.02e+01	58	40	0	1018691584	48	5894
2026-01-18 17:34:13.28	240.92	17.36	-36.4	-37.6	28.8	3.02e+01	61	40	0	1020788736	48	5804
2026-01-18 17:34:14.29	240.81	17.25	-36.4	-37.6	28.8	3.02e+01	56	40	0	1022361600	48	5826
2026-01-18 17:34:15.30	240.70	17.13	-36.4	-37.6	28.9	3.02e+01	58	40	0	1024458752	48	5813
2026-01-18 17:34:16.31	240.59	17.01	-36.5	-37.7	28.8	3.02e+01	60	40	0	1026031616	48	5899
2026-01-18 17:34:17.32	240.47	16.89	-36.6	-37.9	28.6	3.02e+01	53	40	0	1028128768	48	6020
2026-01-18 17:34:18.33	240.36	16.77	-36.8	-38.0	28.4	3.02e+01	58	40	0	1030225920	48	6133
2026-01-18 17:34:19.34	240.25	16.66	-36.9	-38.2	28.3	3.02e+01	58	40	0	1031798784	48	6242
2026-01-18 17:34:20.36	240.14	16.54	-37.1	-38.4	28.1	3.02e+01	60	40	0	1033895936	48	6396
2026-01-18 17:34:21.37	240.04	16.42	-37.0	-38.3	28.2	3.02e+01	59	40	0	1035993088	48	6327
2026-01-18 17:34:22.37	239.93	16.31	-36.9	-38.2	28.2	3.02e+01	46	40	0	1037565952	48	6219
2026-01-18 17:34:23.39	239.82	16.19	-36.9	-38.1	28.3	3.02e+01	60	40	0	1039663104	48	6180
2026-01-18 17:34:24.40	239.72	16.08	-36.9	-38.1	28.4	3.02e+01	59	40	0	1041235968	48	6166
2026-01-18 17:34:25.41	239.62	15.97	-36.8	-38.0	28.4	3.02e+01	45	40	0	1043333120	48	6120
2026-01-18 17:34:26.42	239.51	15.85	-36.5	-37.7	28.7	3.02e+01	59	40	0	1045430272	48	5893
2026-01-18 17:34:27.43	239.41	15.74	-36.6	-37.8	28.7	3.02e+01	58	40	0	1047003136	48	5953
2026-01-18 17:34:28.44	239.31	15.63	-36.7	-37.9	28.6	3.02e+01	57	40	0	1049100288	48	6033
2026-01-18 17:34:29.45	239.21	15.52	-36.9	-38.1	28.4	3.02e+01	59	40	0	1050673152	48	6169
2026-01-18 17:34:30.46	239.11	15.40	-36.9	-38.2	28.4	3.02e+01	51	40	0	1052770304	48	6217
2026-01-18 17:34:31.47	239.01	15.29	-36.9	-38.2	28.3	3.02e+01	59	40	0	1054867456	48	6237
2026-01-18 17:34:32.48	238.91	15.18	-37.0	-38.3	28.2	3.02e+01	59	40	0	1056440320	48	6326
2026-01-18 17:34:33.49	238.81	15.07	-37.0	-38.3	28.2	3.02e+01	60	40	0	1058537472	48	6302
2026-01-18 17:34:34.50	238.72	14.96	-37.0	-38.3	28.2	3.02e+01	61	40	0	1060110336	48	6305
2026-01-18 17:34:35.51	238.62	14.86	-37.1	-38.4	28.0	3.02e+01	46	40	0	1062207488	48	6377
2026-01-18 17:34:36.52	238.53	14.75	-37.1	-38.3	28.1	3.02e+01	60	40	0	1064304640	48	6333
2026-01-18 17:34:37.53	238.43	14.64	-37.2	-38.5	28.0	3.02e+01	56	40	0	1065877504	48	6454
2026-01-18 17:34:38.54	238.34	14.53	-37.2	-38.4	28.0	3.02e+01	45	40	0	1067974656	48	6409
2026-01-18 17:34:39.55	238.25	14.42	-37.2	-38.5	28.0	3.02e+01	58	40	0	1069547520	48	6427
2026-01-18 17:34:40.56	238.15	14.32	-37.3	-38.6	27.9	3.02e+01	60	40	0	1071644672	48	6511
2026-01-18 17:34:41.57	238.06	14.21	-37.3	-38.5	27.9	3.02e+01	59	40	0	1073741824	48	6491
2026-01-18 17:34:42.58	237.97	14.11	-37.4	-38.7	27.8	3.02e+01	61	40	0	1075314688	48	6585
2026-01-18 17:34:43.59	237.88	14.00	-37.4	-38.7	27.7	3.02e+01	58	40	0	1077411840	48	6628
2026-01-18 17:34:44.60	237.79	13.89	-37.6	-38.9	27.6	3.02e+01	59	40	0	1079508992	48	6747
2026-01-18 17:34:45.61	237.70	13.79	-37.7	-39.0	27.4	3.02e+01	56	40	0	1081081856	48	6875
2026-01-18 17:34:46.62	237.62	13.69	-37.9	-39.2	27.2	3.02e+01	51	40	0	1083179008	48	7000
2026-01-18 17:34:47.63	237.53	13.58	-38.0	-39.4	27.1	3.02e+01	59	40	0	1084751872	50	6357
2026-01-18 17:34:48.64	237.44	13.48	-38.2	-39.6	26.9	3.02e+01	59	40	0	1086849024	50	6539
2026-01-18 17:34:49.65	237.36	13.38	-38.1	-39.5	27.0	3.02e+01	51	40	0	1088946176	50	6441
2026-01-18 17:34:50.66	237.27	13.27	-38.2	-39.6	26.8	3.02e+01	60	40	0	1090519040	50	6518
2026-01-18 17:34:51.67	237.19	13.17	-38.2	-39.5	26.8	3.02e+01	51	40	0	1092616192	50	6496
2026-01-18 17:34:52.68	237.10	13.07	-38.2	-39.6	26.7	3.02e+01	58	40	0	1094713344	50	6550
2026-01-18 17:34:53.69	237.02	12.97	-38.3	-39.7	26.6	3.02e+01	61	40	0	1096286208	50	6606
2026-01-18 17:34:54.70	236.94	12.87	-38.4	-39.8	26.5	3.02e+01	44	40	0	1098383360	50	6713
2026-01-18 17:34:55.71	236.85	12.77	-38.5	-39.8	26.4	3.02e+01	61	40	0	1099956224	50	6722
2026-01-18 17:34:56.72	236.77	12.67	-38.5	-39.9	26.4	3.02e+01	57	40	0	1102053376	50	6743
2026-01-18 17:34:57.73	236.69	12.57	-38.6	-40.0	26.3	3.02e+01	57	40	0	1104150528	50	6827
2026-01-18 17:34:58.74	236.61	12.47	-38.7	-40.1	26.3	3.02e+01	55	40	0	1105723392	50	6884
2026-01-18 17:34:59.75	236.53	12.37	-38.7	-40.1	26.2	3.02e+01	47	40	0	1107820544	50	6939
2026-01-18 17:35:00.76	236.45	12.27	-38.8	-40.2	26.1	3.02e+01	60	40	0	1109393408	50	7034
2026-01-18 17:35:01.77	236.37	12.17	-38.9	-40.4	26.0	3.02e+01	60	40	0	1111490560	52	6369
2026-01-18 17:35:02.78	236.30	12.08	-39.0	-40.5	25.9	3.02e+01	50	40	0	1113587712	52	6453
2026-01-18 17:35:03.79	236.22	11.98	-39.2	-40.6	25.8	3.02e+01	61	40	0	1115160576	52	6562
2026-01-18 17:35:04.80	236.14	11.88	-39.3	-40.7	25.7	3.02e+01	61	40	0	1117257728	52	6617
2026-01-18 17:35:05.81	236.07	11.79	-39.4	-40.9	25.5	3.02e+01	60	40	0	1118830592	52	6767
2026-01-18 17:35:06.82	235.99	11.69	-39.5	-40.9	25.5	3.02e+01	56	40	0	1120927744	52	6798
2026-01-18 17:35:07.83	235.92	11.59	-39.6	-41.1	25.3	3.02e+01	52	40	0	1123024896	52	6926
2026-01-18 17:35:08.84	235.84	11.50	-39.7	-41.2	25.3	3.02e+01	53	40	0	1124597760	52	6991
2026-01-18 17:35:09.85	235.77	11.40	-39.9	-41.4	25.1	3.02e+01	58	40	0	1126694912	52	7162
2026-01-18 17:35:10.86	235.69	11.31	-39.9	-41.4	25.0	3.02e+01	61	40	0	1128267776	52	7186
2026-01-18 17:35:11.87	235.62	11.22	-40.0	-41.6	24.8	3.02e+01	58	40	0	1130364928	54	6542
2026-01-18 17:35:12.88	235.55	11.12	-40.1	-41.6	24.8	3.02e+01	44	40	0	1132462080	54	6572
2026-01-18 17:35:13.89	235.48	11.03	-40.2	-41.7	24.7	3.02e+01	59	40	0	1134034944	54	6642
2026-01-18 17:35:14.90	235.41	10.93	-40.3	-41.9	24.6	3.02e+01	61	40	0	1136132096	54	6756
2026-01-18 17:35:15.91	235.33	10.84	-40.4	-42.0	24.4	3.02e+01	46	40	0	1137704960	54	6880
2026-01-18 17:35:16.92	235.26	10.75	-40.5	-42.1	24.3	3.02e+01	58	40	0	1139802112	54	6914
2026-01-18 17:35:17.93	235.19	10.66	-40.5	-42.2	24.2	3.02e+01	61	40	0	1141899264	54	6984
2026-01-18 17:35:18.94	235.13	10.57	-40.7	-42.4	24.0	3.02e+01	57	40	0	1143472128	54	7137
2026-01-18 17:35:19.95	235.06	10.47	-40.8	-42.5	24.0	3.02e+01	62	40	0	1145569280	54	7218
2026-01-18 17:35:20.96	234.99	10.38	-41.0	-42.7	23.7	3.02e+01	48	40	0	1147666432	56	6644
2026-01-18 17:35:21.98	234.92	10.29	-41.2	-42.9	23.6	3.02e+01	60	40	0	1149239296	56	6796
2026-01-18 17:35:22.98	234.85	10.20	-41.3	-43.1	23.4	3.02e+01	60	40	0	1151336448	56	6933
2026-01-18 17:35:23.99	234.79	10.11	-41.3	-43.1	23.4	3.02e+01	48	40	0	1152909312	56	6933
2026-01-18 17:35:25.00	234.72	10.02	-41.5	-43.4	23.2	3.02e+01	61	40	0	1155006464	56	7132
2026-01-18 17:35:26.01	234.65	9.93	-41.6	-43.5	23.1	3.02e+01	60	40	0	1157103616	56	7221
2026-01-18 17:35:27.02	234.59	9.84	-41.7	-43.5	23.0	3.02e+01	59	40	0	1158676480	56	7282
2026-01-18 17:35:28.03	234.52	9.75	-41.8	-43.6	22.8	3.02e+01	54	40	0	1160773632	56	7348
2026-01-18 17:35:29.04	234.46	9.67	-41.9	-43.8	22.7	3.02e+01	49	40	0	1162870784	56	7474
2026-01-18 17:35:30.05	234.39	9.58	-42.0	-43.9	22.5	3.02e+01	63	40	0	1164443648	58	6773
2026-01-18 17:35:31.07	234.33	9.49	-42.1	-44.0	22.4	3.02e+01	60	40	0	1166540800	58	6846
2026-01-18 17:35:32.08	234.27	9.40	-42.2	-44.2	22.3	3.02e+01	45	40	0	1168113664	58	6974
2026-01-18 17:35:33.09	234.20	9.31	-42.3	-44.3	22.1	3.02e+01	58	40	0	1170210816	58	7116
2026-01-18 17:35:34.09	234.14	9.23	-42.4	-44.4	22.0	3.02e+01	56	40	0	1172307968	58	7185
2026-01-18 17:35:35.10	234.08	9.14	-42.6	-44.6	21.8	3.02e+01	56	40	0	1173880832	58	7371
2026-01-18 17:35:36.11	234.02	9.05	-42.7	-44.8	21.6	3.02e+01	61	40	0	1175977984	58	7509
2026-01-18 17:35:37.13	233.95	8.97	-42.9	-45.0	21.3	3.02e+01	54	40	0	1177550848	58	7713
2026-01-18 17:35:38.14	233.89	8.88	-42.9	-45.1	21.3	3.02e+01	56	40	0	1179648000	58	7764
2026-01-18 17:35:39.15	233.83	8.80	-42.9	-45.2	21.2	3.02e+01	60	40	0	1181745152	58	7832
2026-01-18 17:35:40.16	233.77	8.71	-43.2	-45.5	20.9	3.02e+01	52	40	0	1183318016	60	7239
2026-01-18 17:35:41.17	233.71	8.63	-43.3	-45.7	20.8	3.02e+01	59	40	0	1185415168	60	7415
2026-01-18 17:35:42.18	233.65	8.54	-43.3	-45.7	20.6	3.02e+01	45	40	0	1187512320	60	7426
2026-01-18 17:35:43.19	233.60	8.46	-43.4	-45.9	20.5	3.02e+01	57	40	0	1189085184	60	7559
2026-01-18 17:35:44.20	233.54	8.37	-43.5	-45.9	20.4	3.02e+01	56	40	0	1191182336	60	7614
2026-01-18 17:35:45.21	233.48	8.29	-43.7	-46.2	20.2	3.02e+01	50	40	0	1192755200	60	7839
2026-01-18 17:35:46.22	233.42	8.21	-43.7	-46.2	20.2	3.02e+01	61	40	0	1194852352	60	7842
