passes_logs/2026/01/18/R4.6S_Anadyr/R4.6S_Anadyr__20260118_022426_AQUA_rec.log

#Pass ID: 20260118_022426_AQUA
#Satellite: AQUA
#Configuration: AQUA
#almurnet v.1.7.20251203
#Start time: 2026-01-18 02:24:28

#Version: 2.2.20231116
#Station: R4.6S_Anadyr
#Location: 177.4865 lon 64.73178 lat
#TLE: 1 27424U 02022A   26017.62394888  .00000781  00000+0  16630-3 0  9993
#TLE: 2 27424  98.4086 344.0954 0002010  75.0132 339.4723 14.61825944261279

#Time	Az	El	Level	Level2	SNR	BER	BlckErr	Temp	State	Recorded	gain1	gain2
2026-01-18 02:24:28.13	168.29	0.09	-49.4	-64.3	3.5	1.51e+00	0	29	0	0	60	59227
2026-01-18 02:24:29.14	168.31	0.15	-49.3	-67.2	3.5	3.02e+01	0	30	104	0	60	87683
2026-01-18 02:24:30.15	168.33	0.21	-49.5	-67.3	3.5	3.02e+01	0	30	104	0	60	89458
2026-01-18 02:24:31.16	168.34	0.27	-49.5	-67.4	3.5	3.02e+01	0	30	104	0	60	90419
2026-01-18 02:24:32.17	168.36	0.34	-49.5	-67.3	3.5	3.02e+01	0	30	104	0	60	89149
2026-01-18 02:24:33.18	168.38	0.40	-49.3	-67.3	3.5	3.02e+01	0	30	104	0	60	88857
2026-01-18 02:24:34.19	168.40	0.46	-49.3	-67.1	3.5	3.02e+01	0	30	104	0	60	87573
2026-01-18 02:24:35.20	168.42	0.52	-49.2	-67.1	3.5	3.02e+01	0	30	104	0	60	86896
2026-01-18 02:24:36.21	168.44	0.59	-49.6	-67.5	3.5	3.02e+01	0	30	104	0	60	90839
2026-01-18 02:24:37.22	168.46	0.65	-49.3	-67.2	3.5	3.02e+01	0	30	104	0	60	87682
2026-01-18 02:24:38.23	168.48	0.71	-49.3	-67.2	3.5	3.02e+01	0	30	104	0	60	88128
2026-01-18 02:24:39.24	168.50	0.78	-49.4	-67.3	3.5	3.02e+01	0	30	104	0	60	88700
2026-01-18 02:24:40.25	168.52	0.84	-49.2	-67.1	3.5	3.02e+01	0	30	104	0	60	86791
2026-01-18 02:24:41.26	168.54	0.91	-49.2	-67.0	3.5	3.02e+01	0	30	104	0	60	86640
2026-01-18 02:24:42.27	168.56	0.97	-49.1	-67.0	3.5	3.02e+01	0	30	104	0	60	86022
2026-01-18 02:24:43.28	168.58	1.03	-49.0	-66.8	3.5	3.02e+01	0	30	104	0	60	84610
2026-01-18 02:24:44.29	168.60	1.10	-48.8	-66.9	3.5	3.02e+01	0	30	104	0	60	84895
2026-01-18 02:24:45.30	168.62	1.16	-48.8	-66.6	3.5	3.02e+01	0	30	104	0	60	82740
2026-01-18 02:24:46.31	168.64	1.23	-48.4	-66.4	3.5	3.02e+01	0	30	104	0	60	80584
2026-01-18 02:24:47.32	168.66	1.29	-47.9	-66.0	3.5	3.02e+01	0	30	104	0	60	76487
2026-01-18 02:24:48.33	168.68	1.36	-48.4	-66.4	3.5	3.02e+01	0	30	104	0	60	80361
2026-01-18 02:24:49.34	168.70	1.42	-48.4	-66.2	3.5	3.02e+01	0	31	104	0	60	78482
2026-01-18 02:24:50.35	168.72	1.49	-48.2	-66.0	3.5	3.02e+01	0	30	104	0	60	76862
2026-01-18 02:24:51.35	168.74	1.55	-48.0	-65.9	3.5	3.02e+01	0	30	104	0	60	75937
2026-01-18 02:24:52.37	168.76	1.62	-47.7	-65.6	3.5	3.02e+01	0	30	104	0	60	73216
2026-01-18 02:24:53.38	168.78	1.68	-47.6	-65.3	3.5	3.02e+01	0	31	104	0	60	70654
2026-01-18 02:24:54.39	168.80	1.75	-47.5	-65.1	3.5	3.02e+01	0	31	104	0	60	69269
2026-01-18 02:24:55.40	168.82	1.82	-47.5	-64.5	3.5	3.02e+01	0	31	104	0	60	64480
2026-01-18 02:24:56.41	168.84	1.88	-47.6	-64.2	3.5	3.02e+01	0	30	104	0	60	62218
2026-01-18 02:24:57.41	168.86	1.95	-47.6	-64.3	3.5	3.02e+01	0	31	104	0	60	62824
2026-01-18 02:24:58.42	168.88	2.02	-47.5	-64.4	3.5	3.02e+01	0	31	104	0	60	63654
2026-01-18 02:24:59.44	168.90	2.08	-47.5	-64.1	3.5	3.02e+01	0	30	104	0	60	61879
2026-01-18 02:25:00.45	168.92	2.15	-47.5	-65.1	3.5	3.02e+01	0	31	104	0	60	69466
2026-01-18 02:25:01.46	168.94	2.22	-47.5	-65.2	3.5	3.02e+01	0	31	104	0	60	69837
2026-01-18 02:25:02.47	168.97	2.28	-47.5	-65.3	3.5	3.02e+01	0	31	104	0	60	70941
2026-01-18 02:25:03.48	168.99	2.35	-47.5	-65.2	3.5	3.02e+01	0	31	104	0	60	69737
2026-01-18 02:25:04.48	169.01	2.42	-47.5	-65.0	3.5	3.02e+01	0	30	104	0	60	68733
2026-01-18 02:25:05.49	169.03	2.49	-47.4	-64.3	3.5	3.02e+01	0	31	104	0	60	63392
2026-01-18 02:25:06.51	169.05	2.56	-47.4	-64.0	3.5	3.02e+01	0	31	104	0	60	60929
2026-01-18 02:25:07.52	169.07	2.62	-47.4	-63.0	3.8	3.02e+01	0	31	104	0	60	54371
2026-01-18 02:25:08.53	169.10	2.69	-47.4	-62.1	3.6	3.02e+01	0	31	104	0	60	49051
2026-01-18 02:25:09.54	169.12	2.76	-47.3	-61.0	4.7	3.02e+01	0	31	104	0	60	43356
2026-01-18 02:25:10.55	169.14	2.83	-47.3	-60.6	4.6	3.02e+01	0	31	104	0	60	41192
2026-01-18 02:25:11.56	169.16	2.90	-47.3	-61.1	4.5	3.02e+01	0	31	104	0	60	43729
2026-01-18 02:25:12.56	169.18	2.97	-47.4	-61.5	4.3	3.02e+01	0	31	104	0	60	45928
2026-01-18 02:25:13.58	169.21	3.04	-47.3	-60.5	5.0	3.02e+01	0	31	104	0	60	40933
2026-01-18 02:25:14.59	169.23	3.11	-46.9	-56.0	8.2	3.02e+01	66	31	0	1048576	60	24262
2026-01-18 02:25:15.60	169.25	3.18	-45.8	-51.2	13.5	3.02e+01	0	31	0	3145728	60	14027
2026-01-18 02:25:16.61	169.27	3.25	-44.3	-48.0	17.1	3.02e+01	0	31	0	4718592	60	9696
2026-01-18 02:25:17.62	169.30	3.32	-43.2	-46.2	19.2	3.02e+01	0	31	0	6815744	60	7815
2026-01-18 02:25:18.63	169.32	3.39	-41.8	-44.2	20.7	3.02e+01	0	31	0	8388608	58	6973
2026-01-18 02:25:19.64	169.34	3.46	-40.6	-42.6	22.4	3.02e+01	0	31	0	10485760	56	6543
2026-01-18 02:25:20.65	169.37	3.53	-38.7	-40.3	24.6	3.02e+01	0	31	0	12582912	52	6343
2026-01-18 02:25:21.66	169.39	3.60	-38.3	-39.8	25.0	3.02e+01	0	31	0	14155776	52	5976
2026-01-18 02:25:22.67	169.41	3.67	-38.0	-39.6	25.3	3.02e+01	0	31	0	16252928	50	6500
2026-01-18 02:25:23.68	169.43	3.74	-38.2	-39.7	25.1	3.02e+01	0	31	0	17825792	50	6610
2026-01-18 02:25:24.69	169.46	3.81	-38.8	-40.4	24.4	3.02e+01	0	31	0	19922944	50	7203
2026-01-18 02:25:25.70	169.48	3.89	-39.7	-41.5	23.3	3.02e+01	0	31	0	22020096	52	7270
2026-01-18 02:25:26.70	169.51	3.96	-41.5	-43.7	20.8	3.02e+01	0	31	0	23592960	54	8354
2026-01-18 02:25:27.71	169.53	4.03	-41.7	-43.9	21.4	3.02e+01	0	31	0	25690112	56	7552
2026-01-18 02:25:28.72	169.55	4.10	-46.4	-53.3	9.2	3.02e+01	0	31	0	27787264	60	17755
2026-01-18 02:25:29.73	169.58	4.17	-43.7	-47.1	17.9	3.02e+01	0	31	104	27787264	60	8730
2026-01-18 02:25:30.74	169.60	4.25	-42.6	-45.3	18.9	3.02e+01	0	31	0	28835840	54	10035
2026-01-18 02:25:31.75	169.63	4.32	-40.6	-42.4	22.8	3.02e+01	0	31	0	30932992	58	5710
2026-01-18 02:25:32.76	169.65	4.39	-40.0	-41.8	23.0	3.02e+01	0	31	0	33030144	54	6698
2026-01-18 02:25:33.77	169.67	4.47	-39.1	-40.7	24.5	3.02e+01	0	31	0	34603008	52	6625
2026-01-18 02:25:34.77	169.70	4.54	-39.5	-41.2	24.4	3.02e+01	0	31	0	36700160	54	6255
2026-01-18 02:25:35.78	169.72	4.61	-39.7	-41.4	24.0	3.02e+01	0	31	0	38273024	54	6387
2026-01-18 02:25:36.79	169.75	4.69	-39.0	-40.6	24.7	3.02e+01	0	31	0	40370176	52	6501
2026-01-18 02:25:37.80	169.77	4.76	-39.1	-40.7	24.5	3.02e+01	0	31	0	42467328	52	6634
2026-01-18 02:25:38.81	169.80	4.84	-38.6	-40.1	25.1	3.02e+01	0	31	0	44040192	52	6182
2026-01-18 02:25:39.82	169.82	4.91	-38.4	-39.9	25.4	3.02e+01	0	31	0	46137344	50	6791
2026-01-18 02:25:40.83	169.85	4.99	-38.8	-40.4	24.8	3.02e+01	0	31	0	47710208	50	7167
2026-01-18 02:25:41.84	169.87	5.06	-38.7	-40.2	25.0	3.02e+01	0	31	0	49807360	52	6273
2026-01-18 02:25:42.85	169.90	5.14	-38.4	-40.0	25.4	3.02e+01	0	31	0	51904512	52	6077
2026-01-18 02:25:43.86	169.93	5.21	-38.5	-40.0	25.4	3.02e+01	0	31	0	53477376	52	6090
2026-01-18 02:25:44.87	169.95	5.29	-38.2	-39.8	25.3	3.02e+01	0	31	0	55574528	52	5952
2026-01-18 02:25:45.88	169.98	5.36	-38.7	-40.3	25.0	3.02e+01	0	31	0	57147392	52	6289
2026-01-18 02:25:46.89	170.00	5.44	-38.8	-40.4	25.2	3.02e+01	0	31	0	59244544	52	6416
2026-01-18 02:25:47.89	170.03	5.52	-39.0	-40.6	24.9	3.02e+01	0	31	0	61341696	52	6553
2026-01-18 02:25:48.90	170.06	5.59	-38.8	-40.3	25.3	3.02e+01	0	31	0	62914560	52	6338
2026-01-18 02:25:49.91	170.08	5.67	-38.7	-40.3	25.0	3.02e+01	0	31	0	65011712	50	7094
2026-01-18 02:25:50.92	170.11	5.75	-37.9	-39.3	25.7	3.02e+01	0	31	0	67108864	52	5644
2026-01-18 02:25:51.93	170.14	5.83	-38.6	-40.1	25.4	3.02e+01	0	31	0	68681728	50	6943
2026-01-18 02:25:52.94	170.16	5.90	-37.7	-39.1	26.0	3.02e+01	0	31	0	70778880	50	6192
2026-01-18 02:25:53.95	170.19	5.98	-38.3	-39.8	25.5	3.02e+01	0	31	0	72351744	50	6716
2026-01-18 02:25:54.96	170.22	6.06	-37.5	-38.9	26.6	3.02e+01	0	31	0	74448896	50	6024
2026-01-18 02:25:55.97	170.24	6.14	-37.3	-38.7	26.2	3.02e+01	0	31	0	76546048	50	5905
2026-01-18 02:25:56.98	170.27	6.22	-37.6	-39.0	26.4	3.02e+01	0	31	0	78118912	50	6095
2026-01-18 02:25:57.99	170.30	6.30	-37.5	-38.9	26.7	3.02e+01	0	31	0	80216064	50	5995
2026-01-18 02:25:59.00	170.33	6.38	-37.5	-38.9	26.5	3.02e+01	0	31	0	81788928	50	5998
2026-01-18 02:26:00.00	170.35	6.46	-37.1	-38.4	26.9	3.02e+01	0	31	0	83886080	50	5712
2026-01-18 02:26:01.01	170.38	6.54	-37.4	-38.8	26.6	3.02e+01	0	31	0	85983232	50	5974
2026-01-18 02:26:02.02	170.41	6.62	-37.1	-38.5	26.7	3.02e+01	0	31	0	87556096	50	5783
2026-01-18 02:26:03.03	170.44	6.70	-37.3	-38.7	26.6	3.02e+01	0	31	0	89653248	48	6603
2026-01-18 02:26:04.04	170.47	6.78	-36.9	-38.3	26.9	3.02e+01	0	31	0	91226112	48	6295
2026-01-18 02:26:05.05	170.50	6.86	-36.8	-38.1	27.1	3.02e+01	0	31	0	93323264	48	6197
2026-01-18 02:26:06.06	170.52	6.94	-36.9	-38.3	27.0	3.02e+01	0	31	0	95420416	48	6321
2026-01-18 02:26:07.07	170.55	7.02	-36.8	-38.2	27.1	3.02e+01	0	31	0	96993280	48	6225
2026-01-18 02:26:08.07	170.58	7.10	-36.8	-38.1	27.0	3.02e+01	0	31	0	99090432	48	6201
2026-01-18 02:26:09.08	170.61	7.19	-36.8	-38.2	27.1	3.02e+01	0	31	0	100663296	48	6208
2026-01-18 02:26:10.09	170.64	7.27	-36.5	-37.9	27.4	3.02e+01	0	31	0	102760448	48	6018
2026-01-18 02:26:11.10	170.67	7.35	-36.5	-37.8	27.4	3.02e+01	0	31	0	104857600	48	5966
2026-01-18 02:26:12.11	170.70	7.44	-36.1	-37.4	27.8	3.02e+01	0	31	0	106430464	48	5709
2026-01-18 02:26:13.12	170.73	7.52	-37.3	-38.8	26.7	3.02e+01	0	31	0	108527616	48	6667
2026-01-18 02:26:14.13	170.76	7.60	-36.2	-37.5	27.7	3.02e+01	0	31	0	110100480	48	5778
2026-01-18 02:26:15.14	170.79	7.69	-37.0	-38.4	27.0	3.02e+01	0	31	0	112197632	48	6388
2026-01-18 02:26:16.15	170.82	7.77	-36.4	-37.7	27.5	3.02e+01	0	31	0	114294784	48	5890
2026-01-18 02:26:17.16	170.85	7.86	-36.5	-37.9	27.4	3.02e+01	0	31	0	115867648	48	6007
2026-01-18 02:26:18.17	170.88	7.94	-36.4	-37.7	27.6	3.02e+01	0	31	0	117964800	48	5920
2026-01-18 02:26:19.18	170.91	8.03	-36.7	-38.1	27.3	3.02e+01	0	31	0	120061952	48	6140
2026-01-18 02:26:20.18	170.94	8.11	-36.7	-38.1	27.0	3.02e+01	0	31	0	121634816	48	6165
2026-01-18 02:26:21.20	170.98	8.20	-37.0	-38.4	26.8	3.02e+01	0	31	0	123731968	48	6387
2026-01-18 02:26:22.21	171.01	8.28	-36.5	-37.9	27.5	3.02e+01	0	31	0	125304832	48	6009
2026-01-18 02:26:23.22	171.04	8.37	-36.1	-37.4	28.0	3.02e+01	0	31	0	127401984	48	5704
2026-01-18 02:26:24.23	171.07	8.46	-36.3	-37.7	27.6	3.02e+01	0	31	0	129499136	48	5873
2026-01-18 02:26:25.24	171.10	8.55	-36.3	-37.6	27.7	3.02e+01	0	31	0	131072000	48	5830
2026-01-18 02:26:26.25	171.13	8.63	-36.0	-37.2	28.1	3.02e+01	0	31	0	133169152	48	5593
2026-01-18 02:26:27.26	171.17	8.72	-36.3	-37.6	27.8	3.02e+01	0	31	0	135266304	46	6509
2026-01-18 02:26:28.27	171.20	8.81	-36.8	-38.2	27.3	3.02e+01	0	31	0	136839168	46	6986
2026-01-18 02:26:29.28	171.23	8.90	-36.5	-37.8	27.4	3.02e+01	0	31	0	138936320	46	6708
2026-01-18 02:26:30.29	171.26	8.99	-36.1	-37.4	27.9	3.02e+01	0	31	0	140509184	46	6359
2026-01-18 02:26:31.29	171.30	9.08	-36.2	-37.5	27.8	3.02e+01	0	31	0	142606336	46	6492
2026-01-18 02:26:32.30	171.33	9.17	-36.1	-37.4	28.0	3.02e+01	0	31	0	144703488	46	6407
2026-01-18 02:26:33.31	171.36	9.26	-36.0	-37.3	28.0	3.02e+01	0	31	0	146276352	46	6339
2026-01-18 02:26:34.32	171.40	9.35	-36.1	-37.4	28.1	3.02e+01	0	31	0	148373504	46	6401
2026-01-18 02:26:35.33	171.43	9.44	-36.1	-37.3	28.1	3.02e+01	0	31	0	149946368	46	6343
2026-01-18 02:26:36.34	171.47	9.53	-36.0	-37.3	28.2	3.02e+01	0	31	0	152043520	46	6335
2026-01-18 02:26:37.35	171.50	9.62	-36.0	-37.3	28.1	3.02e+01	0	31	0	154140672	46	6310
2026-01-18 02:26:38.36	171.54	9.71	-36.2	-37.5	28.0	3.02e+01	0	31	0	155713536	46	6450
2026-01-18 02:26:39.37	171.57	9.80	-36.1	-37.4	27.9	3.02e+01	0	31	0	157810688	46	6413
2026-01-18 02:26:40.38	171.60	9.90	-36.3	-37.6	27.9	3.02e+01	0	31	0	159383552	46	6552
2026-01-18 02:26:41.39	171.64	9.99	-35.6	-36.9	28.5	3.02e+01	0	31	0	161480704	46	6043
2026-01-18 02:26:42.40	171.68	10.08	-35.8	-37.1	28.3	3.02e+01	0	31	0	163577856	46	6144
2026-01-18 02:26:43.41	171.71	10.18	-35.9	-37.2	28.2	3.02e+01	0	31	0	165150720	46	6242
2026-01-18 02:26:44.41	171.75	10.27	-35.7	-36.9	28.4	3.02e+01	0	31	0	167247872	46	6051
2026-01-18 02:26:45.42	171.78	10.36	-36.1	-37.4	28.0	3.02e+01	0	31	0	168820736	46	6362
2026-01-18 02:26:46.43	171.82	10.46	-35.5	-36.8	28.6	3.02e+01	0	31	0	170917888	46	5948
2026-01-18 02:26:47.44	171.86	10.56	-35.8	-37.1	28.3	3.02e+01	0	31	0	173015040	46	6183
2026-01-18 02:26:48.45	171.89	10.65	-35.5	-36.8	28.5	3.02e+01	0	31	0	174587904	46	5937
2026-01-18 02:26:49.46	171.93	10.75	-35.9	-37.2	28.2	3.02e+01	0	31	0	176685056	46	6210
2026-01-18 02:26:50.46	171.97	10.84	-35.8	-37.1	28.4	3.02e+01	0	31	0	178257920	46	6148
2026-01-18 02:26:51.47	172.00	10.94	-35.7	-37.0	28.4	3.02e+01	0	31	0	180355072	46	6082
2026-01-18 02:26:52.48	172.04	11.04	-35.7	-37.0	28.4	3.02e+01	0	31	0	182452224	46	6103
2026-01-18 02:26:53.49	172.08	11.14	-35.6	-36.9	28.5	3.02e+01	0	31	0	184025088	46	6021
2026-01-18 02:26:54.50	172.12	11.23	-35.5	-36.8	28.5	3.02e+01	0	31	0	186122240	46	5960
2026-01-18 02:26:55.51	172.16	11.33	-35.6	-36.8	28.6	3.02e+01	0	31	0	188219392	46	5976
2026-01-18 02:26:56.52	172.19	11.43	-35.5	-36.7	28.6	3.02e+01	0	31	0	189792256	46	5923
2026-01-18 02:26:57.53	172.23	11.53	-35.5	-36.8	28.6	3.02e+01	0	31	0	191889408	46	5953
2026-01-18 02:26:58.54	172.27	11.63	-35.4	-36.6	28.7	3.02e+01	0	31	0	193462272	46	5832
2026-01-18 02:26:59.55	172.31	11.73	-35.4	-36.6	28.7	3.02e+01	0	31	0	195559424	46	5845
2026-01-18 02:27:00.56	172.35	11.83	-35.4	-36.6	28.8	3.02e+01	0	31	0	197656576	46	5818
2026-01-18 02:27:01.57	172.39	11.93	-35.4	-36.7	28.8	3.02e+01	0	31	0	199229440	46	5867
2026-01-18 02:27:02.58	172.43	12.04	-35.4	-36.7	28.7	3.02e+01	0	31	0	201326592	46	5885
2026-01-18 02:27:03.58	172.47	12.14	-35.5	-36.8	28.6	3.02e+01	0	31	0	202899456	46	5964
2026-01-18 02:27:04.59	172.51	12.24	-35.3	-36.5	28.9	3.02e+01	0	31	0	204996608	46	5762
2026-01-18 02:27:05.61	172.56	12.34	-35.3	-36.6	28.9	3.02e+01	0	31	0	207093760	46	5801
2026-01-18 02:27:06.61	172.60	12.45	-35.5	-36.8	28.8	3.02e+01	0	31	0	208666624	46	5949
2026-01-18 02:27:07.62	172.64	12.55	-35.3	-36.5	28.9	3.02e+01	0	31	0	210763776	46	5755
2026-01-18 02:27:08.63	172.68	12.66	-35.3	-36.6	28.9	3.02e+01	0	31	0	212336640	46	5799
2026-01-18 02:27:09.64	172.72	12.76	-35.5	-36.7	28.8	3.02e+01	0	31	0	214433792	46	5891
2026-01-18 02:27:10.65	172.77	12.87	-35.5	-36.7	28.7	3.02e+01	0	31	0	216530944	46	5899
2026-01-18 02:27:11.66	172.81	12.97	-35.5	-36.8	28.7	3.02e+01	0	31	0	218103808	46	5966
2026-01-18 02:27:12.67	172.85	13.08	-35.3	-36.6	28.9	3.02e+01	0	31	0	220200960	46	5799
2026-01-18 02:27:13.68	172.90	13.19	-35.4	-36.7	28.8	3.02e+01	0	31	0	221773824	46	5866
2026-01-18 02:27:14.68	172.94	13.29	-35.2	-36.5	29.0	3.02e+01	0	31	0	223870976	46	5733
2026-01-18 02:27:15.69	172.98	13.40	-35.3	-36.5	28.9	3.02e+01	0	31	0	225968128	46	5767
2026-01-18 02:27:16.70	173.03	13.51	-35.2	-36.5	29.1	3.02e+01	0	31	0	227540992	46	5732
2026-01-18 02:27:17.71	173.07	13.62	-35.1	-36.4	29.1	3.02e+01	0	31	0	229638144	46	5669
2026-01-18 02:27:18.72	173.12	13.73	-35.2	-36.5	29.0	3.02e+01	0	31	0	231735296	46	5729
2026-01-18 02:27:19.73	173.16	13.84	-35.2	-36.5	29.0	3.02e+01	0	31	0	233308160	46	5729
2026-01-18 02:27:20.74	173.21	13.95	-35.2	-36.5	29.1	3.02e+01	0	31	0	235405312	46	5733
2026-01-18 02:27:21.75	173.25	14.06	-35.4	-36.6	28.9	3.02e+01	0	31	0	236978176	46	5853
2026-01-18 02:27:22.76	173.30	14.17	-35.2	-36.5	29.1	3.02e+01	0	31	0	239075328	46	5739
2026-01-18 02:27:23.77	173.35	14.29	-35.3	-36.5	29.0	3.02e+01	0	31	0	241172480	46	5748
2026-01-18 02:27:24.78	173.39	14.40	-35.2	-36.4	29.1	3.02e+01	0	31	0	242745344	46	5690
2026-01-18 02:27:25.79	173.44	14.51	-35.2	-36.5	29.0	3.02e+01	0	31	0	244842496	46	5734
2026-01-18 02:27:26.80	173.49	14.63	-35.2	-36.4	29.1	3.02e+01	0	31	0	246415360	46	5686
2026-01-18 02:27:27.81	173.54	14.74	-35.2	-36.4	29.1	3.02e+01	0	31	0	248512512	46	5676
2026-01-18 02:27:28.82	173.59	14.86	-35.3	-36.5	29.0	3.02e+01	0	31	0	250609664	46	5752
2026-01-18 02:27:29.83	173.64	14.97	-35.2	-36.4	29.1	3.02e+01	0	31	0	252182528	46	5695
2026-01-18 02:27:30.84	173.69	15.09	-35.4	-36.6	28.9	3.02e+01	0	31	0	254279680	46	5844
2026-01-18 02:27:31.85	173.74	15.21	-35.2	-36.4	29.1	3.02e+01	0	31	0	255852544	46	5717
2026-01-18 02:27:32.85	173.79	15.32	-35.5	-36.7	28.9	3.02e+01	0	31	0	257949696	46	5897
2026-01-18 02:27:33.86	173.84	15.44	-35.1	-36.3	29.2	3.02e+01	0	31	0	260046848	46	5615
2026-01-18 02:27:34.87	173.89	15.56	-35.1	-36.3	29.1	3.02e+01	0	31	0	261619712	46	5642
2026-01-18 02:27:35.88	173.94	15.68	-35.3	-36.5	29.0	3.02e+01	0	31	0	263716864	46	5768
2026-01-18 02:27:36.89	173.99	15.80	-35.3	-36.5	29.1	3.02e+01	0	31	0	265289728	46	5774
2026-01-18 02:27:37.89	174.04	15.92	-35.1	-36.3	29.2	3.02e+01	0	31	0	267386880	46	5655
2026-01-18 02:27:38.91	174.09	16.05	-35.2	-36.5	29.2	3.02e+01	0	31	0	269484032	46	5727
2026-01-18 02:27:39.92	174.15	16.17	-35.1	-36.3	29.2	3.02e+01	0	31	0	271056896	46	5615
2026-01-18 02:27:40.92	174.20	16.29	-35.1	-36.3	29.2	3.02e+01	0	31	0	273154048	46	5631
2026-01-18 02:27:41.93	174.25	16.41	-35.1	-36.3	29.3	3.02e+01	0	31	0	275251200	46	5606
2026-01-18 02:27:42.94	174.31	16.54	-35.4	-45.6	3.6	3.02e+01	0	31	104	275775488	46	16373
2026-01-18 02:27:43.95	174.36	16.66	-35.6	-45.7	3.6	3.02e+01	0	31	104	275775488	46	16672
2026-01-18 02:27:44.96	174.42	16.79	-35.5	-45.6	3.6	3.02e+01	0	31	104	275775488	46	16396
2026-01-18 02:27:45.97	174.47	16.91	-35.7	-45.8	3.4	3.02e+01	0	31	104	275775488	46	16892
2026-01-18 02:27:46.98	174.53	17.04	-40.6	-51.2	3.6	3.02e+01	0	31	104	275775488	54	19631
2026-01-18 02:27:47.99	174.59	17.17	-46.4	-59.4	3.5	3.02e+01	0	31	104	275775488	60	35727
2026-01-18 02:27:49.00	174.64	17.30	-46.0	-58.7	3.6	3.02e+01	0	31	104	275775488	60	33023
2026-01-18 02:27:50.01	174.70	17.43	-47.4	-61.6	3.5	3.02e+01	0	31	104	275775488	60	46101
2026-01-18 02:27:51.02	174.76	17.56	-36.7	-47.0	3.4	3.02e+01	0	31	104	275775488	48	17109
2026-01-18 02:27:52.03	174.82	17.69	-35.9	-46.0	3.5	3.02e+01	0	31	104	275775488	48	15339
2026-01-18 02:27:53.04	174.88	17.82	-35.7	-45.8	3.6	3.02e+01	0	31	104	275775488	46	16891
2026-01-18 02:27:54.05	174.94	17.95	-35.7	-45.9	3.6	3.02e+01	0	31	104	275775488	46	16965
2026-01-18 02:27:55.06	175.00	18.08	-42.5	-53.4	3.6	3.02e+01	0	31	104	275775488	58	20222
2026-01-18 02:27:56.07	175.06	18.22	-41.4	-52.1	3.4	3.02e+01	0	31	104	275775488	56	19574
2026-01-18 02:27:57.08	175.12	18.35	-47.4	-61.5	3.5	3.02e+01	0	31	104	275775488	60	45587
2026-01-18 02:27:58.09	175.18	18.49	-48.0	-63.6	3.5	3.02e+01	0	31	104	275775488	60	58024
2026-01-18 02:27:59.10	175.24	18.62	-47.1	-60.7	3.7	3.02e+01	0	31	104	275775488	60	41715
2026-01-18 02:28:00.10	175.31	18.76	-40.1	-50.5	4.1	3.02e+01	0	31	104	275775488	56	16216
2026-01-18 02:28:01.11	175.37	18.90	-38.4	-48.6	4.1	3.02e+01	0	31	104	275775488	52	16468
2026-01-18 02:28:02.12	175.43	19.03	-37.5	-47.7	3.4	3.02e+01	0	31	104	275775488	50	16652
2026-01-18 02:28:03.13	175.50	19.17	-37.4	-47.6	4.1	3.02e+01	0	31	104	275775488	50	16467
2026-01-18 02:28:04.14	175.56	19.31	-36.6	-46.8	4.1	3.02e+01	0	31	104	275775488	48	16872
2026-01-18 02:28:05.15	175.63	19.46	-46.9	-60.3	3.6	3.02e+01	0	31	104	275775488	60	40034
2026-01-18 02:28:06.16	175.69	19.60	-41.5	-52.4	3.5	3.02e+01	0	31	104	275775488	58	17973
2026-01-18 02:28:07.17	175.76	19.74	-41.7	-52.6	3.4	3.02e+01	0	31	104	275775488	60	16364
2026-01-18 02:28:08.17	175.83	19.88	-47.9	-63.2	3.5	3.02e+01	0	31	104	275775488	60	55324
2026-01-18 02:28:09.19	175.90	20.03	-38.7	-49.2	3.5	3.02e+01	0	31	104	275775488	52	17504
2026-01-18 02:28:10.19	175.97	20.17	-37.7	-48.0	3.5	3.02e+01	0	31	104	275775488	50	17265
2026-01-18 02:28:11.20	176.03	20.32	-37.8	-48.1	3.5	3.02e+01	0	31	104	275775488	50	17451
2026-01-18 02:28:12.21	176.10	20.46	-37.3	-47.5	3.5	3.02e+01	0	31	104	275775488	50	16321
2026-01-18 02:28:13.22	176.18	20.61	-37.8	-48.1	3.5	3.02e+01	0	31	104	275775488	48	19460
2026-01-18 02:28:14.23	176.25	20.76	-39.4	-49.8	3.5	3.02e+01	0	31	104	275775488	58	13377
2026-01-18 02:28:15.24	176.32	20.91	-46.2	-58.9	3.5	3.02e+01	0	31	104	275775488	60	34088
2026-01-18 02:28:16.25	176.39	21.06	-44.6	-56.4	3.6	3.02e+01	0	31	104	275775488	60	25311
2026-01-18 02:28:17.25	176.47	21.21	-46.6	-59.5	3.5	3.02e+01	0	31	104	275775488	60	36212
2026-01-18 02:28:18.26	176.54	21.37	-38.2	-48.6	3.5	3.02e+01	0	31	104	275775488	52	16466
2026-01-18 02:28:19.27	176.61	21.52	-37.4	-47.8	3.5	3.02e+01	0	31	104	275775488	50	16765
2026-01-18 02:28:20.28	176.69	21.67	-37.4	-47.8	3.5	3.02e+01	0	31	104	275775488	50	16797
2026-01-18 02:28:21.29	176.77	21.83	-36.3	-46.7	3.5	3.02e+01	0	31	104	275775488	48	16574
2026-01-18 02:28:22.30	176.84	21.99	-39.8	-50.3	3.5	3.02e+01	0	31	104	275775488	54	17843
2026-01-18 02:28:23.31	176.92	22.14	-39.6	-50.1	3.7	3.02e+01	0	31	104	275775488	60	12380
2026-01-18 02:28:24.33	177.00	22.30	-41.7	-52.4	3.5	3.02e+01	0	31	104	275775488	58	18082
2026-01-18 02:28:25.33	177.08	22.46	-41.5	-52.2	3.6	3.02e+01	0	31	104	275775488	60	15613
2026-01-18 02:28:26.34	177.16	22.62	-47.7	-62.2	3.5	3.02e+01	0	31	104	275775488	60	49570
2026-01-18 02:28:27.35	177.24	22.78	-39.0	-49.5	3.5	3.02e+01	0	31	104	275775488	52	18246
2026-01-18 02:28:28.36	177.33	22.95	-38.5	-48.9	3.5	3.02e+01	0	31	104	275775488	52	17041
2026-01-18 02:28:29.36	177.41	23.11	-38.3	-48.7	3.5	3.02e+01	0	31	104	275775488	52	16540
2026-01-18 02:28:30.37	177.49	23.27	-36.7	-47.0	3.5	3.02e+01	0	31	104	275775488	50	15366
2026-01-18 02:28:31.38	177.58	23.44	-35.8	-46.0	3.5	3.02e+01	0	31	104	275775488	46	17271
2026-01-18 02:28:32.39	177.66	23.61	-36.4	-46.7	3.4	3.02e+01	0	31	104	275775488	52	13246
2026-01-18 02:28:33.40	177.75	23.78	-45.4	-57.6	3.5	3.02e+01	0	31	104	275775488	60	29308
2026-01-18 02:28:34.41	177.84	23.95	-39.6	-50.2	3.6	3.02e+01	0	31	104	275775488	60	12398
2026-01-18 02:28:35.42	177.92	24.12	-44.0	-55.4	3.5	3.02e+01	0	31	104	275775488	60	22674
2026-01-18 02:28:36.43	178.01	24.29	-38.0	-48.2	3.5	3.02e+01	0	31	104	275775488	50	17676
2026-01-18 02:28:37.43	178.10	24.46	-37.5	-47.7	3.5	3.02e+01	0	31	104	275775488	50	16683
2026-01-18 02:28:38.44	178.20	24.63	-36.9	-47.2	3.5	3.02e+01	0	31	104	275775488	48	17505
2026-01-18 02:28:39.45	178.29	24.81	-35.8	-46.0	3.5	3.02e+01	0	31	104	275775488	48	15400
2026-01-18 02:28:40.46	178.38	24.99	-35.9	-46.2	3.5	3.02e+01	0	31	104	275775488	46	17514
2026-01-18 02:28:41.47	178.48	25.16	-37.3	-47.7	3.5	3.02e+01	0	31	104	275775488	56	11763
2026-01-18 02:28:42.48	178.57	25.34	-41.4	-52.2	3.5	3.02e+01	0	31	104	275775488	60	15747
2026-01-18 02:28:43.49	178.67	25.52	-36.5	-46.8	3.5	3.02e+01	0	31	104	275775488	50	14921
2026-01-18 02:28:44.50	178.77	25.70	-40.1	-50.7	3.5	3.02e+01	0	31	104	275775488	60	13188
2026-01-18 02:28:45.51	178.87	25.89	-36.2	-46.4	3.5	3.02e+01	0	31	104	275775488	48	16131
2026-01-18 02:28:46.52	178.97	26.07	-35.9	-46.0	3.5	3.02e+01	0	31	104	275775488	46	17286
2026-01-18 02:28:47.53	179.07	26.25	-35.6	-45.8	3.5	3.02e+01	0	31	104	275775488	46	16863
2026-01-18 02:28:48.54	179.17	26.44	-36.6	-46.9	3.5	3.02e+01	0	31	104	275775488	46	19078
2026-01-18 02:28:49.55	179.27	26.63	-40.1	-50.7	3.6	3.02e+01	0	31	104	275775488	52	20794
2026-01-18 02:28:50.56	179.38	26.82	-36.2	-46.5	3.5	3.02e+01	0	31	104	275775488	46	18227
2026-01-18 02:28:51.56	179.48	27.01	-44.3	-56.0	3.5	3.02e+01	0	31	104	275775488	60	24298
2026-01-18 02:28:52.58	179.59	27.20	-35.7	-45.9	3.5	3.02e+01	0	31	104	275775488	46	16954
2026-01-18 02:28:53.58	179.70	27.39	-41.5	-52.2	3.6	3.02e+01	0	31	104	275775488	60	15662
2026-01-18 02:28:54.59	179.81	27.59	-38.8	-49.2	3.5	3.02e+01	0	31	104	275775488	52	17670
2026-01-18 02:28:55.60	179.92	27.78	-38.8	-49.2	3.5	3.02e+01	0	31	104	275775488	52	17645
2026-01-18 02:28:56.61	180.03	27.98	-38.5	-48.9	3.5	3.02e+01	0	31	104	275775488	52	16978
2026-01-18 02:28:57.62	180.15	28.18	-35.4	-45.7	3.5	3.02e+01	0	31	104	275775488	46	16582
2026-01-18 02:28:58.63	180.26	28.38	-37.9	-48.3	3.5	3.02e+01	0	31	104	275775488	46	22275
2026-01-18 02:28:59.64	180.38	28.58	-36.3	-46.5	3.5	3.02e+01	0	31	104	275775488	44	20363
2026-01-18 02:29:00.65	180.50	28.78	-41.4	-52.0	3.5	3.02e+01	0	31	104	275775488	56	19266
2026-01-18 02:29:01.66	180.62	28.99	-41.7	-52.5	3.8	3.02e+01	0	31	104	275775488	50	28764
2026-01-18 02:29:02.66	180.74	29.19	-40.5	-51.2	3.4	3.02e+01	0	31	104	275775488	58	15623
2026-01-18 02:29:03.67	180.86	29.40	-38.0	-48.4	3.5	3.02e+01	0	31	104	275775488	52	16065
2026-01-18 02:29:04.68	180.99	29.61	-38.4	-48.8	3.5	3.02e+01	0	31	104	275775488	52	16792
2026-01-18 02:29:05.69	181.11	29.82	-38.1	-48.5	3.5	3.02e+01	0	31	104	275775488	50	18306
2026-01-18 02:29:06.70	181.24	30.03	-39.2	-49.7	3.5	3.02e+01	0	31	104	275775488	50	21021
2026-01-18 02:29:07.71	181.37	30.24	-44.5	-56.2	3.5	3.02e+01	0	31	104	275775488	60	24757
2026-01-18 02:29:08.72	181.50	30.46	-37.6	-48.0	3.5	3.02e+01	0	31	104	275775488	44	24163
2026-01-18 02:29:09.73	181.64	30.68	-43.9	-55.2	3.5	3.02e+01	0	31	104	275775488	56	27840
2026-01-18 02:29:10.74	181.77	30.89	-39.0	-49.4	3.5	3.02e+01	0	31	104	275775488	46	25381
2026-01-18 02:29:11.75	181.91	31.11	-37.0	-47.4	3.5	3.02e+01	0	31	104	275775488	50	15954
2026-01-18 02:29:12.76	182.05	31.34	-36.1	-46.4	3.5	3.02e+01	0	31	104	275775488	48	16055
2026-01-18 02:29:13.77	182.19	31.56	-35.6	-45.8	3.5	3.02e+01	0	31	104	275775488	46	16894
2026-01-18 02:29:14.78	182.33	31.78	-35.6	-45.8	3.5	3.02e+01	0	31	104	275775488	46	16758
2026-01-18 02:29:15.79	182.48	32.01	-41.0	-51.6	3.5	3.02e+01	0	31	104	275775488	52	23287
2026-01-18 02:29:16.80	182.62	32.24	-39.7	-50.3	3.5	3.02e+01	0	31	104	275775488	48	25095
2026-01-18 02:29:17.80	182.77	32.47	-46.0	-58.5	3.5	3.02e+01	0	31	104	275775488	60	32252
2026-01-18 02:29:18.81	182.92	32.70	-43.0	-54.1	3.5	3.02e+01	0	31	104	275775488	60	19523
2026-01-18 02:29:19.82	183.08	32.93	-44.5	-56.1	3.4	3.02e+01	0	31	104	275775488	56	30978
2026-01-18 02:29:20.83	183.23	33.17	-40.1	-50.6	3.5	3.02e+01	0	31	104	275775488	56	16385
2026-01-18 02:29:21.84	183.39	33.40	-38.5	-48.9	3.5	3.02e+01	0	31	104	275775488	52	17013
2026-01-18 02:29:22.85	183.55	33.64	-37.6	-48.0	3.5	3.02e+01	0	31	104	275775488	50	17130
2026-01-18 02:29:23.86	183.71	33.88	-37.3	-47.7	3.5	3.02e+01	0	31	104	275775488	50	16558
2026-01-18 02:29:24.87	183.87	34.12	-47.1	-60.5	3.5	3.02e+01	0	31	104	275775488	60	40760
2026-01-18 02:29:25.88	184.04	34.37	-47.6	-61.7	3.5	3.02e+01	0	31	104	275775488	60	46561
2026-01-18 02:29:26.89	184.21	34.61	-43.0	-54.0	3.5	3.02e+01	0	31	104	275775488	56	24191
2026-01-18 02:29:27.90	184.38	34.86	-47.4	-61.9	3.5	3.02e+01	0	31	104	275775488	60	47831
2026-01-18 02:29:28.91	184.56	35.11	-46.9	-60.5	3.5	3.02e+01	0	31	104	275775488	60	40635
2026-01-18 02:29:29.92	184.74	35.36	-40.5	-51.1	3.5	3.02e+01	0	31	104	275775488	56	17485
2026-01-18 02:29:30.93	184.92	35.61	-39.4	-49.9	3.5	3.02e+01	0	31	104	275775488	54	16971
2026-01-18 02:29:31.94	185.10	35.87	-38.1	-48.4	3.5	3.02e+01	0	31	104	275775488	52	16122
2026-01-18 02:29:32.95	185.29	36.12	-37.3	-47.7	3.5	3.02e+01	0	31	104	275775488	50	16547
2026-01-18 02:29:33.95	185.47	36.38	-42.8	-54.0	3.5	3.02e+01	0	31	104	275775488	58	21565
2026-01-18 02:29:34.96	185.67	36.64	-44.8	-56.7	3.5	3.02e+01	0	31	104	275775488	60	26399
2026-01-18 02:29:35.97	185.86	36.90	-46.9	-60.4	3.5	3.02e+01	0	31	104	275775488	60	40099
2026-01-18 02:29:36.98	186.06	37.16	-48.4	-65.3	3.5	3.02e+01	0	31	104	275775488	60	70850
2026-01-18 02:29:37.99	186.26	37.43	-45.5	-57.8	3.5	3.02e+01	0	31	104	275775488	60	29806
2026-01-18 02:29:39.00	186.47	37.70	-38.6	-49.1	3.5	3.02e+01	0	31	104	275775488	52	17350
2026-01-18 02:29:40.01	186.67	37.97	-38.6	-49.2	3.5	3.02e+01	0	31	104	275775488	52	17663
2026-01-18 02:29:41.02	186.88	38.24	-37.9	-48.3	3.5	3.02e+01	0	31	104	275775488	52	15843
2026-01-18 02:29:42.03	187.10	38.51	-37.8	-48.1	3.5	3.02e+01	0	31	104	275775488	50	17442
2026-01-18 02:29:43.04	187.32	38.79	-43.0	-54.2	3.6	3.02e+01	0	31	104	275775488	58	22266
2026-01-18 02:29:44.05	187.54	39.06	-46.3	-59.7	3.5	3.02e+01	0	31	104	275775488	60	37045
2026-01-18 02:29:45.06	187.77	39.34	-47.8	-63.8	3.6	3.02e+01	0	31	104	275775488	60	59687
2026-01-18 02:29:46.06	188.00	39.62	-46.1	-58.9	3.5	3.02e+01	0	31	104	275775488	60	33949
2026-01-18 02:29:47.08	188.23	39.91	-48.2	-64.0	3.5	3.02e+01	0	31	104	275775488	60	61335
2026-01-18 02:29:48.09	188.47	40.19	-39.2	-49.7	3.5	3.02e+01	0	31	104	275775488	54	16686
2026-01-18 02:29:49.09	188.71	40.47	-38.6	-49.1	3.5	3.02e+01	0	31	104	275775488	52	17376
2026-01-18 02:29:50.10	188.96	40.76	-38.2	-48.6	3.5	3.02e+01	0	31	104	275775488	52	16466
2026-01-18 02:29:51.11	189.21	41.05	-36.9	-47.2	3.5	3.02e+01	0	31	104	275775488	50	15758
2026-01-18 02:29:52.12	189.47	41.34	-38.2	-48.5	3.5	3.02e+01	0	31	104	275775488	50	18233
2026-01-18 02:29:53.13	189.73	41.64	-46.7	-60.0	3.5	3.02e+01	0	31	104	275775488	60	38627
2026-01-18 02:29:54.14	189.99	41.93	-46.5	-59.6	3.5	3.02e+01	0	31	104	275775488	60	36691
2026-01-18 02:29:55.15	190.26	42.23	-44.3	-56.1	3.6	3.02e+01	0	31	104	275775488	60	24518
2026-01-18 02:29:56.16	190.54	42.53	-46.2	-59.1	3.6	3.02e+01	0	31	104	275775488	60	34721
2026-01-18 02:29:57.16	190.82	42.83	-37.1	-47.3	3.5	3.02e+01	0	31	104	275775488	48	17888
2026-01-18 02:29:58.17	191.10	43.13	-36.4	-46.7	3.5	3.02e+01	0	31	104	275775488	48	16593
2026-01-18 02:29:59.18	191.40	43.44	-36.1	-46.5	3.5	3.02e+01	0	31	104	275775488	48	16223
2026-01-18 02:30:00.19	191.69	43.74	-35.8	-46.0	3.5	3.02e+01	0	31	104	275775488	46	17172
2026-01-18 02:30:01.20	192.00	44.05	-41.0	-51.7	3.5	3.02e+01	0	31	104	275775488	60	14780
2026-01-18 02:30:02.21	192.30	44.36	-42.7	-53.7	3.5	3.02e+01	0	31	104	275775488	60	18719
2026-01-18 02:30:03.22	192.62	44.67	-45.1	-57.0	3.5	3.02e+01	0	31	104	275775488	60	27282
2026-01-18 02:30:04.23	192.94	44.99	-44.9	-56.8	3.6	3.02e+01	0	31	104	275775488	60	26748
2026-01-18 02:30:05.24	193.27	45.30	-45.2	-57.3	3.6	3.02e+01	0	31	104	275775488	60	28152
2026-01-18 02:30:06.25	193.60	45.62	-36.4	-46.7	3.5	3.02e+01	0	31	104	275775488	48	16626
2026-01-18 02:30:07.26	193.94	45.94	-35.6	-45.9	3.5	3.02e+01	0	31	104	275775488	46	16946
2026-01-18 02:30:08.27	194.29	46.26	-35.1	-45.3	3.5	3.02e+01	0	31	104	275775488	46	15797
2026-01-18 02:30:09.28	194.65	46.58	-34.9	-45.2	3.5	3.02e+01	0	31	104	275775488	46	15718
2026-01-18 02:30:10.29	195.01	46.90	-39.2	-49.6	3.5	3.02e+01	0	31	104	275775488	60	11581
2026-01-18 02:30:11.30	195.38	47.22	-38.6	-49.1	3.7	3.02e+01	0	31	104	275775488	60	10972
2026-01-18 02:30:12.30	195.75	47.54	-44.0	-55.4	3.5	3.02e+01	0	31	104	275775488	60	22789
2026-01-18 02:30:13.32	196.14	47.87	-42.5	-53.5	3.8	3.02e+01	0	31	104	275775488	60	18217
2026-01-18 02:30:14.32	196.53	48.20	-46.4	-59.2	3.5	3.02e+01	0	31	104	275775488	60	34973
2026-01-18 02:30:15.33	196.94	48.53	-39.4	-49.8	3.5	3.02e+01	0	31	104	275775488	54	16808
2026-01-18 02:30:16.34	197.35	48.86	-40.3	-50.9	3.5	3.02e+01	0	31	104	275775488	54	19175
2026-01-18 02:30:17.35	197.77	49.19	-41.7	-52.4	3.5	3.02e+01	0	31	104	275775488	56	20259
2026-01-18 02:30:18.36	198.20	49.52	-40.8	-51.4	3.5	3.02e+01	0	31	104	275775488	54	20153
2026-01-18 02:30:19.37	198.63	49.85	-41.5	-52.2	3.5	3.02e+01	0	31	104	275775488	60	15659
2026-01-18 02:30:20.38	199.08	50.19	-36.4	-46.8	3.6	3.02e+01	0	31	104	275775488	54	11837
2026-01-18 02:30:21.39	199.54	50.52	-45.1	-56.7	3.5	3.02e+01	0	31	104	275775488	60	26356
2026-01-18 02:30:22.40	200.01	50.85	-38.0	-48.4	3.6	3.02e+01	0	31	104	275775488	56	12808
2026-01-18 02:30:23.41	200.49	51.19	-46.3	-58.8	3.5	3.02e+01	0	31	104	275775488	60	33613
2026-01-18 02:30:24.42	200.98	51.53	-39.8	-50.4	3.5	3.02e+01	0	31	104	275775488	54	17925
2026-01-18 02:30:25.43	201.48	51.86	-38.6	-49.0	3.5	3.02e+01	0	31	104	275775488	52	17288
2026-01-18 02:30:26.44	201.99	52.20	-38.0	-48.4	3.6	3.02e+01	0	31	104	275775488	50	18008
2026-01-18 02:30:27.45	202.51	52.53	-35.1	-45.2	3.6	3.02e+01	0	31	104	275775488	46	15742
2026-01-18 02:30:28.46	203.05	52.87	-35.1	-45.4	3.5	3.02e+01	0	31	104	275775488	44	18092
2026-01-18 02:30:29.47	203.60	53.21	-35.9	-46.1	3.6	3.02e+01	0	31	104	275775488	52	12255
2026-01-18 02:30:30.48	204.16	53.54	-44.6	-56.2	3.5	3.02e+01	0	31	104	275775488	60	24717
2026-01-18 02:30:31.49	204.74	53.88	-37.5	-47.6	3.5	3.02e+01	0	31	104	275775488	58	10398
2026-01-18 02:30:32.50	205.32	54.21	-41.1	-52.0	3.5	3.02e+01	0	31	104	275775488	58	17164
2026-01-18 02:30:33.51	205.93	54.55	-37.4	-47.7	3.5	3.02e+01	0	31	104	275775488	50	16565
2026-01-18 02:30:34.52	206.54	54.88	-36.4	-46.7	3.5	3.02e+01	0	31	104	275775488	48	16553
2026-01-18 02:30:35.53	207.17	55.21	-36.3	-46.5	3.6	3.02e+01	0	31	104	275775488	46	18210
2026-01-18 02:30:36.54	207.82	55.54	-40.3	-50.8	3.8	3.02e+01	0	31	104	275775488	50	23767
2026-01-18 02:30:37.55	208.48	55.87	-48.1	-63.2	3.4	3.02e+01	0	31	104	275775488	60	55386
2026-01-18 02:30:38.56	209.16	56.20	-36.2	-46.4	3.5	3.02e+01	0	31	104	275775488	48	16113
2026-01-18 02:30:39.56	209.84	56.52	-44.8	-56.5	3.5	3.02e+01	0	31	104	275775488	60	25592
2026-01-18 02:30:40.57	210.55	56.84	-36.5	-46.8	3.5	3.02e+01	0	31	104	275775488	50	14951
2026-01-18 02:30:41.58	211.28	57.16	-41.8	-52.6	3.5	3.02e+01	0	31	104	275775488	60	16428
2026-01-18 02:30:42.59	212.02	57.48	-39.5	-50.0	3.5	3.02e+01	0	31	104	275775488	54	17170
2026-01-18 02:30:43.60	212.78	57.80	-39.0	-49.4	3.5	3.02e+01	0	31	104	275775488	52	18020
2026-01-18 02:30:44.61	213.56	58.11	-39.4	-50.0	3.5	3.02e+01	0	31	104	275775488	52	19271
2026-01-18 02:30:45.62	214.35	58.42	-43.5	-54.7	3.5	3.02e+01	0	31	104	275775488	56	26280
2026-01-18 02:30:46.63	215.17	58.72	-47.1	-60.6	3.5	3.02e+01	0	31	104	275775488	60	41041
2026-01-18 02:30:47.63	216.00	59.02	-39.0	-49.2	3.5	3.02e+01	0	31	104	275775488	50	19851
2026-01-18 02:30:48.64	216.85	59.32	-48.1	-62.8	3.5	3.02e+01	0	31	104	275775488	60	52898
2026-01-18 02:30:49.65	217.72	59.61	-41.0	-51.6	3.5	3.02e+01	0	31	104	275775488	56	18468
2026-01-18 02:30:50.66	218.61	59.90	-42.2	-53.1	3.5	3.02e+01	0	31	104	275775488	60	17319
2026-01-18 02:30:51.67	219.53	60.19	-41.5	-52.2	3.5	3.02e+01	0	31	104	275775488	58	17596
2026-01-18 02:30:52.68	220.46	60.47	-40.8	-51.4	3.5	3.02e+01	0	31	104	275775488	56	18100
2026-01-18 02:30:53.69	221.41	60.74	-41.0	-51.8	3.5	3.02e+01	0	31	104	275775488	56	18911
2026-01-18 02:30:54.70	222.39	61.01	-43.8	-55.0	3.5	3.02e+01	0	31	104	275775488	58	24405
2026-01-18 02:30:55.71	223.38	61.27	-40.9	-51.6	3.5	3.02e+01	0	31	104	275775488	54	20718
2026-01-18 02:30:56.72	224.39	61.52	-45.6	-57.8	3.5	3.02e+01	0	31	104	275775488	58	33372
2026-01-18 02:30:57.73	225.43	61.77	-48.7	-65.3	3.5	3.02e+01	0	31	104	275775488	60	70441
2026-01-18 02:30:58.74	226.49	62.01	-44.1	-55.6	3.5	3.02e+01	0	31	104	275775488	56	29300
2026-01-18 02:30:59.76	227.57	62.25	-43.0	-54.0	3.5	3.02e+01	0	31	104	275775488	60	19218
2026-01-18 02:31:00.77	228.67	62.47	-41.3	-52.2	3.5	3.02e+01	0	31	104	275775488	58	17552
2026-01-18 02:31:01.77	229.78	62.69	-39.8	-50.1	3.5	3.02e+01	0	31	104	275775488	56	15451
2026-01-18 02:31:02.78	230.92	62.89	-39.3	-50.0	3.5	3.02e+01	0	31	104	275775488	54	17118
2026-01-18 02:31:03.79	232.07	63.09	-44.3	-55.8	3.6	3.02e+01	0	31	104	275775488	60	23759
2026-01-18 02:31:04.80	233.25	63.28	-46.2	-58.7	3.5	3.02e+01	0	31	104	275775488	60	33238
2026-01-18 02:31:05.81	234.45	63.46	-48.4	-63.7	3.5	3.02e+01	0	31	104	275775488	60	58864
2026-01-18 02:31:06.82	235.66	63.64	-49.0	-67.0	3.5	3.02e+01	0	31	104	275775488	60	85721
2026-01-18 02:31:07.83	236.89	63.80	-41.0	-51.7	3.4	3.02e+01	0	31	104	275775488	52	23530
2026-01-18 02:31:08.84	238.14	63.95	-40.6	-51.1	3.5	3.02e+01	0	31	104	275775488	56	17318
2026-01-18 02:31:09.85	239.40	64.09	-41.0	-51.6	3.6	3.02e+01	0	31	104	275775488	56	18522
2026-01-18 02:31:10.86	240.67	64.22	-40.4	-51.0	3.5	3.02e+01	0	31	104	275775488	56	17097
2026-01-18 02:31:11.87	241.97	64.33	-39.9	-50.3	3.5	3.02e+01	0	31	104	275775488	56	15918
2026-01-18 02:31:12.87	243.26	64.44	-47.2	-61.0	3.5	3.02e+01	0	31	104	275775488	60	43104
2026-01-18 02:31:13.88	244.57	64.53	-44.2	-55.6	3.5	3.02e+01	0	31	104	275775488	58	25976
2026-01-18 02:31:14.89	245.90	64.62	-49.0	-66.3	3.5	3.02e+01	0	31	104	275775488	60	79374
2026-01-18 02:31:15.90	247.23	64.69	-48.9	-65.7	3.5	3.02e+01	0	31	104	275775488	60	74239
2026-01-18 02:31:16.91	248.57	64.74	-47.3	-60.8	3.5	3.02e+01	0	31	104	275775488	60	42108
2026-01-18 02:31:17.92	249.92	64.79	-43.6	-54.6	3.5	3.02e+01	0	31	104	275775488	60	20738
2026-01-18 02:31:18.93	251.27	64.82	-42.4	-53.4	3.5	3.02e+01	0	31	104	275775488	60	17973
2026-01-18 02:31:19.94	252.63	64.85	-41.9	-52.5	3.5	3.02e+01	0	31	104	275775488	58	18162
2026-01-18 02:31:20.95	253.98	64.85	-41.5	-52.4	3.5	3.02e+01	0	31	104	275775488	58	17911
2026-01-18 02:31:21.95	255.33	64.85	-49.1	-66.6	3.5	3.02e+01	0	31	104	275775488	60	81845
2026-01-18 02:31:22.96	256.68	64.83	-46.3	-58.8	3.5	3.02e+01	0	31	104	275775488	60	33459
2026-01-18 02:31:23.97	258.04	64.81	-49.0	-65.1	3.5	3.02e+01	0	31	104	275775488	60	69023
2026-01-18 02:31:24.98	259.39	64.77	-49.3	-67.1	3.5	3.02e+01	0	31	104	275775488	60	87385
2026-01-18 02:31:25.99	260.73	64.71	-44.4	-55.7	3.5	3.02e+01	0	31	104	275775488	58	26332
2026-01-18 02:31:27.00	262.07	64.65	-40.6	-51.1	3.5	3.02e+01	0	31	104	275775488	56	17433
2026-01-18 02:31:28.00	263.38	64.57	-41.0	-51.5	3.5	3.02e+01	0	31	104	275775488	56	18249
2026-01-18 02:31:29.01	264.70	64.48	-40.4	-50.9	3.5	3.02e+01	0	31	104	275775488	56	17010
2026-01-18 02:31:30.02	266.01	64.38	-39.9	-50.7	3.5	3.02e+01	0	31	104	275775488	56	16525
2026-01-18 02:31:31.03	267.30	64.27	-47.5	-60.7	3.5	3.02e+01	0	31	104	275775488	60	41757
2026-01-18 02:31:32.04	268.58	64.14	-47.2	-60.4	3.5	3.02e+01	0	31	104	275775488	60	40440
2026-01-18 02:31:33.05	269.85	64.01	-49.4	-66.9	3.5	3.02e+01	0	31	104	275775488	60	84695
2026-01-18 02:31:34.06	271.10	63.86	-49.0	-65.1	3.5	3.02e+01	0	31	104	275775488	60	69076
2026-01-18 02:31:35.07	272.34	63.70	-45.6	-57.4	3.5	3.02e+01	0	31	104	275775488	60	28390
2026-01-18 02:31:36.08	273.56	63.54	-39.5	-49.8	3.5	3.02e+01	0	31	104	275775488	54	16878
2026-01-18 02:31:37.09	274.76	63.36	-39.3	-49.4	3.5	3.02e+01	0	31	104	275775488	52	17995
2026-01-18 02:31:38.10	275.94	63.17	-39.1	-49.8	3.5	3.02e+01	0	31	104	275775488	52	18955
2026-01-18 02:31:39.11	277.11	62.98	-39.1	-49.4	3.5	3.02e+01	0	31	104	275775488	52	18097
2026-01-18 02:31:40.12	278.25	62.77	-47.7	-61.3	3.5	3.02e+01	0	31	104	275775488	60	44859
2026-01-18 02:31:41.12	279.37	62.56	-45.4	-56.9	3.5	3.02e+01	0	31	104	275775488	60	27052
2026-01-18 02:31:42.13	280.47	62.34	-49.3	-65.5	3.5	3.02e+01	0	31	104	275775488	60	72528
2026-01-18 02:31:43.14	281.55	62.11	-49.3	-67.3	3.5	3.02e+01	0	31	104	275775488	60	88821
2026-01-18 02:31:44.15	282.62	61.87	-47.7	-61.3	3.5	3.02e+01	0	31	104	275775488	60	44921
2026-01-18 02:31:45.16	283.66	61.63	-42.7	-53.6	3.5	3.02e+01	0	31	104	275775488	60	18514
2026-01-18 02:31:46.17	284.68	61.38	-42.2	-53.1	3.5	3.02e+01	0	31	104	275775488	58	19583
2026-01-18 02:31:47.17	285.68	61.12	-42.3	-52.9	3.5	3.02e+01	0	31	104	275775488	58	18959
2026-01-18 02:31:48.18	286.66	60.86	-41.9	-52.5	3.5	3.02e+01	0	31	104	275775488	58	18266
2026-01-18 02:31:49.19	287.62	60.59	-41.6	-52.2	3.6	3.02e+01	0	31	104	275775488	58	17592
2026-01-18 02:31:50.20	288.56	60.31	-43.1	-54.3	3.6	3.02e+01	0	31	104	275775488	60	20003
2026-01-18 02:31:51.21	289.48	60.03	-48.9	-65.2	3.6	3.02e+01	0	31	104	275775488	60	70072
2026-01-18 02:31:52.21	290.37	59.75	-48.7	-63.3	3.6	3.02e+01	0	31	104	275775488	60	56592
2026-01-18 02:31:53.22	291.25	59.46	-43.0	-54.1	3.5	3.02e+01	0	31	104	275775488	60	19510
2026-01-18 02:31:54.23	292.11	59.16	-38.1	-48.2	3.5	3.02e+01	0	31	104	275775488	50	17678
2026-01-18 02:31:55.24	292.95	58.86	-39.1	-49.6	3.5	3.02e+01	0	31	104	275775488	50	20676
2026-01-18 02:31:56.25	293.77	58.56	-38.9	-49.5	3.6	3.02e+01	0	31	104	275775488	52	18146
2026-01-18 02:31:57.26	294.58	58.25	-37.8	-48.0	3.5	3.02e+01	0	31	104	275775488	50	17235
2026-01-18 02:31:58.27	295.36	57.94	-38.8	-49.0	3.5	3.02e+01	0	31	104	275775488	54	15358
2026-01-18 02:31:59.28	296.13	57.63	-39.6	-50.5	3.5	3.02e+01	0	31	104	275775488	60	12825
2026-01-18 02:32:00.29	296.88	57.31	-48.3	-63.3	3.5	3.02e+01	0	31	104	275775488	60	56201
2026-01-18 02:32:01.30	297.61	56.99	-46.0	-58.2	3.6	3.02e+01	0	31	104	275775488	60	31210
2026-01-18 02:32:02.31	298.33	56.67	-44.5	-55.6	3.6	3.02e+01	0	31	104	275775488	60	23182
2026-01-18 02:32:03.32	299.02	56.35	-38.1	-48.5	3.6	3.02e+01	0	31	104	275775488	50	18238
2026-01-18 02:32:04.32	299.70	56.03	-37.7	-48.1	3.5	3.02e+01	0	31	104	275775488	50	17345
2026-01-18 02:32:05.33	300.37	55.70	-37.3	-47.8	3.6	3.02e+01	0	31	104	275775488	48	18778
2026-01-18 02:32:06.34	301.02	55.37	-36.2	-46.4	3.5	3.02e+01	0	31	104	275775488	48	16053
2026-01-18 02:32:07.35	301.65	55.04	-36.1	-46.1	3.5	3.02e+01	0	31	104	275775488	48	15491
2026-01-18 02:32:08.36	302.27	54.71	-37.5	-47.8	3.6	3.02e+01	0	31	104	275775488	54	13286
2026-01-18 02:32:09.37	302.88	54.38	-48.9	-64.3	3.5	3.02e+01	0	31	104	275775488	60	63432
2026-01-18 02:32:10.37	303.47	54.05	-44.3	-55.8	3.6	3.02e+01	0	31	104	275775488	60	23773
2026-01-18 02:32:11.38	304.05	53.71	-42.4	-53.5	3.5	3.02e+01	0	31	104	275775488	60	18160
2026-01-18 02:32:12.39	304.62	53.38	-40.1	-50.4	3.5	3.02e+01	0	31	104	275775488	54	18074
2026-01-18 02:32:13.40	305.17	53.05	-38.6	-48.8	3.5	3.02e+01	0	31	104	275775488	52	16894
2026-01-18 02:32:14.41	305.71	52.71	-39.6	-50.4	3.5	3.02e+01	0	31	104	275775488	52	20086
2026-01-18 02:32:15.42	306.24	52.38	-40.3	-50.9	3.5	3.02e+01	0	31	104	275775488	52	21406
2026-01-18 02:32:16.43	306.76	52.04	-41.1	-51.7	3.5	3.02e+01	0	31	104	275775488	60	14839
2026-01-18 02:32:17.44	307.26	51.71	-36.2	-46.7	3.5	3.02e+01	0	31	104	275775488	50	14823
2026-01-18 02:32:18.45	307.76	51.37	-47.9	-61.5	3.5	3.02e+01	0	31	104	275775488	60	45728
2026-01-18 02:32:19.46	308.24	51.04	-39.8	-50.1	3.6	3.02e+01	0	31	104	275775488	60	12343
2026-01-18 02:32:20.47	308.71	50.70	-42.3	-53.0	3.5	3.02e+01	0	31	104	275775488	60	17168
2026-01-18 02:32:21.48	309.17	50.37	-38.3	-48.8	3.5	3.02e+01	0	31	104	275775488	52	16821
2026-01-18 02:32:22.48	309.62	50.04	-37.8	-48.3	3.5	3.02e+01	0	31	104	275775488	50	17701
2026-01-18 02:32:23.49	310.06	49.71	-37.1	-47.4	3.5	3.02e+01	0	31	104	275775488	50	16088
2026-01-18 02:32:24.50	310.50	49.38	-38.7	-49.1	3.6	3.02e+01	0	31	104	275775488	48	21908
2026-01-18 02:32:25.51	310.92	49.05	-37.0	-47.0	3.5	3.02e+01	0	31	104	275775488	50	15284
2026-01-18 02:32:26.52	311.33	48.72	-38.5	-49.0	3.7	3.02e+01	0	31	104	275775488	48	21729
2026-01-18 02:32:27.53	311.74	48.39	-48.1	-62.4	3.5	3.02e+01	0	31	104	275775488	60	50685
2026-01-18 02:32:28.53	312.13	48.07	-39.5	-49.9	3.7	3.02e+01	0	31	104	275775488	60	12032
2026-01-18 02:32:29.54	312.52	47.74	-40.1	-50.6	3.7	3.02e+01	0	31	104	275775488	56	16338
2026-01-18 02:32:30.55	312.90	47.42	-38.0	-48.2	3.6	3.02e+01	0	31	104	275775488	50	17587
2026-01-18 02:32:31.56	313.28	47.09	-37.1	-47.3	3.5	3.02e+01	0	31	104	275775488	48	17818
2026-01-18 02:32:32.57	313.64	46.77	-37.6	-47.9	3.5	3.02e+01	0	31	104	275775488	48	19035
2026-01-18 02:32:33.58	314.00	46.45	-38.0	-48.5	3.5	3.02e+01	0	31	104	275775488	48	20412
2026-01-18 02:32:34.59	314.35	46.13	-39.6	-50.1	3.5	3.02e+01	0	31	104	275775488	52	19583
2026-01-18 02:32:35.60	314.70	45.81	-40.5	-50.9	3.5	3.02e+01	0	31	104	275775488	48	27061
2026-01-18 02:32:36.60	315.03	45.50	-48.7	-64.0	3.5	3.02e+01	0	31	104	275775488	60	60852
2026-01-18 02:32:37.61	315.36	45.19	-36.9	-47.3	3.5	3.02e+01	0	31	104	275775488	52	14090
2026-01-18 02:32:38.62	315.68	44.87	-39.2	-49.7	3.6	3.02e+01	0	31	104	275775488	54	16597
2026-01-18 02:32:39.63	316.00	44.56	-38.2	-48.4	3.5	3.02e+01	0	31	104	275775488	50	18025
2026-01-18 02:32:40.64	316.31	44.25	-37.5	-47.6	3.5	3.02e+01	0	31	104	275775488	50	16373
2026-01-18 02:32:41.65	316.62	43.95	-36.8	-47.4	3.5	3.02e+01	0	31	104	275775488	48	17972
2026-01-18 02:32:42.66	316.92	43.64	-38.6	-49.2	3.4	3.02e+01	0	31	104	275775488	48	22152
2026-01-18 02:32:43.67	317.21	43.33	-36.9	-47.1	3.5	3.02e+01	0	31	104	275775488	48	17342
2026-01-18 02:32:44.68	317.50	43.03	-41.8	-52.4	3.5	3.02e+01	0	31	104	275775488	48	32094
2026-01-18 02:32:45.69	317.78	42.73	-48.3	-62.8	3.5	3.02e+01	0	31	104	275775488	60	52937
2026-01-18 02:32:46.70	318.06	42.43	-36.9	-47.3	3.5	3.02e+01	0	31	104	275775488	50	15799
2026-01-18 02:32:47.71	318.33	42.13	-38.0	-48.3	3.5	3.02e+01	0	31	104	275775488	50	17827
2026-01-18 02:32:48.72	318.60	41.84	-37.5	-47.7	3.5	3.02e+01	0	31	104	275775488	50	16623
2026-01-18 02:32:49.73	318.86	41.55	-37.4	-47.6	3.6	3.02e+01	0	31	104	275775488	50	16507
2026-01-18 02:32:50.74	319.12	41.25	-37.4	-47.6	3.5	3.02e+01	0	31	104	275775488	50	16341
2026-01-18 02:32:51.75	319.38	40.96	-37.9	-48.4	3.5	3.02e+01	0	31	104	275775488	50	17931
2026-01-18 02:32:52.76	319.62	40.68	-41.5	-52.3	3.5	3.02e+01	0	31	104	275775488	56	19885
2026-01-18 02:32:53.77	319.87	40.39	-46.9	-59.6	3.5	3.02e+01	0	31	104	275775488	60	36665
2026-01-18 02:32:54.78	320.11	40.11	-49.5	-67.4	3.5	3.02e+01	0	31	104	275775488	60	89814
2026-01-18 02:32:55.78	320.34	39.83	-38.6	-49.0	3.5	3.02e+01	0	31	104	275775488	50	19211
2026-01-18 02:32:56.79	320.58	39.55	-40.3	-50.7	3.5	3.02e+01	0	31	104	275775488	58	14833
2026-01-18 02:32:57.81	320.81	39.26	-39.9	-50.2	3.5	3.02e+01	0	31	104	275775488	54	17628
2026-01-18 02:32:58.81	321.03	38.99	-40.2	-50.6	3.5	3.02e+01	0	31	104	275775488	54	18491
2026-01-18 02:32:59.82	321.25	38.72	-39.4	-50.0	3.5	3.02e+01	0	31	104	275775488	54	17182
2026-01-18 02:33:00.83	321.47	38.44	-37.0	-47.4	3.5	3.02e+01	0	31	104	275775488	48	18008
2026-01-18 02:33:01.84	321.68	38.17	-40.6	-51.2	3.5	3.02e+01	0	31	104	275775488	52	22234
2026-01-18 02:33:02.85	321.89	37.90	-49.3	-67.0	3.5	3.02e+01	0	31	104	275775488	60	85874
2026-01-18 02:33:03.86	322.10	37.63	-48.7	-64.0	3.5	3.02e+01	0	31	104	275775488	60	61137
2026-01-18 02:33:04.86	322.30	37.37	-44.0	-55.2	3.6	3.02e+01	0	31	104	275775488	58	24844
2026-01-18 02:33:05.87	322.50	37.11	-41.6	-52.2	3.5	3.02e+01	0	31	104	275775488	58	17514
2026-01-18 02:33:06.88	322.69	36.85	-40.7	-51.3	3.5	3.02e+01	0	31	104	275775488	56	17766
2026-01-18 02:33:07.89	322.89	36.59	-39.5	-50.0	3.5	3.02e+01	0	31	104	275775488	52	19270
2026-01-18 02:33:08.90	323.08	36.33	-39.7	-50.3	3.5	3.02e+01	0	31	104	275775488	54	17720
2026-01-18 02:33:09.91	323.26	36.07	-42.3	-53.4	3.5	3.02e+01	0	31	104	275775488	56	22588
2026-01-18 02:33:10.92	323.45	35.82	-41.4	-52.3	3.5	3.02e+01	0	31	104	275775488	56	19899
2026-01-18 02:33:11.94	323.63	35.56	-48.1	-62.6	3.5	3.02e+01	0	31	104	275775488	60	51862
2026-01-18 02:33:12.94	323.81	35.31	-49.2	-67.0	3.5	3.02e+01	0	31	104	275775488	60	86432
2026-01-18 02:33:13.95	323.99	35.07	-39.7	-50.2	3.5	3.02e+01	0	31	104	275775488	50	22193
2026-01-18 02:33:14.96	324.16	34.82	-35.9	-46.1	3.5	3.02e+01	0	31	104	275775488	46	17302
2026-01-18 02:33:15.97	324.33	34.57	-36.0	-46.2	3.5	3.02e+01	0	31	104	275775488	46	17589
2026-01-18 02:33:16.98	324.50	34.33	-35.8	-46.0	3.5	3.02e+01	0	31	104	275775488	46	17194
2026-01-18 02:33:17.99	324.66	34.09	-35.2	-45.6	3.5	3.02e+01	0	31	104	275775488	46	16386
2026-01-18 02:33:19.00	324.83	33.85	-39.7	-50.4	3.6	3.02e+01	0	31	104	275775488	52	20152
2026-01-18 02:33:20.01	324.99	33.61	-41.7	-52.5	3.6	3.02e+01	0	31	104	275775488	56	20470
2026-01-18 02:33:21.02	325.15	33.37	-49.1	-67.1	3.5	3.02e+01	0	31	104	275775488	60	87066
2026-01-18 02:33:22.03	325.30	33.14	-48.2	-62.1	3.5	3.02e+01	0	31	104	275775488	60	48869
2026-01-18 02:33:23.04	325.46	32.91	-39.4	-49.6	3.5	3.02e+01	0	31	104	275775488	50	20767
2026-01-18 02:33:24.05	325.61	32.67	-37.7	-47.9	3.5	3.02e+01	0	31	104	275775488	52	15139
2026-01-18 02:33:25.05	325.76	32.45	-37.2	-47.6	3.5	3.02e+01	0	31	104	275775488	50	16366
2026-01-18 02:33:26.06	325.91	32.22	-37.4	-47.9	3.5	3.02e+01	0	31	104	275775488	48	19084
2026-01-18 02:33:27.07	326.05	31.99	-38.6	-49.2	3.5	3.02e+01	0	31	104	275775488	52	17570
2026-01-18 02:33:28.08	326.20	31.77	-46.0	-58.7	3.6	3.02e+01	0	31	104	275775488	60	33061
2026-01-18 02:33:29.09	326.34	31.54	-40.4	-51.0	3.5	3.02e+01	0	31	104	275775488	58	15320
2026-01-18 02:33:30.10	326.48	31.32	-47.9	-61.6	3.5	3.02e+01	0	31	104	275775488	60	46130
2026-01-18 02:33:31.11	326.62	31.10	-48.8	-66.1	3.5	3.02e+01	0	31	104	275775488	60	77510
2026-01-18 02:33:32.12	326.75	30.88	-42.1	-53.0	3.5	3.02e+01	0	31	104	275775488	56	21684
2026-01-18 02:33:33.13	326.89	30.67	-39.0	-49.4	3.5	3.02e+01	0	31	104	275775488	52	18073
2026-01-18 02:33:34.13	327.02	30.46	-39.4	-49.8	3.5	3.02e+01	0	31	104	275775488	52	18900
2026-01-18 02:33:35.14	327.15	30.24	-39.3	-49.6	3.5	3.02e+01	0	31	104	275775488	52	18467
2026-01-18 02:33:36.16	327.28	30.03	-38.5	-48.8	3.5	3.02e+01	0	31	104	275775488	52	16890
2026-01-18 02:33:37.16	327.41	29.82	-34.7	-44.8	3.5	3.02e+01	0	31	104	275775488	44	16792
2026-01-18 02:33:38.17	327.53	29.61	-39.8	-50.4	3.6	3.02e+01	0	31	104	275775488	54	17901
2026-01-18 02:33:39.18	327.66	29.40	-48.9	-67.0	3.5	3.02e+01	0	31	104	275775488	60	86109
2026-01-18 02:33:40.19	327.78	29.20	-47.2	-60.1	3.5	3.02e+01	0	31	104	275775488	60	38993
2026-01-18 02:33:41.20	327.90	28.99	-40.1	-50.5	3.5	3.02e+01	0	31	104	275775488	54	18181
2026-01-18 02:33:42.21	328.02	28.79	-36.1	-46.4	3.5	3.02e+01	0	31	104	275775488	46	17945
2026-01-18 02:33:43.22	328.14	28.59	-35.6	-45.9	3.5	3.02e+01	0	31	104	275775488	46	16904
2026-01-18 02:33:44.23	328.25	28.39	-35.9	-46.3	3.5	3.02e+01	0	31	104	275775488	46	17758
2026-01-18 02:33:45.24	328.37	28.19	-35.9	-46.3	3.5	3.02e+01	0	31	104	275775488	46	17805
2026-01-18 02:33:46.24	328.48	27.99	-38.8	-49.3	3.5	3.02e+01	0	31	104	275775488	52	17770
2026-01-18 02:33:47.25	328.59	27.80	-37.5	-47.9	3.5	3.02e+01	0	31	104	275775488	54	13530
2026-01-18 02:33:48.26	328.70	27.60	-48.0	-62.0	3.5	3.02e+01	0	31	104	275775488	60	48482
2026-01-18 02:33:49.27	328.81	27.41	-46.8	-60.0	3.6	3.02e+01	0	31	104	275775488	60	38362
2026-01-18 02:33:50.28	328.92	27.22	-41.6	-52.5	3.5	3.02e+01	0	31	104	275775488	58	18229
2026-01-18 02:33:51.29	329.03	27.03	-36.2	-46.5	3.5	3.02e+01	0	31	104	275775488	48	16178
2026-01-18 02:33:52.29	329.13	26.84	-37.4	-47.7	3.5	3.02e+01	0	31	104	275775488	48	18614
2026-01-18 02:33:53.30	329.24	26.65	-36.5	-46.8	3.5	3.02e+01	0	31	104	275775488	48	16767
2026-01-18 02:33:54.31	329.34	26.47	-35.9	-46.1	3.5	3.02e+01	0	31	104	275775488	48	15421
2026-01-18 02:33:55.32	329.44	26.28	-36.7	-46.9	3.5	3.02e+01	0	31	104	275775488	48	16992
2026-01-18 02:33:56.33	329.55	26.10	-38.7	-49.0	3.5	3.02e+01	0	31	104	275775488	56	13665
2026-01-18 02:33:57.34	329.65	25.92	-49.0	-65.7	3.5	3.02e+01	0	31	104	275775488	60	74155
2026-01-18 02:33:58.34	329.74	25.74	-46.6	-59.1	3.6	3.02e+01	0	31	104	275775488	60	34839
2026-01-18 02:33:59.36	329.84	25.55	-41.5	-52.2	3.5	3.02e+01	0	31	104	275775488	58	17611
2026-01-18 02:34:00.36	329.94	25.38	-40.4	-50.9	3.5	3.02e+01	0	31	104	275775488	56	17055
2026-01-18 02:34:01.37	330.03	25.20	-38.9	-49.4	3.5	3.02e+01	0	31	104	275775488	52	17988
2026-01-18 02:34:02.38	330.13	25.02	-39.2	-49.7	3.5	3.02e+01	0	31	104	275775488	52	18684
2026-01-18 02:34:03.39	330.22	24.85	-39.8	-50.4	3.5	3.02e+01	0	31	104	275775488	52	20225
2026-01-18 02:34:04.40	330.31	24.67	-43.7	-54.9	3.5	3.02e+01	0	31	104	275775488	60	21377
2026-01-18 02:34:05.41	330.40	24.50	-36.6	-47.1	3.5	3.02e+01	0	31	104	275775488	50	15416
2026-01-18 02:34:06.42	330.49	24.33	-46.1	-58.7	3.5	3.02e+01	0	31	104	275775488	60	33200
2026-01-18 02:34:07.43	330.58	24.16	-40.1	-50.9	3.5	3.02e+01	0	31	104	275775488	60	13422
2026-01-18 02:34:08.44	330.67	23.99	-39.6	-50.3	3.5	3.02e+01	0	31	104	275775488	56	15794
2026-01-18 02:34:09.45	330.76	23.82	-36.4	-46.8	3.5	3.02e+01	0	31	104	275775488	48	16795
2026-01-18 02:34:10.45	330.85	23.65	-35.7	-46.1	3.5	3.02e+01	0	31	104	275775488	46	17399
2026-01-18 02:34:11.46	330.93	23.49	-35.4	-45.7	3.5	3.02e+01	0	31	104	275775488	46	16600
2026-01-18 02:34:12.47	331.02	23.32	-36.2	-46.4	3.5	3.02e+01	0	31	104	275775488	46	18053
2026-01-18 02:34:13.47	331.10	23.16	-36.0	-46.2	3.5	3.02e+01	0	31	104	275775488	48	15660
2026-01-18 02:34:14.48	331.18	23.00	-35.9	-46.1	3.5	3.02e+01	0	31	104	275775488	48	15535
2026-01-18 02:34:15.49	331.26	22.84	-47.3	-61.2	3.5	3.02e+01	0	31	104	275775488	60	43973
2026-01-18 02:34:16.50	331.35	22.68	-36.3	-46.6	3.3	3.02e+01	0	31	104	275775488	50	14658
2026-01-18 02:34:17.51	331.43	22.52	-38.8	-49.4	3.5	3.02e+01	0	31	104	275775488	54	15996
2026-01-18 02:34:18.52	331.51	22.36	-36.4	-46.7	3.5	3.02e+01	0	31	104	275775488	48	16656
2026-01-18 02:34:19.53	331.58	22.20	-36.4	-46.6	3.4	3.02e+01	0	31	104	275775488	48	16414
2026-01-18 02:34:20.54	331.66	22.04	-36.0	-46.2	3.6	3.02e+01	0	31	104	275775488	48	15712
2026-01-18 02:34:21.54	331.74	21.89	-36.9	-47.0	3.6	3.02e+01	0	31	104	275775488	46	19318
2026-01-18 02:34:22.55	331.82	21.73	-37.5	-39.1	23.6	3.02e+01	0	31	104	275775488	50	6184
2026-01-18 02:34:23.56	331.89	21.58	-37.4	-38.8	26.5	3.02e+01	0	31	0	276824064	46	7476
2026-01-18 02:34:24.57	331.97	21.43	-47.1	-52.8	12.2	3.02e+01	0	31	0	278921216	60	16762
2026-01-18 02:34:25.58	332.04	21.28	-35.3	-36.8	24.7	3.02e+01	0	31	104	278921216	48	5303
2026-01-18 02:34:26.60	332.12	21.12	-37.3	-38.6	27.7	3.02e+01	0	31	0	279969792	52	5179
2026-01-18 02:34:27.61	332.19	20.97	-35.5	-36.7	29.1	3.02e+01	0	31	0	282066944	46	5923
2026-01-18 02:34:28.61	332.26	20.83	-35.5	-36.7	29.1	3.02e+01	0	31	0	283639808	46	5918
2026-01-18 02:34:29.62	332.33	20.68	-34.7	-35.9	29.6	3.02e+01	0	31	0	285736960	44	6058
2026-01-18 02:34:30.63	332.40	20.53	-34.7	-35.9	29.6	3.02e+01	0	31	0	287834112	44	6046
2026-01-18 02:34:31.64	332.47	20.39	-34.6	-35.8	29.8	3.02e+01	0	31	0	289406976	44	5931
2026-01-18 02:34:32.65	332.54	20.24	-34.7	-35.9	29.7	3.02e+01	0	31	0	291504128	44	6017
2026-01-18 02:34:33.66	332.61	20.10	-34.6	-35.8	29.8	3.02e+01	0	31	0	293076992	44	5973
2026-01-18 02:34:34.67	332.68	19.95	-34.6	-35.8	29.8	3.02e+01	0	31	0	295174144	44	5934
2026-01-18 02:34:35.68	332.75	19.81	-34.4	-35.6	29.9	3.02e+01	0	31	0	297271296	44	5829
2026-01-18 02:34:36.69	332.81	19.67	-34.8	-35.9	29.8	3.02e+01	0	31	0	298844160	44	6064
2026-01-18 02:34:37.70	332.88	19.53	-34.7	-35.8	29.7	3.02e+01	0	31	0	300941312	44	5979
2026-01-18 02:34:38.70	332.95	19.39	-34.8	-36.0	29.7	3.02e+01	0	31	0	303038464	44	6104
2026-01-18 02:34:39.71	333.01	19.25	-34.7	-35.9	29.7	3.02e+01	0	31	0	304611328	44	5999
2026-01-18 02:34:40.72	333.08	19.11	-34.7	-35.9	29.6	3.02e+01	0	31	0	306708480	44	6037
2026-01-18 02:34:41.73	333.14	18.97	-34.7	-35.9	29.7	3.02e+01	0	31	0	308281344	44	6010
2026-01-18 02:34:42.74	333.20	18.84	-34.8	-36.0	29.6	3.02e+01	0	31	0	310378496	44	6072
2026-01-18 02:34:43.75	333.27	18.70	-34.7	-36.0	29.6	3.02e+01	0	31	0	312475648	44	6067
2026-01-18 02:34:44.76	333.33	18.57	-34.6	-35.8	29.7	3.02e+01	0	31	0	314048512	44	5970
2026-01-18 02:34:45.77	333.39	18.43	-34.7	-35.9	29.6	3.02e+01	0	31	0	316145664	44	6003
2026-01-18 02:34:46.78	333.45	18.30	-34.7	-35.9	29.6	3.02e+01	0	31	0	317718528	44	6021
2026-01-18 02:34:47.79	333.51	18.16	-34.7	-35.9	29.6	3.02e+01	0	31	0	319815680	44	6048
2026-01-18 02:34:48.80	333.57	18.03	-34.7	-35.9	29.6	3.02e+01	0	31	0	321912832	44	6060
2026-01-18 02:34:49.81	333.63	17.90	-34.8	-36.1	29.6	3.02e+01	0	31	0	323485696	44	6135
2026-01-18 02:34:50.82	333.69	17.77	-34.8	-36.0	29.5	3.02e+01	0	31	0	325582848	44	6070
2026-01-18 02:34:51.82	333.75	17.64	-34.7	-35.9	29.6	3.02e+01	0	31	0	327155712	44	6047
2026-01-18 02:34:52.84	333.81	17.51	-34.6	-35.8	29.6	3.02e+01	0	31	0	329252864	44	5956
2026-01-18 02:34:53.84	333.87	17.38	-34.7	-35.9	29.6	3.02e+01	0	31	0	331350016	44	6026
2026-01-18 02:34:54.85	333.92	17.26	-34.7	-35.9	29.6	3.02e+01	0	31	0	332922880	44	6033
2026-01-18 02:34:55.86	333.98	17.13	-34.7	-35.9	29.7	3.02e+01	0	31	0	335020032	44	6011
2026-01-18 02:34:56.87	334.04	17.00	-35.0	-36.2	29.4	3.02e+01	0	31	0	336592896	44	6243
2026-01-18 02:34:57.88	334.09	16.88	-34.9	-36.1	29.5	3.02e+01	0	31	0	338690048	44	6163
2026-01-18 02:34:58.89	334.15	16.75	-34.8	-36.0	29.5	3.02e+01	0	31	0	340787200	44	6112
2026-01-18 02:34:59.90	334.20	16.63	-35.0	-36.2	29.5	3.02e+01	0	31	0	342360064	44	6252
2026-01-18 02:35:00.91	334.26	16.50	-34.8	-36.0	29.5	3.02e+01	0	31	0	344457216	44	6110
2026-01-18 02:35:01.92	334.31	16.38	-34.8	-36.0	29.5	3.02e+01	0	31	0	346554368	44	6086
2026-01-18 02:35:02.93	334.37	16.26	-34.9	-36.1	29.5	3.02e+01	0	31	0	348127232	44	6180
2026-01-18 02:35:03.94	334.42	16.14	-35.0	-36.2	29.5	3.02e+01	0	31	0	350224384	44	6251
2026-01-18 02:35:04.95	334.47	16.02	-34.9	-36.1	29.5	3.02e+01	0	31	0	351797248	44	6154
2026-01-18 02:35:05.96	334.52	15.90	-34.7	-35.9	29.6	3.02e+01	0	31	0	353894400	44	6013
2026-01-18 02:35:06.97	334.58	15.78	-34.7	-35.9	29.5	3.02e+01	0	31	0	355991552	44	6024
2026-01-18 02:35:07.98	334.63	15.66	-34.9	-36.1	29.4	3.02e+01	0	31	0	357564416	44	6171
2026-01-18 02:35:08.99	334.68	15.54	-34.8	-36.0	29.5	3.02e+01	0	31	0	359661568	44	6098
2026-01-18 02:35:10.00	334.73	15.42	-34.8	-36.0	29.4	3.02e+01	0	31	0	361234432	44	6073
2026-01-18 02:35:11.00	334.78	15.31	-34.5	-35.7	29.7	3.02e+01	0	31	0	363331584	44	5913
2026-01-18 02:35:12.02	334.83	15.19	-34.6	-35.9	29.6	3.02e+01	0	31	0	365428736	44	5996
2026-01-18 02:35:13.02	334.88	15.07	-34.6	-35.8	29.6	3.02e+01	0	31	0	367001600	44	5944
2026-01-18 02:35:14.03	334.93	14.96	-34.9	-36.1	29.4	3.02e+01	0	31	0	369098752	44	6159
2026-01-18 02:35:15.04	334.98	14.84	-34.7	-35.9	29.5	3.02e+01	0	31	0	370671616	44	6025
2026-01-18 02:35:16.05	335.03	14.73	-35.0	-36.2	29.2	3.02e+01	0	31	0	372768768	44	6266
2026-01-18 02:35:17.06	335.08	14.61	-35.0	-36.3	29.2	3.02e+01	0	31	0	374865920	44	6285
2026-01-18 02:35:18.07	335.12	14.50	-34.7	-36.0	29.4	3.02e+01	0	31	0	376438784	44	6069
2026-01-18 02:35:19.08	335.17	14.39	-34.9	-36.1	29.4	3.02e+01	0	31	0	378535936	44	6152
2026-01-18 02:35:20.09	335.22	14.28	-34.6	-35.8	29.5	3.02e+01	0	31	0	380108800	44	5984
2026-01-18 02:35:21.10	335.27	14.17	-34.8	-36.0	29.4	3.02e+01	0	31	0	382205952	44	6079
2026-01-18 02:35:22.11	335.31	14.05	-34.5	-35.7	29.7	3.02e+01	0	31	0	384303104	44	5891
2026-01-18 02:35:23.11	335.36	13.95	-34.7	-35.9	29.6	3.02e+01	0	31	0	385875968	44	6032
2026-01-18 02:35:24.12	335.40	13.84	-34.8	-36.0	29.4	3.02e+01	0	31	0	387973120	44	6121
2026-01-18 02:35:25.13	335.45	13.73	-35.1	-36.3	29.2	3.02e+01	0	31	0	389545984	44	6318
2026-01-18 02:35:26.14	335.49	13.62	-34.7	-35.9	29.6	3.02e+01	0	31	0	391643136	44	6061
2026-01-18 02:35:27.15	335.54	13.51	-34.9	-36.1	29.4	3.02e+01	0	31	0	393740288	44	6148
2026-01-18 02:35:28.16	335.58	13.40	-34.8	-36.0	29.4	3.02e+01	0	31	0	395313152	44	6087
2026-01-18 02:35:29.17	335.63	13.29	-34.9	-36.1	29.4	3.02e+01	0	31	0	397410304	44	6162
2026-01-18 02:35:30.18	335.67	13.19	-35.0	-36.2	29.3	3.02e+01	0	31	0	399507456	44	6267
2026-01-18 02:35:31.18	335.72	13.08	-35.0	-36.2	29.4	3.02e+01	0	31	0	401080320	44	6237
2026-01-18 02:35:32.19	335.76	12.98	-35.0	-36.2	29.3	3.02e+01	0	31	0	403177472	44	6271
2026-01-18 02:35:33.20	335.80	12.87	-34.9	-36.2	29.2	3.02e+01	0	31	0	404750336	44	6216
2026-01-18 02:35:34.21	335.84	12.77	-34.7	-36.0	29.4	3.02e+01	0	31	0	406847488	44	6073
2026-01-18 02:35:35.22	335.89	12.66	-35.0	-36.2	29.2	3.02e+01	0	31	0	408944640	44	6252
2026-01-18 02:35:36.23	335.93	12.56	-34.9	-36.1	29.3	3.02e+01	0	31	0	410517504	44	6176
2026-01-18 02:35:37.24	335.97	12.46	-35.0	-36.3	29.2	3.02e+01	0	31	0	412614656	44	6278
2026-01-18 02:35:38.25	336.01	12.35	-34.9	-36.1	29.3	3.02e+01	0	31	0	414711808	44	6175
2026-01-18 02:35:39.26	336.05	12.25	-35.0	-36.3	29.1	3.02e+01	0	31	0	416284672	44	6299
2026-01-18 02:35:40.27	336.10	12.15	-35.0	-36.2	29.3	3.02e+01	0	31	0	418381824	44	6240
2026-01-18 02:35:41.28	336.14	12.05	-35.0	-36.2	29.2	3.02e+01	0	31	0	419954688	44	6265
2026-01-18 02:35:42.29	336.18	11.95	-35.1	-36.4	29.1	3.02e+01	0	31	0	422051840	44	6364
2026-01-18 02:35:43.30	336.22	11.85	-35.1	-36.4	29.0	3.02e+01	0	31	0	424148992	44	6369
2026-01-18 02:35:44.30	336.26	11.75	-35.1	-36.3	29.1	3.02e+01	0	31	0	425721856	44	6333
2026-01-18 02:35:45.31	336.30	11.65	-35.3	-36.6	28.9	3.02e+01	0	31	0	427819008	44	6536
2026-01-18 02:35:46.32	336.34	11.55	-35.2	-36.5	28.9	3.02e+01	0	31	0	429391872	44	6451
2026-01-18 02:35:47.33	336.38	11.45	-35.2	-36.5	28.9	3.02e+01	0	31	0	431489024	44	6455
2026-01-18 02:35:48.34	336.41	11.35	-35.2	-36.4	29.0	3.02e+01	0	31	0	433061888	44	6389
2026-01-18 02:35:49.35	336.45	11.25	-35.1	-36.3	29.0	3.02e+01	0	31	0	435159040	44	6340
2026-01-18 02:35:50.36	336.49	11.16	-35.2	-36.5	28.9	3.02e+01	0	31	0	437256192	44	6429
2026-01-18 02:35:51.37	336.53	11.06	-35.4	-36.6	28.9	3.02e+01	0	31	0	438829056	44	6567
2026-01-18 02:35:52.37	336.57	10.96	-35.4	-36.6	28.9	3.02e+01	0	31	0	440926208	44	6559
2026-01-18 02:35:53.39	336.61	10.87	-35.5	-36.7	28.8	3.02e+01	0	31	0	443023360	44	6620
