passes_logs/2026/01/18/R4.6S_Anadyr/R4.6S_Anadyr__20260118_170841_SUOMI_NPP_rec.log

#Pass ID: 20260118_170841_SUOMI NPP
#Satellite: SUOMI NPP
#Configuration: NPP
#almurnet v.1.7.20251203
#Start time: 2026-01-18 17:08:44

#Version: 2.2.20231116
#Station: R4.6S_Anadyr
#Location: 177.4865 lon 64.73178 lat
#TLE: 1 37849U 11061A   26017.57099531  .00000072  00000+0  54974-4 0  9996
#TLE: 2 37849  98.7814 319.5974 0002398  59.1749 300.9663 14.19525865737072

#Time	Az	El	Level	Level2	SNR	BER	BlckErr	Temp	State	Recorded	gain1	gain2
2026-01-18 17:08:44.57	29.41	0.17	-49.6	-63.3	3.3	1.54e+00	0	39	0	0	60	53055
2026-01-18 17:08:45.57	29.35	0.22	-49.5	-64.8	3.6	1.51e+00	0	39	104	0	60	62859
2026-01-18 17:08:46.59	29.30	0.28	-49.6	-64.8	3.6	1.51e+00	0	39	104	0	60	63107
2026-01-18 17:08:47.60	29.25	0.34	-49.6	-64.8	3.6	1.51e+00	0	39	104	0	60	62893
2026-01-18 17:08:48.61	29.19	0.39	-49.6	-64.9	3.6	1.51e+00	0	39	104	0	60	63243
2026-01-18 17:08:49.62	29.14	0.45	-49.6	-64.8	3.6	1.51e+00	0	39	104	0	60	63008
2026-01-18 17:08:50.63	29.08	0.50	-49.6	-64.8	3.6	1.51e+00	0	39	104	0	60	62991
2026-01-18 17:08:51.64	29.03	0.56	-49.6	-64.8	3.6	1.51e+00	0	39	104	0	60	63151
2026-01-18 17:08:52.65	28.97	0.61	-49.5	-64.8	3.6	1.51e+00	0	39	104	0	60	62850
2026-01-18 17:08:53.66	28.92	0.67	-49.5	-64.8	3.6	1.51e+00	0	39	104	0	60	62929
2026-01-18 17:08:54.66	28.87	0.73	-49.5	-64.7	3.6	1.51e+00	0	39	104	0	60	62426
2026-01-18 17:08:55.68	28.81	0.78	-49.4	-64.7	3.6	1.51e+00	0	39	104	0	60	61963
2026-01-18 17:08:56.69	28.75	0.84	-49.4	-64.6	3.6	1.51e+00	0	39	104	0	60	61252
2026-01-18 17:08:57.70	28.70	0.89	-49.3	-64.5	3.6	1.51e+00	0	39	104	0	60	60979
2026-01-18 17:08:58.71	28.64	0.95	-49.2	-64.4	3.6	1.51e+00	0	39	104	0	60	59813
2026-01-18 17:08:59.72	28.59	1.01	-49.2	-64.3	3.6	1.51e+00	0	39	104	0	60	59579
2026-01-18 17:09:00.72	28.53	1.06	-49.1	-64.3	3.6	1.51e+00	0	39	104	0	60	58990
2026-01-18 17:09:01.73	28.47	1.12	-49.0	-64.1	3.6	1.51e+00	0	39	104	0	60	58203
2026-01-18 17:09:02.74	28.42	1.18	-48.8	-64.0	3.6	1.51e+00	0	39	104	0	60	57435
2026-01-18 17:09:03.75	28.36	1.23	-48.7	-63.9	3.6	1.51e+00	0	39	104	0	60	56475
2026-01-18 17:09:04.76	28.30	1.29	-48.4	-63.7	3.6	1.51e+00	0	39	104	0	60	55332
2026-01-18 17:09:05.77	28.24	1.35	-48.2	-63.3	3.6	1.51e+00	0	39	104	0	60	53016
2026-01-18 17:09:06.78	28.19	1.40	-48.0	-63.1	3.6	1.51e+00	0	39	104	0	60	51874
2026-01-18 17:09:07.79	28.13	1.46	-48.0	-63.2	3.6	1.51e+00	0	39	104	0	60	52149
2026-01-18 17:09:08.80	28.07	1.52	-48.0	-63.1	3.6	1.51e+00	0	39	104	0	60	51884
2026-01-18 17:09:09.81	28.01	1.58	-47.9	-63.1	3.6	1.51e+00	0	39	104	0	60	51910
2026-01-18 17:09:10.82	27.95	1.63	-47.9	-63.1	3.6	1.51e+00	0	39	104	0	60	51931
2026-01-18 17:09:11.83	27.89	1.69	-47.9	-63.1	3.6	1.51e+00	0	39	104	0	60	51822
2026-01-18 17:09:12.84	27.83	1.75	-47.9	-63.1	3.6	1.51e+00	0	39	104	0	60	51760
2026-01-18 17:09:13.85	27.78	1.81	-47.9	-63.1	3.5	1.51e+00	0	39	104	0	60	51597
2026-01-18 17:09:14.86	27.72	1.86	-47.9	-63.1	3.6	1.51e+00	0	39	104	0	60	51549
2026-01-18 17:09:15.87	27.66	1.92	-47.9	-63.0	3.6	1.51e+00	0	39	104	0	60	50889
2026-01-18 17:09:16.89	27.59	1.98	-47.9	-62.9	3.6	1.51e+00	0	39	104	0	60	50215
2026-01-18 17:09:17.90	27.53	2.04	-47.9	-62.8	3.6	1.51e+00	0	39	104	0	60	49980
2026-01-18 17:09:18.91	27.47	2.10	-47.9	-62.7	3.6	1.51e+00	0	39	104	0	60	49592
2026-01-18 17:09:19.92	27.41	2.15	-47.9	-62.9	3.6	1.51e+00	0	39	104	0	60	50363
2026-01-18 17:09:20.93	27.35	2.21	-47.9	-63.0	3.6	1.51e+00	0	39	104	0	60	51333
2026-01-18 17:09:21.94	27.29	2.27	-47.9	-63.1	3.6	1.51e+00	0	39	104	0	60	51696
2026-01-18 17:09:22.94	27.23	2.33	-47.9	-63.0	3.6	1.51e+00	0	39	104	0	60	51311
2026-01-18 17:09:23.95	27.17	2.39	-47.9	-63.0	3.6	1.51e+00	0	39	104	0	60	51285
2026-01-18 17:09:24.96	27.10	2.44	-47.9	-63.0	3.6	1.51e+00	0	39	104	0	60	51157
2026-01-18 17:09:25.97	27.04	2.50	-47.9	-63.1	3.6	1.51e+00	0	39	104	0	60	51550
2026-01-18 17:09:26.98	26.98	2.56	-47.9	-63.1	3.6	1.51e+00	0	39	104	0	60	51774
2026-01-18 17:09:27.99	26.92	2.62	-47.9	-62.9	3.6	1.51e+00	0	39	104	0	60	50405
2026-01-18 17:09:29.00	26.85	2.68	-47.9	-62.4	3.6	1.51e+00	0	39	104	0	60	47753
2026-01-18 17:09:30.01	26.79	2.74	-47.9	-61.8	3.6	1.51e+00	0	39	104	0	60	44282
2026-01-18 17:09:31.02	26.72	2.80	-47.8	-61.3	3.6	1.51e+00	0	39	104	0	60	42125
2026-01-18 17:09:32.03	26.66	2.86	-47.9	-61.5	3.6	1.50e+00	0	39	104	0	60	42870
2026-01-18 17:09:33.04	26.60	2.92	-47.9	-61.9	3.6	1.51e+00	0	39	104	0	60	45066
2026-01-18 17:09:34.05	26.53	2.98	-47.9	-62.1	3.6	1.51e+00	0	39	104	0	60	46068
2026-01-18 17:09:35.06	26.47	3.04	-47.8	-61.1	3.6	1.51e+00	0	39	104	0	60	40817
2026-01-18 17:09:36.06	26.40	3.09	-47.7	-57.9	4.4	1.43e+00	0	39	0	0	60	28546
2026-01-18 17:09:37.08	26.34	3.15	-47.4	-55.3	5.9	5.02e-01	0	39	0	2097152	60	20955
2026-01-18 17:09:38.09	26.27	3.21	-47.2	-54.1	7.0	2.10e-01	28	39	0	3145728	60	18361
2026-01-18 17:09:39.10	26.20	3.27	-47.0	-53.5	7.6	1.02e-01	0	39	0	5242880	60	17199
2026-01-18 17:09:40.11	26.14	3.33	-47.9	-61.5	3.6	1.51e+00	0	39	104	6291456	60	43197
2026-01-18 17:09:41.12	26.07	3.39	-48.0	-62.2	3.6	1.51e+00	0	39	104	6291456	60	46498
2026-01-18 17:09:42.12	26.00	3.45	-47.6	-58.0	5.5	9.14e-01	92	39	104	6291456	60	28648
2026-01-18 17:09:43.13	25.94	3.51	-42.6	-44.5	17.5	0.00e+00	0	39	0	7340032	58	6781
2026-01-18 17:09:44.14	25.87	3.57	-47.8	-61.8	3.6	1.41e+00	0	39	104	8388608	60	44600
2026-01-18 17:09:45.15	25.80	3.63	-42.6	-44.6	16.7	1.37e+00	0	39	104	8388608	58	6893
2026-01-18 17:09:46.16	25.73	3.69	-42.9	-45.0	17.0	0.00e+00	0	39	0	9437184	58	7212
2026-01-18 17:09:47.17	25.66	3.76	-42.5	-44.3	17.7	0.00e+00	91	39	0	10485760	58	6672
2026-01-18 17:09:48.18	25.60	3.82	-42.5	-44.3	17.7	0.00e+00	0	39	0	12582912	58	6654
2026-01-18 17:09:49.19	25.53	3.88	-42.8	-44.9	17.2	0.00e+00	37	39	0	14680064	58	7090
2026-01-18 17:09:50.20	25.46	3.94	-42.7	-44.6	17.5	0.00e+00	7	39	0	16777216	58	6917
2026-01-18 17:09:51.21	25.39	4.00	-42.4	-44.3	17.8	0.00e+00	0	39	0	18874368	58	6625
2026-01-18 17:09:52.22	25.32	4.06	-43.0	-45.1	17.1	0.00e+00	0	39	0	19922944	58	7286
2026-01-18 17:09:53.23	25.25	4.12	-43.1	-45.2	17.0	0.00e+00	0	39	0	22020096	58	7338
2026-01-18 17:09:54.24	25.18	4.18	-42.8	-44.8	17.4	0.00e+00	29	39	0	24117248	58	7031
2026-01-18 17:09:55.25	25.11	4.24	-42.4	-44.2	17.8	0.00e+00	0	39	0	26214400	58	6591
2026-01-18 17:09:56.26	25.03	4.30	-42.3	-44.1	17.8	0.00e+00	92	39	0	28311552	58	6473
2026-01-18 17:09:57.27	24.96	4.37	-42.6	-44.6	17.7	0.00e+00	0	39	0	29360128	58	6870
2026-01-18 17:09:58.28	24.89	4.43	-43.0	-45.0	17.4	0.00e+00	0	39	0	31457280	58	7184
2026-01-18 17:09:59.29	24.82	4.49	-42.8	-44.8	17.4	0.00e+00	0	39	0	33554432	58	7035
2026-01-18 17:10:00.31	24.75	4.55	-43.1	-45.2	17.1	0.00e+00	0	39	0	35651584	58	7360
2026-01-18 17:10:01.32	24.67	4.61	-43.0	-45.0	17.3	0.00e+00	19	39	0	37748736	58	7180
2026-01-18 17:10:02.33	24.60	4.68	-43.1	-45.2	17.1	0.00e+00	0	39	0	39845888	58	7384
2026-01-18 17:10:03.34	24.53	4.74	-43.0	-45.1	17.3	0.00e+00	92	39	0	40894464	58	7269
2026-01-18 17:10:04.35	24.45	4.80	-42.7	-44.6	17.6	0.00e+00	0	39	0	42991616	58	6897
2026-01-18 17:10:05.36	24.38	4.86	-43.3	-45.4	16.9	0.00e+00	92	39	0	45088768	58	7580
2026-01-18 17:10:06.37	24.30	4.92	-43.0	-45.0	17.3	0.00e+00	0	39	0	47185920	58	7248
2026-01-18 17:10:07.38	24.23	4.99	-42.9	-44.9	17.4	0.00e+00	0	39	0	49283072	58	7130
2026-01-18 17:10:08.39	24.15	5.05	-42.6	-44.5	17.7	0.00e+00	0	39	0	50331648	58	6825
2026-01-18 17:10:09.40	24.08	5.11	-42.6	-44.5	17.7	0.00e+00	0	39	0	52428800	58	6817
2026-01-18 17:10:10.41	24.00	5.18	-42.7	-44.6	17.8	0.00e+00	33	39	0	54525952	58	6872
2026-01-18 17:10:11.42	23.93	5.24	-42.4	-44.2	18.1	0.00e+00	0	39	0	56623104	58	6559
2026-01-18 17:10:12.43	23.85	5.30	-42.5	-44.3	17.8	0.00e+00	90	39	0	58720256	58	6686
2026-01-18 17:10:13.44	23.77	5.36	-42.7	-44.6	17.8	0.00e+00	0	39	0	59768832	58	6900
2026-01-18 17:10:14.45	23.69	5.43	-42.6	-44.5	17.8	0.00e+00	0	39	0	61865984	58	6815
2026-01-18 17:10:15.46	23.62	5.49	-42.6	-44.5	17.8	0.00e+00	0	39	0	63963136	58	6790
2026-01-18 17:10:16.47	23.54	5.55	-42.4	-44.2	18.2	0.00e+00	0	39	0	66060288	58	6586
2026-01-18 17:10:17.48	23.46	5.62	-42.1	-43.8	18.5	0.00e+00	80	39	0	68157440	58	6269
2026-01-18 17:10:18.49	23.38	5.68	-42.3	-44.0	18.3	0.00e+00	0	39	0	69206016	58	6433
2026-01-18 17:10:19.50	23.30	5.74	-42.3	-44.1	18.1	0.00e+00	92	39	0	71303168	58	6489
2026-01-18 17:10:20.51	23.22	5.81	-42.1	-43.8	18.6	0.00e+00	0	39	0	73400320	58	6289
2026-01-18 17:10:21.52	23.14	5.87	-42.1	-43.7	18.7	0.00e+00	0	39	0	75497472	58	6241
2026-01-18 17:10:22.53	23.06	5.94	-41.9	-43.5	19.0	0.00e+00	0	39	0	77594624	58	6079
2026-01-18 17:10:23.54	22.98	6.00	-41.9	-43.5	19.1	0.00e+00	0	39	0	79691776	58	6046
2026-01-18 17:10:24.55	22.90	6.06	-41.7	-43.2	19.3	0.00e+00	66	39	0	80740352	56	6572
2026-01-18 17:10:25.56	22.82	6.13	-41.6	-43.1	19.2	0.00e+00	0	39	0	82837504	56	6522
2026-01-18 17:10:26.57	22.74	6.19	-41.8	-43.3	19.2	0.00e+00	64	39	0	84934656	56	6662
2026-01-18 17:10:27.58	22.66	6.26	-41.6	-43.1	19.5	0.00e+00	0	39	0	87031808	56	6498
2026-01-18 17:10:28.59	22.58	6.32	-41.8	-43.3	19.2	0.00e+00	0	40	0	89128960	56	6643
2026-01-18 17:10:29.60	22.49	6.39	-41.6	-43.1	19.4	0.00e+00	0	39	0	90177536	56	6510
2026-01-18 17:10:30.61	22.41	6.45	-41.7	-43.2	19.2	0.00e+00	0	39	0	92274688	56	6551
2026-01-18 17:10:31.63	22.33	6.52	-41.5	-42.9	19.4	0.00e+00	92	39	0	94371840	56	6384
2026-01-18 17:10:32.64	22.24	6.58	-41.5	-43.0	19.5	0.00e+00	0	39	0	96468992	56	6418
2026-01-18 17:10:33.65	22.16	6.65	-41.5	-42.9	19.5	0.00e+00	76	40	0	98566144	56	6375
2026-01-18 17:10:34.66	22.07	6.71	-41.9	-43.4	19.1	0.00e+00	0	39	0	99614720	56	6746
2026-01-18 17:10:35.67	21.99	6.78	-41.7	-43.2	19.3	0.00e+00	37	39	0	101711872	56	6542
2026-01-18 17:10:36.68	21.90	6.84	-41.5	-42.9	19.5	0.00e+00	0	39	0	103809024	56	6388
2026-01-18 17:10:37.69	21.82	6.91	-41.5	-42.9	19.5	0.00e+00	0	39	0	105906176	56	6384
2026-01-18 17:10:38.70	21.73	6.98	-41.6	-43.1	19.3	0.00e+00	64	39	0	108003328	56	6520
2026-01-18 17:10:39.70	21.64	7.04	-41.7	-43.2	19.4	0.00e+00	0	40	0	109051904	56	6556
2026-01-18 17:10:40.71	21.56	7.11	-41.8	-43.3	19.2	0.00e+00	48	39	0	111149056	56	6667
2026-01-18 17:10:41.72	21.47	7.17	-41.4	-42.9	19.4	0.00e+00	0	39	0	113246208	56	6353
2026-01-18 17:10:42.73	21.38	7.24	-41.9	-43.5	19.1	0.00e+00	81	39	0	115343360	56	6775
2026-01-18 17:10:43.74	21.29	7.30	-41.7	-43.2	19.2	0.00e+00	0	39	0	117440512	56	6568
2026-01-18 17:10:44.75	21.20	7.37	-41.8	-43.3	19.0	0.00e+00	0	39	0	118489088	56	6659
2026-01-18 17:10:45.76	21.11	7.44	-41.8	-43.3	19.2	0.00e+00	29	39	0	120586240	56	6653
2026-01-18 17:10:46.77	21.02	7.50	-41.6	-43.1	19.4	0.00e+00	0	40	0	122683392	56	6480
2026-01-18 17:10:47.78	20.93	7.57	-41.8	-43.3	19.2	0.00e+00	90	39	0	124780544	56	6664
2026-01-18 17:10:48.79	20.84	7.64	-41.6	-43.1	19.6	0.00e+00	0	39	0	126877696	56	6468
2026-01-18 17:10:49.80	20.75	7.70	-41.5	-42.9	19.7	0.00e+00	92	40	0	127926272	56	6357
2026-01-18 17:10:50.81	20.66	7.77	-41.8	-43.3	19.3	0.00e+00	0	39	0	130023424	56	6670
2026-01-18 17:10:51.82	20.57	7.84	-41.4	-42.9	19.7	0.00e+00	0	40	0	132120576	56	6319
2026-01-18 17:10:52.83	20.48	7.91	-41.2	-42.6	20.0	0.00e+00	31	40	0	134217728	56	6131
2026-01-18 17:10:53.84	20.39	7.97	-41.6	-43.0	19.5	0.00e+00	0	40	0	136314880	56	6451
2026-01-18 17:10:54.85	20.29	8.04	-41.3	-42.7	19.7	0.00e+00	92	39	0	137363456	56	6236
2026-01-18 17:10:55.86	20.20	8.11	-41.4	-42.9	19.7	0.00e+00	0	39	0	139460608	56	6324
2026-01-18 17:10:56.87	20.10	8.17	-41.4	-42.8	19.6	0.00e+00	92	39	0	141557760	56	6285
2026-01-18 17:10:57.88	20.01	8.24	-41.5	-42.9	19.6	0.00e+00	0	39	0	143654912	56	6385
2026-01-18 17:10:58.89	19.92	8.31	-41.6	-43.1	19.6	0.00e+00	0	39	0	145752064	56	6469
2026-01-18 17:10:59.90	19.82	8.38	-41.4	-42.9	19.7	0.00e+00	9	40	0	147849216	56	6339
2026-01-18 17:11:00.91	19.72	8.45	-41.5	-43.0	19.7	0.00e+00	0	40	0	148897792	56	6393
2026-01-18 17:11:01.92	19.63	8.51	-41.7	-43.2	19.5	0.00e+00	67	40	0	150994944	56	6551
2026-01-18 17:11:02.93	19.53	8.58	-41.5	-42.9	19.7	0.00e+00	0	39	0	153092096	56	6355
2026-01-18 17:11:03.94	19.43	8.65	-41.7	-43.2	19.4	0.00e+00	38	39	0	155189248	56	6595
2026-01-18 17:11:04.95	19.34	8.72	-41.5	-43.0	19.7	0.00e+00	0	39	0	157286400	56	6424
2026-01-18 17:11:05.96	19.24	8.79	-41.5	-43.0	19.6	0.00e+00	0	40	0	158334976	56	6432
2026-01-18 17:11:06.97	19.14	8.86	-41.9	-43.4	19.2	0.00e+00	0	40	0	160432128	56	6767
2026-01-18 17:11:07.98	19.04	8.92	-41.8	-43.3	19.4	0.00e+00	0	39	0	162529280	56	6669
2026-01-18 17:11:08.99	18.94	8.99	-41.7	-43.2	19.4	0.00e+00	90	39	0	164626432	56	6575
2026-01-18 17:11:10.00	18.84	9.06	-42.1	-43.8	18.8	0.00e+00	0	40	0	166723584	56	7008
2026-01-18 17:11:11.01	18.74	9.13	-41.9	-43.4	19.2	0.00e+00	48	40	0	167772160	56	6728
2026-01-18 17:11:12.02	18.64	9.20	-42.0	-43.5	19.1	0.00e+00	0	39	0	169869312	56	6841
2026-01-18 17:11:13.03	18.54	9.27	-41.8	-43.3	19.5	0.00e+00	51	39	0	171966464	56	6618
2026-01-18 17:11:14.04	18.43	9.34	-41.5	-42.9	19.7	0.00e+00	0	40	0	174063616	56	6382
2026-01-18 17:11:15.05	18.33	9.41	-41.4	-42.8	19.8	0.00e+00	0	39	0	176160768	56	6316
2026-01-18 17:11:16.06	18.23	9.48	-41.2	-42.6	20.1	0.00e+00	92	40	0	177209344	56	6130
2026-01-18 17:11:17.07	18.12	9.55	-41.2	-42.5	20.1	0.00e+00	0	40	0	179306496	56	6097
2026-01-18 17:11:18.07	18.02	9.62	-41.1	-42.5	20.2	0.00e+00	87	39	0	181403648	56	6038
2026-01-18 17:11:19.08	17.92	9.69	-41.2	-42.5	20.2	0.00e+00	0	39	0	183500800	56	6096
2026-01-18 17:11:20.09	17.81	9.76	-41.2	-42.5	20.2	0.00e+00	85	40	0	185597952	56	6080
2026-01-18 17:11:21.10	17.71	9.83	-41.0	-42.3	20.2	0.00e+00	28	39	0	186646528	56	5960
2026-01-18 17:11:22.11	17.60	9.90	-41.0	-42.3	20.2	0.00e+00	0	40	0	188743680	56	5953
2026-01-18 17:11:23.12	17.49	9.97	-40.9	-42.2	20.4	0.00e+00	28	40	0	190840832	56	5847
2026-01-18 17:11:24.13	17.39	10.04	-40.6	-41.9	20.6	0.00e+00	26	40	0	192937984	54	6331
2026-01-18 17:11:25.14	17.28	10.11	-40.9	-42.3	20.3	0.00e+00	91	40	0	195035136	54	6618
2026-01-18 17:11:26.14	17.17	10.18	-40.8	-42.1	20.5	0.00e+00	0	40	0	196083712	54	6473
2026-01-18 17:11:27.15	17.06	10.25	-40.8	-42.1	20.4	0.00e+00	90	39	0	198180864	54	6527
2026-01-18 17:11:28.17	16.95	10.32	-40.8	-42.1	20.5	0.00e+00	0	39	0	200278016	54	6513
2026-01-18 17:11:29.18	16.84	10.39	-40.7	-41.9	20.7	0.00e+00	0	40	0	202375168	54	6361
2026-01-18 17:11:30.19	16.73	10.46	-40.7	-42.0	20.7	0.00e+00	32	40	0	204472320	54	6407
2026-01-18 17:11:31.20	16.62	10.53	-40.6	-41.9	20.7	0.00e+00	0	39	0	205520896	54	6323
2026-01-18 17:11:32.21	16.51	10.60	-40.6	-41.8	20.8	0.00e+00	31	40	0	207618048	54	6312
2026-01-18 17:11:33.22	16.40	10.68	-40.6	-41.8	20.8	0.00e+00	0	40	0	209715200	54	6279
2026-01-18 17:11:34.23	16.28	10.75	-40.6	-41.8	20.9	0.00e+00	90	40	0	211812352	54	6305
2026-01-18 17:11:35.24	16.17	10.82	-40.6	-41.9	20.7	0.00e+00	0	40	0	213909504	54	6335
2026-01-18 17:11:36.25	16.05	10.89	-40.5	-41.7	20.9	0.00e+00	0	40	0	214958080	54	6230
2026-01-18 17:11:37.26	15.94	10.96	-40.6	-41.9	20.8	0.00e+00	0	40	0	217055232	54	6318
2026-01-18 17:11:38.27	15.83	11.03	-40.5	-41.7	21.0	0.00e+00	0	39	0	219152384	54	6229
2026-01-18 17:11:39.28	15.71	11.10	-40.5	-41.7	20.8	0.00e+00	33	40	0	221249536	54	6242
2026-01-18 17:11:40.29	15.59	11.18	-40.5	-41.7	21.0	0.00e+00	0	40	0	223346688	54	6177
2026-01-18 17:11:41.30	15.48	11.25	-40.4	-41.6	21.0	0.00e+00	74	40	0	225443840	54	6114
2026-01-18 17:11:42.31	15.36	11.32	-40.4	-41.6	21.1	0.00e+00	0	39	0	226492416	54	6158
2026-01-18 17:11:43.32	15.24	11.39	-40.5	-41.7	20.9	0.00e+00	0	40	0	228589568	54	6242
2026-01-18 17:11:44.33	15.12	11.47	-40.7	-41.9	20.8	0.00e+00	0	39	0	230686720	54	6363
2026-01-18 17:11:45.34	15.00	11.54	-40.7	-41.9	20.8	0.00e+00	0	40	0	232783872	54	6362
2026-01-18 17:11:46.35	14.88	11.61	-40.5	-41.7	20.8	0.00e+00	56	39	0	234881024	54	6228
2026-01-18 17:11:47.36	14.76	11.68	-40.8	-42.0	20.7	0.00e+00	0	40	0	235929600	54	6452
2026-01-18 17:11:48.37	14.64	11.76	-40.8	-42.0	20.6	0.00e+00	92	40	0	238026752	54	6432
2026-01-18 17:11:49.38	14.52	11.83	-40.7	-42.0	20.6	0.00e+00	0	40	0	240123904	54	6433
2026-01-18 17:11:50.39	14.40	11.90	-40.9	-42.1	20.5	0.00e+00	0	40	0	242221056	54	6518
2026-01-18 17:11:51.40	14.27	11.97	-40.9	-42.1	20.4	0.00e+00	0	40	0	244318208	54	6492
2026-01-18 17:11:52.41	14.15	12.05	-40.8	-42.0	20.3	0.00e+00	0	40	0	245366784	54	6458
2026-01-18 17:11:53.42	14.03	12.12	-40.8	-42.0	20.7	0.00e+00	28	40	0	247463936	54	6441
2026-01-18 17:11:54.43	13.90	12.19	-40.8	-42.1	20.6	0.00e+00	0	40	0	249561088	54	6485
2026-01-18 17:11:55.44	13.78	12.27	-41.1	-42.4	20.4	0.00e+00	91	40	0	251658240	54	6732
2026-01-18 17:11:56.45	13.65	12.34	-41.0	-42.3	20.4	0.00e+00	0	39	0	253755392	54	6679
2026-01-18 17:11:57.46	13.52	12.41	-41.0	-42.3	20.4	0.00e+00	73	40	0	254803968	54	6666
2026-01-18 17:11:58.47	13.40	12.49	-41.0	-42.3	20.4	0.00e+00	6	40	0	256901120	54	6664
2026-01-18 17:11:59.48	13.27	12.56	-41.0	-42.3	20.4	0.00e+00	0	40	0	258998272	54	6652
2026-01-18 17:12:00.49	13.14	12.63	-41.0	-42.3	20.5	0.00e+00	27	40	0	261095424	54	6632
2026-01-18 17:12:01.50	13.01	12.71	-40.8	-42.0	20.7	0.00e+00	0	40	0	263192576	54	6429
2026-01-18 17:12:02.51	12.88	12.78	-40.7	-41.9	20.9	0.00e+00	48	40	0	264241152	54	6327
2026-01-18 17:12:03.52	12.75	12.85	-40.4	-41.6	21.1	0.00e+00	0	40	0	266338304	54	6152
2026-01-18 17:12:04.53	12.62	12.93	-40.3	-41.4	21.2	0.00e+00	85	40	0	268435456	54	6020
2026-01-18 17:12:05.54	12.49	13.00	-40.2	-41.3	21.3	0.00e+00	0	40	0	270532608	54	5963
2026-01-18 17:12:06.55	12.35	13.08	-40.0	-41.1	21.5	0.00e+00	0	40	0	272629760	54	5806
2026-01-18 17:12:07.56	12.22	13.15	-40.0	-41.1	21.5	0.00e+00	9	40	0	273678336	54	5819
2026-01-18 17:12:08.57	12.08	13.23	-39.8	-40.9	21.7	0.00e+00	0	40	0	275775488	54	5678
2026-01-18 17:12:09.58	11.95	13.30	-39.7	-40.7	21.8	0.00e+00	32	40	0	277872640	52	6231
2026-01-18 17:12:10.59	11.81	13.37	-39.6	-40.7	21.9	0.00e+00	0	40	0	279969792	52	6192
2026-01-18 17:12:11.60	11.68	13.45	-39.7	-40.8	21.7	0.00e+00	91	40	0	282066944	52	6299
2026-01-18 17:12:12.61	11.54	13.52	-40.0	-41.1	21.6	0.00e+00	0	40	0	283115520	52	6483
2026-01-18 17:12:13.62	11.40	13.60	-39.7	-40.8	21.9	0.00e+00	0	40	0	285212672	52	6273
2026-01-18 17:12:14.63	11.27	13.67	-39.7	-40.8	21.9	0.00e+00	0	40	0	287309824	52	6300
2026-01-18 17:12:15.64	11.13	13.75	-39.7	-40.8	21.9	0.00e+00	0	40	0	289406976	52	6298
2026-01-18 17:12:16.65	10.99	13.82	-39.7	-40.8	21.7	0.00e+00	76	40	0	291504128	52	6285
2026-01-18 17:12:17.65	10.85	13.90	-39.9	-41.0	21.6	0.00e+00	0	40	0	293601280	52	6453
2026-01-18 17:12:18.66	10.71	13.97	-39.8	-40.9	21.6	0.00e+00	92	40	0	294649856	52	6341
2026-01-18 17:12:19.67	10.56	14.04	-40.0	-41.2	21.5	0.00e+00	0	40	0	296747008	52	6565
2026-01-18 17:12:20.69	10.42	14.12	-40.1	-41.2	21.5	0.00e+00	0	40	0	298844160	52	6576
2026-01-18 17:12:21.69	10.28	14.19	-40.1	-41.2	21.4	0.00e+00	0	40	0	300941312	52	6591
2026-01-18 17:12:22.71	10.13	14.27	-40.1	-41.2	21.4	0.00e+00	0	40	0	303038464	52	6611
2026-01-18 17:12:23.72	9.99	14.35	-40.0	-41.1	21.5	0.00e+00	38	40	0	304087040	52	6510
2026-01-18 17:12:24.73	9.84	14.42	-39.8	-40.9	21.8	0.00e+00	0	40	0	306184192	52	6334
2026-01-18 17:12:25.74	9.69	14.50	-39.6	-40.6	22.0	0.00e+00	72	40	0	308281344	52	6167
2026-01-18 17:12:26.74	9.55	14.57	-39.5	-40.6	22.0	0.00e+00	0	40	0	310378496	52	6140
2026-01-18 17:12:27.76	9.40	14.65	-39.8	-40.9	21.8	0.00e+00	0	40	0	312475648	52	6343
2026-01-18 17:12:28.77	9.25	14.72	-39.7	-40.8	21.8	0.00e+00	0	40	0	313524224	52	6293
2026-01-18 17:12:29.78	9.10	14.80	-40.1	-41.2	21.4	0.00e+00	0	39	0	315621376	52	6599
2026-01-18 17:12:30.79	8.95	14.87	-39.9	-41.0	21.7	0.00e+00	64	40	0	317718528	52	6426
2026-01-18 17:12:31.80	8.80	14.95	-39.8	-40.9	21.7	0.00e+00	0	40	0	319815680	52	6379
2026-01-18 17:12:32.80	8.65	15.02	-39.9	-41.0	21.8	0.00e+00	72	40	0	321912832	52	6442
2026-01-18 17:12:33.81	8.50	15.10	-39.7	-40.8	21.9	0.00e+00	0	40	0	322961408	52	6253
2026-01-18 17:12:34.82	8.34	15.17	-39.4	-40.5	22.2	0.00e+00	0	40	0	325058560	52	6043
2026-01-18 17:12:35.83	8.19	15.25	-39.3	-40.3	22.2	0.00e+00	0	40	0	327155712	52	5932
2026-01-18 17:12:36.84	8.03	15.32	-39.2	-40.3	22.2	0.00e+00	0	40	0	329252864	52	5903
2026-01-18 17:12:37.85	7.88	15.40	-39.6	-40.7	21.7	0.00e+00	48	40	0	331350016	52	6190
2026-01-18 17:12:38.86	7.72	15.48	-39.9	-41.0	21.1	0.00e+00	0	40	0	332398592	52	6400
2026-01-18 17:12:39.87	7.56	15.55	-40.1	-41.3	21.5	0.00e+00	92	40	0	334495744	52	6643
2026-01-18 17:12:40.88	7.41	15.63	-40.4	-41.6	21.3	0.00e+00	0	40	0	336592896	52	6888
2026-01-18 17:12:41.89	7.25	15.70	-40.4	-41.6	21.2	0.00e+00	60	40	0	338690048	52	6882
2026-01-18 17:12:42.90	7.09	15.78	-40.2	-41.3	21.4	0.00e+00	0	40	0	340787200	52	6676
2026-01-18 17:12:43.91	6.93	15.85	-40.3	-41.5	21.3	0.00e+00	0	40	0	341835776	52	6812
2026-01-18 17:12:44.92	6.76	15.93	-40.2	-41.4	21.4	0.00e+00	34	40	0	343932928	52	6720
2026-01-18 17:12:45.93	6.60	16.00	-40.3	-41.5	21.3	0.00e+00	0	40	0	346030080	52	6820
2026-01-18 17:12:46.94	6.44	16.08	-40.3	-41.5	21.2	0.00e+00	91	40	0	348127232	52	6819
2026-01-18 17:12:47.95	6.28	16.16	-40.3	-41.5	21.2	0.00e+00	0	40	0	350224384	52	6848
2026-01-18 17:12:48.96	6.11	16.23	-40.4	-41.6	21.1	0.00e+00	91	40	0	351272960	52	6894
2026-01-18 17:12:49.97	5.94	16.31	-40.5	-41.7	21.1	0.00e+00	0	40	0	353370112	52	6995
2026-01-18 17:12:50.98	5.78	16.38	-40.5	-41.7	21.2	0.00e+00	0	40	0	355467264	52	6975
2026-01-18 17:12:51.99	5.61	16.46	-40.5	-41.7	21.1	0.00e+00	0	40	0	357564416	52	6985
2026-01-18 17:12:53.00	5.44	16.53	-40.4	-41.6	21.2	0.00e+00	0	40	0	359661568	52	6887
2026-01-18 17:12:54.01	5.27	16.61	-40.2	-41.3	21.3	0.00e+00	39	40	0	361758720	52	6681
2026-01-18 17:12:55.02	5.10	16.68	-40.2	-41.3	21.5	0.00e+00	0	40	0	362807296	52	6678
2026-01-18 17:12:56.03	4.93	16.76	-40.3	-41.5	21.2	0.00e+00	86	40	0	364904448	52	6786
2026-01-18 17:12:57.04	4.76	16.84	-40.1	-41.3	21.5	0.00e+00	0	40	0	367001600	52	6622
2026-01-18 17:12:58.06	4.59	16.91	-40.1	-41.2	21.4	0.00e+00	0	40	0	369098752	52	6594
2026-01-18 17:12:59.06	4.41	16.99	-40.4	-41.6	21.3	0.00e+00	0	40	0	371195904	52	6849
2026-01-18 17:13:00.07	4.24	17.06	-40.5	-41.7	21.2	0.00e+00	0	40	0	372244480	52	6934
2026-01-18 17:13:01.08	4.06	17.14	-40.5	-41.6	21.2	0.00e+00	89	40	0	374341632	52	6918
2026-01-18 17:13:02.09	3.89	17.21	-40.5	-41.7	21.1	0.00e+00	30	40	0	376438784	52	7004
2026-01-18 17:13:03.10	3.71	17.29	-40.5	-41.6	21.3	0.00e+00	87	40	0	378535936	52	6918
2026-01-18 17:13:04.11	3.53	17.36	-40.2	-41.3	21.4	0.00e+00	0	40	0	380633088	52	6687
2026-01-18 17:13:05.12	3.35	17.44	-40.1	-41.2	21.5	0.00e+00	30	40	0	381681664	52	6611
2026-01-18 17:13:06.13	3.17	17.51	-40.1	-41.2	21.7	0.00e+00	0	40	0	383778816	52	6567
2026-01-18 17:13:07.14	2.99	17.59	-40.1	-41.3	21.7	0.00e+00	0	40	0	385875968	52	6628
2026-01-18 17:13:08.15	2.81	17.66	-40.2	-41.4	21.5	0.00e+00	92	40	0	387973120	52	6699
2026-01-18 17:13:09.16	2.63	17.74	-39.9	-41.0	21.7	0.00e+00	0	40	0	390070272	52	6453
2026-01-18 17:13:10.17	2.45	17.81	-40.3	-41.4	21.4	0.00e+00	90	40	0	391118848	52	6745
2026-01-18 17:13:11.18	2.26	17.89	-40.4	-41.6	21.3	0.00e+00	0	40	0	393216000	52	6882
2026-01-18 17:13:12.19	2.08	17.96	-40.3	-41.4	21.4	0.00e+00	26	40	0	395313152	52	6768
2026-01-18 17:13:13.20	1.89	18.03	-40.3	-41.4	21.4	0.00e+00	0	40	0	397410304	52	6740
2026-01-18 17:13:14.21	1.70	18.11	-39.8	-40.8	21.9	0.00e+00	0	40	0	399507456	52	6297
2026-01-18 17:13:15.22	1.51	18.18	-40.1	-41.3	21.5	0.00e+00	3	40	0	400556032	52	6621
2026-01-18 17:13:16.23	1.32	18.26	-40.3	-41.4	21.4	0.00e+00	0	40	0	402653184	52	6761
2026-01-18 17:13:17.24	1.13	18.33	-40.4	-41.6	21.3	0.00e+00	90	40	0	404750336	52	6850
2026-01-18 17:13:18.25	0.94	18.41	-40.4	-41.5	21.4	0.00e+00	0	39	0	406847488	52	6828
2026-01-18 17:13:19.26	0.75	18.48	-39.9	-41.0	21.8	0.00e+00	76	40	0	408944640	52	6415
2026-01-18 17:13:20.27	0.56	18.55	-39.7	-40.7	22.0	0.00e+00	0	40	0	409993216	52	6220
2026-01-18 17:13:21.28	0.36	18.63	-39.6	-40.6	22.1	0.00e+00	0	40	0	412090368	52	6169
2026-01-18 17:13:22.29	0.17	18.70	-39.7	-40.7	21.9	0.00e+00	34	40	0	414187520	52	6239
2026-01-18 17:13:23.30	359.97	18.77	-39.8	-40.9	22.0	0.00e+00	0	40	0	416284672	52	6376
2026-01-18 17:13:24.31	359.78	18.85	-39.8	-40.9	21.9	0.00e+00	33	40	0	418381824	52	6338
2026-01-18 17:13:25.32	359.58	18.92	-40.2	-41.4	21.4	0.00e+00	0	39	0	419430400	52	6710
2026-01-18 17:13:26.33	359.38	18.99	-40.2	-41.4	21.5	0.00e+00	38	39	0	421527552	52	6737
2026-01-18 17:13:27.34	359.18	19.07	-40.2	-41.4	21.3	0.00e+00	0	40	0	423624704	52	6693
2026-01-18 17:13:28.35	358.98	19.14	-40.1	-41.3	21.4	0.00e+00	0	40	0	425721856	52	6618
2026-01-18 17:13:29.36	358.78	19.21	-39.8	-40.9	21.9	0.00e+00	0	40	0	427819008	52	6326
2026-01-18 17:13:30.37	358.58	19.28	-39.9	-41.0	21.9	0.00e+00	0	40	0	429916160	52	6408
2026-01-18 17:13:31.38	358.37	19.36	-39.7	-40.8	22.0	0.00e+00	24	40	0	430964736	52	6262
2026-01-18 17:13:32.39	358.17	19.43	-40.0	-41.1	21.7	0.00e+00	0	40	0	433061888	52	6501
2026-01-18 17:13:33.40	357.96	19.50	-40.1	-41.2	21.6	0.00e+00	40	40	0	435159040	52	6605
2026-01-18 17:13:34.41	357.76	19.57	-40.0	-41.1	21.8	0.00e+00	0	40	0	437256192	52	6501
2026-01-18 17:13:35.42	357.55	19.64	-39.7	-40.8	22.0	0.00e+00	0	40	0	439353344	52	6290
2026-01-18 17:13:36.43	357.34	19.71	-39.5	-40.5	22.1	0.00e+00	0	40	0	440401920	52	6103
2026-01-18 17:13:37.44	357.13	19.78	-39.3	-40.3	22.4	0.00e+00	0	40	0	442499072	52	5951
2026-01-18 17:13:38.45	356.92	19.86	-39.0	-40.0	22.8	0.00e+00	28	40	0	444596224	52	5713
2026-01-18 17:13:39.46	356.71	19.93	-38.9	-39.9	22.7	0.00e+00	0	40	0	446693376	50	6358
2026-01-18 17:13:40.47	356.50	20.00	-39.0	-40.1	22.5	0.00e+00	88	40	0	448790528	50	6497
2026-01-18 17:13:41.48	356.29	20.07	-38.9	-40.0	22.6	0.00e+00	0	40	0	449839104	50	6391
2026-01-18 17:13:42.49	356.07	20.14	-38.8	-39.8	22.5	0.00e+00	0	40	0	451936256	50	6256
2026-01-18 17:13:43.50	355.86	20.21	-38.5	-39.4	23.0	0.00e+00	0	40	0	454033408	50	6032
2026-01-18 17:13:44.51	355.64	20.28	-38.4	-39.4	23.0	0.00e+00	0	40	0	456130560	50	5995
2026-01-18 17:13:45.52	355.42	20.34	-38.2	-39.1	23.3	0.00e+00	31	40	0	458227712	50	5797
2026-01-18 17:13:46.53	355.20	20.41	-38.0	-38.9	23.5	0.00e+00	0	40	0	459276288	50	5637
2026-01-18 17:13:47.53	354.99	20.48	-37.8	-38.7	23.5	0.00e+00	90	40	0	461373440	50	5526
2026-01-18 17:13:48.54	354.77	20.55	-38.1	-39.0	23.4	0.00e+00	0	40	0	463470592	50	5718
2026-01-18 17:13:49.55	354.54	20.62	-38.2	-39.1	23.2	0.00e+00	13	40	0	465567744	50	5821
2026-01-18 17:13:50.56	354.32	20.69	-38.2	-39.1	23.3	0.00e+00	0	40	0	467664896	50	5776
2026-01-18 17:13:51.57	354.10	20.75	-38.4	-39.3	23.1	0.00e+00	0	40	0	468713472	50	5952
2026-01-18 17:13:52.58	353.88	20.82	-38.2	-39.1	23.4	0.00e+00	30	40	0	470810624	50	5782
2026-01-18 17:13:53.59	353.65	20.89	-38.1	-39.0	23.3	0.00e+00	0	40	0	472907776	50	5760
2026-01-18 17:13:54.60	353.42	20.96	-38.3	-39.2	23.3	0.00e+00	86	40	0	475004928	50	5884
2026-01-18 17:13:55.61	353.20	21.02	-38.0	-39.0	23.3	0.00e+00	0	40	0	477102080	50	5715
2026-01-18 17:13:56.62	352.97	21.09	-38.2	-39.1	23.2	0.00e+00	90	40	0	478150656	50	5804
2026-01-18 17:13:57.63	352.74	21.15	-38.3	-39.2	23.3	0.00e+00	0	40	0	480247808	50	5863
2026-01-18 17:13:58.64	352.51	21.22	-38.3	-39.3	23.2	0.00e+00	0	40	0	482344960	50	5929
2026-01-18 17:13:59.65	352.28	21.28	-38.2	-39.1	23.4	0.00e+00	9	40	0	484442112	50	5791
2026-01-18 17:14:00.66	352.05	21.35	-38.1	-39.1	23.3	0.00e+00	0	40	0	486539264	50	5772
2026-01-18 17:14:01.67	351.81	21.41	-38.0	-38.9	23.6	0.00e+00	79	40	0	487587840	50	5667
2026-01-18 17:14:02.68	351.58	21.48	-37.7	-38.7	23.8	0.00e+00	0	40	0	489684992	48	6177
2026-01-18 17:14:03.69	351.34	21.54	-37.7	-38.6	23.7	0.00e+00	90	40	0	491782144	48	6131
2026-01-18 17:14:04.69	351.11	21.61	-37.8	-38.7	23.6	0.00e+00	0	40	0	493879296	48	6221
2026-01-18 17:14:05.70	350.87	21.67	-38.0	-39.0	23.3	0.00e+00	0	40	0	495976448	48	6398
2026-01-18 17:14:06.71	350.63	21.73	-38.1	-39.1	23.1	0.00e+00	0	40	0	498073600	48	6501
2026-01-18 17:14:07.72	350.40	21.79	-38.2	-39.2	23.1	0.00e+00	0	40	0	499122176	48	6565
2026-01-18 17:14:08.73	350.16	21.86	-38.1	-39.0	23.4	0.00e+00	33	40	0	501219328	48	6458
2026-01-18 17:14:09.74	349.91	21.92	-37.9	-38.8	23.6	0.00e+00	0	40	0	503316480	48	6313
2026-01-18 17:14:10.75	349.67	21.98	-37.5	-38.4	23.9	0.00e+00	75	40	0	505413632	48	5981
2026-01-18 17:14:11.76	349.43	22.04	-37.3	-38.2	24.1	0.00e+00	0	40	0	507510784	48	5867
2026-01-18 17:14:12.77	349.19	22.10	-37.4	-38.2	24.0	0.00e+00	0	40	0	508559360	48	5885
2026-01-18 17:14:13.78	348.94	22.16	-37.5	-38.3	23.9	0.00e+00	0	40	0	510656512	48	5952
2026-01-18 17:14:14.79	348.69	22.22	-37.7	-38.6	23.7	0.00e+00	0	40	0	512753664	48	6127
2026-01-18 17:14:15.80	348.45	22.28	-37.6	-38.4	23.9	0.00e+00	90	40	0	514850816	48	6016
2026-01-18 17:14:16.81	348.20	22.34	-37.5	-38.4	23.9	0.00e+00	0	40	0	516947968	48	5974
2026-01-18 17:14:17.82	347.95	22.40	-37.4	-38.2	24.1	0.00e+00	92	40	0	517996544	48	5882
2026-01-18 17:14:18.82	347.70	22.45	-37.3	-38.1	24.0	0.00e+00	0	40	0	520093696	48	5807
2026-01-18 17:14:19.83	347.45	22.51	-37.3	-38.2	24.0	0.00e+00	4	40	0	522190848	48	5845
2026-01-18 17:14:20.84	347.20	22.57	-37.5	-38.3	23.9	0.00e+00	0	40	0	524288000	48	5964
2026-01-18 17:14:21.85	346.95	22.62	-37.6	-38.5	23.8	0.00e+00	0	40	0	526385152	48	6069
2026-01-18 17:14:22.86	346.70	22.68	-37.4	-38.3	23.9	0.00e+00	37	40	0	527433728	48	5916
2026-01-18 17:14:23.87	346.44	22.74	-37.6	-38.5	23.8	0.00e+00	0	40	0	529530880	48	6049
2026-01-18 17:14:24.88	346.19	22.79	-37.4	-38.2	24.0	0.00e+00	89	40	0	531628032	48	5892
2026-01-18 17:14:25.89	345.93	22.85	-37.4	-38.3	24.0	0.00e+00	0	40	0	533725184	48	5924
2026-01-18 17:14:26.90	345.67	22.90	-37.4	-38.3	23.9	0.00e+00	92	40	0	535822336	48	5927
2026-01-18 17:14:27.91	345.42	22.95	-37.6	-38.5	23.8	0.00e+00	0	40	0	536870912	48	6057
2026-01-18 17:14:28.92	345.16	23.01	-38.0	-38.9	23.3	0.00e+00	0	40	0	538968064	48	6326
2026-01-18 17:14:29.93	344.90	23.06	-38.2	-39.2	23.2	0.00e+00	35	40	0	541065216	48	6560
2026-01-18 17:14:30.94	344.64	23.11	-38.4	-39.4	23.1	0.00e+00	0	40	0	543162368	48	6695
2026-01-18 17:14:31.95	344.38	23.16	-38.0	-38.9	23.6	0.00e+00	92	40	0	545259520	48	6387
2026-01-18 17:14:32.96	344.11	23.21	-37.8	-38.7	23.6	0.00e+00	0	40	0	546308096	48	6198
2026-01-18 17:14:33.97	343.85	23.26	-37.7	-38.6	23.8	0.00e+00	44	40	0	548405248	48	6115
2026-01-18 17:14:34.97	343.59	23.31	-37.8	-38.7	23.7	0.00e+00	0	40	0	550502400	48	6180
2026-01-18 17:14:35.98	343.32	23.36	-38.0	-38.9	23.5	0.00e+00	13	40	0	552599552	48	6374
2026-01-18 17:14:36.99	343.06	23.41	-38.3	-39.2	23.2	0.00e+00	0	40	0	554696704	48	6593
2026-01-18 17:14:38.00	342.79	23.46	-38.0	-38.9	23.5	0.00e+00	0	40	0	555745280	48	6376
2026-01-18 17:14:39.01	342.53	23.51	-37.9	-38.8	23.5	0.00e+00	11	40	0	557842432	48	6291
2026-01-18 17:14:40.02	342.26	23.55	-37.5	-38.4	23.6	0.00e+00	0	40	0	559939584	48	5993
2026-01-18 17:14:41.03	341.99	23.60	-37.6	-38.5	23.9	0.00e+00	92	40	0	562036736	48	6079
2026-01-18 17:14:42.04	341.72	23.64	-37.6	-38.5	23.8	0.00e+00	0	40	0	564133888	48	6089
2026-01-18 17:14:43.05	341.45	23.69	-37.4	-38.3	23.9	0.00e+00	0	40	0	566231040	48	5928
2026-01-18 17:14:44.06	341.18	23.73	-37.7	-38.6	23.8	0.00e+00	0	40	0	567279616	48	6104
2026-01-18 17:14:45.07	340.90	23.78	-37.6	-38.5	23.8	0.00e+00	0	40	0	569376768	48	6055
2026-01-18 17:14:46.08	340.63	23.82	-37.8	-38.7	23.7	0.00e+00	30	40	0	571473920	48	6179
2026-01-18 17:14:47.09	340.36	23.86	-37.6	-38.5	23.9	0.00e+00	0	40	0	573571072	48	6042
2026-01-18 17:14:48.10	340.08	23.90	-37.0	-37.9	24.3	0.00e+00	39	40	0	575668224	48	5635
2026-01-18 17:14:49.11	339.81	23.95	-37.0	-37.8	24.2	0.00e+00	0	40	0	576716800	48	5591
2026-01-18 17:14:50.12	339.53	23.99	-37.0	-37.8	24.1	0.00e+00	0	40	0	578813952	48	5613
2026-01-18 17:14:51.13	339.26	24.03	-37.1	-37.9	24.3	0.00e+00	0	40	0	580911104	48	5657
2026-01-18 17:14:52.14	338.98	24.07	-37.3	-38.2	24.0	0.00e+00	0	40	0	583008256	48	5846
2026-01-18 17:14:53.15	338.70	24.10	-37.7	-38.5	23.9	0.00e+00	33	40	0	585105408	48	6079
2026-01-18 17:14:54.16	338.42	24.14	-37.9	-38.8	23.7	0.00e+00	0	40	0	586153984	48	6282
2026-01-18 17:14:55.17	338.14	24.18	-38.0	-38.9	23.5	0.00e+00	91	40	0	588251136	48	6352
2026-01-18 17:14:56.18	337.86	24.22	-37.8	-38.7	23.6	0.00e+00	0	40	0	590348288	48	6211
2026-01-18 17:14:57.19	337.58	24.25	-38.0	-38.9	23.5	0.00e+00	0	40	0	592445440	48	6323
2026-01-18 17:14:58.20	337.30	24.29	-38.2	-39.1	23.4	0.00e+00	0	40	0	594542592	48	6535
2026-01-18 17:14:59.21	337.02	24.32	-38.9	-39.9	22.4	0.00e+00	0	40	0	595591168	50	6338
2026-01-18 17:15:00.22	336.74	24.36	-39.8	-40.9	22.0	0.00e+00	0	40	0	597688320	50	7121
2026-01-18 17:15:01.23	336.45	24.39	-40.3	-41.5	21.5	0.00e+00	0	40	0	599785472	52	6771
2026-01-18 17:15:02.24	336.17	24.42	-40.2	-41.4	21.5	0.00e+00	92	40	0	601882624	52	6710
2026-01-18 17:15:03.25	335.89	24.45	-39.8	-40.9	22.1	0.00e+00	0	40	0	603979776	52	6319
2026-01-18 17:15:04.26	335.60	24.48	-39.5	-40.6	22.4	0.00e+00	66	40	0	605028352	52	6130
2026-01-18 17:15:05.27	335.32	24.51	-39.3	-40.3	22.6	0.00e+00	0	40	0	607125504	52	5902
2026-01-18 17:15:06.28	335.03	24.54	-39.3	-40.3	22.5	0.00e+00	0	40	0	609222656	52	5917
2026-01-18 17:15:07.29	334.74	24.57	-39.6	-40.6	22.3	0.00e+00	0	40	0	611319808	52	6145
2026-01-18 17:15:08.29	334.46	24.60	-39.7	-40.7	22.1	0.00e+00	0	40	0	613416960	52	6239
2026-01-18 17:15:09.30	334.17	24.63	-39.4	-40.4	22.4	0.00e+00	33	40	0	614465536	52	5985
2026-01-18 17:15:10.32	333.88	24.65	-39.2	-40.2	22.5	0.00e+00	0	40	0	616562688	52	5892
2026-01-18 17:15:11.32	333.59	24.68	-39.2	-40.2	22.5	0.00e+00	90	40	0	618659840	52	5892
2026-01-18 17:15:12.33	333.31	24.70	-38.9	-39.9	22.9	0.00e+00	0	40	0	620756992	52	5659
2026-01-18 17:15:13.34	333.02	24.73	-39.0	-39.9	22.8	0.00e+00	0	40	0	622854144	52	5689
2026-01-18 17:15:14.35	332.73	24.75	-39.1	-40.1	22.6	0.00e+00	0	40	0	623902720	52	5796
2026-01-18 17:15:15.36	332.44	24.77	-39.4	-40.4	22.4	0.00e+00	0	40	0	625999872	52	6022
2026-01-18 17:15:16.37	332.15	24.79	-39.7	-40.7	22.2	0.00e+00	34	40	0	628097024	52	6219
2026-01-18 17:15:17.38	331.85	24.81	-39.6	-40.6	22.2	0.00e+00	0	40	0	630194176	52	6136
2026-01-18 17:15:18.38	331.57	24.83	-39.8	-40.8	22.1	0.00e+00	64	40	0	632291328	52	6315
2026-01-18 17:15:19.39	331.27	24.85	-39.8	-40.9	22.0	0.00e+00	0	40	0	634388480	52	6378
2026-01-18 17:15:20.40	330.98	24.87	-40.0	-41.1	21.8	0.00e+00	0	40	0	635437056	52	6477
2026-01-18 17:15:21.41	330.69	24.89	-39.9	-41.0	22.0	0.00e+00	0	40	0	637534208	52	6447
2026-01-18 17:15:22.42	330.40	24.91	-40.1	-41.1	22.0	0.00e+00	0	40	0	639631360	52	6535
2026-01-18 17:15:23.43	330.10	24.92	-40.3	-41.5	21.6	0.00e+00	32	40	0	641728512	52	6772
2026-01-18 17:15:24.44	329.81	24.94	-40.7	-41.9	21.4	0.00e+00	0	40	0	643825664	52	7149
2026-01-18 17:15:25.45	329.52	24.95	-40.6	-41.8	21.4	0.00e+00	92	40	0	644874240	54	6308
2026-01-18 17:15:26.46	329.22	24.97	-40.1	-41.2	21.7	0.00e+00	0	40	0	646971392	54	5870
2026-01-18 17:15:27.47	328.93	24.98	-39.8	-40.9	22.0	0.00e+00	0	40	0	649068544	54	5640
2026-01-18 17:15:28.48	328.63	24.99	-39.4	-40.4	22.5	0.00e+00	0	40	0	651165696	52	6009
2026-01-18 17:15:29.49	328.34	25.00	-39.2	-40.3	22.6	0.00e+00	0	40	0	653262848	52	5897
2026-01-18 17:15:30.50	328.04	25.01	-39.2	-40.2	22.7	0.00e+00	29	40	0	654311424	52	5885
2026-01-18 17:15:31.51	327.75	25.02	-39.6	-40.7	22.2	0.00e+00	0	40	0	656408576	52	6206
2026-01-18 17:15:32.52	327.45	25.03	-40.0	-41.1	21.9	0.00e+00	73	40	0	658505728	52	6468
2026-01-18 17:15:33.53	327.16	25.04	-40.3	-41.4	21.6	0.00e+00	0	40	0	660602880	52	6769
2026-01-18 17:15:34.54	326.86	25.05	-40.6	-41.8	21.3	0.00e+00	0	40	0	662700032	52	7051
2026-01-18 17:15:35.55	326.57	25.05	-40.2	-41.3	21.6	0.00e+00	0	40	0	663748608	52	6691
2026-01-18 17:15:36.56	326.27	25.06	-40.2	-41.3	21.8	0.00e+00	0	40	0	665845760	52	6640
2026-01-18 17:15:37.56	325.98	25.06	-40.0	-41.1	22.0	0.00e+00	32	40	0	667942912	52	6488
2026-01-18 17:15:38.57	325.68	25.07	-39.7	-40.7	22.3	0.00e+00	0	40	0	670040064	52	6236
2026-01-18 17:15:39.58	325.38	25.07	-39.4	-40.4	22.7	0.00e+00	73	40	0	672137216	52	5968
2026-01-18 17:15:40.59	325.09	25.07	-38.9	-39.8	23.0	0.00e+00	0	40	0	673185792	52	5621
2026-01-18 17:15:41.60	324.79	25.07	-38.8	-39.8	23.0	0.00e+00	0	40	0	675282944	50	6247
2026-01-18 17:15:42.61	324.50	25.07	-38.9	-39.9	23.0	0.00e+00	0	40	0	677380096	50	6325
2026-01-18 17:15:43.62	324.20	25.07	-39.1	-40.1	22.9	0.00e+00	0	40	0	679477248	50	6481
2026-01-18 17:15:44.63	323.90	25.07	-39.3	-40.3	22.6	0.00e+00	0	40	0	681574400	50	6683
2026-01-18 17:15:45.64	323.61	25.07	-39.6	-40.7	22.3	0.00e+00	0	40	0	682622976	50	6943
2026-01-18 17:15:46.65	323.31	25.07	-39.9	-40.9	22.1	0.00e+00	34	40	0	684720128	52	6384
2026-01-18 17:15:47.66	323.01	25.06	-39.9	-41.0	22.0	0.00e+00	0	40	0	686817280	52	6417
2026-01-18 17:15:48.66	322.72	25.06	-39.8	-40.8	22.2	0.00e+00	80	40	0	688914432	52	6303
2026-01-18 17:15:49.67	322.43	25.05	-39.8	-40.9	22.1	0.00e+00	0	40	0	691011584	52	6358
2026-01-18 17:15:50.68	322.13	25.05	-40.0	-41.1	22.0	0.00e+00	0	40	0	692060160	52	6500
2026-01-18 17:15:51.69	321.83	25.04	-40.2	-41.3	22.0	0.00e+00	0	40	0	694157312	52	6646
2026-01-18 17:15:52.70	321.54	25.03	-40.1	-41.2	21.8	0.00e+00	0	40	0	696254464	52	6599
2026-01-18 17:15:53.71	321.24	25.02	-40.2	-41.3	21.8	0.00e+00	32	40	0	698351616	52	6628
2026-01-18 17:15:54.72	320.95	25.01	-39.6	-40.6	22.0	0.00e+00	0	40	0	700448768	52	6149
2026-01-18 17:15:55.73	320.65	25.00	-39.2	-40.2	22.7	0.00e+00	37	40	0	702545920	52	5873
2026-01-18 17:15:56.74	320.36	24.99	-38.5	-39.5	23.0	0.00e+00	0	40	0	703594496	50	6042
2026-01-18 17:15:57.75	320.06	24.98	-38.6	-39.5	23.3	0.00e+00	0	40	0	705691648	50	6078
2026-01-18 17:15:58.76	319.77	24.97	-38.2	-39.1	23.5	0.00e+00	0	40	0	707788800	50	5785
2026-01-18 17:15:59.77	319.48	24.95	-38.3	-39.2	23.6	0.00e+00	0	40	0	709885952	50	5842
2026-01-18 17:16:00.78	319.18	24.94	-38.1	-39.0	23.6	0.00e+00	48	40	0	710934528	50	5723
2026-01-18 17:16:01.79	318.89	24.92	-38.1	-39.0	23.6	0.00e+00	0	40	0	713031680	50	5738
2026-01-18 17:16:02.80	318.59	24.91	-38.1	-39.0	23.6	0.00e+00	91	40	0	715128832	50	5742
2026-01-18 17:16:03.80	318.30	24.89	-38.3	-39.2	23.4	0.00e+00	0	40	0	717225984	50	5884
2026-01-18 17:16:04.82	318.01	24.87	-38.4	-39.3	23.5	0.00e+00	0	40	0	719323136	50	5906
2026-01-18 17:16:05.82	317.72	24.85	-38.2	-39.1	23.4	0.00e+00	0	40	0	720371712	50	5790
2026-01-18 17:16:06.83	317.43	24.83	-37.7	-38.6	24.0	0.00e+00	0	40	0	722468864	50	5457
2026-01-18 17:16:07.84	317.14	24.81	-37.6	-38.4	24.0	0.00e+00	58	40	0	724566016	48	6031
2026-01-18 17:16:08.85	316.84	24.79	-37.0	-37.8	24.4	0.00e+00	0	40	0	726663168	48	5600
2026-01-18 17:16:09.86	316.55	24.77	-37.0	-37.8	24.5	0.00e+00	90	40	0	728760320	48	5585
2026-01-18 17:16:10.87	316.26	24.75	-37.0	-37.8	24.5	0.00e+00	0	40	0	730857472	48	5604
2026-01-18 17:16:11.88	315.97	24.73	-37.0	-37.8	24.5	0.00e+00	36	40	0	731906048	48	5592
2026-01-18 17:16:12.89	315.68	24.70	-36.6	-37.3	24.5	0.00e+00	0	40	0	734003200	46	5942
2026-01-18 17:16:13.90	315.39	24.68	-36.7	-37.4	24.8	0.00e+00	0	40	0	736100352	46	6018
2026-01-18 17:16:14.90	315.11	24.65	-36.7	-37.5	24.8	0.00e+00	36	40	0	738197504	46	6068
2026-01-18 17:16:15.91	314.82	24.62	-36.8	-37.6	24.6	0.00e+00	0	40	0	740294656	46	6160
2026-01-18 17:16:16.92	314.53	24.60	-37.0	-37.8	24.5	0.00e+00	92	40	0	741343232	46	6264
2026-01-18 17:16:17.93	314.24	24.57	-37.3	-38.2	24.3	0.00e+00	0	40	0	743440384	46	6550
2026-01-18 17:16:18.94	313.96	24.54	-37.5	-38.3	24.2	0.00e+00	83	40	0	745537536	46	6646
2026-01-18 17:16:19.95	313.67	24.51	-37.5	-38.3	24.1	0.00e+00	0	40	0	747634688	46	6679
2026-01-18 17:16:20.96	313.39	24.48	-37.6	-38.4	24.0	0.00e+00	0	40	0	749731840	46	6756
2026-01-18 17:16:21.97	313.10	24.45	-37.6	-38.5	23.8	0.00e+00	0	40	0	750780416	48	6056
2026-01-18 17:16:22.98	312.82	24.42	-37.7	-38.5	24.0	0.00e+00	0	40	0	752877568	48	6090
2026-01-18 17:16:23.99	312.53	24.39	-37.9	-38.7	23.9	0.00e+00	71	40	0	754974720	48	6216
2026-01-18 17:16:25.00	312.25	24.35	-37.7	-38.5	24.0	0.00e+00	0	40	0	757071872	48	6090
2026-01-18 17:16:26.01	311.97	24.32	-37.7	-38.5	24.0	0.00e+00	92	40	0	759169024	48	6075
2026-01-18 17:16:27.02	311.68	24.29	-37.7	-38.5	24.0	0.00e+00	0	40	0	760217600	48	6092
2026-01-18 17:16:28.03	311.40	24.25	-37.8	-38.6	24.0	0.00e+00	0	40	0	762314752	48	6145
2026-01-18 17:16:29.04	311.12	24.21	-37.7	-38.5	24.1	0.00e+00	0	40	0	764411904	48	6096
2026-01-18 17:16:30.05	310.84	24.18	-37.6	-38.4	24.0	0.00e+00	0	40	0	766509056	48	6032
2026-01-18 17:16:31.07	310.56	24.14	-37.9	-38.7	23.8	0.00e+00	92	40	0	768606208	48	6219
2026-01-18 17:16:32.08	310.28	24.10	-38.3	-39.2	23.3	0.00e+00	0	40	0	769654784	48	6551
2026-01-18 17:16:33.09	310.00	24.06	-38.9	-39.8	23.0	0.00e+00	91	40	0	771751936	50	6311
2026-01-18 17:16:34.10	309.72	24.02	-39.2	-40.2	22.6	0.00e+00	0	40	0	773849088	50	6540
2026-01-18 17:16:35.11	309.45	23.98	-39.1	-40.1	22.8	0.00e+00	0	40	0	775946240	50	6514
2026-01-18 17:16:36.12	309.17	23.94	-38.7	-39.7	23.2	0.00e+00	33	40	0	778043392	50	6194
2026-01-18 17:16:37.12	308.90	23.90	-38.4	-39.3	23.4	0.00e+00	0	40	0	779091968	50	5935
2026-01-18 17:16:38.13	308.62	23.86	-38.6	-39.5	23.3	0.00e+00	50	40	0	781189120	50	6071
2026-01-18 17:16:39.14	308.35	23.82	-38.6	-39.6	23.3	0.00e+00	1	40	0	783286272	50	6105
2026-01-18 17:16:40.15	308.08	23.77	-39.1	-40.0	22.9	0.00e+00	90	40	0	785383424	50	6456
2026-01-18 17:16:41.16	307.81	23.73	-39.1	-40.1	22.7	0.00e+00	0	40	0	787480576	50	6480
2026-01-18 17:16:42.17	307.53	23.69	-39.6	-40.7	22.5	0.00e+00	30	40	0	788529152	50	6996
2026-01-18 17:16:43.18	307.26	23.64	-39.3	-40.4	22.5	0.00e+00	0	40	0	790626304	50	6696
2026-01-18 17:16:44.18	307.00	23.60	-39.7	-40.7	22.3	0.00e+00	0	40	0	792723456	50	6960
2026-01-18 17:16:45.19	306.73	23.55	-39.6	-40.7	22.4	0.00e+00	34	40	0	794820608	52	6180
2026-01-18 17:16:46.20	306.46	23.50	-39.8	-40.8	22.3	0.00e+00	0	40	0	796917760	52	6316
2026-01-18 17:16:47.21	306.19	23.46	-39.8	-40.9	22.1	0.00e+00	85	40	0	799014912	52	6345
2026-01-18 17:16:48.22	305.92	23.41	-40.2	-41.3	21.9	0.00e+00	0	40	0	800063488	52	6657
2026-01-18 17:16:49.23	305.66	23.36	-40.4	-41.6	21.6	0.00e+00	0	40	0	802160640	52	6849
2026-01-18 17:16:50.24	305.39	23.31	-40.6	-41.8	21.4	0.00e+00	0	40	0	804257792	52	7067
2026-01-18 17:16:51.25	305.13	23.26	-40.6	-41.8	21.5	0.00e+00	0	40	0	806354944	52	7020
2026-01-18 17:16:52.26	304.86	23.21	-40.2	-41.3	21.8	0.00e+00	25	40	0	808452096	54	5938
2026-01-18 17:16:53.27	304.60	23.16	-40.1	-41.2	22.0	0.00e+00	0	40	0	809500672	54	5842
2026-01-18 17:16:54.28	304.34	23.11	-39.8	-40.8	22.2	0.00e+00	92	40	0	811597824	52	6276
2026-01-18 17:16:55.29	304.08	23.05	-39.9	-40.9	22.2	0.00e+00	0	40	0	813694976	52	6374
2026-01-18 17:16:56.30	303.82	23.00	-39.9	-41.0	22.1	0.00e+00	92	40	0	815792128	52	6428
2026-01-18 17:16:57.30	303.56	22.95	-39.9	-40.9	22.1	0.00e+00	0	40	0	817889280	52	6347
2026-01-18 17:16:58.31	303.30	22.90	-40.0	-41.1	22.1	0.00e+00	0	40	0	818937856	52	6483
2026-01-18 17:16:59.32	303.05	22.84	-40.2	-41.3	21.8	0.00e+00	0	40	0	821035008	52	6635
2026-01-18 17:17:00.33	302.79	22.79	-40.3	-41.4	21.8	0.00e+00	0	40	0	823132160	52	6733
2026-01-18 17:17:01.34	302.53	22.73	-40.3	-41.4	21.7	0.00e+00	91	40	0	825229312	52	6704
2026-01-18 17:17:02.35	302.28	22.68	-39.9	-40.9	21.9	0.00e+00	0	40	0	827326464	52	6366
2026-01-18 17:17:03.36	302.03	22.62	-39.7	-40.7	22.4	0.00e+00	46	40	0	828375040	52	6180
2026-01-18 17:17:04.37	301.77	22.56	-39.4	-40.3	22.6	0.00e+00	0	40	0	830472192	52	5964
2026-01-18 17:17:05.38	301.52	22.51	-39.4	-40.4	22.5	0.00e+00	0	40	0	832569344	52	5975
2026-01-18 17:17:06.39	301.27	22.45	-39.5	-40.5	22.4	0.00e+00	0	40	0	834666496	52	6098
2026-01-18 17:17:07.40	301.02	22.39	-39.5	-40.5	22.4	0.00e+00	0	40	0	836763648	52	6084
2026-01-18 17:17:08.41	300.77	22.33	-39.4	-40.4	22.6	0.00e+00	28	40	0	837812224	52	6008
2026-01-18 17:17:09.42	300.52	22.27	-39.6	-40.7	22.4	0.00e+00	0	40	0	839909376	52	6182
2026-01-18 17:17:10.42	300.28	22.22	-40.0	-41.0	21.9	0.00e+00	40	40	0	842006528	52	6443
2026-01-18 17:17:11.44	300.03	22.15	-40.4	-41.6	21.6	0.00e+00	0	40	0	844103680	52	6850
2026-01-18 17:17:12.45	299.78	22.09	-40.7	-41.8	21.4	0.00e+00	0	40	0	846200832	52	7077
2026-01-18 17:17:13.46	299.54	22.03	-40.8	-42.0	21.0	0.00e+00	0	40	0	847249408	54	6452
2026-01-18 17:17:14.47	299.30	21.97	-40.6	-41.8	21.3	0.00e+00	0	40	0	849346560	54	6249
2026-01-18 17:17:15.48	299.05	21.91	-40.3	-41.4	21.7	0.00e+00	45	40	0	851443712	54	5985
2026-01-18 17:17:16.49	298.81	21.85	-40.0	-41.0	21.9	0.00e+00	0	40	0	853540864	54	5743
2026-01-18 17:17:17.50	298.57	21.79	-40.0	-41.0	22.1	0.00e+00	46	40	0	855638016	52	6437
2026-01-18 17:17:18.51	298.33	21.73	-39.9	-40.9	22.1	0.00e+00	0	40	0	856686592	52	6370
2026-01-18 17:17:19.52	298.10	21.66	-40.1	-41.2	22.0	0.00e+00	3	40	0	858783744	52	6563
2026-01-18 17:17:20.53	297.86	21.60	-40.1	-41.2	22.0	0.00e+00	0	40	0	860880896	52	6606
2026-01-18 17:17:21.54	297.62	21.54	-40.6	-41.8	21.5	0.00e+00	0	40	0	862978048	52	7021
2026-01-18 17:17:22.55	297.39	21.47	-41.1	-42.4	21.0	0.00e+00	34	40	0	865075200	54	6725
2026-01-18 17:17:23.56	297.15	21.41	-41.2	-42.5	20.8	0.00e+00	0	40	0	867172352	54	6845
2026-01-18 17:17:24.57	296.92	21.34	-41.4	-42.7	20.5	0.00e+00	90	40	0	868220928	54	6985
2026-01-18 17:17:25.58	296.68	21.28	-40.7	-41.9	21.4	0.00e+00	0	40	0	870318080	54	6328
2026-01-18 17:17:26.59	296.45	21.21	-40.2	-41.3	21.8	0.00e+00	42	40	0	872415232	54	5963
2026-01-18 17:17:27.60	296.22	21.15	-39.9	-41.0	21.9	0.00e+00	0	40	0	874512384	54	5697
2026-01-18 17:17:28.61	295.99	21.08	-39.4	-40.3	22.5	0.00e+00	0	40	0	876609536	52	5962
2026-01-18 17:17:29.62	295.76	21.01	-38.9	-39.8	23.0	0.00e+00	0	40	0	877658112	52	5626
2026-01-18 17:17:30.63	295.54	20.95	-38.9	-39.8	23.1	0.00e+00	0	40	0	879755264	52	5622
2026-01-18 17:17:31.64	295.31	20.88	-39.1	-40.0	22.8	0.00e+00	33	40	0	881852416	52	5749
2026-01-18 17:17:32.65	295.08	20.81	-39.3	-40.3	22.7	0.00e+00	0	40	0	883949568	52	5923
2026-01-18 17:17:33.66	294.86	20.75	-39.2	-40.2	22.7	0.00e+00	66	40	0	886046720	52	5886
2026-01-18 17:17:34.67	294.64	20.68	-39.6	-40.6	22.3	0.00e+00	0	40	0	887095296	52	6143
2026-01-18 17:17:35.69	294.41	20.61	-39.4	-40.4	22.6	0.00e+00	0	40	0	889192448	52	5990
2026-01-18 17:17:36.69	294.19	20.54	-38.9	-39.9	23.0	0.00e+00	0	40	0	891289600	52	5631
2026-01-18 17:17:37.70	293.97	20.47	-38.8	-39.7	23.1	0.00e+00	0	40	0	893386752	52	5556
2026-01-18 17:17:38.71	293.75	20.40	-38.5	-39.4	23.4	0.00e+00	72	40	0	895483904	50	5986
2026-01-18 17:17:39.72	293.53	20.33	-38.0	-38.8	23.8	0.00e+00	0	40	0	896532480	50	5611
2026-01-18 17:17:40.73	293.31	20.27	-37.9	-38.7	23.0	0.00e+00	70	40	0	898629632	50	5540
2026-01-18 17:17:41.74	293.10	20.20	-37.7	-38.5	23.9	0.00e+00	0	40	0	900726784	48	6079
2026-01-18 17:17:42.75	292.88	20.13	-37.3	-38.1	24.2	0.00e+00	0	40	0	902823936	48	5821
2026-01-18 17:17:43.76	292.67	20.06	-37.1	-37.9	24.3	0.00e+00	0	40	0	904921088	48	5668
2026-01-18 17:17:44.77	292.45	19.99	-37.3	-38.1	24.3	0.00e+00	0	40	0	905969664	48	5771
2026-01-18 17:17:45.78	292.24	19.91	-37.5	-38.3	24.1	0.00e+00	31	40	0	908066816	48	5956
2026-01-18 17:17:46.79	292.03	19.84	-37.9	-38.8	23.7	0.00e+00	0	40	0	910163968	48	6298
2026-01-18 17:17:47.80	291.82	19.77	-38.2	-39.1	23.4	0.00e+00	92	40	0	912261120	48	6524
2026-01-18 17:17:48.81	291.61	19.70	-38.5	-39.4	23.3	0.00e+00	0	40	0	914358272	48	6710
2026-01-18 17:17:49.82	291.40	19.63	-38.8	-39.7	23.0	0.00e+00	0	40	0	915406848	50	6201
2026-01-18 17:17:50.82	291.19	19.56	-38.8	-39.7	22.9	0.00e+00	0	40	0	917504000	50	6224
2026-01-18 17:17:51.83	290.99	19.49	-39.2	-40.2	22.6	0.00e+00	0	40	0	919601152	50	6560
2026-01-18 17:17:52.84	290.78	19.42	-39.1	-40.1	22.7	0.00e+00	31	40	0	921698304	50	6506
2026-01-18 17:17:53.85	290.58	19.34	-39.2	-40.2	22.5	0.00e+00	0	40	0	923795456	50	6570
2026-01-18 17:17:54.86	290.37	19.27	-39.2	-40.2	22.7	0.00e+00	92	40	0	924844032	50	6552
2026-01-18 17:17:55.87	290.17	19.20	-39.0	-40.0	22.8	0.00e+00	0	40	0	926941184	50	6433
2026-01-18 17:17:56.88	289.97	19.13	-39.1	-40.0	22.9	0.00e+00	0	40	0	929038336	50	6451
2026-01-18 17:17:57.89	289.77	19.05	-38.9	-39.9	22.9	0.00e+00	0	40	0	931135488	50	6324
2026-01-18 17:17:58.90	289.57	18.98	-39.0	-39.9	23.0	0.00e+00	0	40	0	933232640	50	6375
2026-01-18 17:17:59.91	289.37	18.91	-38.5	-39.5	23.3	0.00e+00	0	40	0	935329792	50	6060
2026-01-18 17:18:00.92	289.17	18.83	-38.4	-39.4	23.3	0.00e+00	0	40	0	936378368	50	5972
2026-01-18 17:18:01.93	288.97	18.76	-38.2	-39.1	23.5	0.00e+00	86	40	0	938475520	50	5827
2026-01-18 17:18:02.94	288.77	18.69	-38.3	-39.2	23.5	0.00e+00	0	40	0	940572672	50	5841
2026-01-18 17:18:03.95	288.58	18.61	-38.0	-38.9	23.7	0.00e+00	6	40	0	942669824	50	5654
2026-01-18 17:18:04.96	288.39	18.54	-38.2	-39.1	23.4	0.00e+00	0	40	0	944766976	50	5796
2026-01-18 17:18:05.97	288.19	18.47	-38.7	-39.6	23.1	0.00e+00	0	40	0	945815552	50	6151
2026-01-18 17:18:06.98	288.00	18.39	-38.9	-39.9	22.9	0.00e+00	0	40	0	947912704	50	6339
2026-01-18 17:18:07.99	287.81	18.32	-39.1	-40.1	22.6	0.00e+00	0	40	0	950009856	50	6510
2026-01-18 17:18:09.00	287.62	18.24	-39.2	-40.2	22.6	0.00e+00	15	40	0	952107008	50	6608
2026-01-18 17:18:10.01	287.43	18.17	-38.9	-39.9	22.7	0.00e+00	0	40	0	954204160	50	6366
2026-01-18 17:18:11.02	287.24	18.09	-38.9	-39.9	22.9	0.00e+00	67	40	0	955252736	50	6349
2026-01-18 17:18:12.02	287.05	18.02	-38.8	-39.8	23.0	0.00e+00	0	40	0	957349888	50	6248
2026-01-18 17:18:13.04	286.86	17.95	-38.7	-39.6	23.1	0.00e+00	0	40	0	959447040	50	6124
2026-01-18 17:18:14.05	286.68	17.87	-38.9	-39.9	22.9	0.00e+00	0	40	0	961544192	50	6338
2026-01-18 17:18:15.06	286.49	17.80	-39.2	-40.2	22.6	0.00e+00	0	40	0	963641344	50	6569
2026-01-18 17:18:16.07	286.31	17.72	-39.5	-40.6	22.4	0.00e+00	8	40	0	964689920	50	6888
2026-01-18 17:18:17.08	286.13	17.65	-39.5	-40.6	22.3	0.00e+00	0	40	0	966787072	50	6849
2026-01-18 17:18:18.08	285.95	17.57	-39.5	-40.5	22.2	0.00e+00	92	40	0	968884224	50	6837
2026-01-18 17:18:19.09	285.77	17.50	-39.0	-40.0	22.8	0.00e+00	0	40	0	970981376	50	6450
2026-01-18 17:18:20.10	285.59	17.42	-39.0	-40.0	22.6	0.00e+00	31	40	0	973078528	50	6412
2026-01-18 17:18:21.11	285.41	17.35	-39.0	-39.9	22.7	0.00e+00	0	40	0	974127104	50	6373
2026-01-18 17:18:22.12	285.23	17.27	-38.7	-39.6	23.1	0.00e+00	0	40	0	976224256	50	6144
2026-01-18 17:18:23.13	285.05	17.20	-38.8	-39.7	23.0	0.00e+00	90	40	0	978321408	50	6213
2026-01-18 17:18:24.14	284.87	17.12	-38.4	-39.4	23.3	0.00e+00	0	40	0	980418560	50	5965
2026-01-18 17:18:25.15	284.70	17.05	-38.3	-39.2	23.3	0.00e+00	92	40	0	982515712	50	5890
2026-01-18 17:18:26.16	284.52	16.97	-38.3	-39.2	23.4	0.00e+00	0	40	0	983564288	50	5888
2026-01-18 17:18:27.17	284.35	16.89	-38.2	-39.1	23.6	0.00e+00	0	40	0	985661440	50	5773
2026-01-18 17:18:28.18	284.17	16.82	-38.3	-39.2	23.4	0.00e+00	0	40	0	987758592	50	5867
2026-01-18 17:18:29.19	284.00	16.74	-38.4	-39.3	23.3	0.00e+00	0	40	0	989855744	50	5936
2026-01-18 17:18:30.20	283.83	16.67	-38.8	-39.8	22.8	0.00e+00	29	40	0	991952896	50	6271
2026-01-18 17:18:31.21	283.66	16.59	-39.0	-40.0	22.7	0.00e+00	0	40	0	993001472	50	6392
2026-01-18 17:18:32.22	283.49	16.52	-39.2	-40.3	22.6	0.00e+00	83	40	0	995098624	50	6617
2026-01-18 17:18:33.23	283.32	16.44	-38.9	-39.9	22.9	0.00e+00	0	40	0	997195776	50	6328
2026-01-18 17:18:34.24	283.15	16.37	-38.6	-39.5	23.1	0.00e+00	0	40	0	999292928	50	6071
2026-01-18 17:18:35.25	282.99	16.29	-38.3	-39.2	23.4	0.00e+00	0	40	0	1001390080	50	5854
2026-01-18 17:18:36.26	282.82	16.21	-38.1	-39.0	23.5	0.00e+00	0	40	0	1003487232	50	5742
2026-01-18 17:18:37.27	282.65	16.14	-38.0	-38.9	23.7	0.00e+00	25	40	0	1004535808	50	5673
2026-01-18 17:18:38.28	282.49	16.06	-37.9	-38.8	23.6	0.00e+00	0	40	0	1006632960	50	5567
2026-01-18 17:18:39.29	282.33	15.99	-37.8	-38.7	23.7	0.00e+00	88	40	0	1008730112	50	5517
2026-01-18 17:18:40.30	282.16	15.91	-37.8	-38.6	23.7	0.00e+00	0	40	0	1010827264	48	6153
2026-01-18 17:18:41.31	282.00	15.83	-38.2	-39.1	23.4	0.00e+00	91	40	0	1012924416	48	6473
2026-01-18 17:18:42.32	281.84	15.76	-38.2	-39.1	23.4	0.00e+00	0	40	0	1013972992	48	6511
2026-01-18 17:18:43.33	281.68	15.68	-38.3	-39.2	23.4	0.00e+00	0	40	0	1016070144	48	6564
2026-01-18 17:18:44.34	281.52	15.61	-38.4	-39.3	23.2	0.00e+00	31	40	0	1018167296	48	6686
2026-01-18 17:18:45.35	281.36	15.53	-38.6	-39.5	23.2	0.00e+00	0	40	0	1020264448	48	6847
2026-01-18 17:18:46.36	281.20	15.46	-38.7	-39.6	22.9	0.00e+00	92	40	0	1022361600	48	6892
2026-01-18 17:18:47.37	281.05	15.38	-38.9	-39.9	23.0	0.00e+00	0	40	0	1023410176	50	6335
2026-01-18 17:18:48.38	280.89	15.30	-38.9	-39.9	22.7	0.00e+00	92	40	0	1025507328	50	6357
2026-01-18 17:18:49.39	280.73	15.23	-38.6	-39.5	23.1	0.00e+00	0	40	0	1027604480	50	6071
2026-01-18 17:18:50.40	280.58	15.15	-38.9	-39.8	22.8	0.00e+00	0	40	0	1029701632	50	6314
2026-01-18 17:18:51.41	280.43	15.08	-38.9	-39.9	22.8	0.00e+00	9	40	0	1031798784	50	6328
2026-01-18 17:18:52.42	280.27	15.00	-38.2	-39.1	23.5	0.00e+00	0	40	0	1032847360	50	5816
2026-01-18 17:18:53.43	280.12	14.93	-38.0	-38.8	23.6	0.00e+00	34	40	0	1034944512	50	5612
2026-01-18 17:18:54.44	279.97	14.85	-38.2	-39.0	23.5	0.00e+00	0	40	0	1037041664	50	5755
2026-01-18 17:18:55.45	279.82	14.78	-38.2	-39.1	23.6	0.00e+00	90	40	0	1039138816	50	5794
2026-01-18 17:18:56.46	279.67	14.70	-38.4	-39.4	23.1	0.00e+00	0	40	0	1041235968	50	5981
2026-01-18 17:18:57.46	279.52	14.63	-38.8	-39.8	22.5	0.00e+00	0	40	0	1042284544	50	6291
2026-01-18 17:18:58.47	279.37	14.55	-39.3	-40.3	22.2	0.00e+00	0	40	0	1044381696	50	6627
2026-01-18 17:18:59.48	279.22	14.47	-39.5	-40.6	22.2	0.00e+00	0	40	0	1046478848	50	6853
2026-01-18 17:19:00.49	279.08	14.40	-39.5	-40.6	22.3	0.00e+00	48	40	0	1048576000	50	6866
2026-01-18 17:19:01.50	278.93	14.32	-39.4	-40.4	22.2	0.00e+00	0	40	0	1050673152	50	6763
2026-01-18 17:19:02.51	278.79	14.25	-39.4	-40.4	22.4	0.00e+00	36	40	0	1051721728	50	6722
2026-01-18 17:19:03.52	278.64	14.17	-39.4	-40.4	21.9	0.00e+00	0	40	0	1053818880	50	6741
2026-01-18 17:19:04.53	278.50	14.10	-39.3	-40.3	22.4	0.00e+00	0	40	0	1055916032	50	6648
2026-01-18 17:19:05.54	278.35	14.02	-39.3	-40.4	22.4	0.00e+00	0	40	0	1058013184	50	6698
2026-01-18 17:19:06.54	278.21	13.95	-39.1	-40.1	22.6	0.00e+00	0	40	0	1060110336	50	6477
2026-01-18 17:19:07.55	278.07	13.87	-39.0	-40.0	22.6	0.00e+00	23	40	0	1061158912	50	6400
2026-01-18 17:19:08.56	277.93	13.80	-38.8	-39.7	22.8	0.00e+00	0	40	0	1063256064	50	6241
2026-01-18 17:19:09.58	277.79	13.72	-38.6	-39.6	23.0	0.00e+00	70	40	0	1065353216	50	6118
2026-01-18 17:19:10.58	277.65	13.65	-38.6	-39.6	23.0	0.00e+00	0	40	0	1067450368	50	6146
2026-01-18 17:19:11.59	277.51	13.57	-38.5	-39.5	23.1	0.00e+00	0	40	0	1069547520	50	6044
2026-01-18 17:19:12.60	277.37	13.50	-38.2	-39.1	23.4	0.00e+00	0	40	0	1071644672	50	5795
2026-01-18 17:19:13.61	277.23	13.43	-38.3	-39.2	23.4	0.00e+00	0	40	0	1072693248	50	5848
2026-01-18 17:19:14.62	277.10	13.35	-38.4	-39.3	23.2	0.00e+00	0	40	0	1074790400	50	5960
2026-01-18 17:19:15.63	276.96	13.28	-38.7	-39.6	22.9	0.00e+00	0	40	0	1076887552	50	6143
2026-01-18 17:19:16.64	276.83	13.20	-39.0	-40.0	22.7	0.00e+00	49	40	0	1078984704	50	6398
2026-01-18 17:19:17.65	276.69	13.13	-39.5	-40.5	22.1	0.00e+00	0	40	0	1081081856	50	6837
2026-01-18 17:19:18.66	276.56	13.05	-39.7	-40.8	22.0	0.00e+00	92	40	0	1082130432	50	7043
2026-01-18 17:19:19.67	276.42	12.98	-40.0	-41.1	21.8	0.00e+00	0	40	0	1084227584	52	6497
2026-01-18 17:19:20.68	276.29	12.91	-40.0	-41.1	21.7	0.00e+00	0	40	0	1086324736	52	6511
2026-01-18 17:19:21.69	276.16	12.83	-40.0	-41.1	21.7	0.00e+00	0	40	0	1088421888	52	6532
2026-01-18 17:19:22.70	276.03	12.76	-40.1	-41.2	21.7	0.00e+00	0	40	0	1090519040	52	6594
2026-01-18 17:19:23.70	275.90	12.68	-39.4	-40.4	22.3	0.00e+00	35	40	0	1091567616	52	5976
2026-01-18 17:19:24.72	275.77	12.61	-39.3	-40.4	22.4	0.00e+00	0	40	0	1093664768	52	5972
2026-01-18 17:19:25.72	275.64	12.54	-39.0	-40.0	22.6	0.00e+00	84	40	0	1095761920	52	5728
2026-01-18 17:19:26.73	275.51	12.46	-39.1	-40.1	22.4	0.00e+00	0	40	0	1097859072	52	5781
2026-01-18 17:19:27.74	275.38	12.39	-38.7	-39.6	22.9	0.00e+00	0	40	0	1099956224	50	6167
2026-01-18 17:19:28.75	275.26	12.32	-38.9	-39.9	22.7	0.00e+00	0	40	0	1101004800	50	6319
2026-01-18 17:19:29.76	275.13	12.24	-39.0	-40.0	22.6	0.00e+00	0	40	0	1103101952	50	6417
2026-01-18 17:19:30.77	275.00	12.17	-39.0	-40.0	22.5	0.00e+00	86	40	0	1105199104	50	6423
2026-01-18 17:19:31.78	274.88	12.10	-39.4	-40.4	22.3	0.00e+00	0	40	0	1107296256	50	6743
2026-01-18 17:19:32.79	274.75	12.02	-39.0	-40.0	22.6	0.00e+00	73	40	0	1109393408	50	6423
2026-01-18 17:19:33.81	274.63	11.95	-39.2	-40.2	22.5	0.00e+00	0	40	0	1110441984	50	6543
2026-01-18 17:19:34.82	274.50	11.88	-39.1	-40.1	22.6	0.00e+00	0	40	0	1112539136	50	6469
2026-01-18 17:19:35.83	274.38	11.80	-39.0	-40.0	22.6	0.00e+00	0	40	0	1114636288	50	6439
2026-01-18 17:19:36.84	274.26	11.73	-39.1	-40.1	22.5	0.00e+00	0	40	0	1116733440	50	6492
2026-01-18 17:19:37.85	274.14	11.66	-39.2	-40.2	22.5	0.00e+00	28	40	0	1118830592	50	6545
2026-01-18 17:19:38.86	274.02	11.58	-39.4	-40.4	22.3	0.00e+00	0	40	0	1119879168	50	6731
2026-01-18 17:19:39.87	273.90	11.51	-39.3	-40.3	22.3	0.00e+00	92	40	0	1121976320	50	6637
2026-01-18 17:19:40.88	273.78	11.44	-39.6	-40.6	22.0	0.00e+00	0	40	0	1124073472	50	6896
2026-01-18 17:19:41.89	273.66	11.37	-39.8	-40.8	21.9	0.00e+00	0	40	0	1126170624	52	6295
2026-01-18 17:19:42.89	273.54	11.29	-40.0	-41.1	21.7	0.00e+00	0	40	0	1128267776	52	6509
2026-01-18 17:19:43.90	273.42	11.22	-40.2	-41.4	21.5	0.00e+00	0	40	0	1129316352	52	6696
2026-01-18 17:19:44.92	273.30	11.15	-40.2	-41.4	21.4	0.00e+00	30	40	0	1131413504	52	6704
2026-01-18 17:19:45.93	273.19	11.08	-40.3	-41.4	21.3	0.00e+00	0	40	0	1133510656	52	6756
2026-01-18 17:19:46.94	273.07	11.01	-40.3	-41.4	21.4	0.00e+00	90	40	0	1135607808	52	6761
2026-01-18 17:19:47.95	272.95	10.93	-40.4	-41.6	21.2	0.00e+00	0	40	0	1137704960	52	6876
2026-01-18 17:19:48.96	272.84	10.86	-40.3	-41.5	21.4	0.00e+00	16	40	0	1139802112	52	6770
2026-01-18 17:19:49.97	272.72	10.79	-40.4	-41.6	21.2	0.00e+00	0	40	0	1140850688	52	6857
2026-01-18 17:19:50.98	272.61	10.72	-40.3	-41.5	21.3	0.00e+00	0	40	0	1142947840	52	6830
2026-01-18 17:19:51.99	272.50	10.65	-40.5	-41.7	21.0	0.00e+00	0	40	0	1145044992	52	6948
2026-01-18 17:19:53.00	272.38	10.58	-40.8	-42.0	20.8	0.00e+00	0	40	0	1147142144	52	7223
2026-01-18 17:19:54.01	272.27	10.50	-40.9	-42.2	20.5	0.00e+00	46	40	0	1149239296	54	6573
2026-01-18 17:19:55.02	272.16	10.43	-41.3	-42.6	20.4	0.00e+00	0	40	0	1150287872	54	6916
2026-01-18 17:19:56.03	272.05	10.36	-41.1	-42.4	20.4	0.00e+00	48	40	0	1152385024	54	6708
2026-01-18 17:19:57.04	271.94	10.29	-41.2	-42.6	20.3	0.00e+00	0	40	0	1154482176	54	6857
2026-01-18 17:19:58.05	271.83	10.22	-41.2	-42.6	20.3	0.00e+00	0	40	0	1156579328	54	6854
2026-01-18 17:19:59.06	271.72	10.15	-41.3	-42.6	20.3	0.00e+00	6	40	0	1158676480	54	6920
2026-01-18 17:20:00.07	271.61	10.08	-41.3	-42.7	20.4	0.00e+00	0	40	0	1159725056	54	6935
2026-01-18 17:20:01.08	271.50	10.01	-41.0	-42.3	20.5	0.00e+00	6	40	0	1161822208	54	6665
2026-01-18 17:20:02.09	271.39	9.94	-40.8	-42.0	20.7	0.00e+00	0	40	0	1163919360	54	6418
2026-01-18 17:20:03.10	271.29	9.87	-40.4	-41.6	21.0	0.00e+00	90	40	0	1166016512	54	6164
2026-01-18 17:20:04.11	271.18	9.80	-40.2	-41.3	21.4	0.00e+00	0	40	0	1168113664	54	5942
2026-01-18 17:20:05.12	271.07	9.73	-40.0	-41.1	21.5	0.00e+00	0	40	0	1169162240	54	5820
2026-01-18 17:20:06.12	270.97	9.66	-39.8	-40.9	21.7	0.00e+00	0	40	0	1171259392	54	5680
2026-01-18 17:20:07.13	270.86	9.59	-39.7	-40.8	21.8	0.00e+00	7	40	0	1173356544	54	5580
2026-01-18 17:20:08.14	270.76	9.52	-39.7	-40.7	21.8	0.00e+00	92	40	0	1175453696	52	6218
2026-01-18 17:20:09.15	270.66	9.45	-39.8	-40.9	21.7	0.00e+00	0	40	0	1177550848	52	6376
2026-01-18 17:20:10.16	270.55	9.38	-40.0	-41.1	21.7	0.00e+00	90	40	0	1178599424	52	6479
2026-01-18 17:20:11.17	270.45	9.31	-40.1	-41.3	21.4	0.00e+00	0	40	0	1180696576	52	6626
2026-01-18 17:20:12.18	270.35	9.24	-40.3	-41.5	21.2	0.00e+00	0	40	0	1182793728	52	6777
2026-01-18 17:20:13.20	270.24	9.17	-40.3	-41.4	21.3	0.00e+00	0	40	0	1184890880	52	6751
2026-01-18 17:20:14.21	270.14	9.10	-40.5	-41.7	20.9	0.00e+00	0	40	0	1186988032	52	7000
2026-01-18 17:20:15.21	270.04	9.03	-40.8	-42.0	20.7	0.00e+00	29	40	0	1188036608	52	7246
2026-01-18 17:20:16.22	269.94	8.96	-40.8	-42.1	20.8	0.00e+00	6	40	0	1190133760	54	6465
2026-01-18 17:20:17.23	269.84	8.89	-40.5	-41.7	20.9	0.00e+00	92	40	0	1192230912	54	6221
2026-01-18 17:20:18.24	269.74	8.83	-40.6	-41.9	20.8	0.00e+00	0	40	0	1194328064	54	6341
2026-01-18 17:20:19.25	269.64	8.76	-40.6	-41.9	20.8	0.00e+00	0	40	0	1196425216	54	6321
2026-01-18 17:20:20.26	269.54	8.69	-40.4	-41.6	21.0	0.00e+00	0	40	0	1197473792	54	6156
2026-01-18 17:20:21.27	269.44	8.62	-40.5	-41.7	20.9	0.00e+00	0	40	0	1199570944	54	6234
