passes_logs/2026/01/18/R4.6S_Anadyr/R4.6S_Anadyr__20260118_220441_SUOMI_NPP_rec.log

#Pass ID: 20260118_220441_SUOMI NPP
#Satellite: SUOMI NPP
#Configuration: NPP
#almurnet v.1.7.20251203
#Start time: 2026-01-18 22:04:42

#Version: 2.2.20231116
#Station: R4.6S_Anadyr
#Location: 177.4865 lon 64.73178 lat
#TLE: 1 37849U 11061A   26018.62828014  .00000065  00000+0  51921-4 0  9990
#TLE: 2 37849  98.7815 320.6456 0002372  57.2989 302.8415 14.19526102737226

#Time	Az	El	Level	Level2	SNR	BER	BlckErr	Temp	State	Recorded	gain1	gain2
2026-01-18 22:04:42.31	103.09	0.06	-49.8	-62.4	3.4	1.52e+00	0	38	0	0	60	46197
2026-01-18 22:04:43.32	103.04	0.12	-50.0	-65.2	3.6	1.51e+00	0	39	104	0	60	65927
2026-01-18 22:04:44.33	102.99	0.17	-50.0	-65.2	3.6	1.51e+00	0	39	104	0	60	65929
2026-01-18 22:04:45.34	102.93	0.23	-49.9	-65.2	3.6	1.51e+00	0	39	104	0	60	65933
2026-01-18 22:04:46.35	102.88	0.28	-49.9	-65.2	3.6	1.51e+00	0	39	104	0	60	65398
2026-01-18 22:04:47.36	102.83	0.34	-49.9	-65.2	3.6	1.51e+00	0	39	104	0	60	65511
2026-01-18 22:04:48.37	102.78	0.40	-49.9	-65.2	3.6	1.51e+00	0	39	104	0	60	65440
2026-01-18 22:04:49.38	102.72	0.45	-50.0	-65.1	3.6	1.51e+00	0	39	104	0	60	65277
2026-01-18 22:04:50.40	102.67	0.51	-49.9	-65.2	3.6	1.51e+00	0	39	104	0	60	65659
2026-01-18 22:04:51.40	102.62	0.56	-50.0	-65.2	3.6	1.51e+00	0	39	104	0	60	65455
2026-01-18 22:04:52.41	102.56	0.62	-49.7	-65.2	3.6	1.51e+00	0	39	104	0	60	65455
2026-01-18 22:04:53.42	102.51	0.68	-49.9	-65.2	3.6	1.51e+00	0	39	104	0	60	65441
2026-01-18 22:04:54.44	102.46	0.74	-50.0	-65.2	3.6	1.51e+00	0	39	104	0	60	65480
2026-01-18 22:04:55.45	102.40	0.79	-49.9	-65.2	3.6	1.51e+00	0	39	104	0	60	65525
2026-01-18 22:04:56.45	102.35	0.85	-49.9	-65.2	3.6	1.51e+00	0	39	104	0	60	65409
2026-01-18 22:04:57.47	102.29	0.91	-49.4	-65.2	3.6	1.51e+00	0	39	104	0	60	65557
2026-01-18 22:04:58.48	102.24	0.96	-48.9	-65.2	3.6	1.51e+00	0	39	104	0	60	65654
2026-01-18 22:04:59.48	102.18	1.02	-49.8	-65.1	3.6	1.51e+00	0	39	104	0	60	65216
2026-01-18 22:05:00.49	102.13	1.08	-49.7	-65.0	3.6	1.51e+00	0	39	104	0	60	64614
2026-01-18 22:05:01.50	102.07	1.13	-49.8	-64.9	3.6	1.51e+00	0	39	104	0	60	63800
2026-01-18 22:05:02.52	102.02	1.19	-49.6	-64.9	3.6	1.51e+00	0	39	104	0	60	63304
2026-01-18 22:05:03.53	101.96	1.25	-49.6	-64.9	3.6	1.51e+00	0	39	104	0	60	63233
2026-01-18 22:05:04.53	101.90	1.31	-49.4	-64.8	3.6	1.51e+00	0	39	104	0	60	62819
2026-01-18 22:05:05.54	101.85	1.36	-48.8	-64.6	3.6	1.51e+00	0	39	104	0	60	61422
2026-01-18 22:05:06.55	101.79	1.42	-49.0	-64.2	3.6	1.51e+00	0	39	104	0	60	58337
2026-01-18 22:05:07.56	101.73	1.48	-47.2	-63.6	3.6	1.51e+00	0	39	104	0	60	54416
2026-01-18 22:05:08.57	101.68	1.54	-43.1	-63.0	3.6	1.51e+00	0	39	104	0	60	50938
2026-01-18 22:05:09.58	101.62	1.59	-42.6	-62.8	3.6	1.51e+00	0	39	104	0	58	56237
2026-01-18 22:05:10.59	101.56	1.65	-42.7	-62.8	3.6	1.51e+00	0	39	104	0	58	56292
2026-01-18 22:05:11.60	101.50	1.71	-42.6	-62.9	3.6	1.51e+00	0	39	104	0	58	56478
2026-01-18 22:05:12.61	101.45	1.77	-42.6	-62.9	3.6	1.51e+00	0	39	104	0	58	56658
2026-01-18 22:05:13.62	101.39	1.83	-42.6	-62.8	3.6	1.51e+00	0	39	104	0	58	56236
2026-01-18 22:05:14.63	101.33	1.89	-42.6	-62.9	3.6	1.51e+00	0	39	104	0	58	56615
2026-01-18 22:05:15.64	101.27	1.94	-42.6	-62.9	3.6	1.51e+00	0	39	104	0	58	56434
2026-01-18 22:05:16.65	101.21	2.00	-42.6	-62.8	3.6	1.51e+00	0	39	104	0	58	56250
2026-01-18 22:05:17.66	101.15	2.06	-42.7	-62.8	3.6	1.51e+00	0	40	104	0	58	55706
2026-01-18 22:05:18.67	101.09	2.12	-42.6	-62.7	3.6	1.51e+00	0	40	104	0	58	55202
2026-01-18 22:05:19.68	101.03	2.18	-42.6	-62.7	3.6	1.51e+00	0	39	104	0	58	55350
2026-01-18 22:05:20.69	100.97	2.24	-42.6	-62.7	3.6	1.51e+00	0	40	104	0	58	55384
2026-01-18 22:05:21.70	100.91	2.30	-42.7	-62.7	3.6	1.51e+00	0	40	104	0	58	55081
2026-01-18 22:05:22.71	100.85	2.36	-42.6	-62.8	3.6	1.51e+00	0	40	104	0	58	55877
2026-01-18 22:05:23.72	100.79	2.42	-42.7	-62.8	3.6	1.51e+00	0	40	104	0	58	56192
2026-01-18 22:05:24.73	100.73	2.47	-42.7	-62.9	3.6	1.51e+00	0	40	104	0	58	56745
2026-01-18 22:05:25.74	100.67	2.53	-42.6	-62.8	3.6	1.51e+00	0	40	104	0	58	56188
2026-01-18 22:05:26.75	100.61	2.59	-42.6	-62.8	3.6	1.51e+00	0	40	104	0	58	55938
2026-01-18 22:05:27.76	100.55	2.65	-42.7	-62.8	3.6	1.51e+00	0	40	104	0	58	56152
2026-01-18 22:05:28.77	100.48	2.71	-42.7	-62.8	3.6	1.51e+00	0	40	104	0	58	56004
2026-01-18 22:05:29.78	100.42	2.77	-42.6	-62.6	3.6	1.51e+00	0	40	104	0	58	54979
2026-01-18 22:05:30.79	100.36	2.83	-42.6	-62.3	3.6	1.51e+00	0	40	104	0	58	52795
2026-01-18 22:05:31.80	100.30	2.89	-42.6	-62.0	3.6	1.51e+00	0	40	104	0	58	50933
2026-01-18 22:05:32.81	100.23	2.95	-42.6	-61.8	3.6	1.51e+00	0	40	104	0	58	49812
2026-01-18 22:05:33.82	100.17	3.01	-42.6	-61.9	3.6	1.51e+00	0	40	104	0	58	50222
2026-01-18 22:05:34.83	100.11	3.07	-42.6	-61.9	3.6	1.51e+00	0	40	104	0	58	50599
2026-01-18 22:05:35.84	100.04	3.13	-42.6	-61.3	3.6	1.51e+00	0	40	104	0	58	47204
2026-01-18 22:05:36.85	99.98	3.19	-42.6	-59.1	4.1	1.50e+00	0	40	104	0	58	36623
2026-01-18 22:05:37.87	99.91	3.25	-42.5	-55.3	5.6	9.12e-01	92	40	0	1048576	58	23486
2026-01-18 22:05:38.88	99.85	3.32	-42.3	-53.1	7.8	1.35e-01	0	40	0	2097152	58	18386
2026-01-18 22:05:39.88	99.78	3.38	-42.1	-51.5	9.8	2.10e-02	92	40	0	4194304	58	15319
2026-01-18 22:05:40.90	99.72	3.44	-45.3	-62.1	3.6	1.40e-01	0	40	104	5242880	60	46181
2026-01-18 22:05:41.91	99.65	3.50	-42.4	-62.1	3.6	1.51e+00	0	40	104	5242880	60	46207
2026-01-18 22:05:42.92	99.59	3.56	-40.7	-52.1	9.0	1.20e+00	76	40	104	5242880	56	18358
2026-01-18 22:05:43.93	99.52	3.62	-43.2	-46.8	14.8	7.19e-03	0	40	0	5242880	58	8830
2026-01-18 22:05:44.94	99.45	3.68	-39.8	-60.9	3.6	1.00e+00	0	40	104	7340032	54	56947
2026-01-18 22:05:45.95	99.39	3.74	-41.7	-48.3	13.5	1.47e+00	0	40	104	7340032	58	10593
2026-01-18 22:05:46.96	99.32	3.80	-41.2	-47.7	14.1	0.00e+00	92	40	0	7340032	56	10987
2026-01-18 22:05:47.97	99.25	3.87	-41.4	-46.7	15.1	7.00e-07	76	40	0	9437184	56	9860
2026-01-18 22:05:48.98	99.18	3.93	-42.0	-46.4	15.1	0.00e+00	0	40	0	11534336	56	9553
2026-01-18 22:05:49.99	99.12	3.99	-41.9	-46.8	15.2	0.00e+00	82	40	0	13631488	56	9917
2026-01-18 22:05:51.00	99.05	4.05	-41.7	-46.2	15.7	0.00e+00	0	40	0	14680064	56	9344
2026-01-18 22:05:52.01	98.98	4.11	-41.7	-46.3	15.7	0.00e+00	92	40	0	16777216	56	9420
2026-01-18 22:05:53.02	98.91	4.18	-42.1	-46.6	15.5	0.00e+00	0	40	0	18874368	56	9723
2026-01-18 22:05:54.02	98.84	4.24	-42.6	-46.9	15.2	0.00e+00	92	40	0	20971520	56	10044
2026-01-18 22:05:55.03	98.77	4.30	-43.2	-47.1	15.2	0.00e+00	92	40	0	23068672	58	9145
2026-01-18 22:05:56.05	98.70	4.36	-43.3	-47.0	15.1	0.00e+00	0	40	0	24117248	58	9054
2026-01-18 22:05:57.05	98.63	4.42	-43.1	-46.4	15.9	0.00e+00	90	40	0	26214400	58	8471
2026-01-18 22:05:58.06	98.56	4.49	-42.9	-45.7	16.5	0.00e+00	0	40	0	28311552	58	7854
2026-01-18 22:05:59.07	98.49	4.55	-43.2	-45.8	16.4	0.00e+00	75	40	0	30408704	58	7881
2026-01-18 22:06:00.08	98.42	4.61	-43.4	-45.7	16.4	0.00e+00	0	40	0	32505856	58	7796
2026-01-18 22:06:01.08	98.35	4.67	-43.4	-45.6	16.9	0.00e+00	69	40	0	33554432	58	7696
2026-01-18 22:06:02.09	98.28	4.74	-42.9	-44.9	17.3	0.00e+00	0	40	0	35651584	58	7113
2026-01-18 22:06:03.10	98.21	4.80	-43.1	-45.3	16.8	0.00e+00	0	40	0	37748736	58	7446
2026-01-18 22:06:04.11	98.13	4.86	-42.8	-44.9	17.4	0.00e+00	92	40	0	39845888	58	7106
2026-01-18 22:06:05.13	98.06	4.93	-42.8	-44.9	17.3	0.00e+00	0	40	0	41943040	58	7148
2026-01-18 22:06:06.14	97.99	4.99	-42.8	-44.8	17.5	0.00e+00	50	40	0	42991616	58	7071
2026-01-18 22:06:07.15	97.91	5.05	-43.0	-45.1	17.0	0.00e+00	0	40	0	45088768	58	7275
2026-01-18 22:06:08.16	97.84	5.12	-43.1	-45.4	16.9	0.00e+00	92	40	0	47185920	58	7555
2026-01-18 22:06:09.16	97.77	5.18	-42.9	-45.2	17.0	0.00e+00	0	40	0	49283072	58	7403
2026-01-18 22:06:10.17	97.69	5.24	-42.6	-44.9	17.5	0.00e+00	89	40	0	51380224	58	7100
2026-01-18 22:06:11.18	97.62	5.31	-41.9	-43.9	18.5	0.00e+00	91	40	0	52428800	58	6389
2026-01-18 22:06:12.19	97.54	5.37	-42.0	-44.1	18.4	0.00e+00	0	40	0	54525952	58	6479
2026-01-18 22:06:13.19	97.47	5.44	-42.1	-44.1	18.4	0.00e+00	73	40	0	56623104	58	6469
2026-01-18 22:06:14.20	97.39	5.50	-42.2	-44.2	18.2	0.00e+00	0	40	0	58720256	58	6565
2026-01-18 22:06:15.21	97.32	5.57	-42.3	-44.3	18.1	0.00e+00	92	40	0	60817408	58	6616
2026-01-18 22:06:16.22	97.24	5.63	-42.6	-44.6	17.8	0.00e+00	0	40	0	61865984	58	6859
2026-01-18 22:06:17.23	97.16	5.69	-42.5	-44.3	18.1	0.00e+00	92	40	0	63963136	58	6661
2026-01-18 22:06:18.24	97.09	5.76	-42.4	-44.2	18.1	0.00e+00	92	40	0	66060288	58	6607
2026-01-18 22:06:19.25	97.01	5.82	-42.4	-44.2	18.2	0.00e+00	0	40	0	68157440	58	6571
2026-01-18 22:06:20.26	96.93	5.89	-42.3	-44.0	18.5	0.00e+00	92	40	0	70254592	58	6413
2026-01-18 22:06:21.27	96.85	5.95	-42.3	-43.9	18.6	0.00e+00	0	40	0	71303168	58	6378
2026-01-18 22:06:22.28	96.78	6.02	-42.2	-43.8	18.8	0.00e+00	92	40	0	73400320	58	6286
2026-01-18 22:06:23.28	96.70	6.08	-42.1	-43.7	18.8	0.00e+00	0	40	0	75497472	58	6201
2026-01-18 22:06:24.29	96.62	6.15	-41.9	-43.5	19.0	0.00e+00	92	40	0	77594624	58	6092
2026-01-18 22:06:25.30	96.54	6.21	-42.3	-44.0	18.7	0.00e+00	9	40	0	79691776	58	6414
2026-01-18 22:06:26.32	96.46	6.28	-42.0	-43.7	19.0	0.00e+00	70	40	0	80740352	58	6186
2026-01-18 22:06:27.33	96.38	6.35	-42.4	-44.2	18.6	0.00e+00	92	40	0	82837504	58	6582
2026-01-18 22:06:28.34	96.30	6.41	-42.3	-44.0	18.7	0.00e+00	0	40	0	84934656	58	6463
2026-01-18 22:06:29.34	96.22	6.48	-42.4	-44.2	18.5	0.00e+00	90	40	0	87031808	58	6605
2026-01-18 22:06:30.35	96.13	6.54	-42.1	-43.8	18.9	0.00e+00	0	40	0	89128960	58	6261
2026-01-18 22:06:31.36	96.05	6.61	-42.1	-43.9	18.8	0.00e+00	92	40	0	90177536	58	6379
2026-01-18 22:06:32.37	95.97	6.68	-42.0	-43.9	18.9	0.00e+00	33	40	0	92274688	58	6342
2026-01-18 22:06:33.38	95.89	6.74	-41.7	-43.5	19.2	0.00e+00	92	40	0	94371840	56	6811
2026-01-18 22:06:34.39	95.80	6.81	-41.6	-43.4	19.4	0.00e+00	90	40	0	96468992	56	6697
2026-01-18 22:06:35.40	95.72	6.88	-41.7	-43.5	19.3	0.00e+00	0	40	0	98566144	56	6799
2026-01-18 22:06:36.41	95.64	6.94	-41.9	-43.5	19.4	0.00e+00	68	40	0	100663296	56	6773
2026-01-18 22:06:37.42	95.55	7.01	-42.1	-43.7	19.1	0.00e+00	0	40	0	101711872	56	6955
2026-01-18 22:06:38.43	95.47	7.08	-42.2	-43.8	19.1	0.00e+00	90	40	0	103809024	56	7039
2026-01-18 22:06:39.44	95.38	7.14	-42.0	-43.6	19.2	0.00e+00	0	40	0	105906176	56	6880
2026-01-18 22:06:40.45	95.30	7.21	-42.0	-43.7	19.0	0.00e+00	92	40	0	108003328	56	6962
2026-01-18 22:06:41.46	95.21	7.28	-42.1	-43.9	19.0	0.00e+00	92	40	0	110100480	56	7111
2026-01-18 22:06:42.47	95.13	7.35	-42.1	-43.8	19.0	0.00e+00	0	40	0	111149056	56	7053
2026-01-18 22:06:43.48	95.04	7.41	-42.3	-44.0	18.9	0.00e+00	87	40	0	113246208	56	7235
2026-01-18 22:06:44.49	94.95	7.48	-42.0	-43.7	19.1	0.00e+00	0	40	0	115343360	56	6998
2026-01-18 22:06:45.49	94.87	7.55	-41.9	-43.7	19.0	0.00e+00	92	40	0	117440512	56	6965
2026-01-18 22:06:46.50	94.78	7.62	-41.5	-43.3	19.5	0.00e+00	17	40	0	119537664	56	6657
2026-01-18 22:06:47.51	94.69	7.68	-41.6	-43.4	19.2	0.00e+00	92	40	0	120586240	56	6711
2026-01-18 22:06:48.52	94.60	7.75	-41.7	-43.6	19.1	0.00e+00	92	40	0	122683392	56	6925
2026-01-18 22:06:49.53	94.51	7.82	-41.9	-43.8	19.0	0.00e+00	0	40	0	124780544	56	7011
2026-01-18 22:06:50.54	94.42	7.89	-42.4	-44.2	18.5	0.00e+00	92	40	0	126877696	56	7413
2026-01-18 22:06:51.55	94.33	7.96	-42.2	-43.9	18.9	0.00e+00	0	40	0	128974848	56	7094
2026-01-18 22:06:52.56	94.24	8.03	-42.0	-43.5	19.1	0.00e+00	84	40	0	130023424	56	6839
2026-01-18 22:06:53.57	94.15	8.09	-42.3	-43.9	18.9	0.00e+00	0	40	0	132120576	56	7154
2026-01-18 22:06:54.58	94.06	8.16	-42.2	-44.0	18.8	0.00e+00	90	40	0	134217728	56	7196
2026-01-18 22:06:55.59	93.97	8.23	-42.0	-43.8	19.1	0.00e+00	91	40	0	136314880	56	7020
2026-01-18 22:06:56.60	93.87	8.30	-42.2	-44.1	18.8	0.00e+00	0	40	0	138412032	56	7282
2026-01-18 22:06:57.61	93.78	8.37	-42.2	-44.1	18.8	0.00e+00	92	40	0	139460608	56	7335
2026-01-18 22:06:58.61	93.69	8.44	-42.2	-44.2	18.8	0.00e+00	0	40	0	141557760	56	7339
2026-01-18 22:06:59.62	93.60	8.51	-42.1	-44.0	19.1	0.00e+00	92	40	0	143654912	56	7177
2026-01-18 22:07:00.63	93.50	8.58	-42.3	-44.1	18.7	0.00e+00	0	40	0	145752064	56	7299
2026-01-18 22:07:01.64	93.41	8.65	-42.6	-44.3	18.9	0.00e+00	92	40	0	147849216	56	7470
2026-01-18 22:07:02.65	93.31	8.72	-42.5	-44.1	18.9	0.00e+00	73	40	0	148897792	56	7296
2026-01-18 22:07:03.66	93.22	8.79	-42.5	-44.2	18.9	0.00e+00	92	40	0	150994944	56	7365
2026-01-18 22:07:04.67	93.12	8.86	-42.5	-44.1	19.0	0.00e+00	92	40	0	153092096	58	6493
2026-01-18 22:07:05.68	93.02	8.93	-42.1	-43.6	19.2	0.00e+00	0	40	0	155189248	58	6128
2026-01-18 22:07:06.68	92.93	9.00	-42.3	-43.9	19.1	0.00e+00	73	40	0	157286400	58	6336
2026-01-18 22:07:07.69	92.83	9.07	-42.3	-43.8	19.2	0.00e+00	0	40	0	158334976	58	6305
2026-01-18 22:07:08.70	92.73	9.14	-41.9	-43.3	19.7	0.00e+00	92	40	0	160432128	58	5913
2026-01-18 22:07:09.71	92.63	9.21	-41.7	-43.1	19.9	0.00e+00	0	40	0	162529280	58	5788
2026-01-18 22:07:10.72	92.53	9.28	-41.5	-42.8	20.1	0.00e+00	92	40	0	164626432	56	6309
2026-01-18 22:07:11.73	92.44	9.35	-41.4	-42.8	20.1	0.00e+00	92	40	0	166723584	56	6309
2026-01-18 22:07:12.74	92.34	9.42	-41.4	-43.0	19.9	0.00e+00	0	40	0	168820736	56	6446
2026-01-18 22:07:13.75	92.24	9.49	-41.4	-43.1	19.8	0.00e+00	92	40	0	169869312	56	6481
2026-01-18 22:07:14.76	92.13	9.56	-41.6	-43.2	19.9	0.00e+00	0	40	0	171966464	56	6540
2026-01-18 22:07:15.77	92.03	9.63	-41.6	-43.1	20.0	0.00e+00	92	40	0	174063616	56	6478
2026-01-18 22:07:16.78	91.93	9.71	-41.5	-42.9	20.1	0.00e+00	0	40	0	176160768	56	6341
2026-01-18 22:07:17.79	91.83	9.78	-41.4	-42.7	20.3	0.00e+00	92	40	0	178257920	56	6185
2026-01-18 22:07:18.79	91.73	9.85	-41.4	-42.7	20.3	0.00e+00	92	40	0	179306496	56	6206
2026-01-18 22:07:19.80	91.62	9.92	-41.4	-42.7	20.1	0.00e+00	0	40	0	181403648	56	6233
2026-01-18 22:07:20.81	91.52	9.99	-41.6	-43.1	20.1	0.00e+00	76	40	0	183500800	56	6475
2026-01-18 22:07:21.82	91.41	10.06	-41.5	-43.0	20.1	0.00e+00	0	40	0	185597952	56	6395
2026-01-18 22:07:22.83	91.31	10.14	-41.5	-43.0	20.0	0.00e+00	92	40	0	187695104	56	6442
2026-01-18 22:07:23.84	91.20	10.21	-41.2	-42.7	20.3	0.00e+00	0	40	0	188743680	56	6202
2026-01-18 22:07:24.85	91.10	10.28	-41.2	-42.7	20.4	0.00e+00	92	40	0	190840832	56	6202
2026-01-18 22:07:25.86	90.99	10.35	-41.1	-42.5	20.5	0.00e+00	90	40	0	192937984	56	6061
2026-01-18 22:07:26.86	90.89	10.43	-41.1	-42.6	20.5	0.00e+00	0	40	0	195035136	56	6114
2026-01-18 22:07:27.88	90.78	10.50	-40.9	-42.3	20.6	0.00e+00	92	40	0	197132288	56	5953
2026-01-18 22:07:28.89	90.67	10.57	-41.0	-42.5	20.5	0.00e+00	0	40	0	198180864	56	6043
2026-01-18 22:07:29.90	90.56	10.64	-41.2	-42.7	20.3	0.00e+00	86	40	0	200278016	56	6205
2026-01-18 22:07:30.90	90.45	10.72	-41.4	-43.1	20.0	0.00e+00	0	40	0	202375168	56	6468
2026-01-18 22:07:31.91	90.34	10.79	-41.4	-43.1	20.0	0.00e+00	92	40	0	204472320	56	6467
2026-01-18 22:07:32.92	90.23	10.86	-41.4	-43.0	19.9	0.00e+00	0	40	0	206569472	56	6455
2026-01-18 22:07:33.93	90.12	10.94	-41.3	-42.8	20.2	0.00e+00	0	40	0	207618048	56	6313
2026-01-18 22:07:34.94	90.01	11.01	-41.1	-42.4	20.6	0.00e+00	90	40	0	209715200	56	6029
2026-01-18 22:07:35.95	89.90	11.08	-41.1	-42.4	20.7	0.00e+00	0	40	0	211812352	56	5991
2026-01-18 22:07:36.96	89.78	11.16	-41.1	-42.5	20.7	0.00e+00	78	40	0	213909504	56	6053
2026-01-18 22:07:37.97	89.67	11.23	-41.0	-42.5	20.6	0.00e+00	0	40	0	216006656	56	6100
2026-01-18 22:07:38.98	89.56	11.31	-41.1	-42.7	20.3	0.00e+00	92	40	0	217055232	56	6223
2026-01-18 22:07:39.99	89.44	11.38	-41.2	-42.9	20.2	0.00e+00	77	40	0	219152384	56	6368
2026-01-18 22:07:41.00	89.33	11.45	-41.5	-43.3	19.9	0.00e+00	90	40	0	221249536	56	6676
2026-01-18 22:07:42.01	89.21	11.53	-41.4	-43.3	19.9	0.00e+00	92	40	0	223346688	56	6631
2026-01-18 22:07:43.02	89.09	11.60	-41.4	-43.2	20.0	0.00e+00	0	40	0	225443840	56	6567
2026-01-18 22:07:44.03	88.98	11.68	-41.6	-43.3	19.9	0.00e+00	78	40	0	226492416	56	6625
2026-01-18 22:07:45.04	88.86	11.75	-41.4	-43.0	20.1	0.00e+00	0	40	0	228589568	56	6452
2026-01-18 22:07:46.05	88.74	11.83	-41.7	-43.2	20.0	0.00e+00	92	40	0	230686720	56	6590
2026-01-18 22:07:47.06	88.62	11.90	-41.7	-43.2	20.1	0.00e+00	0	40	0	232783872	56	6564
2026-01-18 22:07:48.07	88.50	11.98	-41.5	-43.0	20.1	0.00e+00	92	40	0	234881024	56	6455
2026-01-18 22:07:49.08	88.38	12.05	-41.8	-43.3	19.9	0.00e+00	92	40	0	236978176	56	6637
2026-01-18 22:07:50.09	88.26	12.13	-42.0	-43.5	19.8	0.00e+00	0	40	0	238026752	56	6788
2026-01-18 22:07:51.10	88.14	12.20	-42.0	-43.4	19.8	0.00e+00	92	40	0	240123904	56	6713
2026-01-18 22:07:52.11	88.02	12.28	-42.0	-43.5	19.8	0.00e+00	0	40	0	242221056	56	6787
2026-01-18 22:07:53.12	87.90	12.35	-41.5	-42.8	20.3	0.00e+00	52	40	0	244318208	56	6304
2026-01-18 22:07:54.13	87.77	12.43	-41.3	-42.7	20.5	0.00e+00	0	40	0	245366784	56	6174
2026-01-18 22:07:55.14	87.65	12.50	-41.3	-42.5	20.6	0.00e+00	90	40	0	247463936	56	6095
2026-01-18 22:07:56.15	87.52	12.58	-41.2	-42.5	20.7	0.00e+00	67	40	0	249561088	56	6087
2026-01-18 22:07:57.16	87.40	12.65	-41.1	-42.4	20.7	0.00e+00	33	40	0	251658240	56	6009
2026-01-18 22:07:58.16	87.27	12.73	-41.1	-42.3	20.8	0.00e+00	68	40	0	253755392	56	5953
2026-01-18 22:07:59.18	87.15	12.81	-41.1	-42.3	20.7	0.00e+00	0	40	0	254803968	56	5952
2026-01-18 22:08:00.18	87.02	12.88	-40.8	-42.1	21.1	0.00e+00	92	40	0	256901120	56	5768
2026-01-18 22:08:01.20	86.89	12.96	-40.9	-42.1	21.0	0.00e+00	0	40	0	258998272	56	5794
2026-01-18 22:08:02.20	86.76	13.03	-40.7	-41.8	21.2	0.00e+00	92	40	0	261095424	56	5624
2026-01-18 22:08:03.21	86.64	13.11	-40.4	-41.6	21.4	0.00e+00	92	40	0	263192576	54	6135
2026-01-18 22:08:04.22	86.51	13.19	-40.0	-41.1	21.8	0.00e+00	0	40	0	265289728	54	5805
2026-01-18 22:08:05.23	86.37	13.26	-40.0	-41.1	21.9	0.00e+00	51	40	0	266338304	54	5782
2026-01-18 22:08:06.24	86.24	13.34	-40.2	-41.3	21.7	0.00e+00	0	40	0	268435456	54	5945
2026-01-18 22:08:07.25	86.11	13.42	-40.1	-41.2	21.7	0.00e+00	92	40	0	270532608	54	5879
2026-01-18 22:08:08.25	85.98	13.49	-40.2	-41.3	21.6	0.00e+00	0	40	0	272629760	54	5950
2026-01-18 22:08:09.26	85.85	13.57	-40.2	-41.3	21.6	0.00e+00	90	40	0	274726912	54	5932
2026-01-18 22:08:10.27	85.71	13.65	-40.3	-41.4	21.6	0.00e+00	92	40	0	275775488	54	6007
2026-01-18 22:08:11.28	85.58	13.73	-40.3	-41.4	21.6	0.00e+00	0	40	0	277872640	54	6012
2026-01-18 22:08:12.29	85.44	13.80	-40.5	-41.7	21.5	0.00e+00	92	40	0	279969792	54	6176
2026-01-18 22:08:13.29	85.31	13.88	-40.4	-41.5	21.4	0.00e+00	0	40	0	282066944	54	6096
2026-01-18 22:08:14.30	85.17	13.96	-40.6	-41.7	21.4	0.00e+00	91	40	0	284164096	54	6227
2026-01-18 22:08:15.31	85.03	14.03	-40.3	-41.5	21.6	0.00e+00	0	40	0	285212672	54	6039
2026-01-18 22:08:16.31	84.90	14.11	-40.4	-41.6	21.5	0.00e+00	91	40	0	287309824	54	6159
2026-01-18 22:08:17.32	84.76	14.19	-40.5	-41.7	21.4	0.00e+00	76	40	0	289406976	54	6234
2026-01-18 22:08:18.33	84.62	14.27	-40.3	-41.6	21.5	0.00e+00	52	40	0	291504128	54	6107
2026-01-18 22:08:19.34	84.48	14.34	-40.2	-41.5	21.5	0.00e+00	91	40	0	293601280	54	6051
2026-01-18 22:08:20.35	84.34	14.42	-40.4	-41.6	21.4	0.00e+00	0	40	0	294649856	54	6161
2026-01-18 22:08:21.36	84.19	14.50	-40.2	-41.4	21.6	0.00e+00	80	40	0	296747008	54	5993
2026-01-18 22:08:22.37	84.05	14.58	-40.2	-41.3	21.6	0.00e+00	0	40	0	298844160	54	5956
2026-01-18 22:08:23.38	83.91	14.66	-40.3	-41.5	21.6	0.00e+00	92	40	0	300941312	54	6035
2026-01-18 22:08:24.39	83.76	14.73	-40.2	-41.4	21.6	0.00e+00	73	40	0	303038464	54	5967
2026-01-18 22:08:25.40	83.62	14.81	-40.4	-41.5	21.6	0.00e+00	92	40	0	304087040	54	6092
2026-01-18 22:08:26.41	83.47	14.89	-40.3	-41.5	21.6	0.00e+00	92	40	0	306184192	54	6047
2026-01-18 22:08:27.42	83.32	14.97	-40.5	-41.6	21.4	0.00e+00	0	40	0	308281344	54	6137
2026-01-18 22:08:28.43	83.18	15.05	-40.5	-41.6	21.5	0.00e+00	81	40	0	310378496	54	6165
2026-01-18 22:08:29.44	83.03	15.13	-40.3	-41.4	21.5	0.00e+00	0	40	0	312475648	54	6012
2026-01-18 22:08:30.45	82.88	15.20	-40.5	-41.7	21.5	0.00e+00	91	40	0	313524224	54	6220
2026-01-18 22:08:31.46	82.73	15.28	-40.5	-41.7	21.3	0.00e+00	0	40	0	315621376	54	6244
2026-01-18 22:08:32.47	82.58	15.36	-41.0	-42.3	21.1	0.00e+00	92	40	0	317718528	54	6640
2026-01-18 22:08:33.48	82.43	15.44	-40.8	-42.0	21.1	0.00e+00	92	40	0	319815680	54	6439
2026-01-18 22:08:34.49	82.27	15.52	-40.3	-41.4	21.6	0.00e+00	0	40	0	321912832	54	6020
2026-01-18 22:08:35.50	82.12	15.60	-40.8	-41.9	21.2	0.00e+00	42	40	0	322961408	54	6368
2026-01-18 22:08:36.51	81.97	15.68	-40.7	-41.9	21.4	0.00e+00	0	40	0	325058560	54	6345
2026-01-18 22:08:37.52	81.81	15.75	-40.6	-41.8	21.2	0.00e+00	92	40	0	327155712	54	6247
2026-01-18 22:08:38.53	81.66	15.83	-40.9	-42.1	21.1	0.00e+00	0	40	0	329252864	54	6505
2026-01-18 22:08:39.54	81.50	15.91	-41.1	-42.3	20.8	0.00e+00	91	40	0	331350016	54	6664
2026-01-18 22:08:40.55	81.34	15.99	-40.9	-42.2	21.0	0.00e+00	74	40	0	333447168	54	6549
2026-01-18 22:08:41.56	81.19	16.07	-40.9	-42.1	21.1	0.00e+00	0	40	0	334495744	54	6481
2026-01-18 22:08:42.57	81.03	16.15	-40.8	-42.0	20.8	0.00e+00	92	40	0	336592896	54	6460
2026-01-18 22:08:43.58	80.87	16.23	-40.9	-42.1	20.9	0.00e+00	0	40	0	338690048	54	6476
2026-01-18 22:08:44.59	80.71	16.31	-41.0	-42.3	20.9	0.00e+00	91	40	0	340787200	54	6655
2026-01-18 22:08:45.60	80.54	16.39	-41.2	-42.5	20.7	0.00e+00	0	40	0	342884352	54	6806
2026-01-18 22:08:46.60	80.38	16.46	-41.3	-42.6	20.6	0.00e+00	91	40	0	343932928	54	6916
2026-01-18 22:08:47.61	80.22	16.54	-41.1	-42.4	20.8	0.00e+00	76	40	0	346030080	54	6713
2026-01-18 22:08:48.62	80.06	16.62	-40.9	-42.1	21.1	0.00e+00	0	40	0	348127232	54	6511
2026-01-18 22:08:49.63	79.89	16.70	-41.0	-42.3	21.0	0.00e+00	92	40	0	350224384	54	6647
2026-01-18 22:08:50.64	79.73	16.78	-41.1	-42.4	21.0	0.00e+00	0	40	0	352321536	54	6755
2026-01-18 22:08:51.65	79.56	16.86	-41.1	-42.4	20.9	0.00e+00	87	40	0	353370112	54	6725
2026-01-18 22:08:52.66	79.39	16.94	-41.1	-42.4	20.9	0.00e+00	0	40	0	355467264	54	6697
2026-01-18 22:08:53.67	79.22	17.02	-41.3	-42.6	20.8	0.00e+00	92	40	0	357564416	54	6889
2026-01-18 22:08:54.68	79.05	17.10	-41.2	-42.5	20.7	0.00e+00	78	40	0	359661568	54	6820
2026-01-18 22:08:55.69	78.88	17.18	-41.1	-42.4	21.0	0.00e+00	61	40	0	361758720	54	6701
2026-01-18 22:08:56.70	78.71	17.26	-41.2	-42.5	20.8	0.00e+00	91	40	0	362807296	54	6798
2026-01-18 22:08:57.71	78.54	17.34	-41.1	-42.3	21.1	0.00e+00	0	40	0	364904448	54	6668
2026-01-18 22:08:58.72	78.37	17.42	-41.0	-42.2	21.1	0.00e+00	71	40	0	367001600	54	6606
2026-01-18 22:08:59.73	78.19	17.49	-40.9	-42.1	21.3	0.00e+00	0	40	0	369098752	54	6479
2026-01-18 22:09:00.74	78.02	17.57	-40.9	-42.1	21.3	0.00e+00	92	40	0	371195904	54	6527
2026-01-18 22:09:01.74	77.84	17.65	-40.6	-41.7	21.4	0.00e+00	0	40	0	372244480	54	6206
2026-01-18 22:09:02.75	77.67	17.73	-40.5	-41.6	21.6	0.00e+00	4	40	0	374341632	54	6123
2026-01-18 22:09:03.76	77.49	17.81	-40.2	-41.2	21.9	0.00e+00	92	40	0	376438784	54	5884
2026-01-18 22:09:04.77	77.31	17.89	-40.4	-41.5	21.7	0.00e+00	0	40	0	378535936	54	6097
2026-01-18 22:09:05.78	77.13	17.97	-40.8	-41.9	21.4	0.00e+00	79	40	0	380633088	54	6383
2026-01-18 22:09:06.79	76.95	18.05	-40.6	-41.8	21.5	0.00e+00	0	40	0	381681664	54	6285
2026-01-18 22:09:07.80	76.77	18.13	-40.6	-41.9	21.4	0.00e+00	92	40	0	383778816	54	6331
2026-01-18 22:09:08.81	76.58	18.20	-40.6	-41.9	21.4	0.00e+00	0	40	0	385875968	54	6324
2026-01-18 22:09:09.81	76.40	18.28	-40.6	-41.9	21.4	0.00e+00	92	40	0	387973120	54	6342
2026-01-18 22:09:10.82	76.22	18.36	-40.8	-42.1	21.1	0.00e+00	92	40	0	390070272	54	6485
2026-01-18 22:09:11.83	76.03	18.44	-40.6	-41.7	21.5	0.00e+00	0	40	0	391118848	54	6236
2026-01-18 22:09:12.84	75.85	18.52	-40.6	-41.8	21.4	0.00e+00	81	40	0	393216000	54	6278
2026-01-18 22:09:13.85	75.66	18.60	-40.5	-41.6	21.8	0.00e+00	0	40	0	395313152	54	6122
2026-01-18 22:09:14.86	75.47	18.68	-40.5	-41.6	21.6	0.00e+00	92	40	0	397410304	54	6166
2026-01-18 22:09:15.87	75.28	18.75	-40.6	-41.7	21.6	0.00e+00	0	40	0	399507456	54	6197
2026-01-18 22:09:16.88	75.09	18.83	-40.5	-41.6	21.7	0.00e+00	92	40	0	401604608	54	6141
2026-01-18 22:09:17.89	74.90	18.91	-40.4	-41.6	21.7	0.00e+00	78	40	0	402653184	54	6121
2026-01-18 22:09:18.90	74.71	18.99	-40.1	-41.2	22.0	0.00e+00	0	40	0	404750336	54	5875
2026-01-18 22:09:19.90	74.52	19.07	-40.5	-41.6	21.6	0.00e+00	61	40	0	406847488	54	6133
2026-01-18 22:09:20.91	74.32	19.14	-40.5	-41.7	21.5	0.00e+00	0	40	0	408944640	54	6202
2026-01-18 22:09:21.92	74.13	19.22	-40.8	-42.0	21.4	0.00e+00	92	40	0	409993216	54	6449
2026-01-18 22:09:22.93	73.93	19.30	-41.0	-42.3	21.0	0.00e+00	0	40	0	412090368	54	6641
2026-01-18 22:09:23.94	73.73	19.38	-40.8	-42.0	21.3	0.00e+00	92	40	0	414187520	54	6461
2026-01-18 22:09:24.95	73.53	19.45	-40.7	-42.0	21.1	0.00e+00	82	40	0	416284672	54	6392
2026-01-18 22:09:25.96	73.34	19.53	-40.5	-41.7	21.6	0.00e+00	0	40	0	418381824	54	6226
2026-01-18 22:09:26.97	73.13	19.61	-40.4	-41.6	21.8	0.00e+00	69	40	0	419430400	54	6105
2026-01-18 22:09:27.98	72.93	19.69	-40.3	-41.5	21.7	0.00e+00	0	40	0	421527552	54	6057
2026-01-18 22:09:28.99	72.73	19.76	-40.2	-41.4	21.8	0.00e+00	92	40	0	423624704	54	5978
2026-01-18 22:09:30.00	72.53	19.84	-39.9	-41.0	22.2	0.00e+00	0	40	0	425721856	54	5742
2026-01-18 22:09:31.01	72.32	19.92	-39.8	-40.9	22.4	0.00e+00	92	40	0	427819008	52	6338
2026-01-18 22:09:32.02	72.12	19.99	-39.7	-40.8	22.3	0.00e+00	0	40	0	429916160	52	6252
2026-01-18 22:09:33.03	71.91	20.07	-39.7	-40.8	22.1	0.00e+00	0	40	0	430964736	52	6279
2026-01-18 22:09:34.04	71.70	20.15	-40.0	-41.2	22.1	0.00e+00	91	40	0	433061888	52	6543
2026-01-18 22:09:35.04	71.50	20.22	-39.7	-40.8	22.4	0.00e+00	0	40	0	435159040	52	6312
2026-01-18 22:09:36.05	71.29	20.30	-39.4	-40.5	22.6	0.00e+00	80	40	0	437256192	52	6035
2026-01-18 22:09:37.06	71.08	20.37	-39.5	-40.6	22.7	0.00e+00	0	40	0	439353344	52	6120
2026-01-18 22:09:38.07	70.86	20.45	-39.4	-40.4	22.7	0.00e+00	90	40	0	440401920	52	6024
2026-01-18 22:09:39.08	70.65	20.52	-39.5	-40.5	22.6	0.00e+00	0	40	0	442499072	52	6064
2026-01-18 22:09:40.09	70.44	20.60	-39.5	-40.5	22.7	0.00e+00	35	40	0	444596224	52	6062
2026-01-18 22:09:41.10	70.22	20.67	-39.3	-40.3	22.8	0.00e+00	92	40	0	446693376	52	5955
2026-01-18 22:09:42.11	70.01	20.75	-39.0	-39.9	23.1	0.00e+00	0	40	0	448790528	52	5684
2026-01-18 22:09:43.12	69.79	20.82	-39.0	-40.0	23.1	0.00e+00	45	40	0	449839104	52	5712
2026-01-18 22:09:44.13	69.57	20.90	-38.9	-39.9	23.1	0.00e+00	0	40	0	451936256	52	5633
2026-01-18 22:09:45.14	69.35	20.97	-38.7	-39.6	23.3	0.00e+00	91	40	0	454033408	50	6143
2026-01-18 22:09:46.15	69.13	21.05	-38.6	-39.5	23.4	0.00e+00	0	40	0	456130560	50	6073
2026-01-18 22:09:47.16	68.91	21.12	-38.6	-39.5	23.5	0.00e+00	58	40	0	458227712	50	6078
2026-01-18 22:09:48.17	68.69	21.19	-38.5	-39.4	23.3	0.00e+00	48	40	0	459276288	50	5996
2026-01-18 22:09:49.18	68.47	21.27	-38.8	-39.8	23.1	0.00e+00	0	40	0	461373440	50	6272
2026-01-18 22:09:50.18	68.24	21.34	-39.1	-40.1	23.0	0.00e+00	83	40	0	463470592	50	6466
2026-01-18 22:09:51.19	68.02	21.41	-39.3	-40.3	22.8	0.00e+00	0	40	0	465567744	50	6644
2026-01-18 22:09:52.20	67.79	21.48	-39.0	-40.0	23.0	0.00e+00	90	40	0	467664896	50	6425
2026-01-18 22:09:53.21	67.56	21.55	-39.3	-40.3	22.9	0.00e+00	0	40	0	468713472	50	6664
2026-01-18 22:09:54.22	67.34	21.63	-39.2	-40.2	22.9	0.00e+00	92	40	0	470810624	50	6581
2026-01-18 22:09:55.23	67.11	21.70	-39.0	-40.0	23.1	0.00e+00	92	40	0	472907776	50	6403
2026-01-18 22:09:56.24	66.87	21.77	-39.0	-40.0	23.0	0.00e+00	0	40	0	475004928	50	6437
2026-01-18 22:09:57.25	66.64	21.84	-39.0	-40.0	23.0	0.00e+00	74	40	0	477102080	50	6428
2026-01-18 22:09:58.26	66.41	21.91	-38.6	-39.5	23.3	0.00e+00	0	40	0	478150656	50	6066
2026-01-18 22:09:59.27	66.18	21.98	-38.7	-39.6	23.4	0.00e+00	92	40	0	480247808	50	6122
2026-01-18 22:10:00.28	65.94	22.05	-38.6	-39.6	23.4	0.00e+00	0	40	0	482344960	50	6122
2026-01-18 22:10:01.29	65.70	22.12	-38.7	-39.6	23.2	0.00e+00	92	40	0	484442112	50	6143
2026-01-18 22:10:02.30	65.47	22.19	-38.5	-39.4	23.4	0.00e+00	83	40	0	486539264	50	5980
2026-01-18 22:10:03.31	65.23	22.26	-38.4	-39.3	23.6	0.00e+00	0	40	0	487587840	50	5931
2026-01-18 22:10:04.32	64.99	22.33	-38.3	-39.2	23.7	0.00e+00	92	40	0	489684992	50	5859
2026-01-18 22:10:05.33	64.75	22.40	-38.6	-39.5	23.4	0.00e+00	0	40	0	491782144	50	6084
2026-01-18 22:10:06.34	64.51	22.46	-38.5	-39.5	23.5	0.00e+00	89	40	0	493879296	50	6038
2026-01-18 22:10:07.35	64.26	22.53	-38.4	-39.3	23.6	0.00e+00	0	40	0	495976448	50	5943
2026-01-18 22:10:08.36	64.02	22.60	-38.1	-39.0	23.7	0.00e+00	91	40	0	498073600	50	5747
2026-01-18 22:10:09.37	63.78	22.66	-38.1	-38.9	23.7	0.00e+00	0	40	0	499122176	50	5686
2026-01-18 22:10:10.38	63.53	22.73	-38.1	-38.9	23.7	0.00e+00	0	40	0	501219328	50	5668
2026-01-18 22:10:11.39	63.28	22.80	-38.2	-39.1	23.7	0.00e+00	92	40	0	503316480	50	5772
2026-01-18 22:10:12.40	63.04	22.86	-38.3	-39.2	23.7	0.00e+00	0	40	0	505413632	50	5833
2026-01-18 22:10:13.41	62.79	22.93	-38.3	-39.2	23.6	0.00e+00	82	40	0	507510784	50	5859
2026-01-18 22:10:14.43	62.53	22.99	-38.6	-39.5	23.3	0.00e+00	0	40	0	508559360	50	6093
2026-01-18 22:10:15.43	62.29	23.06	-38.5	-39.4	23.4	0.00e+00	92	40	0	510656512	50	6014
2026-01-18 22:10:16.44	62.03	23.12	-38.7	-39.6	23.4	0.00e+00	0	40	0	512753664	50	6151
2026-01-18 22:10:17.45	61.78	23.18	-38.4	-39.3	23.6	0.00e+00	80	40	0	514850816	50	5940
2026-01-18 22:10:18.46	61.53	23.25	-38.1	-39.0	23.7	0.00e+00	92	40	0	516947968	50	5720
2026-01-18 22:10:19.48	61.27	23.31	-38.3	-39.2	23.7	0.00e+00	0	40	0	517996544	50	5870
2026-01-18 22:10:20.48	61.02	23.37	-38.3	-39.2	23.6	0.00e+00	63	40	0	520093696	50	5831
2026-01-18 22:10:21.49	60.76	23.43	-38.3	-39.1	23.7	0.00e+00	0	40	0	522190848	50	5815
2026-01-18 22:10:22.50	60.50	23.49	-38.1	-38.9	23.9	0.00e+00	92	40	0	524288000	50	5673
2026-01-18 22:10:23.51	60.24	23.55	-38.0	-38.9	23.9	0.00e+00	0	40	0	526385152	50	5659
2026-01-18 22:10:24.52	59.98	23.61	-38.1	-38.9	23.9	0.00e+00	31	40	0	527433728	50	5678
2026-01-18 22:10:25.53	59.72	23.67	-38.0	-38.9	23.8	0.00e+00	72	40	0	529530880	50	5635
2026-01-18 22:10:26.54	59.46	23.73	-38.0	-38.9	23.8	0.00e+00	0	40	0	531628032	50	5667
2026-01-18 22:10:27.55	59.19	23.79	-38.4	-39.3	23.6	0.00e+00	50	40	0	533725184	50	5962
2026-01-18 22:10:28.56	58.93	23.85	-38.4	-39.4	23.7	0.00e+00	0	40	0	535822336	50	5966
2026-01-18 22:10:29.57	58.67	23.91	-38.3	-39.2	23.6	0.00e+00	92	40	0	536870912	50	5890
2026-01-18 22:10:30.58	58.40	23.96	-38.4	-39.3	23.5	0.00e+00	0	40	0	538968064	50	5926
2026-01-18 22:10:31.59	58.13	24.02	-38.4	-39.3	23.4	0.00e+00	91	40	0	541065216	50	5962
2026-01-18 22:10:32.59	57.87	24.08	-38.2	-39.1	23.7	0.00e+00	76	40	0	543162368	50	5817
2026-01-18 22:10:33.60	57.60	24.13	-38.2	-39.1	23.8	0.00e+00	0	40	0	545259520	50	5775
2026-01-18 22:10:34.61	57.33	24.19	-38.2	-39.1	23.8	0.00e+00	78	40	0	546308096	50	5783
2026-01-18 22:10:35.62	57.06	24.24	-38.0	-38.9	23.9	0.00e+00	0	40	0	548405248	50	5676
2026-01-18 22:10:36.63	56.79	24.29	-37.8	-38.7	23.9	0.00e+00	96	40	0	550502400	50	5534
2026-01-18 22:10:37.64	56.51	24.35	-37.8	-38.7	24.1	0.00e+00	0	40	0	552599552	48	6202
2026-01-18 22:10:38.64	56.24	24.40	-37.9	-38.8	23.9	0.00e+00	90	40	0	554696704	48	6274
2026-01-18 22:10:39.65	55.97	24.45	-37.8	-38.7	24.1	0.00e+00	0	40	0	555745280	48	6195
2026-01-18 22:10:40.66	55.69	24.50	-37.8	-38.7	23.9	0.00e+00	0	40	0	557842432	48	6202
2026-01-18 22:10:41.67	55.42	24.55	-37.9	-38.7	23.7	0.00e+00	37	40	0	559939584	48	6218
2026-01-18 22:10:42.68	55.14	24.60	-37.7	-38.5	24.2	0.00e+00	0	40	0	562036736	48	6095
2026-01-18 22:10:43.69	54.86	24.65	-37.7	-38.6	24.1	0.00e+00	92	40	0	564133888	48	6112
2026-01-18 22:10:44.70	54.58	24.70	-37.8	-38.7	24.1	0.00e+00	0	40	0	566231040	48	6179
2026-01-18 22:10:45.71	54.30	24.75	-37.7	-38.5	24.1	0.00e+00	92	40	0	567279616	48	6071
2026-01-18 22:10:46.72	54.02	24.79	-37.8	-38.6	24.1	0.00e+00	0	40	0	569376768	48	6154
2026-01-18 22:10:47.73	53.74	24.84	-38.2	-39.0	23.9	0.00e+00	0	40	0	571473920	48	6446
2026-01-18 22:10:48.74	53.46	24.89	-38.1	-39.0	23.8	0.00e+00	92	40	0	573571072	48	6392
2026-01-18 22:10:49.75	53.17	24.93	-38.5	-39.4	23.4	0.00e+00	0	40	0	575668224	48	6715
2026-01-18 22:10:50.76	52.89	24.98	-38.9	-39.8	23.2	0.00e+00	92	40	0	576716800	50	6303
2026-01-18 22:10:51.77	52.60	25.02	-39.3	-40.3	22.8	0.00e+00	0	40	0	578813952	50	6689
2026-01-18 22:10:52.78	52.32	25.06	-39.4	-40.4	22.7	0.00e+00	81	40	0	580911104	50	6708
2026-01-18 22:10:53.79	52.03	25.11	-39.5	-40.4	22.8	0.00e+00	0	40	0	583008256	50	6769
2026-01-18 22:10:54.80	51.75	25.15	-40.0	-41.0	22.3	0.00e+00	0	40	0	585105408	52	6447
2026-01-18 22:10:55.81	51.46	25.19	-40.0	-41.0	21.9	0.00e+00	92	40	0	586153984	52	6460
2026-01-18 22:10:56.81	51.17	25.23	-40.5	-41.6	21.9	0.00e+00	0	40	0	588251136	52	6893
2026-01-18 22:10:57.82	50.88	25.27	-40.6	-41.7	21.7	0.00e+00	6	40	0	590348288	52	6987
2026-01-18 22:10:58.83	50.59	25.31	-40.6	-41.7	21.7	0.00e+00	0	40	0	592445440	52	6997
2026-01-18 22:10:59.84	50.30	25.34	-40.2	-41.3	22.0	0.00e+00	92	40	0	594542592	52	6675
2026-01-18 22:11:00.85	50.01	25.38	-39.9	-41.0	22.0	0.00e+00	0	40	0	595591168	52	6421
2026-01-18 22:11:01.86	49.72	25.42	-39.5	-40.5	22.7	0.00e+00	0	40	0	597688320	52	6058
2026-01-18 22:11:02.87	49.43	25.45	-39.4	-40.3	22.8	0.00e+00	83	40	0	599785472	52	5940
2026-01-18 22:11:03.88	49.13	25.49	-39.5	-40.5	22.8	0.00e+00	0	40	0	601882624	52	6047
2026-01-18 22:11:04.89	48.84	25.52	-39.7	-40.8	22.4	0.00e+00	7	40	0	603979776	52	6259
2026-01-18 22:11:05.90	48.54	25.56	-39.9	-41.0	22.3	0.00e+00	0	40	0	605028352	52	6395
2026-01-18 22:11:06.91	48.25	25.59	-39.9	-41.0	22.3	0.00e+00	83	40	0	607125504	52	6428
2026-01-18 22:11:07.92	47.95	25.62	-39.9	-40.9	22.4	0.00e+00	0	40	0	609222656	52	6375
2026-01-18 22:11:08.93	47.66	25.65	-39.8	-40.8	22.3	0.00e+00	65	41	0	611319808	52	6271
2026-01-18 22:11:09.94	47.36	25.68	-40.0	-41.1	22.3	0.00e+00	86	40	0	613416960	52	6487
2026-01-18 22:11:10.95	47.06	25.71	-40.3	-41.3	22.1	0.00e+00	0	40	0	614465536	52	6676
2026-01-18 22:11:11.95	46.77	25.74	-40.2	-41.2	22.2	0.00e+00	0	40	0	616562688	52	6596
2026-01-18 22:11:12.96	46.47	25.77	-40.0	-41.0	22.3	0.00e+00	0	40	0	618659840	52	6434
2026-01-18 22:11:13.97	46.17	25.79	-39.8	-40.8	22.4	0.00e+00	87	40	0	620756992	52	6264
2026-01-18 22:11:14.98	45.87	25.82	-40.0	-41.1	22.2	0.00e+00	0	40	0	622854144	52	6486
2026-01-18 22:11:15.99	45.57	25.85	-40.5	-41.7	21.8	0.00e+00	73	40	0	623902720	52	6934
2026-01-18 22:11:17.00	45.27	25.87	-40.8	-41.9	21.5	0.00e+00	0	40	0	625999872	54	6389
2026-01-18 22:11:18.01	44.97	25.89	-40.4	-41.5	21.8	0.00e+00	0	40	0	628097024	54	6103
2026-01-18 22:11:19.02	44.66	25.92	-40.4	-41.4	21.7	0.00e+00	89	40	0	630194176	54	6031
2026-01-18 22:11:20.03	44.36	25.94	-40.0	-41.0	22.2	0.00e+00	0	40	0	632291328	54	5737
2026-01-18 22:11:21.04	44.06	25.96	-39.8	-40.8	22.4	0.00e+00	71	40	0	634388480	54	5597
2026-01-18 22:11:22.06	43.75	25.98	-39.9	-40.9	22.4	0.00e+00	0	40	0	635437056	52	6379
2026-01-18 22:11:23.06	43.45	26.00	-39.8	-40.8	22.5	0.00e+00	84	40	0	637534208	52	6313
2026-01-18 22:11:24.07	43.15	26.02	-39.6	-40.6	22.6	0.00e+00	0	40	0	639631360	52	6111
2026-01-18 22:11:25.08	42.85	26.03	-39.6	-40.6	22.6	0.00e+00	0	40	0	641728512	52	6153
2026-01-18 22:11:26.09	42.54	26.05	-39.7	-40.7	22.5	0.00e+00	91	40	0	643825664	52	6211
2026-01-18 22:11:27.10	42.24	26.07	-40.3	-41.4	22.0	0.00e+00	0	41	0	644874240	52	6701
2026-01-18 22:11:28.11	41.93	26.08	-40.7	-41.8	21.5	0.00e+00	45	40	0	646971392	52	7078
2026-01-18 22:11:29.12	41.63	26.10	-40.7	-41.9	21.5	0.00e+00	0	40	0	649068544	54	6339
2026-01-18 22:11:30.13	41.32	26.11	-40.8	-42.0	21.4	0.00e+00	90	40	0	651165696	54	6424
2026-01-18 22:11:31.14	41.02	26.12	-40.7	-41.8	21.6	0.00e+00	0	40	0	653262848	54	6288
2026-01-18 22:11:32.15	40.71	26.13	-40.5	-41.6	21.7	0.00e+00	0	40	0	654311424	54	6158
2026-01-18 22:11:33.16	40.41	26.14	-40.6	-41.7	21.6	0.00e+00	92	40	0	656408576	54	6221
2026-01-18 22:11:34.17	40.10	26.15	-40.3	-41.4	22.0	0.00e+00	0	40	0	658505728	54	6012
2026-01-18 22:11:35.17	39.80	26.16	-40.0	-41.1	22.2	0.00e+00	52	41	0	660602880	54	5770
2026-01-18 22:11:36.18	39.49	26.17	-39.6	-40.6	22.6	0.00e+00	0	40	0	662700032	52	6159
2026-01-18 22:11:37.19	39.18	26.18	-39.7	-40.7	22.4	0.00e+00	90	40	0	663748608	52	6190
2026-01-18 22:11:38.20	38.88	26.18	-39.4	-40.4	22.7	0.00e+00	33	41	0	665845760	52	5983
2026-01-18 22:11:39.21	38.57	26.19	-39.7	-40.7	22.5	0.00e+00	90	40	0	667942912	52	6221
2026-01-18 22:11:40.21	38.27	26.19	-40.1	-41.2	22.2	0.00e+00	85	40	0	670040064	52	6543
2026-01-18 22:11:41.22	37.96	26.19	-40.4	-41.5	21.8	0.00e+00	33	40	0	672137216	52	6841
2026-01-18 22:11:42.23	37.65	26.20	-40.7	-41.8	21.6	0.00e+00	28	40	0	673185792	52	7040
2026-01-18 22:11:43.24	37.34	26.20	-40.8	-42.0	21.4	0.00e+00	0	40	0	675282944	54	6394
2026-01-18 22:11:44.25	37.04	26.20	-40.7	-41.9	21.6	0.00e+00	90	40	0	677380096	54	6353
2026-01-18 22:11:45.26	36.73	26.20	-40.5	-41.7	21.5	0.00e+00	0	40	0	679477248	54	6199
2026-01-18 22:11:46.27	36.42	26.20	-40.5	-41.6	21.7	0.00e+00	80	41	0	681574400	54	6146
2026-01-18 22:11:47.28	36.12	26.19	-40.2	-41.3	22.0	0.00e+00	83	40	0	682622976	54	5933
2026-01-18 22:11:48.29	35.81	26.19	-40.0	-41.1	22.3	0.00e+00	0	40	0	684720128	54	5779
2026-01-18 22:11:49.30	35.50	26.19	-39.6	-40.6	22.7	0.00e+00	83	41	0	686817280	52	6139
2026-01-18 22:11:50.31	35.20	26.18	-39.1	-40.1	23.1	0.00e+00	0	40	0	688914432	52	5780
2026-01-18 22:11:51.32	34.89	26.18	-39.0	-40.0	23.0	0.00e+00	92	41	0	691011584	52	5713
2026-01-18 22:11:52.33	34.58	26.17	-39.2	-40.2	23.0	0.00e+00	0	40	0	692060160	52	5838
2026-01-18 22:11:53.33	34.28	26.16	-38.9	-39.8	23.1	0.00e+00	84	40	0	694157312	52	5583
2026-01-18 22:11:54.34	33.97	26.15	-39.0	-40.0	23.1	0.00e+00	0	40	0	696254464	50	6393
2026-01-18 22:11:55.35	33.67	26.14	-38.7	-39.6	23.3	0.00e+00	0	40	0	698351616	50	6119
2026-01-18 22:11:56.36	33.36	26.13	-38.8	-39.8	23.2	0.00e+00	92	40	0	700448768	50	6260
2026-01-18 22:11:57.37	33.05	26.12	-38.8	-39.7	23.3	0.00e+00	0	40	0	701497344	50	6237
2026-01-18 22:11:58.38	32.75	26.11	-38.7	-39.6	23.3	0.00e+00	92	40	0	703594496	50	6173
2026-01-18 22:11:59.39	32.44	26.10	-38.3	-39.2	23.7	0.00e+00	0	40	0	705691648	50	5855
2026-01-18 22:12:00.40	32.14	26.08	-38.0	-38.8	24.0	0.00e+00	91	40	0	707788800	50	5621
2026-01-18 22:12:01.41	31.83	26.07	-37.4	-38.2	24.4	0.00e+00	17	40	0	709885952	48	5844
2026-01-18 22:12:02.42	31.53	26.05	-37.6	-38.4	24.3	0.00e+00	0	40	0	710934528	48	6032
2026-01-18 22:12:03.43	31.23	26.04	-37.2	-38.0	24.5	0.00e+00	41	40	0	713031680	48	5734
2026-01-18 22:12:04.44	30.92	26.02	-37.5	-38.3	24.4	0.00e+00	0	40	0	715128832	48	5919
2026-01-18 22:12:05.45	30.62	26.00	-37.9	-38.7	23.9	0.00e+00	87	40	0	717225984	48	6204
2026-01-18 22:12:06.45	30.32	25.98	-37.9	-38.7	24.0	0.00e+00	0	40	0	719323136	48	6232
2026-01-18 22:12:07.46	30.02	25.96	-38.2	-39.0	23.8	0.00e+00	90	40	0	720371712	48	6431
2026-01-18 22:12:08.47	29.71	25.94	-38.0	-38.8	23.8	0.00e+00	0	40	0	722468864	48	6306
2026-01-18 22:12:09.48	29.41	25.92	-38.1	-38.9	24.0	0.00e+00	0	40	0	724566016	48	6368
2026-01-18 22:12:10.49	29.11	25.90	-38.3	-39.2	23.6	0.00e+00	92	40	0	726663168	48	6593
2026-01-18 22:12:11.50	28.81	25.87	-38.5	-39.4	23.5	0.00e+00	0	40	0	728760320	48	6711
2026-01-18 22:12:12.51	28.51	25.85	-38.7	-39.6	23.4	0.00e+00	76	40	0	730857472	48	6894
2026-01-18 22:12:13.52	28.21	25.82	-39.0	-39.9	23.2	0.00e+00	0	40	0	731906048	50	6361
2026-01-18 22:12:14.53	27.91	25.80	-38.7	-39.6	23.2	0.00e+00	76	40	0	734003200	50	6104
2026-01-18 22:12:15.54	27.61	25.77	-38.6	-39.5	23.4	0.00e+00	0	40	0	736100352	50	6100
2026-01-18 22:12:16.55	27.31	25.74	-38.7	-39.6	23.3	0.00e+00	0	40	0	738197504	50	6157
2026-01-18 22:12:17.56	27.01	25.72	-38.5	-39.4	23.5	0.00e+00	77	40	0	740294656	50	6023
2026-01-18 22:12:18.57	26.72	25.69	-38.3	-39.1	23.8	0.00e+00	0	40	0	741343232	50	5814
2026-01-18 22:12:19.58	26.42	25.66	-38.5	-39.4	23.7	0.00e+00	80	40	0	743440384	50	5976
2026-01-18 22:12:20.59	26.12	25.63	-39.1	-40.0	23.1	0.00e+00	0	40	0	745537536	50	6435
2026-01-18 22:12:21.60	25.83	25.59	-39.2	-40.1	22.9	0.00e+00	69	40	0	747634688	50	6516
2026-01-18 22:12:22.61	25.53	25.56	-39.1	-40.0	23.1	0.00e+00	0	41	0	749731840	50	6448
2026-01-18 22:12:23.62	25.24	25.53	-38.8	-39.7	23.2	0.00e+00	33	40	0	750780416	50	6214
2026-01-18 22:12:24.63	24.95	25.49	-38.9	-39.8	23.2	0.00e+00	77	40	0	752877568	50	6276
2026-01-18 22:12:25.64	24.65	25.46	-39.1	-40.0	23.0	0.00e+00	0	40	0	754974720	50	6437
2026-01-18 22:12:26.65	24.36	25.42	-39.6	-40.6	22.5	0.00e+00	0	40	0	757071872	50	6906
2026-01-18 22:12:27.66	24.07	25.39	-39.7	-40.7	22.6	0.00e+00	0	40	0	759169024	52	6197
2026-01-18 22:12:28.67	23.78	25.35	-39.6	-40.6	22.6	0.00e+00	76	40	0	760217600	52	6148
2026-01-18 22:12:29.68	23.49	25.31	-39.3	-40.2	23.0	0.00e+00	0	40	0	762314752	52	5878
2026-01-18 22:12:30.69	23.20	25.27	-38.9	-39.9	22.9	0.00e+00	60	40	0	764411904	52	5640
2026-01-18 22:12:31.69	22.91	25.24	-39.3	-40.3	22.8	0.00e+00	78	40	0	766509056	52	5927
2026-01-18 22:12:32.70	22.62	25.20	-39.5	-40.5	22.8	0.00e+00	0	40	0	768606208	52	6039
2026-01-18 22:12:33.71	22.33	25.15	-39.5	-40.5	22.6	0.00e+00	84	40	0	769654784	52	6087
2026-01-18 22:12:34.72	22.05	25.11	-39.9	-41.0	22.3	0.00e+00	0	41	0	771751936	52	6404
2026-01-18 22:12:35.73	21.76	25.07	-39.7	-40.7	22.6	0.00e+00	0	41	0	773849088	52	6224
2026-01-18 22:12:36.74	21.48	25.03	-39.8	-40.8	22.5	0.00e+00	0	40	0	775946240	52	6296
2026-01-18 22:12:37.75	21.19	24.98	-39.6	-40.7	22.5	0.00e+00	0	40	0	778043392	52	6175
2026-01-18 22:12:38.76	20.91	24.94	-39.8	-40.9	22.4	0.00e+00	0	40	0	779091968	52	6327
2026-01-18 22:12:39.77	20.63	24.89	-40.0	-41.0	22.1	0.00e+00	0	40	0	781189120	52	6442
2026-01-18 22:12:40.78	20.34	24.85	-40.0	-41.1	22.1	0.00e+00	43	41	0	783286272	52	6497
2026-01-18 22:12:41.79	20.06	24.80	-40.3	-41.4	22.0	0.00e+00	0	41	0	785383424	52	6739
2026-01-18 22:12:42.80	19.78	24.76	-40.6	-41.7	21.7	0.00e+00	69	41	0	787480576	52	7006
2026-01-18 22:12:43.80	19.51	24.71	-40.4	-41.6	21.9	0.00e+00	0	40	0	788529152	52	6864
2026-01-18 22:12:44.81	19.23	24.66	-40.3	-41.4	21.9	0.00e+00	0	40	0	790626304	52	6699
2026-01-18 22:12:45.82	18.95	24.61	-40.1	-41.2	22.1	0.00e+00	0	40	0	792723456	52	6554
2026-01-18 22:12:46.83	18.67	24.56	-39.9	-41.0	22.2	0.00e+00	0	40	0	794820608	52	6398
2026-01-18 22:12:47.84	18.40	24.51	-40.1	-41.2	22.2	0.00e+00	79	40	0	796917760	52	6544
2026-01-18 22:12:48.85	18.12	24.46	-40.2	-41.3	22.1	0.00e+00	0	40	0	799014912	52	6618
2026-01-18 22:12:49.86	17.85	24.41	-40.2	-41.3	22.0	0.00e+00	81	41	0	800063488	52	6654
2026-01-18 22:12:50.87	17.57	24.36	-40.5	-41.5	21.9	0.00e+00	0	40	0	802160640	52	6846
2026-01-18 22:12:51.87	17.30	24.30	-40.4	-41.5	21.9	0.00e+00	0	40	0	804257792	52	6801
2026-01-18 22:12:52.88	17.03	24.25	-40.5	-41.6	21.8	0.00e+00	0	40	0	806354944	52	6917
2026-01-18 22:12:53.89	16.76	24.20	-40.2	-41.3	22.0	0.00e+00	0	40	0	808452096	52	6662
2026-01-18 22:12:54.90	16.49	24.14	-40.0	-41.0	22.3	0.00e+00	84	40	0	809500672	52	6425
2026-01-18 22:12:55.91	16.22	24.09	-40.0	-41.0	22.3	0.00e+00	0	40	0	811597824	52	6420
2026-01-18 22:12:56.92	15.96	24.03	-39.8	-40.9	22.4	0.00e+00	89	40	0	813694976	52	6318
2026-01-18 22:12:57.93	15.69	23.98	-40.0	-41.1	22.2	0.00e+00	0	40	0	815792128	52	6496
2026-01-18 22:12:58.94	15.42	23.92	-40.2	-41.2	22.1	0.00e+00	0	40	0	817889280	52	6610
2026-01-18 22:12:59.95	15.16	23.86	-40.1	-41.1	22.1	0.00e+00	0	40	0	818937856	52	6526
2026-01-18 22:13:00.96	14.90	23.80	-40.3	-41.3	22.0	0.00e+00	0	41	0	821035008	52	6683
2026-01-18 22:13:01.96	14.64	23.75	-40.3	-41.4	21.8	0.00e+00	73	40	0	823132160	52	6748
2026-01-18 22:13:02.97	14.37	23.69	-40.9	-42.1	21.2	0.00e+00	0	40	0	825229312	54	6505
2026-01-18 22:13:03.98	14.11	23.63	-40.8	-41.9	21.4	0.00e+00	81	40	0	827326464	54	6372
2026-01-18 22:13:04.99	13.85	23.57	-40.5	-41.6	21.8	0.00e+00	0	40	0	828375040	54	6139
2026-01-18 22:13:06.00	13.59	23.51	-39.9	-40.9	22.4	0.00e+00	15	41	0	830472192	54	5660
2026-01-18 22:13:07.01	13.34	23.45	-39.5	-40.5	22.7	0.00e+00	0	41	0	832569344	52	6087
2026-01-18 22:13:08.02	13.08	23.39	-39.6	-40.6	22.6	0.00e+00	0	41	0	834666496	52	6155
2026-01-18 22:13:09.03	12.82	23.32	-39.7	-40.7	22.6	0.00e+00	41	40	0	836763648	52	6205
2026-01-18 22:13:10.04	12.57	23.26	-39.7	-40.8	22.3	0.00e+00	0	40	0	837812224	52	6273
2026-01-18 22:13:11.05	12.32	23.20	-40.2	-41.2	21.8	0.00e+00	68	40	0	839909376	52	6603
2026-01-18 22:13:12.06	12.06	23.14	-40.3	-41.4	21.8	0.00e+00	0	41	0	842006528	52	6759
2026-01-18 22:13:13.07	11.81	23.07	-40.9	-42.1	21.3	0.00e+00	58	40	0	844103680	54	6500
2026-01-18 22:13:14.07	11.56	23.01	-40.9	-42.2	21.1	0.00e+00	0	41	0	846200832	54	6560
2026-01-18 22:13:15.08	11.31	22.94	-40.9	-42.1	21.3	0.00e+00	0	41	0	847249408	54	6496
2026-01-18 22:13:16.10	11.06	22.88	-40.8	-42.0	21.4	0.00e+00	0	40	0	849346560	54	6394
2026-01-18 22:13:17.11	10.82	22.81	-40.5	-41.6	21.8	0.00e+00	0	40	0	851443712	54	6153
2026-01-18 22:13:18.12	10.57	22.75	-39.5	-40.5	22.6	0.00e+00	47	40	0	853540864	52	6067
2026-01-18 22:13:19.13	10.33	22.68	-39.2	-40.1	23.0	0.00e+00	0	41	0	855638016	52	5808
2026-01-18 22:13:20.13	10.08	22.62	-39.0	-39.9	23.1	0.00e+00	92	40	0	856686592	52	5694
2026-01-18 22:13:21.14	9.84	22.55	-39.2	-40.1	23.0	0.00e+00	0	40	0	858783744	52	5811
2026-01-18 22:13:22.15	9.60	22.48	-39.3	-40.4	22.8	0.00e+00	0	41	0	860880896	52	5969
2026-01-18 22:13:23.16	9.36	22.41	-39.4	-40.4	22.7	0.00e+00	0	40	0	862978048	52	5999
2026-01-18 22:13:24.17	9.12	22.35	-40.1	-41.2	22.1	0.00e+00	0	41	0	865075200	52	6603
2026-01-18 22:13:25.18	8.88	22.28	-40.2	-41.4	22.0	0.00e+00	50	40	0	866123776	52	6705
2026-01-18 22:13:26.19	8.64	22.21	-40.4	-41.6	21.8	0.00e+00	0	41	0	868220928	52	6871
2026-01-18 22:13:27.20	8.40	22.14	-40.2	-41.3	22.0	0.00e+00	92	41	0	870318080	52	6689
2026-01-18 22:13:28.20	8.17	22.07	-40.1	-41.3	22.1	0.00e+00	0	40	0	872415232	52	6631
2026-01-18 22:13:29.21	7.94	22.00	-39.6	-40.7	22.5	0.00e+00	0	40	0	874512384	52	6201
2026-01-18 22:13:30.22	7.70	21.93	-39.2	-40.2	22.9	0.00e+00	0	40	0	875560960	52	5844
2026-01-18 22:13:31.23	7.47	21.86	-38.9	-39.9	23.1	0.00e+00	0	41	0	877658112	52	5635
2026-01-18 22:13:32.24	7.24	21.79	-38.4	-39.3	23.6	0.00e+00	73	40	0	879755264	50	5927
2026-01-18 22:13:33.25	7.01	21.72	-38.2	-39.1	23.8	0.00e+00	0	41	0	881852416	50	5807
2026-01-18 22:13:34.26	6.78	21.65	-38.3	-39.1	23.7	0.00e+00	51	41	0	883949568	50	5821
2026-01-18 22:13:35.27	6.55	21.58	-38.2	-39.1	23.6	0.00e+00	0	41	0	884998144	50	5787
2026-01-18 22:13:36.28	6.32	21.50	-38.4	-39.3	23.6	0.00e+00	0	40	0	887095296	50	5919
2026-01-18 22:13:37.29	6.10	21.43	-38.5	-39.5	23.5	0.00e+00	0	41	0	889192448	50	6044
2026-01-18 22:13:38.30	5.87	21.36	-38.5	-39.4	23.4	0.00e+00	0	41	0	891289600	50	6032
2026-01-18 22:13:39.31	5.65	21.29	-38.7	-39.6	23.4	0.00e+00	80	41	0	893386752	50	6153
2026-01-18 22:13:40.32	5.42	21.21	-38.5	-39.4	23.5	0.00e+00	0	41	0	895483904	50	6027
2026-01-18 22:13:41.33	5.20	21.14	-38.7	-39.6	23.3	0.00e+00	91	40	0	896532480	50	6173
2026-01-18 22:13:42.34	4.98	21.07	-38.7	-39.6	23.4	0.00e+00	0	41	0	898629632	50	6172
2026-01-18 22:13:43.35	4.76	20.99	-38.9	-39.9	23.1	0.00e+00	0	41	0	900726784	50	6334
2026-01-18 22:13:44.35	4.55	20.92	-38.8	-39.7	23.3	0.00e+00	0	40	0	902823936	50	6225
2026-01-18 22:13:45.36	4.33	20.85	-38.7	-39.7	23.3	0.00e+00	0	41	0	904921088	50	6179
2026-01-18 22:13:46.37	4.11	20.77	-38.6	-39.6	23.3	0.00e+00	0	41	0	905969664	50	6120
2026-01-18 22:13:47.38	3.90	20.70	-38.5	-39.4	23.4	0.00e+00	0	40	0	908066816	50	5986
2026-01-18 22:13:48.39	3.68	20.62	-38.7	-39.6	23.4	0.00e+00	77	40	0	910163968	50	6136
2026-01-18 22:13:49.40	3.47	20.55	-39.0	-39.9	23.0	0.00e+00	0	41	0	912261120	50	6386
2026-01-18 22:13:50.41	3.26	20.47	-38.7	-39.6	23.2	0.00e+00	80	41	0	914358272	50	6167
2026-01-18 22:13:51.42	3.05	20.40	-38.7	-39.6	23.3	0.00e+00	0	41	0	915406848	50	6135
2026-01-18 22:13:52.43	2.83	20.32	-38.7	-39.6	23.3	0.00e+00	0	41	0	917504000	50	6172
2026-01-18 22:13:53.44	2.63	20.25	-39.0	-40.0	22.9	0.00e+00	0	41	0	919601152	50	6429
2026-01-18 22:13:54.45	2.42	20.17	-39.5	-40.5	22.7	0.00e+00	0	40	0	921698304	50	6812
2026-01-18 22:13:55.46	2.21	20.10	-39.4	-40.4	22.6	0.00e+00	80	40	0	923795456	50	6748
2026-01-18 22:13:56.46	2.01	20.02	-39.4	-40.5	22.8	0.00e+00	0	41	0	924844032	50	6772
2026-01-18 22:13:57.47	1.80	19.94	-39.1	-40.1	23.0	0.00e+00	81	41	0	926941184	50	6516
2026-01-18 22:13:58.48	1.60	19.87	-39.0	-39.9	23.1	0.00e+00	0	41	0	929038336	50	6383
2026-01-18 22:13:59.49	1.39	19.79	-38.8	-39.8	23.3	0.00e+00	0	41	0	931135488	50	6254
2026-01-18 22:14:00.50	1.19	19.71	-38.7	-39.6	23.2	0.00e+00	0	40	0	933232640	50	6164
2026-01-18 22:14:01.51	0.99	19.64	-38.8	-39.7	23.1	0.00e+00	0	40	0	934281216	50	6243
2026-01-18 22:14:02.52	0.79	19.56	-39.1	-40.1	22.9	0.00e+00	75	41	0	936378368	50	6494
2026-01-18 22:14:03.53	0.59	19.48	-39.3	-40.3	22.8	0.00e+00	0	41	0	938475520	50	6626
2026-01-18 22:14:04.54	0.40	19.41	-39.2	-40.1	22.8	0.00e+00	75	41	0	940572672	50	6533
2026-01-18 22:14:05.55	0.20	19.33	-38.9	-39.9	23.1	0.00e+00	0	41	0	942669824	50	6328
2026-01-18 22:14:06.56	0.00	19.25	-38.3	-39.2	23.6	0.00e+00	0	41	0	943718400	50	5854
2026-01-18 22:14:07.57	359.81	19.17	-38.0	-38.9	23.8	0.00e+00	0	41	0	945815552	50	5666
2026-01-18 22:14:08.57	359.62	19.10	-37.7	-38.5	24.0	0.00e+00	0	41	0	947912704	48	6056
2026-01-18 22:14:09.58	359.42	19.02	-37.6	-38.5	24.1	0.00e+00	78	41	0	950009856	48	6035
2026-01-18 22:14:10.60	359.23	18.94	-37.5	-38.3	24.3	0.00e+00	0	41	0	952107008	48	5938
2026-01-18 22:14:11.60	359.04	18.86	-37.6	-38.4	24.0	0.00e+00	78	41	0	953155584	48	5990
2026-01-18 22:14:12.61	358.85	18.79	-37.8	-38.6	24.1	0.00e+00	0	41	0	955252736	48	6148
2026-01-18 22:14:13.62	358.66	18.71	-37.6	-38.5	24.1	0.00e+00	58	41	0	957349888	48	6049
2026-01-18 22:14:14.63	358.47	18.63	-37.9	-38.8	23.9	0.00e+00	0	41	0	959447040	48	6262
2026-01-18 22:14:15.64	358.29	18.55	-37.8	-38.7	23.7	0.00e+00	0	41	0	961544192	48	6200
2026-01-18 22:14:16.65	358.10	18.47	-38.0	-38.9	23.7	0.00e+00	0	41	0	963641344	48	6324
2026-01-18 22:14:17.66	357.92	18.39	-38.2	-39.1	23.7	0.00e+00	0	41	0	964689920	48	6489
2026-01-18 22:14:18.67	357.73	18.32	-38.3	-39.2	23.5	0.00e+00	73	41	0	966787072	48	6608
2026-01-18 22:14:19.68	357.55	18.24	-38.4	-39.3	23.4	0.00e+00	0	41	0	968884224	48	6659
2026-01-18 22:14:20.69	357.37	18.16	-38.4	-39.3	23.4	0.00e+00	0	40	0	970981376	48	6644
2026-01-18 22:14:21.70	357.19	18.08	-38.1	-39.0	23.7	0.00e+00	33	40	0	973078528	48	6429
2026-01-18 22:14:22.71	357.01	18.00	-37.9	-38.7	23.9	0.00e+00	0	41	0	974127104	48	6238
2026-01-18 22:14:23.72	356.83	17.92	-37.7	-38.6	23.9	0.00e+00	0	41	0	976224256	48	6141
2026-01-18 22:14:24.73	356.65	17.84	-38.0	-38.9	23.8	0.00e+00	0	41	0	978321408	48	6372
2026-01-18 22:14:25.74	356.47	17.77	-38.2	-39.1	23.6	0.00e+00	90	41	0	980418560	48	6494
2026-01-18 22:14:26.75	356.30	17.69	-38.2	-39.1	23.7	0.00e+00	0	41	0	982515712	48	6501
2026-01-18 22:14:27.76	356.12	17.61	-38.4	-39.3	23.5	0.00e+00	84	41	0	983564288	48	6686
2026-01-18 22:14:28.76	355.95	17.53	-38.6	-39.5	23.4	0.00e+00	0	41	0	985661440	48	6788
2026-01-18 22:14:29.77	355.77	17.45	-38.7	-39.7	23.1	0.00e+00	0	41	0	987758592	48	6934
2026-01-18 22:14:30.78	355.60	17.37	-38.6	-39.6	23.3	0.00e+00	0	41	0	989855744	50	6120
2026-01-18 22:14:31.79	355.43	17.29	-38.8	-39.7	23.1	0.00e+00	0	41	0	991952896	50	6225
2026-01-18 22:14:32.80	355.26	17.21	-38.7	-39.6	23.1	0.00e+00	77	40	0	993001472	50	6130
2026-01-18 22:14:33.81	355.09	17.13	-38.8	-39.7	23.2	0.00e+00	0	40	0	995098624	50	6222
2026-01-18 22:14:34.82	354.92	17.06	-38.4	-39.3	23.5	0.00e+00	85	41	0	997195776	50	5898
2026-01-18 22:14:35.83	354.75	16.98	-38.2	-39.0	23.6	0.00e+00	0	40	0	999292928	50	5749
2026-01-18 22:14:36.84	354.59	16.90	-38.0	-38.8	23.8	0.00e+00	0	41	0	1001390080	50	5616
2026-01-18 22:14:37.85	354.42	16.82	-37.8	-38.6	23.9	0.00e+00	0	40	0	1002438656	48	6154
2026-01-18 22:14:38.85	354.26	16.74	-37.9	-38.8	23.8	0.00e+00	0	41	0	1004535808	48	6251
2026-01-18 22:14:39.86	354.09	16.66	-38.3	-39.2	23.5	0.00e+00	7	41	0	1006632960	48	6545
2026-01-18 22:14:40.87	353.93	16.58	-38.4	-39.3	23.5	0.00e+00	0	41	0	1008730112	48	6683
2026-01-18 22:14:41.88	353.76	16.50	-39.0	-40.0	23.0	0.00e+00	53	40	0	1010827264	50	6392
2026-01-18 22:14:42.89	353.60	16.43	-39.3	-40.3	22.6	0.00e+00	0	40	0	1011875840	50	6627
2026-01-18 22:14:43.89	353.44	16.35	-39.8	-40.8	22.2	0.00e+00	0	41	0	1013972992	50	7081
2026-01-18 22:14:44.90	353.28	16.27	-40.2	-41.3	22.0	0.00e+00	0	40	0	1016070144	52	6634
2026-01-18 22:14:45.91	353.12	16.19	-39.7	-40.7	22.4	0.00e+00	0	41	0	1018167296	52	6223
2026-01-18 22:14:46.92	352.96	16.11	-39.5	-40.6	22.5	0.00e+00	0	41	0	1020264448	52	6108
2026-01-18 22:14:47.93	352.81	16.03	-38.9	-39.9	22.9	0.00e+00	0	41	0	1021313024	52	5643
2026-01-18 22:14:48.94	352.65	15.95	-38.8	-39.7	23.1	0.00e+00	83	41	0	1023410176	52	5549
2026-01-18 22:14:49.95	352.49	15.87	-38.6	-39.5	23.2	0.00e+00	0	40	0	1025507328	50	6073
2026-01-18 22:14:50.95	352.34	15.80	-38.6	-39.5	23.2	0.00e+00	0	41	0	1027604480	50	6087
2026-01-18 22:14:51.96	352.19	15.72	-38.6	-39.5	22.8	0.00e+00	0	41	0	1029701632	50	6071
2026-01-18 22:14:52.97	352.03	15.64	-38.4	-39.3	23.3	0.00e+00	0	40	0	1030750208	50	5931
2026-01-18 22:14:53.98	351.88	15.56	-38.8	-39.7	23.1	0.00e+00	65	41	0	1032847360	50	6225
2026-01-18 22:14:54.99	351.73	15.48	-38.9	-39.8	23.0	0.00e+00	0	40	0	1034944512	50	6312
2026-01-18 22:14:56.00	351.58	15.40	-39.0	-40.0	22.9	0.00e+00	34	41	0	1037041664	50	6444
2026-01-18 22:14:57.01	351.43	15.33	-39.2	-40.2	22.1	0.00e+00	0	40	0	1039138816	50	6600
2026-01-18 22:14:58.02	351.28	15.25	-39.5	-40.5	22.3	0.00e+00	82	40	0	1040187392	50	6810
2026-01-18 22:14:59.03	351.13	15.17	-39.7	-40.7	22.3	0.00e+00	0	40	0	1042284544	52	6238
2026-01-18 22:15:00.04	350.98	15.09	-39.9	-41.0	21.9	0.00e+00	0	41	0	1044381696	52	6443
2026-01-18 22:15:01.05	350.83	15.01	-40.4	-41.5	21.6	0.00e+00	0	41	0	1046478848	52	6847
2026-01-18 22:15:02.05	350.69	14.94	-40.4	-41.5	21.6	0.00e+00	0	41	0	1048576000	54	6091
2026-01-18 22:15:03.06	350.54	14.86	-40.0	-41.1	21.9	0.00e+00	20	41	0	1049624576	54	5807
2026-01-18 22:15:04.07	350.40	14.78	-40.1	-41.2	21.9	0.00e+00	0	41	0	1051721728	54	5839
2026-01-18 22:15:05.08	350.26	14.70	-39.5	-40.5	22.4	0.00e+00	75	40	0	1053818880	52	6095
2026-01-18 22:15:06.09	350.11	14.62	-39.4	-40.4	22.6	0.00e+00	0	41	0	1055916032	52	5988
2026-01-18 22:15:07.10	349.97	14.55	-38.8	-39.7	23.1	0.00e+00	0	41	0	1058013184	52	5565
2026-01-18 22:15:08.11	349.83	14.47	-38.8	-39.7	23.0	0.00e+00	0	41	0	1060110336	50	6238
2026-01-18 22:15:09.12	349.69	14.39	-38.4	-39.3	23.3	0.00e+00	0	41	0	1061158912	50	5946
2026-01-18 22:15:10.13	349.55	14.31	-38.6	-39.5	23.2	0.00e+00	20	41	0	1063256064	50	6099
2026-01-18 22:15:11.14	349.41	14.24	-38.7	-39.6	22.9	0.00e+00	0	40	0	1065353216	50	6164
2026-01-18 22:15:12.15	349.27	14.16	-38.8	-39.7	22.9	0.00e+00	39	40	0	1067450368	50	6208
2026-01-18 22:15:13.16	349.13	14.08	-39.1	-40.0	22.7	0.00e+00	0	41	0	1069547520	50	6454
2026-01-18 22:15:14.17	349.00	14.00	-39.2	-40.2	22.8	0.00e+00	0	40	0	1070596096	50	6569
2026-01-18 22:15:15.18	348.86	13.93	-39.3	-40.3	22.7	0.00e+00	0	41	0	1072693248	50	6640
2026-01-18 22:15:16.19	348.72	13.85	-39.2	-40.1	22.7	0.00e+00	0	41	0	1074790400	50	6525
2026-01-18 22:15:17.20	348.59	13.77	-39.5	-40.5	22.5	0.00e+00	0	40	0	1076887552	50	6795
2026-01-18 22:15:18.20	348.46	13.70	-39.0	-40.0	22.9	0.00e+00	0	41	0	1078984704	50	6404
2026-01-18 22:15:19.21	348.32	13.62	-39.1	-40.1	22.7	0.00e+00	92	41	0	1080033280	50	6474
2026-01-18 22:15:20.23	348.19	13.54	-39.1	-40.0	22.7	0.00e+00	0	40	0	1082130432	50	6456
2026-01-18 22:15:21.23	348.06	13.47	-39.4	-40.4	22.5	0.00e+00	0	41	0	1084227584	50	6706
2026-01-18 22:15:22.24	347.93	13.39	-39.4	-40.5	22.6	0.00e+00	33	41	0	1086324736	50	6772
2026-01-18 22:15:23.25	347.79	13.31	-39.4	-40.4	22.6	0.00e+00	0	40	0	1088421888	50	6747
2026-01-18 22:15:24.26	347.66	13.24	-39.5	-40.5	22.4	0.00e+00	9	41	0	1089470464	50	6839
2026-01-18 22:15:25.27	347.54	13.16	-39.3	-40.3	22.6	0.00e+00	33	41	0	1091567616	50	6662
2026-01-18 22:15:26.28	347.41	13.08	-39.5	-40.5	22.4	0.00e+00	92	41	0	1093664768	50	6793
2026-01-18 22:15:27.29	347.28	13.01	-39.6	-40.6	22.3	0.00e+00	0	41	0	1095761920	50	6884
2026-01-18 22:15:28.30	347.15	12.93	-39.6	-40.7	22.3	0.00e+00	90	41	0	1097859072	50	6929
2026-01-18 22:15:29.31	347.02	12.86	-39.6	-40.6	22.5	0.00e+00	0	40	0	1098907648	50	6880
2026-01-18 22:15:30.32	346.90	12.78	-39.7	-40.7	22.3	0.00e+00	0	41	0	1101004800	50	6957
2026-01-18 22:15:31.33	346.77	12.70	-39.8	-40.8	22.2	0.00e+00	0	41	0	1103101952	52	6293
2026-01-18 22:15:32.34	346.65	12.63	-39.9	-40.9	22.0	0.00e+00	0	41	0	1105199104	52	6362
2026-01-18 22:15:33.35	346.52	12.55	-40.2	-41.3	21.6	0.00e+00	78	41	0	1107296256	52	6659
2026-01-18 22:15:34.35	346.40	12.48	-40.2	-41.3	21.7	0.00e+00	0	41	0	1108344832	52	6667
2026-01-18 22:15:35.36	346.28	12.40	-40.1	-41.3	21.7	0.00e+00	91	41	0	1110441984	52	6616
2026-01-18 22:15:36.37	346.16	12.33	-40.4	-41.6	21.5	0.00e+00	0	40	0	1112539136	52	6864
2026-01-18 22:15:37.38	346.04	12.25	-40.3	-41.4	21.7	0.00e+00	0	41	0	1114636288	52	6703
2026-01-18 22:15:38.39	345.92	12.18	-40.3	-41.5	21.5	0.00e+00	0	41	0	1116733440	52	6773
2026-01-18 22:15:39.40	345.80	12.10	-40.3	-41.4	21.6	0.00e+00	0	41	0	1117782016	52	6738
2026-01-18 22:15:40.41	345.68	12.03	-40.2	-41.3	21.7	0.00e+00	5	41	0	1119879168	52	6631
2026-01-18 22:15:41.41	345.56	11.95	-39.9	-41.0	21.9	0.00e+00	0	41	0	1121976320	52	6444
2026-01-18 22:15:42.42	345.44	11.88	-39.9	-41.0	21.9	0.00e+00	76	41	0	1124073472	52	6403
2026-01-18 22:15:43.43	345.32	11.81	-40.0	-41.1	21.8	0.00e+00	0	41	0	1126170624	52	6481
2026-01-18 22:15:44.44	345.21	11.73	-39.7	-40.7	22.1	0.00e+00	0	41	0	1128267776	52	6239
2026-01-18 22:15:45.45	345.09	11.66	-40.0	-41.1	21.8	0.00e+00	0	41	0	1129316352	52	6480
2026-01-18 22:15:46.46	344.97	11.58	-40.1	-41.2	21.7	0.00e+00	0	41	0	1131413504	52	6572
2026-01-18 22:15:47.47	344.86	11.51	-40.1	-41.3	21.6	0.00e+00	0	41	0	1133510656	52	6642
2026-01-18 22:15:48.48	344.74	11.43	-40.4	-41.6	21.4	0.00e+00	0	41	0	1135607808	52	6907
2026-01-18 22:15:49.49	344.63	11.36	-40.9	-42.2	20.8	0.00e+00	70	41	0	1137704960	54	6605
2026-01-18 22:15:50.50	344.52	11.29	-40.9	-42.1	20.8	0.00e+00	0	41	0	1138753536	54	6531
2026-01-18 22:15:51.51	344.40	11.21	-41.1	-42.4	20.7	0.00e+00	0	41	0	1140850688	54	6705
2026-01-18 22:15:52.52	344.29	11.14	-41.2	-42.5	20.6	0.00e+00	0	41	0	1142947840	54	6812
2026-01-18 22:15:53.53	344.18	11.07	-41.2	-42.5	20.6	0.00e+00	0	41	0	1145044992	54	6823
2026-01-18 22:15:54.54	344.07	10.99	-41.0	-42.2	20.8	0.00e+00	65	41	0	1147142144	54	6609
2026-01-18 22:15:55.55	343.96	10.92	-40.8	-42.1	21.1	0.00e+00	0	41	0	1148190720	54	6491
2026-01-18 22:15:56.56	343.85	10.85	-40.6	-41.8	21.3	0.00e+00	92	41	0	1150287872	54	6259
2026-01-18 22:15:57.57	343.74	10.77	-40.4	-41.6	21.3	0.00e+00	0	41	0	1152385024	54	6124
2026-01-18 22:15:58.57	343.63	10.70	-40.1	-41.2	21.7	0.00e+00	73	41	0	1154482176	54	5886
2026-01-18 22:15:59.58	343.52	10.63	-40.1	-41.2	21.8	0.00e+00	0	41	0	1156579328	54	5880
2026-01-18 22:16:00.59	343.41	10.56	-39.9	-41.0	21.9	0.00e+00	0	41	0	1157627904	54	5703
2026-01-18 22:16:01.60	343.31	10.48	-39.9	-41.0	21.9	0.00e+00	65	41	0	1159725056	54	5727
2026-01-18 22:16:02.61	343.20	10.41	-39.9	-41.0	21.9	0.00e+00	0	41	0	1161822208	54	5761
2026-01-18 22:16:03.62	343.09	10.34	-40.1	-41.2	21.7	0.00e+00	72	41	0	1163919360	54	5859
2026-01-18 22:16:04.63	342.99	10.27	-40.2	-41.3	21.6	0.00e+00	0	41	0	1166016512	54	5964
2026-01-18 22:16:05.64	342.88	10.19	-40.3	-41.5	21.4	0.00e+00	39	41	0	1167065088	54	6093
2026-01-18 22:16:06.65	342.78	10.12	-40.6	-41.9	21.1	0.00e+00	0	40	0	1169162240	54	6347
2026-01-18 22:16:07.66	342.68	10.05	-40.8	-42.1	20.8	0.00e+00	0	41	0	1171259392	54	6479
2026-01-18 22:16:08.67	342.57	9.98	-41.2	-42.6	20.5	0.00e+00	0	41	0	1173356544	54	6888
2026-01-18 22:16:09.68	342.47	9.91	-41.2	-42.6	20.5	0.00e+00	0	41	0	1175453696	54	6884
2026-01-18 22:16:10.69	342.37	9.84	-41.6	-43.0	20.0	0.00e+00	19	41	0	1176502272	54	7240
2026-01-18 22:16:11.69	342.27	9.77	-41.6	-43.0	20.1	0.00e+00	0	41	0	1178599424	56	6456
2026-01-18 22:16:12.70	342.16	9.69	-41.7	-43.2	20.0	0.00e+00	74	41	0	1180696576	56	6542
2026-01-18 22:16:13.71	342.06	9.62	-42.0	-43.5	19.6	0.00e+00	0	41	0	1182793728	56	6809
2026-01-18 22:16:14.72	341.96	9.55	-41.9	-43.4	19.7	0.00e+00	0	41	0	1184890880	56	6731
2026-01-18 22:16:15.73	341.86	9.48	-41.8	-43.3	19.8	0.00e+00	0	41	0	1185939456	56	6625
2026-01-18 22:16:16.74	341.76	9.41	-42.0	-43.5	19.6	0.00e+00	0	41	0	1188036608	56	6800
2026-01-18 22:16:17.75	341.67	9.34	-42.0	-43.6	19.7	0.00e+00	0	41	0	1190133760	56	6859
2026-01-18 22:16:18.75	341.57	9.27	-42.0	-43.6	19.8	0.00e+00	0	41	0	1192230912	56	6876
2026-01-18 22:16:19.76	341.47	9.20	-42.0	-43.5	19.7	0.00e+00	80	41	0	1194328064	56	6805
