passes_logs/2026/01/18/R4.6S_Anadyr/R4.6S_Anadyr__20260118_213531_NOAA_21_JPSS-2_rec.log

#Pass ID: 20260118_213531_NOAA 21 (JPSS-2)
#Satellite: NOAA 21 (JPSS-2)
#Configuration: NOAA-21
#almurnet v.1.7.20251203
#Start time: 2026-01-18 21:35:34

#Version: 2.2.20231116
#Station: R4.6S_Anadyr
#Location: 177.4865 lon 64.73178 lat
#TLE: 1 54234U 22150A   26018.60745868  .00000048  00000+0  43754-4 0  9997
#TLE: 2 54234  98.7503 319.4636 0000607 264.0480  96.0627 14.19535445165329

#Time	Az	El	Level	Level2	SNR	BER	BlckErr	Temp	State	Recorded	gain1	gain2
2026-01-18 21:35:34.85	93.75	0.19	-49.7	-61.1	3.3	1.54e+00	0	39	0	0	60	39740
2026-01-18 21:35:35.85	93.69	0.24	-49.7	-62.5	3.5	1.52e+00	0	39	104	0	60	46883
2026-01-18 21:35:36.87	93.63	0.29	-49.7	-62.6	3.5	1.52e+00	0	39	104	0	60	47238
2026-01-18 21:35:37.87	93.57	0.35	-49.7	-62.6	3.5	1.52e+00	0	39	104	0	60	47259
2026-01-18 21:35:38.88	93.51	0.40	-49.7	-62.6	3.5	1.52e+00	0	39	104	0	60	47118
2026-01-18 21:35:39.89	93.45	0.46	-49.7	-62.6	3.5	1.52e+00	0	39	104	0	60	47193
2026-01-18 21:35:40.90	93.39	0.51	-49.7	-62.6	3.5	1.52e+00	0	39	104	0	60	47109
2026-01-18 21:35:41.91	93.33	0.57	-49.7	-62.5	3.5	1.52e+00	0	39	104	0	60	47074
2026-01-18 21:35:42.92	93.27	0.62	-49.6	-62.6	3.5	1.52e+00	0	40	104	0	60	47113
2026-01-18 21:35:43.93	93.20	0.68	-49.7	-62.5	3.5	1.52e+00	0	39	104	0	60	46926
2026-01-18 21:35:44.94	93.14	0.73	-49.7	-62.6	3.5	1.52e+00	0	40	104	0	60	47191
2026-01-18 21:35:45.95	93.08	0.79	-49.7	-62.6	3.5	1.52e+00	0	40	104	0	60	47254
2026-01-18 21:35:46.96	93.02	0.84	-49.4	-62.5	3.5	1.51e+00	0	40	104	0	60	46859
2026-01-18 21:35:47.97	92.96	0.90	-49.6	-62.5	3.5	1.52e+00	0	40	104	0	60	46911
2026-01-18 21:35:48.98	92.89	0.95	-49.2	-62.5	3.5	1.52e+00	0	40	104	0	60	46725
2026-01-18 21:35:49.99	92.83	1.01	-48.9	-62.4	3.5	1.52e+00	0	40	104	0	60	46231
2026-01-18 21:35:51.00	92.77	1.06	-49.0	-62.4	3.5	1.52e+00	0	40	104	0	60	46498
2026-01-18 21:35:52.01	92.71	1.12	-49.4	-62.3	3.5	1.52e+00	0	40	104	0	60	45561
2026-01-18 21:35:53.02	92.64	1.17	-48.6	-62.2	3.5	1.52e+00	0	40	104	0	60	45194
2026-01-18 21:35:54.03	92.58	1.23	-49.2	-62.0	3.5	1.52e+00	0	40	104	0	60	44265
2026-01-18 21:35:55.04	92.51	1.28	-48.4	-61.9	3.5	1.52e+00	0	40	104	0	60	43539
2026-01-18 21:35:56.05	92.45	1.34	-48.6	-61.6	3.5	1.52e+00	0	40	104	0	60	41970
2026-01-18 21:35:57.06	92.39	1.39	-47.0	-60.7	3.5	1.52e+00	0	40	104	0	60	37968
2026-01-18 21:35:58.07	92.32	1.45	-46.1	-60.6	3.5	1.52e+00	0	40	104	0	60	37474
2026-01-18 21:35:59.08	92.26	1.51	-46.1	-60.6	3.5	1.51e+00	0	40	104	0	60	37778
2026-01-18 21:36:00.09	92.19	1.56	-46.1	-60.6	3.5	1.52e+00	0	40	104	0	60	37610
2026-01-18 21:36:01.10	92.13	1.62	-46.0	-60.7	3.5	1.52e+00	0	40	104	0	60	37833
2026-01-18 21:36:02.11	92.06	1.67	-46.0	-60.6	3.5	1.52e+00	0	40	104	0	60	37776
2026-01-18 21:36:03.12	91.99	1.73	-46.0	-60.7	3.5	1.51e+00	0	40	104	0	60	37928
2026-01-18 21:36:04.13	91.93	1.79	-46.0	-60.6	3.5	1.52e+00	0	40	104	0	60	37513
2026-01-18 21:36:05.14	91.86	1.84	-46.0	-60.6	3.5	1.52e+00	0	40	104	0	60	37736
2026-01-18 21:36:06.15	91.79	1.90	-46.0	-60.6	3.5	1.52e+00	0	40	104	0	60	37566
2026-01-18 21:36:07.16	91.73	1.96	-46.0	-60.6	3.5	1.51e+00	0	40	104	0	60	37668
2026-01-18 21:36:08.17	91.66	2.01	-46.0	-60.4	3.5	1.51e+00	0	40	104	0	60	36879
2026-01-18 21:36:09.18	91.59	2.07	-46.0	-60.2	3.5	1.52e+00	0	40	104	0	60	35731
2026-01-18 21:36:10.19	91.52	2.13	-46.0	-60.1	3.5	1.52e+00	0	40	104	0	60	35527
2026-01-18 21:36:11.20	91.46	2.18	-46.0	-60.0	3.5	1.51e+00	0	40	104	0	60	35227
2026-01-18 21:36:12.21	91.39	2.24	-46.0	-60.2	3.5	1.51e+00	0	40	104	0	60	35954
2026-01-18 21:36:13.22	91.32	2.30	-46.0	-60.4	3.5	1.52e+00	0	40	104	0	60	36807
2026-01-18 21:36:14.23	91.25	2.35	-46.0	-60.6	3.5	1.52e+00	0	40	104	0	60	37793
2026-01-18 21:36:15.24	91.18	2.41	-46.0	-60.6	3.5	1.52e+00	0	40	104	0	60	37473
2026-01-18 21:36:16.23	91.11	2.47	-46.0	-60.5	3.5	1.52e+00	0	40	104	0	60	36986
2026-01-18 21:36:17.24	91.04	2.52	-46.0	-60.3	3.5	1.52e+00	0	40	104	0	60	36471
2026-01-18 21:36:18.25	90.97	2.58	-46.0	-60.4	3.5	1.52e+00	0	40	104	0	60	36805
2026-01-18 21:36:19.26	90.90	2.64	-46.0	-60.5	3.5	1.52e+00	0	40	104	0	60	37189
2026-01-18 21:36:20.27	90.83	2.69	-46.0	-60.2	3.5	1.52e+00	0	40	104	0	60	36110
2026-01-18 21:36:21.28	90.76	2.75	-45.9	-59.5	3.5	1.51e+00	0	40	104	0	60	32952
2026-01-18 21:36:22.29	90.69	2.81	-45.9	-58.8	3.5	1.51e+00	0	40	104	0	60	30637
2026-01-18 21:36:23.30	90.62	2.87	-45.9	-58.7	3.6	1.51e+00	0	40	104	0	60	30081
2026-01-18 21:36:24.31	90.55	2.93	-45.9	-58.8	3.6	1.50e+00	0	40	104	0	60	30435
2026-01-18 21:36:25.32	90.48	2.98	-45.9	-59.5	3.5	1.52e+00	0	40	104	0	60	33013
2026-01-18 21:36:26.33	90.40	3.04	-45.8	-58.3	3.8	1.51e+00	0	40	104	0	60	28889
2026-01-18 21:36:27.34	90.33	3.10	-45.5	-54.9	5.5	1.17e+00	122	40	104	0	60	19592
2026-01-18 21:36:28.35	90.26	3.16	-44.9	-50.8	8.5	1.47e-01	122	40	0	1048576	60	12115
2026-01-18 21:36:29.36	90.18	3.21	-44.1	-48.7	10.9	5.49e-03	123	40	0	4194304	60	9503
2026-01-18 21:36:30.37	90.11	3.27	-43.8	-47.6	12.2	3.01e-04	123	40	0	7340032	60	8379
2026-01-18 21:36:31.38	90.04	3.33	-46.4	-56.0	3.8	1.51e+00	0	40	104	8388608	60	22174
2026-01-18 21:36:32.39	89.96	3.39	-42.1	-44.8	15.6	1.50e-06	123	40	104	8388608	60	6077
2026-01-18 21:36:33.40	89.89	3.45	-45.9	-60.5	3.5	1.52e+00	0	40	104	8388608	60	37390
2026-01-18 21:36:34.41	89.81	3.51	-46.2	-52.6	4.6	1.51e+00	0	40	104	8388608	60	14920
2026-01-18 21:36:35.42	89.74	3.56	-43.6	-48.0	12.3	1.69e-04	123	40	104	8388608	58	9915
2026-01-18 21:36:36.43	89.66	3.62	-42.9	-46.0	13.8	9.10e-06	122	40	0	10485760	58	7855
2026-01-18 21:36:37.44	89.59	3.68	-43.4	-46.8	12.9	1.29e-05	122	40	0	13631488	58	8599
2026-01-18 21:36:38.45	89.51	3.74	-43.7	-47.0	13.1	3.43e-05	122	40	0	16777216	58	8788
2026-01-18 21:36:39.46	89.44	3.80	-43.6	-46.5	13.1	8.30e-06	123	40	0	20971520	58	8371
2026-01-18 21:36:40.47	89.36	3.86	-43.6	-46.3	13.2	1.90e-05	123	40	0	23068672	60	7287
2026-01-18 21:36:41.48	89.28	3.92	-43.9	-46.8	13.8	1.44e-05	122	40	0	26214400	60	7683
2026-01-18 21:36:42.48	89.21	3.98	-43.9	-46.9	13.0	1.83e-05	115	40	0	29360128	60	7746
2026-01-18 21:36:43.49	89.13	4.04	-43.5	-46.3	13.0	1.37e-05	123	40	0	32505856	60	7271
2026-01-18 21:36:44.50	89.05	4.09	-43.0	-45.6	14.5	9.10e-06	123	40	0	36700160	60	6660
2026-01-18 21:36:45.51	88.97	4.15	-42.2	-44.3	15.9	0.00e+00	120	40	0	39845888	58	6460
2026-01-18 21:36:46.52	88.89	4.21	-42.1	-44.1	17.0	0.00e+00	123	40	0	42991616	56	7100
2026-01-18 21:36:47.53	88.81	4.27	-41.2	-43.0	16.9	0.00e+00	123	40	0	45088768	56	6232
2026-01-18 21:36:48.54	88.73	4.33	-41.4	-43.2	16.7	0.00e+00	123	40	0	48234496	56	6396
2026-01-18 21:36:49.55	88.66	4.39	-41.5	-43.3	17.2	0.00e+00	122	40	0	51380224	56	6442
2026-01-18 21:36:50.56	88.58	4.45	-41.4	-43.1	17.3	0.00e+00	124	40	0	55574528	54	7097
2026-01-18 21:36:51.57	88.49	4.51	-40.5	-42.1	18.1	0.00e+00	122	40	0	58720256	54	6279
2026-01-18 21:36:52.58	88.41	4.57	-40.7	-42.3	17.8	0.00e+00	122	40	0	61865984	54	6455
2026-01-18 21:36:53.59	88.33	4.63	-40.3	-41.8	18.5	0.00e+00	123	40	0	65011712	54	6099
2026-01-18 21:36:54.60	88.25	4.69	-40.1	-41.6	18.6	0.00e+00	123	40	0	68157440	54	5943
2026-01-18 21:36:55.61	88.17	4.75	-40.5	-42.0	18.5	0.00e+00	123	40	0	71303168	54	6243
2026-01-18 21:36:56.62	88.09	4.81	-40.0	-41.5	18.6	0.00e+00	122	40	0	74448896	54	5859
2026-01-18 21:36:57.62	88.01	4.87	-39.6	-41.0	19.4	0.00e+00	122	40	0	77594624	52	6240
2026-01-18 21:36:58.63	87.92	4.93	-39.2	-40.7	19.5	0.00e+00	123	40	0	80740352	52	6013
2026-01-18 21:36:59.64	87.84	4.99	-39.0	-40.5	19.8	0.00e+00	122	40	0	83886080	52	5860
2026-01-18 21:37:00.65	87.76	5.05	-39.3	-40.9	19.4	0.00e+00	123	40	0	87031808	52	6169
2026-01-18 21:37:01.66	87.67	5.11	-39.1	-40.7	19.5	0.00e+00	123	40	0	90177536	52	6057
2026-01-18 21:37:02.67	87.59	5.17	-38.9	-40.5	19.7	0.00e+00	122	40	0	93323264	52	5871
2026-01-18 21:37:03.68	87.51	5.24	-38.6	-40.2	20.0	0.00e+00	122	40	0	96468992	50	6366
2026-01-18 21:37:04.69	87.42	5.30	-38.4	-39.9	20.2	0.00e+00	123	40	0	99614720	50	6151
2026-01-18 21:37:05.70	87.34	5.36	-38.7	-40.2	19.9	0.00e+00	123	40	0	102760448	50	6423
2026-01-18 21:37:06.71	87.25	5.42	-38.8	-40.3	19.8	0.00e+00	123	40	0	105906176	50	6455
2026-01-18 21:37:07.72	87.16	5.48	-38.4	-39.9	20.2	0.00e+00	122	40	0	109051904	50	6136
2026-01-18 21:37:08.73	87.08	5.54	-38.5	-39.9	20.2	0.00e+00	123	40	0	112197632	50	6204
2026-01-18 21:37:09.73	86.99	5.60	-38.5	-39.9	20.3	0.00e+00	122	40	0	115343360	50	6176
2026-01-18 21:37:10.74	86.90	5.66	-38.3	-39.6	20.6	0.00e+00	121	40	0	118489088	50	5983
2026-01-18 21:37:11.75	86.82	5.72	-38.1	-39.4	20.8	0.00e+00	123	40	0	121634816	50	5852
2026-01-18 21:37:12.76	86.73	5.79	-38.2	-39.6	20.7	0.00e+00	122	40	0	124780544	50	5940
2026-01-18 21:37:13.77	86.64	5.85	-38.2	-39.4	20.8	0.00e+00	123	41	0	127926272	50	5848
2026-01-18 21:37:14.78	86.55	5.91	-38.3	-39.6	20.6	0.00e+00	123	40	0	131072000	50	5971
2026-01-18 21:37:15.79	86.46	5.97	-38.2	-39.5	20.7	0.00e+00	120	40	0	134217728	50	5882
2026-01-18 21:37:16.79	86.37	6.03	-38.4	-39.7	20.5	0.00e+00	122	41	0	137363456	50	6019
2026-01-18 21:37:17.80	86.29	6.09	-38.1	-39.4	20.9	0.00e+00	123	40	0	140509184	50	5817
2026-01-18 21:37:18.81	86.19	6.16	-38.1	-39.4	20.9	0.00e+00	122	40	0	143654912	50	5803
2026-01-18 21:37:19.82	86.10	6.22	-37.9	-39.1	21.2	0.00e+00	123	40	0	146800640	50	5641
2026-01-18 21:37:20.83	86.01	6.28	-38.0	-39.2	21.1	0.00e+00	122	41	0	149946368	50	5682
2026-01-18 21:37:21.84	85.92	6.34	-37.9	-39.1	21.1	0.00e+00	120	41	0	153092096	50	5619
2026-01-18 21:37:22.85	85.83	6.40	-37.9	-39.1	21.1	0.00e+00	120	41	0	156237824	50	5648
2026-01-18 21:37:23.86	85.74	6.47	-37.8	-39.0	21.2	0.00e+00	120	41	0	159383552	50	5579
2026-01-18 21:37:24.87	85.65	6.53	-38.1	-39.2	21.0	0.00e+00	123	41	0	162529280	50	5711
2026-01-18 21:37:25.88	85.55	6.59	-38.0	-39.2	21.1	0.00e+00	120	41	0	165675008	50	5697
2026-01-18 21:37:26.89	85.46	6.65	-37.8	-38.9	21.3	0.00e+00	122	41	0	168820736	50	5507
2026-01-18 21:37:27.90	85.37	6.72	-37.9	-39.1	21.3	0.00e+00	120	41	0	171966464	50	5606
2026-01-18 21:37:28.91	85.27	6.78	-37.5	-38.7	21.5	0.00e+00	122	41	0	175112192	48	5996
2026-01-18 21:37:29.92	85.18	6.84	-38.0	-39.2	21.2	0.00e+00	122	41	0	178257920	48	6361
2026-01-18 21:37:30.93	85.08	6.91	-37.8	-38.9	21.4	0.00e+00	122	41	0	181403648	48	6180
2026-01-18 21:37:31.94	84.99	6.97	-37.7	-38.8	21.5	0.00e+00	122	41	0	184549376	48	6105
2026-01-18 21:37:32.95	84.89	7.03	-37.6	-38.7	21.5	0.00e+00	123	41	0	187695104	48	6038
2026-01-18 21:37:33.96	84.79	7.10	-37.6	-38.8	21.5	0.00e+00	123	41	0	190840832	48	6080
2026-01-18 21:37:34.97	84.70	7.16	-37.5	-38.6	21.6	0.00e+00	122	41	0	193986560	48	5964
2026-01-18 21:37:35.98	84.60	7.22	-37.7	-38.8	21.5	0.00e+00	122	41	0	197132288	48	6102
2026-01-18 21:37:36.99	84.50	7.29	-37.7	-38.8	21.5	0.00e+00	120	40	0	200278016	48	6113
2026-01-18 21:37:38.00	84.40	7.35	-37.8	-39.0	21.4	0.00e+00	123	41	0	203423744	48	6220
2026-01-18 21:37:39.01	84.31	7.41	-37.7	-38.8	21.6	0.00e+00	120	41	0	206569472	48	6104
2026-01-18 21:37:40.02	84.21	7.48	-37.7	-38.9	21.5	0.00e+00	123	41	0	209715200	48	6162
2026-01-18 21:37:41.03	84.11	7.54	-37.5	-38.6	21.5	0.00e+00	120	41	0	212860928	48	5978
2026-01-18 21:37:42.04	84.01	7.60	-37.8	-39.0	21.7	0.00e+00	123	41	0	216006656	48	6231
2026-01-18 21:37:43.05	83.91	7.67	-37.5	-38.7	21.7	0.00e+00	120	41	0	219152384	48	6009
2026-01-18 21:37:44.06	83.81	7.73	-37.4	-38.5	21.9	0.00e+00	123	40	0	222298112	48	5868
2026-01-18 21:37:45.07	83.70	7.80	-37.5	-38.6	21.8	0.00e+00	122	41	0	225443840	48	5964
2026-01-18 21:37:46.07	83.60	7.86	-37.5	-38.6	21.8	0.00e+00	122	40	0	228589568	48	5939
2026-01-18 21:37:47.08	83.50	7.92	-37.5	-38.6	21.8	0.00e+00	122	41	0	231735296	48	5947
2026-01-18 21:37:48.09	83.40	7.99	-37.4	-38.5	21.9	0.00e+00	122	41	0	234881024	48	5886
2026-01-18 21:37:49.10	83.30	8.05	-37.3	-38.4	22.0	0.00e+00	120	41	0	238026752	48	5805
2026-01-18 21:37:50.11	83.19	8.12	-37.2	-38.3	22.1	0.00e+00	123	41	0	241172480	48	5753
2026-01-18 21:37:51.11	83.09	8.18	-37.3	-38.4	21.9	0.00e+00	122	41	0	244318208	48	5816
2026-01-18 21:37:52.12	82.99	8.24	-37.2	-38.3	22.1	0.00e+00	122	41	0	247463936	48	5779
2026-01-18 21:37:53.13	82.88	8.31	-37.3	-38.4	21.9	0.00e+00	123	41	0	250609664	48	5854
2026-01-18 21:37:54.14	82.77	8.37	-37.3	-38.5	21.9	0.00e+00	123	41	0	253755392	48	5876
2026-01-18 21:37:55.15	82.67	8.44	-37.2	-38.4	22.0	0.00e+00	120	41	0	256901120	48	5797
2026-01-18 21:37:56.16	82.56	8.50	-37.3	-38.4	22.0	0.00e+00	122	41	0	260046848	48	5836
2026-01-18 21:37:57.17	82.46	8.57	-37.4	-38.5	21.9	0.00e+00	123	41	0	263192576	48	5893
2026-01-18 21:37:58.18	82.35	8.63	-37.6	-38.7	21.9	0.00e+00	122	41	0	266338304	48	6045
2026-01-18 21:37:59.19	82.24	8.70	-37.2	-38.2	22.2	0.00e+00	122	41	0	269484032	48	5719
2026-01-18 21:38:00.20	82.13	8.76	-37.1	-38.1	22.3	0.00e+00	120	41	0	272629760	48	5657
2026-01-18 21:38:01.21	82.02	8.83	-37.0	-38.1	22.3	0.00e+00	122	40	0	275775488	48	5618
2026-01-18 21:38:02.22	81.91	8.89	-37.3	-38.4	22.2	0.00e+00	123	41	0	278921216	48	5809
2026-01-18 21:38:03.23	81.80	8.96	-37.1	-38.2	22.3	0.00e+00	123	41	0	282066944	48	5663
2026-01-18 21:38:04.24	81.69	9.02	-37.2	-38.2	22.2	0.00e+00	123	41	0	285212672	48	5711
2026-01-18 21:38:05.25	81.58	9.09	-37.0	-38.0	22.4	0.00e+00	123	41	0	288358400	48	5578
2026-01-18 21:38:06.26	81.47	9.16	-37.2	-38.2	22.2	0.00e+00	122	41	0	291504128	48	5718
2026-01-18 21:38:07.27	81.36	9.22	-37.0	-38.0	22.3	0.00e+00	122	41	0	294649856	48	5582
2026-01-18 21:38:08.28	81.25	9.29	-37.0	-38.0	22.3	0.00e+00	123	41	0	297795584	48	5584
2026-01-18 21:38:09.29	81.13	9.35	-37.0	-38.1	22.3	0.00e+00	122	41	0	300941312	48	5614
2026-01-18 21:38:10.30	81.02	9.42	-37.0	-38.1	22.3	0.00e+00	123	41	0	304087040	48	5598
2026-01-18 21:38:11.31	80.91	9.48	-37.1	-38.1	22.3	0.00e+00	121	41	0	307232768	48	5624
2026-01-18 21:38:12.32	80.79	9.55	-37.0	-38.0	22.4	0.00e+00	122	41	0	310378496	48	5543
2026-01-18 21:38:13.33	80.68	9.62	-37.1	-38.1	22.3	0.00e+00	124	41	0	313524224	48	5657
2026-01-18 21:38:14.33	80.56	9.68	-37.1	-38.1	22.3	0.00e+00	122	41	0	316669952	48	5640
2026-01-18 21:38:15.34	80.45	9.75	-37.0	-38.0	22.4	0.00e+00	122	41	0	319815680	48	5570
2026-01-18 21:38:16.35	80.33	9.81	-37.1	-38.2	22.3	0.00e+00	122	41	0	322961408	48	5677
2026-01-18 21:38:17.36	80.21	9.88	-36.8	-37.8	22.7	0.00e+00	123	41	0	326107136	48	5417
2026-01-18 21:38:18.37	80.10	9.95	-36.8	-37.8	22.6	0.00e+00	123	41	0	329252864	46	6131
2026-01-18 21:38:19.38	79.98	10.01	-36.7	-37.7	22.7	0.00e+00	123	41	0	332398592	46	6030
2026-01-18 21:38:20.39	79.86	10.08	-36.7	-37.7	22.7	0.00e+00	122	41	0	335544320	46	6023
2026-01-18 21:38:21.40	79.74	10.15	-36.7	-37.7	22.7	0.00e+00	122	41	0	338690048	46	6059
2026-01-18 21:38:22.41	79.62	10.21	-36.7	-37.7	22.7	0.00e+00	122	41	0	341835776	46	6010
2026-01-18 21:38:23.42	79.50	10.28	-36.6	-37.6	22.7	0.00e+00	123	41	0	344981504	46	5965
2026-01-18 21:38:24.43	79.38	10.34	-36.7	-37.7	22.7	0.00e+00	122	41	0	348127232	46	6000
2026-01-18 21:38:25.44	79.26	10.41	-36.7	-37.7	22.7	0.00e+00	122	41	0	351272960	46	6049
2026-01-18 21:38:26.46	79.13	10.48	-36.8	-37.8	22.6	0.00e+00	121	41	0	354418688	46	6072
2026-01-18 21:38:27.47	79.01	10.55	-36.7	-37.7	22.6	0.00e+00	122	41	0	357564416	46	6058
2026-01-18 21:38:28.48	78.89	10.61	-36.7	-37.8	22.6	0.00e+00	123	41	0	360710144	46	6067
2026-01-18 21:38:29.49	78.76	10.68	-36.9	-38.0	22.6	0.00e+00	123	41	0	363855872	46	6218
2026-01-18 21:38:30.50	78.64	10.75	-37.0	-38.0	22.5	0.00e+00	120	41	0	367001600	46	6275
2026-01-18 21:38:31.51	78.51	10.81	-36.9	-37.9	22.6	0.00e+00	123	41	0	370147328	46	6164
2026-01-18 21:38:32.52	78.39	10.88	-36.8	-37.8	22.8	0.00e+00	120	41	0	373293056	46	6067
2026-01-18 21:38:33.53	78.26	10.95	-36.5	-37.5	23.0	0.00e+00	123	41	0	376438784	46	5893
2026-01-18 21:38:34.54	78.13	11.01	-36.5	-37.4	23.0	0.00e+00	122	41	0	379584512	46	5845
2026-01-18 21:38:35.55	78.01	11.08	-36.4	-37.4	22.9	0.00e+00	120	41	0	382730240	46	5834
2026-01-18 21:38:36.56	77.88	11.15	-36.6	-37.5	22.8	0.00e+00	123	41	0	386924544	46	5912
2026-01-18 21:38:37.56	77.75	11.22	-36.4	-37.4	22.9	0.00e+00	120	41	0	389021696	46	5824
2026-01-18 21:38:38.57	77.62	11.28	-36.4	-37.4	23.0	0.00e+00	122	41	0	392167424	46	5843
2026-01-18 21:38:39.58	77.49	11.35	-36.5	-37.5	22.9	0.00e+00	122	41	0	395313152	46	5875
2026-01-18 21:38:40.59	77.36	11.42	-36.6	-37.6	22.8	0.00e+00	123	41	0	398458880	46	5940
2026-01-18 21:38:41.60	77.23	11.48	-36.4	-37.4	22.9	0.00e+00	123	41	0	402653184	46	5840
2026-01-18 21:38:42.61	77.10	11.55	-36.6	-37.6	22.8	0.00e+00	123	41	0	405798912	46	5946
2026-01-18 21:38:43.62	76.97	11.62	-36.7	-37.7	22.8	0.00e+00	120	41	0	408944640	46	6051
2026-01-18 21:38:44.62	76.84	11.69	-36.5	-37.5	23.0	0.00e+00	123	41	0	411041792	46	5905
2026-01-18 21:38:45.64	76.70	11.75	-36.5	-37.5	23.0	0.00e+00	122	41	0	414187520	46	5860
2026-01-18 21:38:46.65	76.57	11.82	-36.4	-37.4	23.1	0.00e+00	122	41	0	417333248	46	5817
2026-01-18 21:38:47.65	76.43	11.89	-36.3	-37.2	23.2	0.00e+00	120	41	0	421527552	46	5712
2026-01-18 21:38:48.66	76.30	11.96	-36.1	-37.1	23.3	0.00e+00	123	41	0	424673280	46	5627
2026-01-18 21:38:49.67	76.16	12.02	-36.2	-37.1	23.3	0.00e+00	120	41	0	427819008	46	5644
2026-01-18 21:38:50.69	76.02	12.09	-36.2	-37.1	23.4	0.00e+00	123	41	0	430964736	46	5646
2026-01-18 21:38:51.70	75.89	12.16	-36.3	-37.3	23.2	0.00e+00	122	41	0	434110464	46	5748
2026-01-18 21:38:52.71	75.75	12.23	-36.1	-37.1	23.3	0.00e+00	123	41	0	437256192	46	5600
2026-01-18 21:38:53.72	75.61	12.30	-36.2	-37.2	23.2	0.00e+00	123	41	0	440401920	46	5670
2026-01-18 21:38:54.73	75.47	12.36	-36.3	-37.3	23.2	0.00e+00	123	41	0	443547648	46	5761
2026-01-18 21:38:55.74	75.33	12.43	-36.3	-37.3	23.1	0.00e+00	123	41	0	446693376	46	5730
2026-01-18 21:38:56.74	75.19	12.50	-36.2	-37.1	23.3	0.00e+00	120	41	0	449839104	46	5655
2026-01-18 21:38:57.75	75.05	12.57	-36.3	-37.2	23.3	0.00e+00	123	41	0	452984832	46	5717
2026-01-18 21:38:58.76	74.91	12.63	-36.3	-37.2	23.3	0.00e+00	122	41	0	456130560	46	5724
2026-01-18 21:38:59.78	74.76	12.70	-36.2	-37.1	23.4	0.00e+00	123	41	0	459276288	46	5630
2026-01-18 21:39:00.79	74.62	12.77	-36.2	-37.1	23.4	0.00e+00	122	41	0	462422016	46	5654
2026-01-18 21:39:01.80	74.48	12.84	-35.9	-36.8	23.6	0.00e+00	122	41	0	465567744	46	5455
2026-01-18 21:39:02.80	74.33	12.91	-36.0	-37.0	23.5	0.00e+00	122	41	0	468713472	46	5567
2026-01-18 21:39:03.81	74.19	12.97	-36.2	-37.1	23.3	0.00e+00	122	41	0	471859200	46	5647
2026-01-18 21:39:04.82	74.04	13.04	-36.1	-37.1	23.4	0.00e+00	123	41	0	475004928	46	5602
2026-01-18 21:39:05.83	73.90	13.11	-36.1	-37.1	23.3	0.00e+00	123	41	0	478150656	46	5634
2026-01-18 21:39:06.84	73.75	13.18	-36.0	-37.0	23.4	0.00e+00	123	41	0	481296384	46	5555
2026-01-18 21:39:07.85	73.60	13.25	-36.2	-37.2	23.3	0.00e+00	120	41	0	484442112	46	5676
2026-01-18 21:39:08.86	73.45	13.31	-36.2	-37.1	23.3	0.00e+00	123	41	0	487587840	46	5655
2026-01-18 21:39:09.87	73.30	13.38	-36.3	-37.3	23.3	0.00e+00	116	41	0	490733568	46	5733
2026-01-18 21:39:10.89	73.15	13.45	-36.4	-37.4	23.2	0.00e+00	122	41	0	493879296	46	5808
2026-01-18 21:39:11.89	73.00	13.52	-36.3	-37.3	23.2	0.00e+00	120	41	0	497025024	46	5781
2026-01-18 21:39:12.90	72.85	13.58	-36.4	-37.4	23.2	0.00e+00	122	41	0	500170752	46	5815
2026-01-18 21:39:13.91	72.70	13.65	-36.4	-37.4	23.2	0.00e+00	121	41	0	503316480	46	5810
2026-01-18 21:39:14.92	72.55	13.72	-36.4	-37.4	23.1	0.00e+00	123	41	0	506462208	46	5830
2026-01-18 21:39:15.93	72.39	13.79	-36.5	-37.6	23.0	0.00e+00	123	41	0	509607936	46	5933
2026-01-18 21:39:16.94	72.24	13.86	-36.2	-37.2	23.2	0.00e+00	122	41	0	512753664	46	5706
2026-01-18 21:39:17.95	72.08	13.92	-36.3	-37.2	23.3	0.00e+00	123	41	0	515899392	46	5715
2026-01-18 21:39:18.96	71.93	13.99	-36.3	-37.3	23.2	0.00e+00	123	41	0	519045120	46	5760
2026-01-18 21:39:19.97	71.77	14.06	-36.3	-37.3	23.2	0.00e+00	120	41	0	522190848	46	5783
2026-01-18 21:39:20.98	71.61	14.13	-36.5	-37.5	23.1	0.00e+00	123	41	0	525336576	46	5882
2026-01-18 21:39:21.99	71.46	14.19	-36.4	-37.4	23.2	0.00e+00	123	41	0	528482304	46	5850
2026-01-18 21:39:22.99	71.30	14.26	-36.5	-37.5	23.2	0.00e+00	123	41	0	531628032	46	5906
2026-01-18 21:39:24.00	71.14	14.33	-36.6	-37.6	23.1	0.00e+00	122	41	0	534773760	46	5963
2026-01-18 21:39:25.01	70.98	14.40	-36.6	-37.7	22.9	0.00e+00	122	41	0	537919488	46	6006
2026-01-18 21:39:26.02	70.82	14.46	-36.3	-37.3	23.2	0.00e+00	122	41	0	541065216	46	5748
2026-01-18 21:39:27.03	70.66	14.53	-36.2	-37.2	23.4	0.00e+00	120	41	0	544210944	46	5722
2026-01-18 21:39:28.04	70.49	14.60	-36.3	-37.3	23.2	0.00e+00	122	41	0	547356672	46	5790
2026-01-18 21:39:29.05	70.33	14.67	-36.2	-37.2	23.4	0.00e+00	122	41	0	550502400	46	5665
2026-01-18 21:39:30.06	70.17	14.73	-36.3	-37.3	23.2	0.00e+00	123	41	0	553648128	46	5743
2026-01-18 21:39:31.07	70.00	14.80	-36.3	-37.3	23.2	0.00e+00	123	41	0	556793856	46	5783
2026-01-18 21:39:32.08	69.84	14.87	-36.3	-37.4	23.2	0.00e+00	122	41	0	559939584	46	5798
2026-01-18 21:39:33.09	69.67	14.94	-36.4	-37.5	23.1	0.00e+00	120	41	0	563085312	46	5871
2026-01-18 21:39:34.10	69.50	15.00	-36.3	-37.3	23.3	0.00e+00	122	41	0	566231040	46	5767
2026-01-18 21:39:35.11	69.34	15.07	-36.4	-37.4	23.2	0.00e+00	123	41	0	569376768	46	5856
2026-01-18 21:39:36.12	69.17	15.14	-36.3	-37.3	23.3	0.00e+00	122	41	0	572522496	46	5787
2026-01-18 21:39:37.13	69.00	15.20	-36.0	-37.0	23.5	0.00e+00	123	41	0	575668224	46	5579
2026-01-18 21:39:38.14	68.83	15.27	-35.9	-36.9	23.5	0.00e+00	120	41	0	578813952	46	5522
2026-01-18 21:39:39.15	68.66	15.34	-36.1	-37.1	23.5	0.00e+00	123	41	0	581959680	46	5611
2026-01-18 21:39:40.16	68.49	15.40	-36.2	-37.2	23.4	0.00e+00	123	41	0	585105408	46	5661
2026-01-18 21:39:41.17	68.31	15.47	-36.2	-37.2	23.3	0.00e+00	123	41	0	588251136	46	5674
2026-01-18 21:39:42.18	68.14	15.54	-36.2	-37.2	23.2	0.00e+00	123	41	0	591396864	46	5721
2026-01-18 21:39:43.19	67.97	15.60	-36.3	-37.3	23.3	0.00e+00	120	41	0	594542592	46	5754
2026-01-18 21:39:44.20	67.79	15.67	-36.2	-37.2	23.3	0.00e+00	122	41	0	597688320	46	5706
2026-01-18 21:39:45.21	67.62	15.74	-36.3	-37.3	23.2	0.00e+00	122	41	0	600834048	46	5777
2026-01-18 21:39:46.22	67.44	15.80	-36.1	-37.1	23.4	0.00e+00	123	41	0	603979776	46	5607
2026-01-18 21:39:47.23	67.26	15.87	-36.1	-37.1	23.5	0.00e+00	123	41	0	607125504	46	5616
2026-01-18 21:39:48.24	67.09	15.94	-36.2	-37.1	23.5	0.00e+00	123	41	0	610271232	46	5640
2026-01-18 21:39:49.25	66.91	16.00	-35.9	-36.9	23.6	0.00e+00	123	41	0	613416960	46	5487
2026-01-18 21:39:50.26	66.73	16.07	-36.0	-37.0	23.5	0.00e+00	120	41	0	616562688	46	5554
2026-01-18 21:39:51.27	66.55	16.13	-36.1	-37.1	23.4	0.00e+00	122	41	0	619708416	46	5620
2026-01-18 21:39:52.28	66.37	16.20	-36.1	-37.1	23.4	0.00e+00	123	41	0	622854144	46	5619
2026-01-18 21:39:53.29	66.19	16.26	-36.2	-37.2	23.4	0.00e+00	123	41	0	625999872	46	5694
2026-01-18 21:39:54.30	66.00	16.33	-36.4	-37.3	23.3	0.00e+00	122	41	0	629145600	46	5789
2026-01-18 21:39:55.31	65.82	16.39	-36.5	-37.5	23.2	0.00e+00	123	41	0	632291328	46	5874
2026-01-18 21:39:56.32	65.64	16.46	-36.3	-37.3	23.4	0.00e+00	122	41	0	635437056	46	5729
2026-01-18 21:39:57.33	65.45	16.52	-36.2	-37.2	23.5	0.00e+00	122	41	0	638582784	46	5670
2026-01-18 21:39:58.34	65.27	16.59	-36.1	-37.1	23.5	0.00e+00	122	41	0	641728512	46	5628
2026-01-18 21:39:59.35	65.08	16.65	-36.2	-37.1	23.4	0.00e+00	120	41	0	644874240	46	5651
2026-01-18 21:40:00.35	64.89	16.72	-36.2	-37.2	23.3	0.00e+00	123	41	0	648019968	46	5682
2026-01-18 21:40:01.36	64.71	16.78	-36.3	-37.2	23.4	0.00e+00	120	41	0	651165696	46	5718
2026-01-18 21:40:02.38	64.51	16.85	-36.3	-37.2	23.4	0.00e+00	123	41	0	654311424	46	5719
2026-01-18 21:40:03.39	64.32	16.91	-36.3	-37.3	23.3	0.00e+00	122	41	0	657457152	46	5766
2026-01-18 21:40:04.39	64.14	16.97	-36.3	-37.3	23.4	0.00e+00	122	41	0	660602880	46	5751
2026-01-18 21:40:05.41	63.94	17.04	-36.3	-37.2	23.4	0.00e+00	120	41	0	663748608	46	5698
2026-01-18 21:40:06.41	63.75	17.10	-36.3	-37.3	23.3	0.00e+00	120	41	0	666894336	46	5743
2026-01-18 21:40:07.42	63.56	17.17	-36.1	-37.1	23.5	0.00e+00	123	41	0	670040064	46	5637
2026-01-18 21:40:08.44	63.36	17.23	-36.2	-37.2	23.4	0.00e+00	123	41	0	673185792	46	5697
2026-01-18 21:40:09.45	63.17	17.29	-36.2	-37.2	23.4	0.00e+00	123	41	0	676331520	46	5696
2026-01-18 21:40:10.46	62.97	17.35	-36.2	-37.2	23.4	0.00e+00	122	41	0	679477248	46	5694
2026-01-18 21:40:11.47	62.78	17.42	-36.3	-37.2	23.4	0.00e+00	123	41	0	682622976	46	5723
2026-01-18 21:40:12.48	62.58	17.48	-36.3	-37.3	23.3	0.00e+00	122	41	0	685768704	46	5749
2026-01-18 21:40:13.49	62.38	17.54	-36.4	-37.4	23.2	0.00e+00	120	41	0	688914432	46	5816
2026-01-18 21:40:14.50	62.18	17.60	-36.2	-37.2	23.4	0.00e+00	122	41	0	692060160	46	5688
2026-01-18 21:40:15.51	61.98	17.67	-36.2	-37.2	23.4	0.00e+00	123	41	0	695205888	46	5688
2026-01-18 21:40:16.52	61.78	17.73	-36.3	-37.3	23.3	0.00e+00	123	41	0	698351616	46	5729
2026-01-18 21:40:17.53	61.58	17.79	-36.2	-37.2	23.3	0.00e+00	122	41	0	701497344	46	5690
2026-01-18 21:40:18.54	61.38	17.85	-36.3	-37.3	23.2	0.00e+00	123	41	0	704643072	46	5776
2026-01-18 21:40:19.55	61.18	17.91	-36.2	-37.2	23.4	0.00e+00	123	41	0	707788800	46	5669
2026-01-18 21:40:20.56	60.97	17.97	-36.3	-37.2	23.4	0.00e+00	122	41	0	710934528	46	5703
2026-01-18 21:40:21.57	60.77	18.03	-36.4	-37.3	23.3	0.00e+00	122	41	0	714080256	46	5790
2026-01-18 21:40:22.58	60.56	18.09	-36.3	-37.3	23.4	0.00e+00	123	41	0	717225984	46	5740
2026-01-18 21:40:23.59	60.36	18.15	-36.2	-37.2	23.4	0.00e+00	123	41	0	720371712	46	5678
2026-01-18 21:40:24.60	60.15	18.21	-36.3	-37.2	23.5	0.00e+00	123	41	0	723517440	46	5713
2026-01-18 21:40:25.61	59.94	18.27	-36.2	-37.2	23.3	0.00e+00	123	41	0	726663168	46	5702
2026-01-18 21:40:26.62	59.73	18.33	-36.4	-37.4	23.3	0.00e+00	122	41	0	729808896	46	5824
2026-01-18 21:40:27.63	59.52	18.39	-36.4	-37.3	23.3	0.00e+00	123	41	0	732954624	46	5764
2026-01-18 21:40:28.64	59.31	18.45	-36.3	-37.2	23.4	0.00e+00	123	41	0	736100352	46	5717
2026-01-18 21:40:29.65	59.10	18.51	-36.3	-37.3	23.4	0.00e+00	123	41	0	740294656	46	5736
2026-01-18 21:40:30.66	58.89	18.57	-36.2	-37.1	23.5	0.00e+00	122	41	0	743440384	46	5621
2026-01-18 21:40:31.67	58.68	18.63	-36.0	-36.9	23.6	0.00e+00	122	41	0	746586112	46	5522
2026-01-18 21:40:32.67	58.46	18.68	-36.1	-37.0	23.5	0.00e+00	123	41	0	749731840	46	5578
2026-01-18 21:40:33.68	58.25	18.74	-36.0	-36.9	23.6	0.00e+00	120	41	0	751828992	46	5512
2026-01-18 21:40:34.70	58.03	18.80	-36.1	-37.0	23.6	0.00e+00	123	41	0	754974720	46	5577
2026-01-18 21:40:35.71	57.82	18.86	-35.9	-36.8	23.8	0.00e+00	120	41	0	759169024	46	5447
2026-01-18 21:40:36.72	57.60	18.91	-35.8	-36.8	23.8	0.00e+00	123	41	0	762314752	46	5416
2026-01-18 21:40:37.73	57.38	18.97	-35.7	-36.6	23.9	0.00e+00	123	41	0	765460480	44	5949
2026-01-18 21:40:38.74	57.16	19.03	-35.7	-36.7	23.9	0.00e+00	120	41	0	768606208	44	6004
2026-01-18 21:40:39.75	56.94	19.08	-35.7	-36.7	23.9	0.00e+00	123	41	0	771751936	44	6002
2026-01-18 21:40:40.76	56.72	19.14	-35.5	-36.5	24.1	0.00e+00	123	41	0	774897664	44	5861
2026-01-18 21:40:41.77	56.50	19.19	-35.4	-36.3	24.1	0.00e+00	123	41	0	778043392	44	5737
2026-01-18 21:40:42.78	56.28	19.25	-35.4	-36.3	24.1	0.00e+00	122	41	0	781189120	44	5751
2026-01-18 21:40:43.79	56.06	19.30	-35.3	-36.2	24.2	0.00e+00	122	41	0	784334848	44	5690
2026-01-18 21:40:44.80	55.84	19.35	-35.4	-36.3	24.1	0.00e+00	120	41	0	787480576	44	5772
2026-01-18 21:40:45.81	55.61	19.41	-35.4	-36.3	24.0	0.00e+00	122	41	0	790626304	44	5752
2026-01-18 21:40:46.82	55.39	19.46	-35.5	-36.4	24.0	0.00e+00	121	41	0	793772032	44	5832
2026-01-18 21:40:47.83	55.16	19.51	-35.5	-36.4	24.1	0.00e+00	123	41	0	796917760	44	5815
2026-01-18 21:40:48.84	54.93	19.57	-35.5	-36.4	24.1	0.00e+00	120	41	0	800063488	44	5810
2026-01-18 21:40:49.85	54.71	19.62	-35.3	-36.2	24.2	0.00e+00	123	41	0	803209216	44	5706
2026-01-18 21:40:50.86	54.48	19.67	-35.3	-36.2	24.2	0.00e+00	120	41	0	806354944	44	5696
2026-01-18 21:40:51.87	54.25	19.72	-35.4	-36.3	24.2	0.00e+00	123	41	0	809500672	44	5732
2026-01-18 21:40:52.88	54.02	19.77	-35.3	-36.2	24.2	0.00e+00	120	41	0	812646400	44	5698
2026-01-18 21:40:53.89	53.79	19.83	-35.5	-36.4	24.1	0.00e+00	120	41	0	815792128	44	5825
2026-01-18 21:40:54.90	53.56	19.88	-35.5	-36.4	24.1	0.00e+00	123	41	0	818937856	44	5816
2026-01-18 21:40:55.91	53.33	19.93	-35.6	-36.6	23.9	0.00e+00	122	41	0	822083584	44	5958
2026-01-18 21:40:56.92	53.09	19.98	-35.8	-36.8	23.9	0.00e+00	122	41	0	825229312	44	6068
2026-01-18 21:40:57.93	52.86	20.03	-35.6	-36.6	23.8	0.00e+00	122	41	0	828375040	44	5937
2026-01-18 21:40:58.94	52.63	20.07	-35.7	-36.6	23.9	0.00e+00	123	41	0	831520768	44	5992
2026-01-18 21:40:59.95	52.39	20.12	-35.6	-36.5	24.0	0.00e+00	123	41	0	834666496	44	5919
2026-01-18 21:41:00.95	52.16	20.17	-35.9	-36.8	23.8	0.00e+00	122	41	0	837812224	44	6127
2026-01-18 21:41:01.96	51.92	20.22	-35.5	-36.4	24.1	0.00e+00	123	41	0	840957952	44	5808
2026-01-18 21:41:02.97	51.68	20.27	-35.6	-36.6	24.0	0.00e+00	122	41	0	844103680	44	5947
2026-01-18 21:41:03.98	51.45	20.31	-35.7	-36.6	24.0	0.00e+00	123	41	0	847249408	44	5944
2026-01-18 21:41:04.99	51.21	20.36	-35.5	-36.4	24.1	0.00e+00	123	41	0	850395136	44	5850
2026-01-18 21:41:06.00	50.97	20.40	-35.6	-36.5	24.2	0.00e+00	123	41	0	853540864	44	5881
2026-01-18 21:41:07.01	50.73	20.45	-35.3	-36.2	24.2	0.00e+00	120	41	0	856686592	44	5699
2026-01-18 21:41:08.02	50.49	20.49	-35.3	-36.2	24.4	0.00e+00	123	41	0	859832320	44	5663
2026-01-18 21:41:09.03	50.25	20.54	-35.1	-36.0	24.4	0.00e+00	123	41	0	862978048	44	5564
2026-01-18 21:41:10.04	50.00	20.58	-35.1	-36.0	24.3	0.00e+00	123	41	0	866123776	44	5566
2026-01-18 21:41:11.05	49.76	20.63	-35.2	-36.1	24.3	0.00e+00	122	41	0	869269504	44	5624
2026-01-18 21:41:12.05	49.52	20.67	-35.2	-36.2	24.2	0.00e+00	122	41	0	872415232	44	5662
2026-01-18 21:41:13.06	49.27	20.71	-35.2	-36.1	24.4	0.00e+00	123	41	0	875560960	44	5645
2026-01-18 21:41:14.08	49.03	20.75	-35.3	-36.2	24.3	0.00e+00	123	41	0	878706688	44	5712
2026-01-18 21:41:15.09	48.78	20.80	-35.1	-36.0	24.5	0.00e+00	120	41	0	881852416	44	5541
2026-01-18 21:41:16.10	48.54	20.84	-35.2	-36.1	24.4	0.00e+00	122	41	0	884998144	44	5605
2026-01-18 21:41:17.11	48.29	20.88	-35.1	-36.0	24.4	0.00e+00	122	41	0	888143872	44	5550
2026-01-18 21:41:18.12	48.04	20.92	-35.2	-36.1	24.4	0.00e+00	123	41	0	891289600	44	5623
2026-01-18 21:41:19.13	47.79	20.96	-35.4	-36.3	24.3	0.00e+00	123	41	0	894435328	44	5730
2026-01-18 21:41:20.14	47.54	21.00	-35.1	-36.0	24.6	0.00e+00	123	41	0	897581056	44	5547
2026-01-18 21:41:21.14	47.30	21.04	-35.2	-36.1	24.4	0.00e+00	123	41	0	900726784	44	5629
2026-01-18 21:41:22.15	47.05	21.07	-35.2	-36.0	24.4	0.00e+00	123	41	0	903872512	44	5592
2026-01-18 21:41:23.16	46.80	21.11	-35.2	-36.0	24.5	0.00e+00	123	41	0	907018240	44	5583
2026-01-18 21:41:24.17	46.54	21.15	-35.1	-36.0	24.5	0.00e+00	122	41	0	910163968	44	5547
2026-01-18 21:41:25.18	46.29	21.19	-35.1	-36.0	24.5	0.00e+00	120	41	0	913309696	44	5571
2026-01-18 21:41:26.19	46.04	21.22	-35.1	-36.0	24.5	0.00e+00	123	41	0	916455424	44	5557
2026-01-18 21:41:27.20	45.79	21.26	-35.1	-36.0	24.4	0.00e+00	120	41	0	919601152	44	5582
2026-01-18 21:41:28.21	45.53	21.29	-35.1	-36.0	24.4	0.00e+00	123	41	0	922746880	44	5594
2026-01-18 21:41:29.22	45.28	21.33	-35.1	-36.0	24.4	0.00e+00	121	41	0	925892608	44	5531
2026-01-18 21:41:30.23	45.02	21.36	-35.0	-35.9	24.5	0.00e+00	123	41	0	929038336	44	5522
2026-01-18 21:41:31.24	44.77	21.39	-35.1	-36.0	24.5	0.00e+00	122	41	0	932184064	44	5569
2026-01-18 21:41:32.25	44.51	21.43	-35.1	-36.0	24.5	0.00e+00	120	41	0	935329792	44	5588
2026-01-18 21:41:33.26	44.26	21.46	-35.2	-36.1	24.4	0.00e+00	120	41	0	938475520	44	5602
2026-01-18 21:41:34.27	44.00	21.49	-35.3	-36.2	24.3	0.00e+00	122	41	0	941621248	44	5706
2026-01-18 21:41:35.28	43.74	21.52	-35.4	-36.3	24.2	0.00e+00	120	41	0	944766976	44	5774
2026-01-18 21:41:36.29	43.48	21.55	-35.5	-36.4	24.2	0.00e+00	123	41	0	947912704	44	5808
2026-01-18 21:41:37.30	43.23	21.58	-35.5	-36.4	24.3	0.00e+00	122	41	0	951058432	44	5807
2026-01-18 21:41:38.31	42.97	21.61	-35.3	-36.2	24.3	0.00e+00	123	41	0	954204160	44	5718
2026-01-18 21:41:39.32	42.71	21.64	-35.3	-36.2	24.3	0.00e+00	120	41	0	957349888	44	5701
2026-01-18 21:41:40.33	42.45	21.67	-35.4	-36.3	24.3	0.00e+00	123	41	0	960495616	44	5767
2026-01-18 21:41:41.34	42.19	21.69	-35.3	-36.2	24.4	0.00e+00	123	41	0	963641344	44	5670
2026-01-18 21:41:42.35	41.93	21.72	-35.2	-36.1	24.4	0.00e+00	123	41	0	966787072	44	5645
2026-01-18 21:41:43.36	41.66	21.75	-35.4	-36.3	24.3	0.00e+00	122	41	0	969932800	44	5728
2026-01-18 21:41:44.37	41.40	21.77	-35.3	-36.2	24.4	0.00e+00	123	41	0	973078528	44	5698
2026-01-18 21:41:45.37	41.14	21.80	-35.4	-36.3	24.3	0.00e+00	120	41	0	976224256	44	5751
2026-01-18 21:41:46.38	40.88	21.82	-35.2	-36.1	24.5	0.00e+00	122	41	0	979369984	44	5607
2026-01-18 21:41:47.39	40.62	21.85	-35.2	-36.1	24.4	0.00e+00	120	41	0	982515712	44	5651
2026-01-18 21:41:48.40	40.35	21.87	-35.2	-36.0	24.5	0.00e+00	122	41	0	985661440	44	5593
2026-01-18 21:41:49.41	40.09	21.89	-35.2	-36.2	24.4	0.00e+00	123	41	0	988807168	44	5660
2026-01-18 21:41:50.42	39.82	21.91	-35.2	-36.1	24.3	0.00e+00	122	41	0	991952896	44	5624
2026-01-18 21:41:51.43	39.56	21.94	-35.3	-36.2	24.4	0.00e+00	122	41	0	995098624	44	5716
2026-01-18 21:41:52.44	39.30	21.96	-35.4	-36.3	24.2	0.00e+00	123	41	0	998244352	44	5760
2026-01-18 21:41:53.45	39.03	21.98	-35.2	-36.1	24.4	0.00e+00	122	41	0	1001390080	44	5611
2026-01-18 21:41:54.46	38.76	22.00	-35.4	-36.3	24.3	0.00e+00	123	41	0	1004535808	44	5771
2026-01-18 21:41:55.47	38.50	22.01	-35.3	-36.2	24.4	0.00e+00	123	41	0	1007681536	44	5667
2026-01-18 21:41:56.48	38.23	22.03	-35.1	-36.0	24.5	0.00e+00	123	41	0	1010827264	44	5569
2026-01-18 21:41:57.49	37.97	22.05	-35.2	-36.1	24.4	0.00e+00	123	41	0	1013972992	44	5644
2026-01-18 21:41:58.50	37.70	22.07	-35.3	-36.2	24.3	0.00e+00	123	41	0	1017118720	44	5706
2026-01-18 21:41:59.51	37.43	22.08	-35.4	-36.3	24.2	0.00e+00	122	41	0	1020264448	44	5777
2026-01-18 21:42:00.52	37.16	22.10	-35.4	-36.3	24.2	0.00e+00	123	41	0	1023410176	44	5762
2026-01-18 21:42:01.53	36.90	22.11	-35.3	-36.2	24.4	0.00e+00	122	41	0	1026555904	44	5711
2026-01-18 21:42:02.53	36.63	22.13	-35.4	-36.3	24.3	0.00e+00	122	41	0	1029701632	44	5762
2026-01-18 21:42:03.55	36.36	22.14	-35.3	-36.2	24.4	0.00e+00	122	41	0	1032847360	44	5676
2026-01-18 21:42:04.55	36.09	22.15	-35.3	-36.2	24.5	0.00e+00	123	41	0	1035993088	44	5695
2026-01-18 21:42:05.56	35.83	22.17	-35.1	-36.0	24.5	0.00e+00	120	41	0	1039138816	44	5538
2026-01-18 21:42:06.57	35.56	22.18	-35.1	-36.0	24.5	0.00e+00	122	41	0	1042284544	44	5562
2026-01-18 21:42:07.58	35.29	22.19	-34.9	-35.8	24.7	0.00e+00	123	41	0	1045430272	44	5447
2026-01-18 21:42:08.59	35.02	22.20	-35.0	-35.9	24.6	0.00e+00	123	41	0	1048576000	44	5476
2026-01-18 21:42:09.60	34.75	22.21	-35.1	-36.0	24.5	0.00e+00	123	41	0	1051721728	44	5535
2026-01-18 21:42:10.61	34.48	22.22	-35.1	-36.0	24.5	0.00e+00	118	41	0	1054867456	44	5584
2026-01-18 21:42:11.62	34.21	22.22	-35.2	-36.1	24.4	0.00e+00	123	41	0	1058013184	44	5650
2026-01-18 21:42:12.63	33.94	22.23	-35.4	-36.3	24.3	0.00e+00	122	41	0	1061158912	44	5733
2026-01-18 21:42:13.64	33.67	22.24	-35.3	-36.2	24.3	0.00e+00	122	41	0	1064304640	44	5697
2026-01-18 21:42:14.65	33.40	22.24	-35.4	-36.4	24.2	0.00e+00	120	41	0	1067450368	44	5799
2026-01-18 21:42:15.67	33.13	22.25	-35.4	-36.3	24.3	0.00e+00	122	41	0	1070596096	44	5775
2026-01-18 21:42:16.68	32.86	22.25	-35.4	-36.2	24.4	0.00e+00	123	41	0	1073741824	44	5725
2026-01-18 21:42:17.69	32.59	22.26	-35.2	-36.1	24.4	0.00e+00	122	41	0	1076887552	44	5617
2026-01-18 21:42:18.70	32.32	22.26	-35.0	-35.9	24.6	0.00e+00	122	41	0	1080033280	44	5480
2026-01-18 21:42:19.70	32.05	22.26	-35.0	-35.9	24.6	0.00e+00	122	41	0	1084227584	44	5509
2026-01-18 21:42:20.71	31.78	22.27	-35.0	-35.9	24.6	0.00e+00	123	41	0	1087373312	44	5470
2026-01-18 21:42:21.72	31.51	22.27	-34.9	-35.8	24.7	0.00e+00	120	41	0	1090519040	44	5433
2026-01-18 21:42:22.73	31.24	22.27	-34.9	-35.8	24.7	0.00e+00	122	41	0	1092616192	44	5413
2026-01-18 21:42:23.75	30.96	22.27	-34.9	-35.8	24.7	0.00e+00	120	41	0	1095761920	44	5406
2026-01-18 21:42:24.75	30.70	22.27	-35.1	-36.0	24.5	0.00e+00	123	41	0	1099956224	44	5564
2026-01-18 21:42:25.77	30.42	22.27	-35.2	-36.1	24.4	0.00e+00	122	41	0	1103101952	44	5630
2026-01-18 21:42:26.77	30.16	22.26	-35.3	-36.2	24.3	0.00e+00	122	41	0	1106247680	44	5681
2026-01-18 21:42:27.78	29.89	22.26	-35.2	-36.1	24.4	0.00e+00	123	41	0	1109393408	44	5657
2026-01-18 21:42:28.79	29.62	22.26	-35.2	-36.1	24.3	0.00e+00	122	41	0	1112539136	44	5637
2026-01-18 21:42:29.80	29.35	22.25	-35.2	-36.1	24.3	0.00e+00	123	41	0	1115684864	44	5627
2026-01-18 21:42:30.81	29.07	22.25	-35.4	-36.3	24.2	0.00e+00	123	41	0	1118830592	44	5749
2026-01-18 21:42:31.83	28.80	22.24	-35.2	-36.1	24.3	0.00e+00	123	41	0	1121976320	44	5654
2026-01-18 21:42:32.84	28.53	22.24	-35.4	-36.3	24.2	0.00e+00	123	41	0	1125122048	44	5789
2026-01-18 21:42:33.85	28.26	22.23	-35.6	-36.5	24.0	0.00e+00	122	41	0	1128267776	44	5918
2026-01-18 21:42:34.86	27.99	22.22	-35.8	-36.7	23.9	0.00e+00	122	41	0	1131413504	44	6030
2026-01-18 21:42:35.86	27.73	22.21	-35.7	-36.6	24.1	0.00e+00	123	41	0	1134559232	44	5953
2026-01-18 21:42:36.88	27.45	22.21	-35.7	-36.6	24.0	0.00e+00	122	41	0	1137704960	44	5941
2026-01-18 21:42:37.88	27.19	22.20	-35.7	-36.6	24.0	0.00e+00	123	41	0	1140850688	44	5993
2026-01-18 21:42:38.90	26.92	22.19	-35.5	-36.5	24.1	0.00e+00	123	41	0	1143996416	44	5867
2026-01-18 21:42:39.91	26.65	22.17	-35.4	-36.3	24.3	0.00e+00	122	41	0	1147142144	44	5771
2026-01-18 21:42:40.92	26.38	22.16	-35.2	-36.1	24.4	0.00e+00	123	41	0	1150287872	44	5636
2026-01-18 21:42:41.93	26.11	22.15	-35.2	-36.1	24.3	0.00e+00	123	41	0	1153433600	44	5650
2026-01-18 21:42:42.94	25.84	22.14	-35.1	-36.0	24.5	0.00e+00	123	41	0	1156579328	44	5591
2026-01-18 21:42:43.95	25.57	22.12	-35.1	-36.0	24.5	0.00e+00	123	41	0	1159725056	44	5553
2026-01-18 21:42:44.96	25.31	22.11	-35.1	-36.0	24.5	0.00e+00	123	41	0	1162870784	44	5566
2026-01-18 21:42:45.97	25.04	22.09	-34.8	-35.7	24.7	0.00e+00	122	41	0	1166016512	44	5364
2026-01-18 21:42:46.98	24.77	22.08	-34.9	-35.8	24.6	0.00e+00	123	41	0	1169162240	44	5425
2026-01-18 21:42:47.99	24.50	22.06	-34.9	-35.8	24.6	0.00e+00	123	41	0	1172307968	44	5436
2026-01-18 21:42:49.00	24.24	22.05	-34.9	-35.8	24.6	0.00e+00	123	41	0	1175453696	44	5419
2026-01-18 21:42:50.01	23.97	22.03	-35.0	-35.9	24.5	0.00e+00	120	41	0	1178599424	44	5511
2026-01-18 21:42:51.02	23.70	22.01	-35.2	-36.1	24.4	0.00e+00	120	41	0	1181745152	44	5613
2026-01-18 21:42:52.02	23.44	21.99	-35.4	-36.3	24.2	0.00e+00	123	41	0	1184890880	44	5771
2026-01-18 21:42:53.04	23.17	21.97	-35.4	-36.3	24.2	0.00e+00	123	41	0	1188036608	44	5759
2026-01-18 21:42:54.05	22.91	21.95	-35.3	-36.2	24.3	0.00e+00	123	41	0	1191182336	44	5697
2026-01-18 21:42:55.06	22.64	21.93	-35.2	-36.1	24.4	0.00e+00	123	41	0	1194328064	44	5621
2026-01-18 21:42:56.07	22.38	21.91	-35.2	-36.1	24.3	0.00e+00	123	41	0	1197473792	44	5642
2026-01-18 21:42:57.08	22.12	21.89	-35.1	-36.0	24.4	0.00e+00	123	41	0	1200619520	44	5541
2026-01-18 21:42:58.09	21.85	21.86	-35.3	-36.2	24.2	0.00e+00	123	41	0	1203765248	44	5678
2026-01-18 21:42:59.10	21.59	21.84	-35.1	-36.0	24.3	0.00e+00	127	41	0	1206910976	44	5585
2026-01-18 21:43:00.11	21.33	21.82	-35.1	-36.0	24.5	0.00e+00	123	41	0	1210056704	44	5587
2026-01-18 21:43:01.12	21.06	21.79	-35.1	-36.0	24.5	0.00e+00	123	41	0	1213202432	44	5534
2026-01-18 21:43:02.13	20.80	21.77	-35.1	-36.0	24.4	0.00e+00	123	41	0	1216348160	44	5564
2026-01-18 21:43:03.13	20.54	21.74	-35.0	-35.9	24.5	0.00e+00	120	41	0	1219493888	44	5494
2026-01-18 21:43:04.15	20.28	21.72	-35.1	-36.1	24.3	0.00e+00	123	41	0	1222639616	44	5595
2026-01-18 21:43:05.15	20.02	21.69	-35.2	-36.1	24.3	0.00e+00	122	41	0	1225785344	44	5600
2026-01-18 21:43:06.17	19.76	21.66	-35.3	-36.2	24.2	0.00e+00	123	41	0	1228931072	44	5710
2026-01-18 21:43:07.17	19.50	21.63	-35.2	-36.1	24.2	0.00e+00	120	41	0	1232076800	44	5615
2026-01-18 21:43:08.19	19.24	21.60	-35.3	-36.2	24.1	0.00e+00	122	41	0	1235222528	44	5699
2026-01-18 21:43:09.20	18.98	21.57	-35.2	-36.2	24.1	0.00e+00	122	41	0	1238368256	44	5663
2026-01-18 21:43:10.21	18.72	21.54	-35.3	-36.2	24.1	0.00e+00	120	41	0	1241513984	44	5691
2026-01-18 21:43:11.22	18.47	21.51	-35.4	-36.3	24.0	0.00e+00	122	41	0	1244659712	44	5779
2026-01-18 21:43:12.23	18.21	21.48	-35.4	-36.3	24.1	0.00e+00	120	41	0	1247805440	44	5769
2026-01-18 21:43:13.24	17.95	21.45	-35.3	-36.2	24.3	0.00e+00	122	41	0	1250951168	44	5717
2026-01-18 21:43:14.25	17.70	21.42	-35.4	-36.3	24.1	0.00e+00	120	41	0	1254096896	44	5747
2026-01-18 21:43:15.26	17.44	21.39	-35.2	-36.1	24.4	0.00e+00	122	41	0	1257242624	44	5595
2026-01-18 21:43:16.26	17.19	21.35	-35.2	-36.1	24.2	0.00e+00	123	41	0	1260388352	44	5604
2026-01-18 21:43:17.27	16.93	21.32	-35.2	-36.1	24.2	0.00e+00	120	41	0	1263534080	44	5651
2026-01-18 21:43:18.28	16.68	21.29	-35.3	-36.2	24.3	0.00e+00	122	41	0	1266679808	44	5702
2026-01-18 21:43:19.29	16.43	21.25	-35.3	-36.2	24.3	0.00e+00	120	41	0	1269825536	44	5702
2026-01-18 21:43:20.30	16.17	21.21	-35.2	-36.1	24.3	0.00e+00	123	41	0	1272971264	44	5619
2026-01-18 21:43:21.30	15.92	21.18	-35.2	-36.1	24.4	0.00e+00	122	41	0	1276116992	44	5595
2026-01-18 21:43:22.31	15.67	21.14	-35.1	-36.0	24.4	0.00e+00	123	41	0	1279262720	44	5572
2026-01-18 21:43:23.32	15.42	21.10	-35.2	-36.1	24.4	0.00e+00	120	41	0	1282408448	44	5606
2026-01-18 21:43:24.33	15.17	21.07	-35.2	-36.2	24.3	0.00e+00	123	41	0	1285554176	44	5666
2026-01-18 21:43:25.34	14.92	21.03	-35.2	-36.1	24.4	0.00e+00	123	41	0	1288699904	44	5611
2026-01-18 21:43:26.35	14.67	20.99	-35.3	-36.2	24.3	0.00e+00	122	41	0	1291845632	44	5722
2026-01-18 21:43:27.36	14.42	20.95	-35.4	-36.3	24.2	0.00e+00	122	41	0	1294991360	44	5783
2026-01-18 21:43:28.37	14.18	20.91	-35.5	-36.5	24.0	0.00e+00	123	41	0	1298137088	44	5872
2026-01-18 21:43:29.38	13.93	20.87	-35.5	-36.5	24.2	0.00e+00	122	41	0	1301282816	44	5863
2026-01-18 21:43:30.39	13.68	20.83	-35.3	-36.3	24.3	0.00e+00	122	41	0	1304428544	44	5729
2026-01-18 21:43:31.40	13.44	20.79	-35.5	-36.4	24.2	0.00e+00	123	41	0	1307574272	44	5840
2026-01-18 21:43:32.41	13.19	20.75	-35.6	-36.5	24.2	0.00e+00	123	41	0	1310720000	44	5875
2026-01-18 21:43:33.42	12.95	20.70	-35.7	-36.6	24.1	0.00e+00	122	41	0	1313865728	44	5964
2026-01-18 21:43:34.43	12.70	20.66	-35.6	-36.5	24.1	0.00e+00	123	41	0	1317011456	44	5918
2026-01-18 21:43:35.44	12.46	20.62	-35.5	-36.4	24.2	0.00e+00	122	41	0	1320157184	44	5846
2026-01-18 21:43:36.45	12.22	20.58	-35.5	-36.4	24.2	0.00e+00	120	41	0	1323302912	44	5828
2026-01-18 21:43:37.46	11.98	20.53	-35.6	-36.5	24.2	0.00e+00	123	41	0	1326448640	44	5867
2026-01-18 21:43:38.47	11.74	20.49	-35.5	-36.4	24.2	0.00e+00	122	41	0	1329594368	44	5857
2026-01-18 21:43:39.48	11.50	20.44	-35.6	-36.5	24.1	0.00e+00	123	41	0	1332740096	44	5896
2026-01-18 21:43:40.49	11.26	20.40	-35.5	-36.5	24.2	0.00e+00	123	41	0	1335885824	44	5861
2026-01-18 21:43:41.50	11.02	20.35	-35.5	-36.4	24.2	0.00e+00	122	41	0	1339031552	44	5819
2026-01-18 21:43:42.51	10.78	20.30	-35.4	-36.3	24.3	0.00e+00	120	41	0	1342177280	44	5757
2026-01-18 21:43:43.52	10.54	20.26	-35.2	-36.1	24.4	0.00e+00	123	41	0	1345323008	44	5646
2026-01-18 21:43:44.53	10.31	20.21	-35.1	-36.0	24.4	0.00e+00	120	41	0	1348468736	44	5585
2026-01-18 21:43:45.54	10.07	20.16	-35.1	-36.0	24.4	0.00e+00	123	41	0	1351614464	44	5561
2026-01-18 21:43:46.55	9.83	20.11	-35.2	-36.1	24.4	0.00e+00	121	41	0	1354760192	44	5625
2026-01-18 21:43:47.56	9.60	20.07	-35.3	-36.1	24.3	0.00e+00	123	41	0	1357905920	44	5658
2026-01-18 21:43:48.57	9.37	20.02	-35.4	-36.3	24.3	0.00e+00	121	41	0	1361051648	44	5748
2026-01-18 21:43:49.58	9.13	19.97	-35.5	-36.4	24.1	0.00e+00	122	41	0	1364197376	44	5848
2026-01-18 21:43:50.59	8.90	19.92	-35.7	-36.6	24.0	0.00e+00	120	41	0	1367343104	44	5966
2026-01-18 21:43:51.61	8.67	19.87	-35.7	-36.6	24.1	0.00e+00	123	41	0	1370488832	44	5985
2026-01-18 21:43:52.61	8.44	19.82	-35.9	-36.9	23.8	0.00e+00	122	41	0	1373634560	44	6138
2026-01-18 21:43:53.62	8.21	19.77	-35.9	-36.8	23.8	0.00e+00	123	41	0	1376780288	44	6094
2026-01-18 21:43:54.63	7.98	19.72	-35.9	-36.9	23.9	0.00e+00	122	41	0	1379926016	44	6145
2026-01-18 21:43:55.64	7.75	19.66	-36.0	-37.0	23.7	0.00e+00	123	41	0	1383071744	44	6230
2026-01-18 21:43:56.65	7.53	19.61	-35.7	-36.6	24.0	0.00e+00	123	41	0	1386217472	44	5988
2026-01-18 21:43:57.66	7.30	19.56	-35.7	-36.6	24.0	0.00e+00	122	41	0	1389363200	44	5959
2026-01-18 21:43:58.67	7.07	19.51	-35.6	-36.5	24.2	0.00e+00	120	41	0	1392508928	44	5872
2026-01-18 21:43:59.68	6.85	19.45	-35.5	-36.4	24.1	0.00e+00	122	41	0	1395654656	44	5826
2026-01-18 21:44:00.69	6.62	19.40	-35.6	-36.5	24.1	0.00e+00	123	41	0	1398800384	44	5895
2026-01-18 21:44:01.70	6.40	19.35	-35.5	-36.5	24.1	0.00e+00	121	41	0	1402994688	44	5865
2026-01-18 21:44:02.71	6.18	19.29	-35.7	-36.6	24.0	0.00e+00	122	41	0	1406140416	44	5952
2026-01-18 21:44:03.71	5.96	19.24	-35.8	-36.7	23.9	0.00e+00	122	41	0	1408237568	44	6043
2026-01-18 21:44:04.72	5.74	19.18	-35.9	-36.9	23.8	0.00e+00	123	41	0	1411383296	44	6142
2026-01-18 21:44:05.73	5.52	19.13	-35.9	-36.8	23.8	0.00e+00	123	41	0	1414529024	44	6119
2026-01-18 21:44:06.74	5.30	19.07	-35.9	-36.8	23.8	0.00e+00	122	41	0	1417674752	44	6091
2026-01-18 21:44:07.75	5.08	19.02	-35.8	-36.7	23.9	0.00e+00	123	41	0	1421869056	44	6029
2026-01-18 21:44:08.76	4.86	18.96	-35.7	-36.6	23.9	0.00e+00	122	41	0	1425014784	44	5973
2026-01-18 21:44:09.77	4.64	18.91	-35.7	-36.6	24.0	0.00e+00	123	41	0	1428160512	44	5991
2026-01-18 21:44:10.78	4.43	18.85	-35.8	-36.7	23.9	0.00e+00	123	41	0	1431306240	44	6036
2026-01-18 21:44:11.79	4.21	18.79	-35.8	-36.7	24.0	0.00e+00	123	41	0	1433403392	44	6024
2026-01-18 21:44:12.80	4.00	18.73	-35.8	-36.8	23.9	0.00e+00	123	41	0	1437597696	44	6076
2026-01-18 21:44:13.81	3.78	18.68	-35.6	-36.5	24.1	0.00e+00	123	41	0	1440743424	44	5899
2026-01-18 21:44:14.82	3.57	18.62	-35.7	-36.6	24.1	0.00e+00	123	41	0	1443889152	44	5964
2026-01-18 21:44:15.83	3.36	18.56	-35.7	-36.6	24.0	0.00e+00	121	41	0	1447034880	44	5958
2026-01-18 21:44:16.84	3.15	18.50	-35.6	-36.5	24.0	0.00e+00	123	41	0	1450180608	44	5904
2026-01-18 21:44:17.85	2.94	18.44	-35.6	-36.5	24.1	0.00e+00	123	41	0	1453326336	44	5891
2026-01-18 21:44:18.86	2.73	18.39	-35.5	-36.4	24.2	0.00e+00	123	41	0	1456472064	44	5823
2026-01-18 21:44:19.87	2.52	18.33	-35.4	-36.3	24.2	0.00e+00	120	41	0	1459617792	44	5776
2026-01-18 21:44:20.88	2.31	18.27	-35.5	-36.4	24.2	0.00e+00	122	41	0	1462763520	44	5833
2026-01-18 21:44:21.89	2.10	18.21	-35.5	-36.4	24.1	0.00e+00	120	41	0	1465909248	44	5853
2026-01-18 21:44:22.90	1.90	18.15	-35.8	-36.7	23.9	0.00e+00	123	41	0	1469054976	44	6056
2026-01-18 21:44:23.91	1.69	18.09	-35.8	-36.8	23.8	0.00e+00	122	41	0	1472200704	44	6077
2026-01-18 21:44:24.92	1.49	18.03	-35.8	-36.7	23.8	0.00e+00	122	41	0	1475346432	44	6050
2026-01-18 21:44:25.93	1.28	17.97	-35.7	-36.6	23.9	0.00e+00	120	41	0	1478492160	44	5965
2026-01-18 21:44:26.94	1.08	17.91	-35.7	-36.7	24.0	0.00e+00	120	41	0	1481637888	44	6006
2026-01-18 21:44:27.95	0.88	17.84	-35.9	-36.8	23.8	0.00e+00	123	41	0	1484783616	44	6089
2026-01-18 21:44:28.96	0.68	17.78	-35.7	-36.6	23.9	0.00e+00	120	41	0	1487929344	44	5959
2026-01-18 21:44:29.97	0.47	17.72	-35.5	-36.4	24.1	0.00e+00	122	41	0	1491075072	44	5848
2026-01-18 21:44:30.98	0.27	17.66	-35.5	-36.4	24.1	0.00e+00	123	41	0	1494220800	44	5829
2026-01-18 21:44:31.99	0.08	17.60	-35.6	-36.5	24.1	0.00e+00	123	41	0	1497366528	44	5876
2026-01-18 21:44:33.00	359.88	17.54	-35.6	-36.5	24.1	0.00e+00	123	41	0	1500512256	44	5912
2026-01-18 21:44:34.01	359.68	17.47	-35.6	-36.6	24.0	0.00e+00	122	41	0	1503657984	44	5935
2026-01-18 21:44:35.02	359.48	17.41	-35.7	-36.6	24.0	0.00e+00	124	41	0	1506803712	44	5948
2026-01-18 21:44:36.03	359.29	17.35	-35.7	-36.6	23.9	0.00e+00	123	41	0	1509949440	44	5990
2026-01-18 21:44:37.04	359.09	17.29	-35.7	-36.6	24.0	0.00e+00	122	41	0	1513095168	44	5988
2026-01-18 21:44:38.05	358.90	17.22	-35.7	-36.7	23.9	0.00e+00	122	41	0	1516240896	44	6001
2026-01-18 21:44:39.06	358.71	17.16	-35.7	-36.7	23.9	0.00e+00	122	41	0	1519386624	44	5998
2026-01-18 21:44:40.07	358.51	17.10	-35.7	-36.6	24.0	0.00e+00	124	41	0	1522532352	44	5957
2026-01-18 21:44:41.08	358.32	17.03	-35.9	-36.8	23.8	0.00e+00	122	41	0	1525678080	44	6091
2026-01-18 21:44:42.09	358.13	16.97	-35.9	-36.8	23.7	0.00e+00	123	41	0	1528823808	44	6122
2026-01-18 21:44:43.10	357.94	16.91	-36.1	-37.0	23.7	0.00e+00	123	41	0	1531969536	44	6245
2026-01-18 21:44:44.11	357.75	16.84	-36.2	-37.1	23.5	0.00e+00	120	41	0	1535115264	44	6331
2026-01-18 21:44:45.12	357.56	16.78	-36.2	-37.1	23.6	0.00e+00	123	41	0	1538260992	44	6345
2026-01-18 21:44:46.13	357.38	16.71	-36.3	-37.3	23.5	0.00e+00	123	41	0	1541406720	44	6455
2026-01-18 21:44:47.14	357.19	16.65	-36.4	-37.4	23.4	0.00e+00	123	41	0	1544552448	44	6513
2026-01-18 21:44:48.15	357.00	16.59	-36.4	-37.4	23.3	0.00e+00	120	41	0	1547698176	44	6510
2026-01-18 21:44:49.16	356.82	16.52	-36.2	-37.2	23.5	0.00e+00	123	41	0	1550843904	44	6390
2026-01-18 21:44:50.17	356.64	16.46	-36.4	-37.3	23.5	0.00e+00	123	41	0	1553989632	44	6488
2026-01-18 21:44:51.18	356.45	16.39	-36.3	-37.2	23.4	0.00e+00	122	41	0	1557135360	44	6417
2026-01-18 21:44:52.19	356.27	16.33	-36.3	-37.3	23.5	0.00e+00	122	41	0	1560281088	44	6444
2026-01-18 21:44:53.20	356.09	16.26	-36.0	-37.0	23.6	0.00e+00	122	41	0	1563426816	44	6212
2026-01-18 21:44:54.21	355.91	16.20	-36.1	-37.0	23.6	0.00e+00	120	41	0	1566572544	44	6258
2026-01-18 21:44:55.22	355.73	16.13	-35.9	-36.9	23.7	0.00e+00	120	41	0	1569718272	44	6167
2026-01-18 21:44:56.23	355.55	16.06	-36.2	-37.1	23.5	0.00e+00	123	41	0	1572864000	44	6328
2026-01-18 21:44:57.24	355.37	16.00	-36.2	-37.1	23.5	0.00e+00	122	41	0	1576009728	44	6350
2026-01-18 21:44:58.25	355.19	15.93	-36.1	-37.1	23.4	0.00e+00	123	41	0	1579155456	44	6307
2026-01-18 21:44:59.26	355.01	15.87	-36.1	-37.1	23.4	0.00e+00	121	41	0	1582301184	44	6296
2026-01-18 21:45:00.25	354.84	15.80	-36.2	-37.1	23.4	0.00e+00	123	41	0	1585446912	44	6330
2026-01-18 21:45:01.25	354.67	15.74	-36.1	-37.0	23.5	0.00e+00	123	41	0	1588592640	44	6247
2026-01-18 21:45:02.26	354.49	15.67	-36.0	-36.9	23.6	0.00e+00	123	41	0	1591738368	44	6167
2026-01-18 21:45:03.27	354.32	15.60	-36.0	-36.9	23.6	0.00e+00	122	41	0	1594884096	44	6205
2026-01-18 21:45:04.28	354.15	15.54	-36.0	-36.9	23.6	0.00e+00	123	41	0	1598029824	44	6195
2026-01-18 21:45:05.29	353.97	15.47	-35.9	-36.9	23.6	0.00e+00	123	41	0	1601175552	44	6138
2026-01-18 21:45:06.30	353.80	15.41	-36.0	-37.0	23.7	0.00e+00	122	41	0	1604321280	44	6231
2026-01-18 21:45:07.31	353.63	15.34	-36.1	-37.1	23.5	0.00e+00	120	41	0	1607467008	44	6297
2026-01-18 21:45:08.32	353.46	15.27	-36.2	-37.2	23.5	0.00e+00	122	41	0	1610612736	44	6365
2026-01-18 21:45:09.33	353.29	15.21	-36.3	-37.3	23.4	0.00e+00	122	41	0	1613758464	44	6443
2026-01-18 21:45:10.34	353.12	15.14	-36.3	-37.2	23.4	0.00e+00	123	41	0	1616904192	44	6423
2026-01-18 21:45:11.35	352.96	15.07	-36.6	-37.5	23.3	0.00e+00	122	41	0	1620049920	44	6616
2026-01-18 21:45:12.36	352.79	15.00	-36.6	-37.5	23.3	0.00e+00	123	41	0	1623195648	44	6624
2026-01-18 21:45:13.37	352.62	14.94	-36.6	-37.6	23.1	0.00e+00	123	41	0	1626341376	44	6664
2026-01-18 21:45:14.38	352.46	14.87	-36.8	-37.8	22.9	0.00e+00	122	41	0	1629487104	46	6119
2026-01-18 21:45:15.39	352.29	14.80	-36.8	-37.7	23.1	0.00e+00	122	41	0	1632632832	46	6057
2026-01-18 21:45:16.40	352.13	14.74	-36.7	-37.7	23.1	0.00e+00	120	41	0	1635778560	46	6023
2026-01-18 21:45:17.41	351.97	14.67	-36.4	-37.4	23.3	0.00e+00	122	41	0	1638924288	46	5810
2026-01-18 21:45:18.42	351.80	14.60	-36.4	-37.3	23.4	0.00e+00	120	41	0	1642070016	46	5764
2026-01-18 21:45:19.43	351.64	14.53	-36.4	-37.3	23.3	0.00e+00	122	41	0	1645215744	46	5780
2026-01-18 21:45:20.44	351.48	14.47	-36.4	-37.4	23.3	0.00e+00	120	41	0	1648361472	46	5806
2026-01-18 21:45:21.45	351.32	14.40	-36.5	-37.4	23.3	0.00e+00	122	41	0	1651507200	46	5843
2026-01-18 21:45:22.46	351.16	14.33	-36.5	-37.5	23.3	0.00e+00	122	41	0	1654652928	46	5872
2026-01-18 21:45:23.47	351.00	14.26	-36.5	-37.5	23.3	0.00e+00	123	41	0	1657798656	46	5869
2026-01-18 21:45:24.48	350.84	14.20	-36.4	-37.3	23.3	0.00e+00	123	41	0	1660944384	46	5786
2026-01-18 21:45:25.49	350.69	14.13	-36.5	-37.4	23.3	0.00e+00	122	41	0	1664090112	46	5846
2026-01-18 21:45:26.50	350.53	14.06	-36.3	-37.3	23.4	0.00e+00	123	41	0	1667235840	46	5750
2026-01-18 21:45:27.51	350.37	13.99	-36.2	-37.2	23.5	0.00e+00	122	41	0	1670381568	46	5671
2026-01-18 21:45:28.52	350.22	13.93	-36.2	-37.2	23.4	0.00e+00	123	41	0	1673527296	46	5675
2026-01-18 21:45:29.53	350.07	13.86	-36.2	-37.2	23.4	0.00e+00	120	41	0	1676673024	46	5666
2026-01-18 21:45:30.55	349.91	13.79	-36.1	-37.0	23.6	0.00e+00	122	41	0	1679818752	46	5581
2026-01-18 21:45:31.56	349.76	13.72	-36.2	-37.1	23.5	0.00e+00	120	41	0	1682964480	46	5633
2026-01-18 21:45:32.57	349.61	13.66	-36.2	-37.1	23.5	0.00e+00	123	41	0	1686110208	46	5638
2026-01-18 21:45:33.58	349.45	13.59	-36.2	-37.1	23.5	0.00e+00	123	41	0	1689255936	46	5630
2026-01-18 21:45:34.58	349.30	13.52	-36.3	-37.2	23.4	0.00e+00	121	41	0	1692401664	46	5697
2026-01-18 21:45:35.59	349.15	13.45	-36.2	-37.2	23.4	0.00e+00	123	41	0	1695547392	46	5662
2026-01-18 21:45:36.60	349.01	13.39	-36.3	-37.2	23.4	0.00e+00	123	41	0	1698693120	46	5723
2026-01-18 21:45:37.61	348.86	13.32	-36.3	-37.3	23.3	0.00e+00	122	41	0	1701838848	46	5737
2026-01-18 21:45:38.62	348.71	13.25	-36.4	-37.4	23.2	0.00e+00	123	41	0	1704984576	46	5815
2026-01-18 21:45:39.63	348.56	13.18	-36.5	-37.4	23.2	0.00e+00	120	41	0	1708130304	46	5848
2026-01-18 21:45:40.64	348.41	13.11	-36.4	-37.4	23.3	0.00e+00	123	41	0	1711276032	46	5792
2026-01-18 21:45:41.65	348.27	13.05	-36.5	-37.5	23.3	0.00e+00	121	41	0	1714421760	46	5878
2026-01-18 21:45:42.66	348.12	12.98	-36.5	-37.5	23.3	0.00e+00	123	41	0	1717567488	46	5878
2026-01-18 21:45:43.67	347.98	12.91	-36.5	-37.5	23.2	0.00e+00	123	41	0	1720713216	46	5899
2026-01-18 21:45:44.68	347.84	12.84	-36.6	-37.6	23.1	0.00e+00	122	41	0	1723858944	46	5963
2026-01-18 21:45:45.69	347.69	12.78	-36.8	-37.8	23.0	0.00e+00	123	41	0	1727004672	46	6080
2026-01-18 21:45:46.69	347.55	12.71	-36.9	-37.9	22.9	0.00e+00	123	41	0	1730150400	46	6141
2026-01-18 21:45:47.71	347.41	12.64	-37.1	-38.1	22.7	0.00e+00	123	41	0	1733296128	46	6330
2026-01-18 21:45:48.71	347.27	12.57	-37.3	-38.3	22.6	0.00e+00	120	41	0	1736441856	46	6435
2026-01-18 21:45:49.73	347.13	12.51	-37.4	-38.4	22.5	0.00e+00	122	41	0	1739587584	46	6569
2026-01-18 21:45:50.74	346.99	12.44	-37.5	-38.5	22.4	0.00e+00	120	41	0	1742733312	46	6620
2026-01-18 21:45:51.75	346.85	12.37	-37.6	-38.6	22.3	0.00e+00	123	41	0	1745879040	46	6726
2026-01-18 21:45:52.76	346.71	12.30	-37.5	-38.5	22.3	0.00e+00	123	41	0	1749024768	46	6610
2026-01-18 21:45:53.77	346.57	12.23	-37.4	-38.4	22.4	0.00e+00	122	41	0	1752170496	46	6552
2026-01-18 21:45:54.78	346.43	12.17	-37.3	-38.4	22.4	0.00e+00	123	41	0	1755316224	46	6519
2026-01-18 21:45:55.78	346.30	12.10	-37.2	-38.2	22.5	0.00e+00	122	41	0	1758461952	46	6394
2026-01-18 21:45:56.79	346.16	12.03	-37.3	-38.3	22.5	0.00e+00	123	41	0	1761607680	46	6466
2026-01-18 21:45:57.80	346.03	11.97	-37.0	-38.0	22.7	0.00e+00	123	41	0	1765801984	46	6250
2026-01-18 21:45:58.81	345.89	11.90	-37.1	-38.1	22.6	0.00e+00	120	41	0	1768947712	46	6287
2026-01-18 21:45:59.82	345.76	11.83	-37.1	-38.1	22.7	0.00e+00	122	41	0	1771044864	46	6296
2026-01-18 21:46:00.83	345.62	11.76	-37.3	-38.3	22.5	0.00e+00	122	41	0	1774190592	46	6433
2026-01-18 21:46:01.84	345.49	11.70	-37.3	-38.3	22.5	0.00e+00	123	41	0	1777336320	46	6427
2026-01-18 21:46:02.85	345.36	11.63	-37.4	-38.4	22.4	0.00e+00	122	41	0	1781530624	46	6541
2026-01-18 21:46:03.86	345.23	11.56	-37.5	-38.5	22.3	0.00e+00	122	41	0	1784676352	46	6632
2026-01-18 21:46:04.87	345.10	11.49	-37.5	-38.5	22.3	0.00e+00	123	41	0	1787822080	46	6627
2026-01-18 21:46:05.88	344.97	11.43	-37.5	-38.6	22.3	0.00e+00	123	41	0	1790967808	46	6653
2026-01-18 21:46:06.89	344.84	11.36	-37.5	-38.6	22.2	0.00e+00	122	41	0	1794113536	46	6659
2026-01-18 21:46:07.90	344.71	11.29	-37.6	-38.6	22.2	0.00e+00	123	41	0	1797259264	46	6701
2026-01-18 21:46:08.91	344.58	11.22	-37.6	-38.6	22.0	0.00e+00	120	41	0	1800404992	46	6714
2026-01-18 21:46:09.91	344.45	11.16	-37.6	-38.6	22.1	0.00e+00	122	41	0	1803550720	46	6695
2026-01-18 21:46:10.92	344.33	11.09	-37.3	-38.3	22.3	0.00e+00	123	41	0	1806696448	46	6496
2026-01-18 21:46:11.93	344.20	11.02	-37.4	-38.4	22.2	0.00e+00	122	41	0	1809842176	46	6530
2026-01-18 21:46:12.94	344.07	10.96	-37.4	-38.4	22.3	0.00e+00	118	41	0	1812987904	46	6565
2026-01-18 21:46:13.95	343.95	10.89	-37.1	-38.2	22.5	0.00e+00	123	41	0	1816133632	46	6358
2026-01-18 21:46:14.96	343.82	10.82	-37.0	-38.0	22.6	0.00e+00	120	41	0	1819279360	46	6256
2026-01-18 21:46:15.97	343.70	10.76	-37.0	-38.0	22.6	0.00e+00	120	41	0	1822425088	46	6232
2026-01-18 21:46:16.98	343.57	10.69	-37.2	-38.2	22.6	0.00e+00	122	41	0	1825570816	46	6371
2026-01-18 21:46:17.99	343.45	10.62	-37.2	-38.2	22.6	0.00e+00	120	41	0	1828716544	46	6388
2026-01-18 21:46:19.00	343.33	10.56	-37.2	-38.3	22.5	0.00e+00	123	41	0	1831862272	46	6428
2026-01-18 21:46:20.01	343.21	10.49	-37.3	-38.3	22.4	0.00e+00	122	41	0	1835008000	46	6491
2026-01-18 21:46:21.02	343.08	10.42	-37.5	-38.5	22.3	0.00e+00	123	41	0	1838153728	46	6614
2026-01-18 21:46:22.03	342.96	10.36	-37.7	-38.7	22.1	0.00e+00	122	41	0	1841299456	46	6765
2026-01-18 21:46:23.04	342.84	10.29	-37.8	-38.8	21.9	0.00e+00	123	41	0	1844445184	48	6125
2026-01-18 21:46:24.05	342.72	10.22	-37.9	-38.9	22.0	0.00e+00	123	41	0	1847590912	48	6179
2026-01-18 21:46:25.06	342.60	10.16	-37.9	-38.9	21.8	0.00e+00	123	41	0	1850736640	48	6202
2026-01-18 21:46:26.07	342.49	10.09	-37.7	-38.8	22.0	0.00e+00	122	41	0	1853882368	48	6082
2026-01-18 21:46:27.08	342.37	10.03	-37.8	-38.8	21.9	0.00e+00	120	41	0	1857028096	48	6124
2026-01-18 21:46:28.09	342.25	9.96	-37.7	-38.8	21.9	0.00e+00	120	41	0	1860173824	48	6105
2026-01-18 21:46:29.10	342.13	9.89	-37.6	-38.7	22.0	0.00e+00	123	41	0	1863319552	48	6020
2026-01-18 21:46:30.11	342.02	9.83	-37.6	-38.6	22.0	0.00e+00	123	41	0	1866465280	48	5964
2026-01-18 21:46:31.12	341.90	9.76	-37.5	-38.5	22.1	0.00e+00	120	41	0	1869611008	48	5915
2026-01-18 21:46:32.12	341.79	9.70	-37.5	-38.6	22.1	0.00e+00	122	41	0	1872756736	48	5948
2026-01-18 21:46:33.13	341.67	9.63	-37.6	-38.6	22.1	0.00e+00	123	41	0	1875902464	48	5957
2026-01-18 21:46:34.14	341.56	9.56	-37.6	-38.7	22.0	0.00e+00	123	41	0	1879048192	48	6010
2026-01-18 21:46:35.15	341.44	9.50	-37.6	-38.7	22.0	0.00e+00	123	41	0	1882193920	48	6026
2026-01-18 21:46:36.16	341.33	9.43	-37.8	-38.8	21.9	0.00e+00	122	41	0	1885339648	48	6129
2026-01-18 21:46:37.17	341.22	9.37	-37.8	-38.9	21.8	0.00e+00	122	41	0	1888485376	48	6158
2026-01-18 21:46:38.18	341.10	9.30	-37.9	-38.9	21.8	0.00e+00	122	41	0	1891631104	48	6199
2026-01-18 21:46:39.19	340.99	9.24	-38.1	-39.2	21.5	0.00e+00	123	41	0	1894776832	48	6366
2026-01-18 21:46:40.20	340.88	9.17	-38.2	-39.4	21.5	0.00e+00	123	41	0	1897922560	48	6508
2026-01-18 21:46:41.21	340.77	9.11	-38.3	-39.5	21.4	0.00e+00	123	41	0	1901068288	48	6580
2026-01-18 21:46:42.22	340.66	9.04	-38.4	-39.5	21.2	0.00e+00	123	41	0	1904214016	48	6644
2026-01-18 21:46:43.24	340.55	8.97	-38.6	-39.8	21.1	0.00e+00	123	41	0	1907359744	48	6810
2026-01-18 21:46:44.24	340.44	8.91	-38.5	-39.6	21.1	0.00e+00	123	41	0	1910505472	48	6726
2026-01-18 21:46:45.25	340.33	8.84	-38.6	-39.7	21.2	0.00e+00	123	41	0	1913651200	48	6796
2026-01-18 21:46:46.27	340.22	8.78	-38.4	-39.5	21.1	0.00e+00	122	41	0	1916796928	48	6632
2026-01-18 21:46:47.28	340.12	8.71	-38.3	-39.4	21.3	0.00e+00	123	41	0	1919942656	48	6569
2026-01-18 21:46:48.28	340.01	8.65	-38.3	-39.5	21.2	0.00e+00	120	41	0	1923088384	48	6581
2026-01-18 21:46:49.29	339.90	8.58	-38.1	-39.2	21.3	0.00e+00	123	41	0	1926234112	48	6400
2026-01-18 21:46:50.30	339.80	8.52	-38.1	-39.2	21.4	0.00e+00	123	41	0	1929379840	48	6362
2026-01-18 21:46:51.31	339.69	8.46	-37.8	-38.9	21.7	0.00e+00	123	41	0	1932525568	48	6190
2026-01-18 21:46:52.32	339.59	8.39	-37.9	-39.0	21.7	0.00e+00	123	41	0	1935671296	48	6235
2026-01-18 21:46:53.33	339.48	8.33	-37.7	-38.8	21.8	0.00e+00	118	41	0	1938817024	48	6094
2026-01-18 21:46:54.35	339.38	8.26	-37.8	-38.8	21.9	0.00e+00	120	41	0	1941962752	48	6125
2026-01-18 21:46:55.36	339.27	8.20	-37.8	-38.9	21.8	0.00e+00	123	41	0	1945108480	48	6186
2026-01-18 21:46:56.36	339.17	8.13	-37.8	-38.8	21.9	0.00e+00	120	41	0	1948254208	48	6097
2026-01-18 21:46:57.38	339.07	8.07	-37.9	-39.0	21.7	0.00e+00	123	41	0	1951399936	48	6217
2026-01-18 21:46:58.38	338.96	8.00	-38.0	-39.1	21.7	0.00e+00	120	41	0	1954545664	48	6284
2026-01-18 21:46:59.40	338.86	7.94	-38.2	-39.3	21.4	0.00e+00	123	41	0	1957691392	48	6429
