passes_logs/2026/01/18/R4.6S_Anadyr/R4.6S_Anadyr__20260118_113806_NOAA_21_JPSS-2_rec.log

#Pass ID: 20260118_113806_NOAA 21 (JPSS-2)
#Satellite: NOAA 21 (JPSS-2)
#Configuration: NOAA-21
#almurnet v.1.7.20251203
#Start time: 2026-01-18 11:38:09

#Version: 2.2.20231116
#Station: R4.6S_Anadyr
#Location: 177.4865 lon 64.73178 lat
#TLE: 1 54234U 22150A   26017.62066529  .00000042  00000+0  40984-4 0  9994
#TLE: 2 54234  98.7502 318.4887 0000613 271.5460  88.5645 14.19535234165189

#Time	Az	El	Level	Level2	SNR	BER	BlckErr	Temp	State	Recorded	gain1	gain2
2026-01-18 11:38:09.95	20.66	0.14	-49.2	-60.6	3.3	1.54e+00	0	30	0	0	60	37520
2026-01-18 11:38:10.96	20.75	0.18	-49.1	-62.1	3.5	1.52e+00	0	31	104	0	60	44706
2026-01-18 11:38:11.96	20.85	0.22	-49.2	-62.1	3.5	1.52e+00	0	31	104	0	60	44498
2026-01-18 11:38:12.97	20.94	0.26	-49.2	-62.1	3.5	1.52e+00	0	31	104	0	60	44829
2026-01-18 11:38:13.98	21.04	0.30	-49.2	-62.1	3.5	1.52e+00	0	31	104	0	60	44714
2026-01-18 11:38:14.99	21.14	0.34	-49.3	-62.1	3.5	1.52e+00	0	31	104	0	60	44925
2026-01-18 11:38:16.00	21.23	0.38	-49.3	-62.1	3.5	1.52e+00	0	31	104	0	60	44928
2026-01-18 11:38:17.01	21.33	0.43	-49.3	-62.2	3.5	1.52e+00	0	31	104	0	60	44986
2026-01-18 11:38:18.02	21.43	0.47	-49.2	-62.2	3.5	1.52e+00	0	31	104	0	60	45066
2026-01-18 11:38:19.03	21.52	0.51	-49.2	-62.1	3.5	1.52e+00	0	31	104	0	60	44459
2026-01-18 11:38:20.04	21.62	0.55	-49.2	-62.0	3.5	1.52e+00	0	31	104	0	60	44435
2026-01-18 11:38:21.05	21.72	0.59	-49.2	-62.0	3.5	1.51e+00	0	31	104	0	60	44098
2026-01-18 11:38:22.06	21.82	0.63	-49.1	-62.0	3.5	1.52e+00	0	31	104	0	60	44094
2026-01-18 11:38:23.07	21.91	0.67	-49.0	-61.9	3.5	1.52e+00	0	31	104	0	60	43546
2026-01-18 11:38:24.08	22.01	0.71	-48.9	-61.8	3.5	1.52e+00	0	31	104	0	60	43263
2026-01-18 11:38:25.09	22.11	0.75	-48.8	-61.7	3.5	1.52e+00	0	31	104	0	60	42782
2026-01-18 11:38:26.10	22.21	0.79	-48.7	-61.6	3.5	1.52e+00	0	31	104	0	60	42306
2026-01-18 11:38:27.11	22.31	0.83	-48.7	-61.6	3.5	1.52e+00	0	31	104	0	60	41967
2026-01-18 11:38:28.12	22.41	0.87	-48.6	-61.4	3.5	1.52e+00	0	31	104	0	60	41057
2026-01-18 11:38:29.13	22.51	0.91	-48.3	-61.2	3.5	1.52e+00	0	31	104	0	60	40308
2026-01-18 11:38:30.13	22.61	0.95	-48.1	-61.0	3.5	1.52e+00	0	31	104	0	60	39196
2026-01-18 11:38:31.14	22.71	1.00	-47.8	-60.6	3.5	1.52e+00	0	31	104	0	60	37725
2026-01-18 11:38:32.15	22.81	1.04	-47.6	-60.3	3.5	1.52e+00	0	31	104	0	60	36491
2026-01-18 11:38:33.16	22.91	1.08	-47.5	-60.3	3.5	1.52e+00	0	31	104	0	60	36162
2026-01-18 11:38:34.17	23.01	1.12	-47.5	-60.3	3.5	1.52e+00	0	31	104	0	60	36437
2026-01-18 11:38:35.18	23.11	1.16	-47.5	-60.3	3.5	1.52e+00	0	31	104	0	60	36322
2026-01-18 11:38:36.18	23.21	1.20	-47.5	-60.3	3.5	1.51e+00	0	31	104	0	60	36484
2026-01-18 11:38:37.19	23.31	1.24	-47.5	-60.4	3.5	1.52e+00	0	31	104	0	60	36674
2026-01-18 11:38:38.20	23.41	1.28	-47.5	-60.3	3.5	1.52e+00	0	31	104	0	60	36530
2026-01-18 11:38:39.21	23.52	1.32	-47.5	-60.4	3.5	1.52e+00	0	31	104	0	60	36568
2026-01-18 11:38:40.22	23.62	1.36	-47.5	-60.4	3.5	1.52e+00	0	31	104	0	60	36717
2026-01-18 11:38:41.23	23.72	1.40	-47.5	-60.4	3.5	1.51e+00	0	31	104	0	60	36613
2026-01-18 11:38:42.24	23.83	1.44	-47.5	-60.4	3.5	1.52e+00	0	31	104	0	60	36658
2026-01-18 11:38:43.25	23.93	1.48	-47.5	-60.4	3.5	1.52e+00	0	31	104	0	60	36565
2026-01-18 11:38:44.26	24.03	1.52	-47.5	-60.3	3.5	1.52e+00	0	31	104	0	60	36310
2026-01-18 11:38:45.26	24.14	1.56	-47.5	-60.4	3.5	1.52e+00	0	31	104	0	60	36545
2026-01-18 11:38:46.27	24.24	1.60	-47.5	-60.4	3.5	1.52e+00	0	31	104	0	60	36626
2026-01-18 11:38:47.28	24.34	1.64	-47.5	-60.3	3.5	1.52e+00	0	31	104	0	60	36513
2026-01-18 11:38:48.29	24.45	1.69	-47.5	-60.4	3.5	1.52e+00	0	31	104	0	60	36749
2026-01-18 11:38:49.30	24.55	1.73	-47.5	-60.4	3.5	1.52e+00	0	31	104	0	60	36571
2026-01-18 11:38:50.30	24.66	1.77	-47.5	-60.3	3.5	1.52e+00	0	31	104	0	60	36355
2026-01-18 11:38:51.32	24.76	1.81	-47.5	-60.3	3.5	1.52e+00	0	31	104	0	60	36428
2026-01-18 11:38:52.32	24.87	1.85	-47.5	-60.4	3.5	1.52e+00	0	31	104	0	60	36645
2026-01-18 11:38:53.33	24.97	1.89	-47.5	-60.3	3.5	1.52e+00	0	31	104	0	60	36422
2026-01-18 11:38:54.34	25.08	1.93	-47.5	-60.3	3.5	1.52e+00	0	31	104	0	60	36505
2026-01-18 11:38:55.35	25.19	1.97	-47.5	-60.4	3.5	1.52e+00	0	31	104	0	60	36590
2026-01-18 11:38:56.36	25.29	2.01	-47.5	-60.3	3.5	1.52e+00	0	31	104	0	60	36526
2026-01-18 11:38:57.37	25.40	2.05	-47.5	-60.3	3.5	1.52e+00	0	31	104	0	60	36504
2026-01-18 11:38:58.38	25.51	2.09	-47.5	-60.4	3.5	1.52e+00	0	31	104	0	60	36608
2026-01-18 11:38:59.39	25.62	2.13	-47.5	-60.4	3.5	1.52e+00	0	31	104	0	60	36546
2026-01-18 11:39:00.39	25.72	2.17	-47.5	-60.4	3.5	1.52e+00	0	31	104	0	60	36751
2026-01-18 11:39:01.40	25.83	2.21	-47.5	-60.4	3.5	1.52e+00	0	31	104	0	60	36697
2026-01-18 11:39:02.41	25.94	2.25	-47.5	-60.3	3.5	1.52e+00	0	31	104	0	60	36262
2026-01-18 11:39:03.42	26.05	2.29	-47.5	-60.2	3.5	1.52e+00	0	31	104	0	60	36121
2026-01-18 11:39:04.43	26.16	2.33	-47.5	-60.3	3.5	1.52e+00	0	31	104	0	60	36453
2026-01-18 11:39:05.44	26.27	2.37	-47.5	-60.4	3.5	1.52e+00	0	32	104	0	60	36616
2026-01-18 11:39:06.45	26.38	2.41	-47.5	-60.3	3.5	1.52e+00	0	31	104	0	60	36511
2026-01-18 11:39:07.46	26.49	2.45	-47.5	-60.3	3.5	1.51e+00	0	31	104	0	60	36424
2026-01-18 11:39:08.47	26.60	2.49	-47.5	-60.3	3.5	1.52e+00	0	31	104	0	60	36508
2026-01-18 11:39:09.47	26.71	2.53	-47.5	-60.1	3.5	1.52e+00	0	32	104	0	60	35686
2026-01-18 11:39:10.48	26.82	2.57	-47.5	-59.5	3.5	1.52e+00	0	32	104	0	60	33180
2026-01-18 11:39:11.49	26.93	2.61	-47.4	-59.1	3.5	1.51e+00	0	32	104	0	60	31745
2026-01-18 11:39:12.50	27.04	2.65	-47.5	-59.3	3.5	1.52e+00	0	31	104	0	60	32485
2026-01-18 11:39:13.51	27.15	2.69	-47.3	-58.0	3.6	1.51e+00	0	32	104	0	60	27730
2026-01-18 11:39:14.52	27.26	2.73	-46.5	-53.2	6.8	6.19e-01	123	31	104	0	60	16074
2026-01-18 11:39:15.52	27.38	2.77	-44.8	-48.3	11.2	6.46e-03	123	32	0	2097152	60	9122
2026-01-18 11:39:16.53	27.49	2.81	-42.8	-45.0	14.6	3.80e-06	122	31	0	5242880	60	6273
2026-01-18 11:39:17.54	27.60	2.85	-41.6	-43.4	16.3	0.00e+00	123	31	0	7340032	56	6539
2026-01-18 11:39:18.55	27.71	2.89	-40.8	-42.4	17.3	0.00e+00	123	31	0	10485760	56	5810
2026-01-18 11:39:19.56	27.83	2.93	-40.3	-41.8	17.7	0.00e+00	123	32	0	14680064	54	6110
2026-01-18 11:39:20.57	27.94	2.97	-41.7	-43.6	15.9	0.00e+00	122	31	0	17825792	54	7489
2026-01-18 11:39:21.58	28.06	3.01	-43.1	-45.5	14.0	7.00e-07	122	31	0	20971520	58	7427
2026-01-18 11:39:22.59	28.17	3.05	-42.2	-44.2	16.5	2.31e-04	127	31	0	24117248	60	5679
2026-01-18 11:39:23.60	28.28	3.09	-45.4	-49.8	12.1	9.65e-01	123	31	104	25165824	60	10868
2026-01-18 11:39:24.61	28.40	3.13	-40.9	-42.6	16.4	0.00e+00	123	32	0	26214400	52	7482
2026-01-18 11:39:25.62	28.51	3.17	-47.5	-60.2	3.5	1.51e+00	0	31	104	27262976	60	35956
2026-01-18 11:39:26.62	28.63	3.21	-46.0	-51.7	13.7	1.50e+00	120	31	104	27262976	60	13481
2026-01-18 11:39:27.63	28.74	3.25	-42.2	-44.2	16.6	1.50e-06	122	32	0	29360128	58	6365
2026-01-18 11:39:28.64	28.86	3.28	-39.4	-40.8	18.8	0.00e+00	120	32	0	32505856	52	6075
2026-01-18 11:39:29.65	28.98	3.32	-39.5	-40.8	18.8	0.00e+00	123	31	0	35651584	52	6115
2026-01-18 11:39:30.66	29.09	3.36	-39.4	-40.8	19.0	0.00e+00	123	31	0	38797312	52	6087
2026-01-18 11:39:31.67	29.21	3.40	-39.5	-40.8	18.9	0.00e+00	122	31	0	41943040	52	6100
2026-01-18 11:39:32.68	29.33	3.44	-39.5	-40.9	18.8	0.00e+00	118	31	0	45088768	52	6171
2026-01-18 11:39:33.69	29.45	3.48	-39.4	-40.8	18.9	0.00e+00	120	31	0	48234496	52	6083
2026-01-18 11:39:34.70	29.56	3.52	-39.4	-40.7	18.8	0.00e+00	123	31	0	51380224	52	6041
2026-01-18 11:39:35.71	29.68	3.56	-39.0	-40.3	19.2	0.00e+00	122	31	0	54525952	52	5732
2026-01-18 11:39:36.72	29.80	3.60	-39.0	-40.3	19.4	0.00e+00	122	32	0	57671680	52	5737
2026-01-18 11:39:37.73	29.92	3.64	-38.8	-40.1	19.4	0.00e+00	123	31	0	60817408	52	5647
2026-01-18 11:39:38.74	30.04	3.68	-39.5	-40.9	18.8	0.00e+00	123	32	0	63963136	52	6163
2026-01-18 11:39:39.74	30.16	3.72	-39.2	-40.5	19.3	0.00e+00	122	32	0	67108864	52	5901
2026-01-18 11:39:40.75	30.28	3.75	-39.2	-40.6	19.1	0.00e+00	123	32	0	70254592	52	5931
2026-01-18 11:39:41.76	30.40	3.79	-38.7	-40.0	19.7	0.00e+00	123	32	0	73400320	50	6209
2026-01-18 11:39:42.77	30.52	3.83	-38.8	-40.0	19.6	0.00e+00	123	32	0	76546048	50	6274
2026-01-18 11:39:43.78	30.64	3.87	-38.9	-40.1	19.5	0.00e+00	122	32	0	79691776	50	6342
2026-01-18 11:39:44.79	30.76	3.91	-39.0	-40.3	19.4	0.00e+00	123	32	0	82837504	50	6424
2026-01-18 11:39:45.80	30.88	3.95	-39.1	-40.4	19.2	0.00e+00	123	32	0	85983232	50	6518
2026-01-18 11:39:46.81	31.00	3.99	-38.7	-39.9	19.7	0.00e+00	122	32	0	89128960	50	6169
2026-01-18 11:39:47.82	31.12	4.03	-38.8	-40.1	19.5	0.00e+00	123	32	0	92274688	50	6325
2026-01-18 11:39:48.83	31.24	4.06	-38.9	-40.2	19.4	0.00e+00	122	32	0	95420416	50	6364
2026-01-18 11:39:49.84	31.37	4.10	-38.8	-40.1	19.5	0.00e+00	123	32	0	98566144	50	6317
2026-01-18 11:39:50.85	31.49	4.14	-38.9	-40.2	19.4	0.00e+00	123	32	0	101711872	50	6358
2026-01-18 11:39:51.86	31.61	4.18	-38.8	-40.0	19.6	0.00e+00	123	32	0	104857600	50	6252
2026-01-18 11:39:52.87	31.74	4.22	-38.7	-40.0	19.6	0.00e+00	120	32	0	108003328	50	6230
2026-01-18 11:39:53.88	31.86	4.26	-38.9	-40.1	19.5	0.00e+00	122	32	0	111149056	50	6331
2026-01-18 11:39:54.88	31.98	4.30	-38.6	-39.8	19.8	0.00e+00	123	32	0	114294784	50	6083
2026-01-18 11:39:55.90	32.11	4.33	-38.7	-39.9	19.7	0.00e+00	122	32	0	117440512	50	6165
2026-01-18 11:39:56.90	32.23	4.37	-38.5	-39.7	19.9	0.00e+00	122	32	0	120586240	50	6057
2026-01-18 11:39:57.91	32.36	4.41	-38.5	-39.7	19.9	0.00e+00	123	32	0	123731968	50	6058
2026-01-18 11:39:58.92	32.48	4.45	-38.7	-39.9	19.7	0.00e+00	122	32	0	126877696	50	6189
2026-01-18 11:39:59.93	32.61	4.49	-38.8	-40.1	19.5	0.00e+00	123	32	0	130023424	50	6313
2026-01-18 11:40:00.94	32.73	4.52	-38.6	-39.9	19.9	0.00e+00	122	32	0	133169152	50	6164
2026-01-18 11:40:01.95	32.86	4.56	-38.6	-39.9	19.8	0.00e+00	123	32	0	136314880	50	6141
2026-01-18 11:40:02.95	32.98	4.60	-38.6	-39.9	19.8	0.00e+00	122	32	0	139460608	50	6154
2026-01-18 11:40:03.96	33.11	4.64	-38.7	-39.9	19.8	0.00e+00	122	32	0	142606336	50	6188
2026-01-18 11:40:04.97	33.24	4.67	-38.4	-39.6	20.0	0.00e+00	122	32	0	145752064	50	5987
2026-01-18 11:40:05.98	33.37	4.71	-38.6	-39.9	19.9	0.00e+00	120	32	0	148897792	50	6155
2026-01-18 11:40:06.99	33.49	4.75	-38.7	-39.9	19.9	0.00e+00	120	32	0	152043520	50	6177
2026-01-18 11:40:08.00	33.62	4.79	-38.4	-39.6	20.0	0.00e+00	122	32	0	155189248	50	5992
2026-01-18 11:40:09.02	33.75	4.83	-38.6	-39.8	19.9	0.00e+00	122	32	0	158334976	50	6134
2026-01-18 11:40:10.02	33.88	4.86	-38.4	-39.6	20.1	0.00e+00	123	32	0	161480704	50	5994
2026-01-18 11:40:11.03	34.01	4.90	-38.5	-39.7	20.0	0.00e+00	123	32	0	164626432	50	6015
2026-01-18 11:40:12.04	34.14	4.94	-38.5	-39.7	20.0	0.00e+00	122	32	0	167772160	50	6023
2026-01-18 11:40:13.05	34.27	4.97	-38.2	-39.4	20.3	0.00e+00	123	32	0	170917888	50	5818
2026-01-18 11:40:14.06	34.40	5.01	-38.5	-39.7	20.0	0.00e+00	120	32	0	174063616	50	6000
2026-01-18 11:40:15.07	34.53	5.05	-38.5	-39.7	20.1	0.00e+00	123	32	0	177209344	50	6015
2026-01-18 11:40:16.08	34.66	5.09	-38.5	-39.7	20.1	0.00e+00	120	32	0	180355072	50	6052
2026-01-18 11:40:17.09	34.79	5.12	-38.3	-39.5	20.4	0.00e+00	122	32	0	183500800	50	5875
2026-01-18 11:40:18.10	34.92	5.16	-38.4	-39.6	20.2	0.00e+00	123	32	0	186646528	50	5960
2026-01-18 11:40:19.11	35.05	5.20	-38.5	-39.7	20.1	0.00e+00	123	32	0	189792256	50	6003
2026-01-18 11:40:20.12	35.18	5.23	-38.5	-39.7	20.1	0.00e+00	123	32	0	192937984	50	6064
2026-01-18 11:40:21.13	35.32	5.27	-38.6	-39.8	20.1	0.00e+00	120	32	0	196083712	50	6087
2026-01-18 11:40:22.13	35.45	5.31	-38.5	-39.7	20.1	0.00e+00	123	32	0	199229440	50	6015
2026-01-18 11:40:23.14	35.58	5.34	-38.5	-39.8	20.1	0.00e+00	123	32	0	202375168	50	6079
2026-01-18 11:40:24.15	35.71	5.38	-38.4	-39.6	20.2	0.00e+00	120	32	0	205520896	50	5994
2026-01-18 11:40:25.16	35.85	5.42	-38.2	-39.4	20.4	0.00e+00	123	32	0	208666624	50	5838
2026-01-18 11:40:26.17	35.98	5.45	-38.3	-39.5	20.4	0.00e+00	123	32	0	211812352	50	5874
2026-01-18 11:40:27.18	36.11	5.49	-38.3	-39.5	20.4	0.00e+00	123	32	0	214958080	50	5871
2026-01-18 11:40:28.19	36.25	5.52	-38.2	-39.4	20.5	0.00e+00	123	32	0	218103808	50	5830
2026-01-18 11:40:29.20	36.38	5.56	-38.2	-39.4	20.5	0.00e+00	123	32	0	221249536	50	5797
2026-01-18 11:40:30.21	36.52	5.60	-38.1	-39.3	20.5	0.00e+00	123	32	0	224395264	50	5750
2026-01-18 11:40:31.22	36.65	5.63	-38.0	-39.1	20.7	0.00e+00	120	32	0	228589568	50	5655
2026-01-18 11:40:32.23	36.79	5.67	-37.8	-38.9	20.9	0.00e+00	123	32	0	230686720	50	5494
2026-01-18 11:40:33.24	36.93	5.70	-37.8	-38.9	20.9	0.00e+00	122	32	0	233832448	48	6166
2026-01-18 11:40:34.25	37.06	5.74	-37.8	-38.9	20.9	0.00e+00	120	32	0	236978176	48	6186
2026-01-18 11:40:35.26	37.20	5.77	-37.8	-38.9	20.9	0.00e+00	123	32	0	240123904	48	6193
2026-01-18 11:40:36.27	37.34	5.81	-37.7	-38.8	21.0	0.00e+00	120	32	0	244318208	48	6096
2026-01-18 11:40:37.28	37.47	5.85	-37.7	-38.9	21.0	0.00e+00	123	32	0	247463936	48	6149
2026-01-18 11:40:38.29	37.61	5.88	-37.9	-39.0	20.9	0.00e+00	123	32	0	250609664	48	6261
2026-01-18 11:40:39.29	37.75	5.92	-38.2	-39.4	20.6	0.00e+00	123	32	0	253755392	48	6502
2026-01-18 11:40:40.30	37.89	5.95	-38.0	-39.2	20.7	0.00e+00	122	32	0	255852544	48	6360
2026-01-18 11:40:41.31	38.02	5.99	-38.1	-39.3	20.6	0.00e+00	122	32	0	260046848	48	6436
2026-01-18 11:40:42.32	38.16	6.02	-38.1	-39.3	20.7	0.00e+00	123	32	0	263192576	48	6434
2026-01-18 11:40:43.33	38.30	6.06	-38.2	-39.4	20.4	0.00e+00	123	32	0	266338304	48	6528
2026-01-18 11:40:44.34	38.44	6.09	-38.4	-39.6	20.7	0.00e+00	123	32	0	269484032	48	6706
2026-01-18 11:40:45.35	38.58	6.13	-38.1	-39.2	20.6	0.00e+00	123	32	0	272629760	48	6404
2026-01-18 11:40:46.36	38.72	6.16	-38.4	-39.5	20.5	0.00e+00	122	32	0	275775488	48	6642
2026-01-18 11:40:47.37	38.86	6.19	-38.2	-39.4	20.5	0.00e+00	122	32	0	278921216	48	6528
2026-01-18 11:40:48.38	39.00	6.23	-38.3	-39.5	20.5	0.00e+00	120	32	0	282066944	48	6610
2026-01-18 11:40:49.38	39.14	6.26	-38.0	-39.1	20.8	0.00e+00	122	32	0	285212672	48	6336
2026-01-18 11:40:50.39	39.28	6.30	-38.1	-39.2	20.6	0.00e+00	123	32	0	288358400	48	6423
2026-01-18 11:40:51.40	39.43	6.33	-38.7	-39.9	20.3	0.00e+00	123	32	0	291504128	48	6918
2026-01-18 11:40:52.41	39.57	6.36	-38.5	-39.7	20.1	0.00e+00	122	32	0	294649856	48	6761
2026-01-18 11:40:53.42	39.71	6.40	-38.5	-39.7	20.5	0.00e+00	123	32	0	297795584	48	6772
2026-01-18 11:40:54.43	39.85	6.43	-37.7	-38.9	21.1	0.00e+00	122	32	0	300941312	48	6143
2026-01-18 11:40:55.44	40.00	6.47	-37.6	-38.7	21.3	0.00e+00	122	32	0	304087040	48	6002
2026-01-18 11:40:56.45	40.14	6.50	-37.7	-38.8	21.1	0.00e+00	120	32	0	307232768	48	6134
2026-01-18 11:40:57.46	40.28	6.53	-37.8	-39.0	21.0	0.00e+00	120	32	0	310378496	48	6206
2026-01-18 11:40:58.47	40.43	6.57	-37.9	-39.1	21.0	0.00e+00	123	32	0	313524224	48	6280
2026-01-18 11:40:59.48	40.57	6.60	-37.7	-38.9	21.2	0.00e+00	123	32	0	316669952	48	6143
2026-01-18 11:41:00.49	40.72	6.63	-37.5	-38.6	21.3	0.00e+00	120	32	0	319815680	48	5946
2026-01-18 11:41:01.50	40.86	6.67	-37.8	-38.9	21.2	0.00e+00	123	32	0	322961408	48	6153
2026-01-18 11:41:02.51	41.01	6.70	-37.8	-38.9	21.1	0.00e+00	122	32	0	326107136	48	6164
2026-01-18 11:41:03.52	41.15	6.73	-37.8	-39.0	21.1	0.00e+00	123	32	0	329252864	48	6206
2026-01-18 11:41:04.53	41.30	6.76	-37.8	-38.9	21.1	0.00e+00	123	32	0	332398592	48	6182
2026-01-18 11:41:05.54	41.44	6.80	-37.8	-38.9	21.2	0.00e+00	123	32	0	335544320	48	6169
2026-01-18 11:41:06.55	41.59	6.83	-37.8	-39.0	21.1	0.00e+00	123	32	0	338690048	48	6217
2026-01-18 11:41:07.56	41.74	6.86	-37.6	-38.7	21.3	0.00e+00	123	32	0	341835776	48	6062
2026-01-18 11:41:08.57	41.89	6.89	-37.7	-38.8	21.3	0.00e+00	120	32	0	344981504	48	6068
2026-01-18 11:41:09.57	42.03	6.93	-37.6	-38.7	21.3	0.00e+00	123	32	0	348127232	48	6037
2026-01-18 11:41:10.58	42.18	6.96	-37.7	-38.8	21.2	0.00e+00	120	32	0	351272960	48	6110
2026-01-18 11:41:11.59	42.33	6.99	-37.7	-38.8	21.3	0.00e+00	123	32	0	354418688	48	6093
2026-01-18 11:41:12.60	42.48	7.02	-37.4	-38.5	21.6	0.00e+00	120	32	0	357564416	48	5893
2026-01-18 11:41:13.61	42.62	7.05	-37.4	-38.4	21.6	0.00e+00	122	32	0	360710144	48	5840
2026-01-18 11:41:14.62	42.77	7.08	-37.4	-38.5	21.6	0.00e+00	122	32	0	363855872	48	5902
2026-01-18 11:41:15.63	42.92	7.12	-37.4	-38.5	21.5	0.00e+00	122	32	0	367001600	48	5903
2026-01-18 11:41:16.64	43.07	7.15	-37.5	-38.5	21.5	0.00e+00	123	32	0	370147328	48	5914
2026-01-18 11:41:17.65	43.22	7.18	-37.5	-38.6	21.4	0.00e+00	122	32	0	373293056	48	5949
2026-01-18 11:41:18.66	43.37	7.21	-37.4	-38.5	21.5	0.00e+00	120	32	0	376438784	48	5880
2026-01-18 11:41:19.67	43.52	7.24	-37.7	-38.8	21.3	0.00e+00	120	32	0	379584512	48	6101
2026-01-18 11:41:20.68	43.68	7.27	-37.7	-38.8	21.3	0.00e+00	122	32	0	382730240	48	6095
2026-01-18 11:41:21.68	43.82	7.30	-37.6	-38.7	21.3	0.00e+00	123	32	0	385875968	48	6052
2026-01-18 11:41:22.70	43.98	7.33	-37.4	-38.5	21.5	0.00e+00	122	32	0	389021696	48	5907
2026-01-18 11:41:23.70	44.13	7.36	-37.4	-38.5	21.5	0.00e+00	124	32	0	392167424	48	5872
2026-01-18 11:41:24.71	44.28	7.39	-37.6	-38.7	21.4	0.00e+00	123	32	0	395313152	48	6033
2026-01-18 11:41:25.72	44.43	7.42	-37.5	-38.6	21.5	0.00e+00	122	32	0	398458880	48	5994
2026-01-18 11:41:26.73	44.59	7.45	-37.6	-38.7	21.4	0.00e+00	122	32	0	401604608	48	6021
2026-01-18 11:41:27.74	44.74	7.48	-37.5	-38.5	21.5	0.00e+00	120	32	0	404750336	48	5925
2026-01-18 11:41:28.75	44.89	7.51	-37.5	-38.6	21.5	0.00e+00	122	32	0	407896064	48	5939
2026-01-18 11:41:29.76	45.05	7.54	-37.6	-38.7	21.5	0.00e+00	120	32	0	411041792	48	6011
2026-01-18 11:41:30.77	45.20	7.57	-37.6	-38.7	21.4	0.00e+00	123	32	0	414187520	48	6002
2026-01-18 11:41:31.78	45.35	7.60	-37.8	-38.9	21.3	0.00e+00	122	32	0	417333248	48	6140
2026-01-18 11:41:32.79	45.51	7.63	-37.6	-38.7	21.3	0.00e+00	123	32	0	420478976	48	6009
2026-01-18 11:41:33.80	45.66	7.66	-37.7	-38.7	21.5	0.00e+00	123	32	0	423624704	48	6060
2026-01-18 11:41:34.81	45.82	7.69	-37.7	-38.8	21.2	0.00e+00	122	32	0	426770432	48	6088
2026-01-18 11:41:35.82	45.97	7.72	-37.9	-39.1	21.1	0.00e+00	120	32	0	429916160	48	6290
2026-01-18 11:41:36.83	46.13	7.74	-37.8	-38.9	21.2	0.00e+00	121	32	0	433061888	48	6164
2026-01-18 11:41:37.84	46.29	7.77	-37.9	-39.0	21.4	0.00e+00	122	32	0	436207616	48	6241
2026-01-18 11:41:38.85	46.44	7.80	-37.7	-38.8	21.4	0.00e+00	120	32	0	439353344	48	6119
2026-01-18 11:41:39.86	46.60	7.83	-37.4	-38.4	21.7	0.00e+00	123	32	0	442499072	48	5823
2026-01-18 11:41:40.87	46.76	7.86	-37.5	-38.6	21.6	0.00e+00	123	32	0	445644800	48	5945
2026-01-18 11:41:41.88	46.91	7.88	-37.4	-38.5	21.7	0.00e+00	122	32	0	448790528	48	5866
2026-01-18 11:41:42.89	47.07	7.91	-37.2	-38.2	21.9	0.00e+00	120	32	0	451936256	48	5689
2026-01-18 11:41:43.90	47.23	7.94	-37.2	-38.2	21.9	0.00e+00	123	32	0	455081984	48	5695
2026-01-18 11:41:44.91	47.39	7.97	-37.1	-38.1	22.0	0.00e+00	122	32	0	458227712	48	5645
2026-01-18 11:41:45.92	47.55	7.99	-37.2	-38.2	21.9	0.00e+00	122	32	0	461373440	48	5711
2026-01-18 11:41:46.93	47.70	8.02	-37.4	-38.4	21.8	0.00e+00	122	32	0	464519168	48	5838
2026-01-18 11:41:47.94	47.86	8.05	-37.3	-38.3	21.8	0.00e+00	120	32	0	467664896	48	5787
2026-01-18 11:41:48.95	48.02	8.08	-37.2	-38.2	21.9	0.00e+00	123	32	0	470810624	48	5697
2026-01-18 11:41:49.96	48.18	8.10	-37.1	-38.2	21.9	0.00e+00	123	32	0	473956352	48	5676
2026-01-18 11:41:50.97	48.34	8.13	-37.2	-38.2	21.9	0.00e+00	123	32	0	477102080	48	5705
2026-01-18 11:41:51.98	48.50	8.15	-37.2	-38.2	21.9	0.00e+00	121	32	0	480247808	48	5720
2026-01-18 11:41:52.99	48.66	8.18	-37.2	-38.2	21.9	0.00e+00	123	32	0	483393536	48	5718
2026-01-18 11:41:54.00	48.82	8.21	-37.2	-38.2	21.9	0.00e+00	123	32	0	486539264	48	5713
2026-01-18 11:41:55.00	48.98	8.23	-37.4	-38.4	21.7	0.00e+00	124	32	0	489684992	48	5849
2026-01-18 11:41:56.01	49.14	8.26	-37.4	-38.5	21.7	0.00e+00	123	32	0	492830720	48	5877
2026-01-18 11:41:57.02	49.31	8.28	-37.3	-38.4	21.7	0.00e+00	123	32	0	495976448	48	5797
2026-01-18 11:41:58.03	49.47	8.31	-37.4	-38.4	21.7	0.00e+00	123	32	0	499122176	48	5833
2026-01-18 11:41:59.04	49.63	8.33	-37.1	-38.1	22.0	0.00e+00	123	32	0	502267904	48	5634
2026-01-18 11:42:00.05	49.79	8.36	-37.0	-38.1	22.0	0.00e+00	120	32	0	505413632	48	5614
2026-01-18 11:42:01.03	49.95	8.38	-37.2	-38.2	21.9	0.00e+00	122	32	0	508559360	48	5699
2026-01-18 11:42:02.04	50.11	8.41	-37.2	-38.3	21.9	0.00e+00	123	32	0	511705088	48	5739
2026-01-18 11:42:03.05	50.28	8.43	-37.3	-38.4	21.8	0.00e+00	123	32	0	514850816	48	5794
2026-01-18 11:42:04.06	50.44	8.46	-37.3	-38.3	21.8	0.00e+00	123	32	0	517996544	48	5784
2026-01-18 11:42:05.07	50.60	8.48	-37.3	-38.3	21.8	0.00e+00	121	32	0	521142272	48	5765
2026-01-18 11:42:06.08	50.77	8.50	-37.2	-38.2	22.0	0.00e+00	123	32	0	524288000	48	5677
2026-01-18 11:42:07.10	50.93	8.53	-37.2	-38.2	22.0	0.00e+00	123	32	0	527433728	48	5690
2026-01-18 11:42:08.10	51.10	8.55	-37.3	-38.3	21.9	0.00e+00	123	32	0	530579456	48	5782
2026-01-18 11:42:09.11	51.26	8.57	-37.2	-38.2	21.9	0.00e+00	120	32	0	533725184	48	5712
2026-01-18 11:42:10.12	51.42	8.60	-37.2	-38.2	22.0	0.00e+00	123	32	0	536870912	48	5702
2026-01-18 11:42:11.14	51.59	8.62	-37.2	-38.3	21.9	0.00e+00	122	32	0	540016640	48	5749
2026-01-18 11:42:12.14	51.76	8.64	-37.2	-38.2	22.0	0.00e+00	123	32	0	543162368	48	5715
2026-01-18 11:42:13.15	51.92	8.66	-37.2	-38.3	21.9	0.00e+00	123	32	0	546308096	48	5739
2026-01-18 11:42:14.16	52.09	8.69	-37.3	-38.4	21.8	0.00e+00	123	32	0	549453824	48	5826
2026-01-18 11:42:15.17	52.25	8.71	-37.2	-38.3	21.8	0.00e+00	122	32	0	552599552	48	5760
2026-01-18 11:42:16.17	52.42	8.73	-37.3	-38.4	21.8	0.00e+00	123	32	0	555745280	48	5798
2026-01-18 11:42:17.19	52.59	8.75	-37.3	-38.4	21.8	0.00e+00	123	32	0	558891008	48	5797
2026-01-18 11:42:18.19	52.75	8.77	-37.2	-38.2	21.9	0.00e+00	122	32	0	562036736	48	5700
2026-01-18 11:42:19.20	52.92	8.80	-37.1	-38.1	22.0	0.00e+00	123	32	0	565182464	48	5658
2026-01-18 11:42:20.21	53.09	8.82	-37.1	-38.1	22.0	0.00e+00	123	32	0	568328192	48	5654
2026-01-18 11:42:21.22	53.25	8.84	-36.9	-38.0	22.2	0.00e+00	121	32	0	571473920	48	5538
2026-01-18 11:42:22.23	53.42	8.86	-36.9	-37.9	22.3	0.00e+00	122	32	0	574619648	48	5503
2026-01-18 11:42:23.24	53.59	8.88	-36.9	-37.9	22.2	0.00e+00	123	32	0	577765376	48	5517
2026-01-18 11:42:24.25	53.76	8.90	-37.1	-38.1	22.1	0.00e+00	122	32	0	580911104	48	5632
2026-01-18 11:42:25.25	53.93	8.92	-37.0	-38.1	22.1	0.00e+00	120	32	0	584056832	48	5600
2026-01-18 11:42:26.26	54.09	8.94	-37.3	-38.3	21.9	0.00e+00	120	32	0	587202560	48	5774
2026-01-18 11:42:27.27	54.26	8.96	-37.1	-38.2	21.9	0.00e+00	123	32	0	590348288	48	5674
2026-01-18 11:42:28.28	54.43	8.98	-37.3	-38.3	21.8	0.00e+00	122	32	0	593494016	48	5764
2026-01-18 11:42:29.29	54.60	9.00	-37.2	-38.3	21.9	0.00e+00	123	32	0	596639744	48	5757
2026-01-18 11:42:30.30	54.77	9.02	-37.4	-38.4	21.9	0.00e+00	123	32	0	599785472	48	5846
2026-01-18 11:42:31.31	54.94	9.04	-37.5	-38.6	21.6	0.00e+00	120	32	0	602931200	48	5968
2026-01-18 11:42:32.32	55.11	9.06	-37.7	-38.7	21.6	0.00e+00	123	32	0	606076928	48	6062
2026-01-18 11:42:33.34	55.28	9.08	-37.7	-38.8	21.6	0.00e+00	121	32	0	609222656	48	6094
2026-01-18 11:42:34.35	55.45	9.09	-37.8	-38.9	21.6	0.00e+00	122	32	0	612368384	48	6165
2026-01-18 11:42:35.36	55.63	9.11	-37.4	-38.5	21.8	0.00e+00	120	32	0	615514112	48	5872
2026-01-18 11:42:36.37	55.80	9.13	-37.4	-38.4	21.8	0.00e+00	120	32	0	618659840	48	5830
2026-01-18 11:42:37.38	55.97	9.15	-37.2	-38.2	22.0	0.00e+00	122	32	0	621805568	48	5699
2026-01-18 11:42:38.39	56.14	9.17	-37.1	-38.1	22.0	0.00e+00	123	32	0	624951296	48	5658
2026-01-18 11:42:39.40	56.31	9.18	-37.1	-38.1	22.0	0.00e+00	122	32	0	628097024	48	5643
2026-01-18 11:42:40.40	56.48	9.20	-37.1	-38.1	22.0	0.00e+00	123	32	0	631242752	48	5632
2026-01-18 11:42:41.41	56.65	9.22	-37.1	-38.2	21.9	0.00e+00	121	32	0	635437056	48	5671
2026-01-18 11:42:42.42	56.83	9.23	-37.2	-38.3	21.9	0.00e+00	123	32	0	638582784	48	5727
2026-01-18 11:42:43.43	57.00	9.25	-37.1	-38.1	22.1	0.00e+00	120	32	0	641728512	48	5639
2026-01-18 11:42:44.44	57.17	9.27	-37.0	-38.1	22.1	0.00e+00	123	32	0	643825664	48	5608
2026-01-18 11:42:45.45	57.34	9.28	-37.1	-38.2	22.0	0.00e+00	122	32	0	646971392	48	5661
2026-01-18 11:42:46.46	57.52	9.30	-37.0	-38.0	22.2	0.00e+00	123	32	0	650117120	48	5572
2026-01-18 11:42:47.47	57.69	9.32	-37.1	-38.1	22.1	0.00e+00	122	32	0	654311424	48	5632
2026-01-18 11:42:48.48	57.86	9.33	-36.9	-37.9	22.2	0.00e+00	123	32	0	657457152	48	5499
2026-01-18 11:42:49.49	58.04	9.35	-36.8	-37.9	22.2	0.00e+00	123	32	0	660602880	48	5470
2026-01-18 11:42:50.49	58.21	9.36	-37.1	-38.2	22.1	0.00e+00	123	32	0	663748608	48	5676
2026-01-18 11:42:51.50	58.38	9.38	-36.9	-38.0	22.2	0.00e+00	123	32	0	665845760	48	5548
2026-01-18 11:42:52.51	58.56	9.39	-37.1	-38.1	22.1	0.00e+00	122	32	0	668991488	48	5656
2026-01-18 11:42:53.52	58.73	9.41	-37.0	-38.0	22.1	0.00e+00	122	32	0	673185792	48	5566
2026-01-18 11:42:54.53	58.90	9.42	-37.2	-38.2	22.0	0.00e+00	122	32	0	676331520	48	5693
2026-01-18 11:42:55.54	59.08	9.43	-37.3	-38.4	21.9	0.00e+00	120	32	0	679477248	48	5800
2026-01-18 11:42:56.55	59.25	9.45	-37.1	-38.2	22.0	0.00e+00	120	32	0	682622976	48	5676
2026-01-18 11:42:57.56	59.43	9.46	-37.1	-38.1	22.1	0.00e+00	123	32	0	685768704	48	5631
2026-01-18 11:42:58.57	59.60	9.47	-37.1	-38.1	22.1	0.00e+00	121	32	0	688914432	48	5640
2026-01-18 11:42:59.58	59.78	9.49	-36.9	-37.9	22.3	0.00e+00	120	32	0	692060160	48	5502
2026-01-18 11:43:00.59	59.95	9.50	-36.9	-37.9	22.2	0.00e+00	122	32	0	695205888	48	5489
2026-01-18 11:43:01.60	60.13	9.51	-36.9	-37.9	22.2	0.00e+00	122	32	0	698351616	48	5490
2026-01-18 11:43:02.61	60.31	9.53	-36.9	-37.9	22.2	0.00e+00	123	32	0	701497344	48	5490
2026-01-18 11:43:03.62	60.48	9.54	-36.9	-38.0	22.2	0.00e+00	122	32	0	704643072	48	5548
2026-01-18 11:43:04.63	60.66	9.55	-37.0	-38.0	22.1	0.00e+00	121	32	0	707788800	48	5575
2026-01-18 11:43:05.63	60.83	9.56	-37.0	-38.0	22.1	0.00e+00	120	32	0	710934528	48	5572
2026-01-18 11:43:06.64	61.01	9.57	-37.0	-38.0	22.1	0.00e+00	120	32	0	714080256	48	5583
2026-01-18 11:43:07.65	61.18	9.58	-37.1	-38.1	22.1	0.00e+00	122	32	0	717225984	48	5627
2026-01-18 11:43:08.66	61.36	9.59	-37.1	-38.2	22.0	0.00e+00	123	32	0	720371712	48	5695
2026-01-18 11:43:09.67	61.54	9.61	-37.1	-38.2	22.0	0.00e+00	122	32	0	723517440	48	5661
2026-01-18 11:43:10.68	61.71	9.62	-37.0	-38.1	22.1	0.00e+00	122	32	0	726663168	48	5619
2026-01-18 11:43:11.69	61.89	9.63	-37.0	-38.1	22.1	0.00e+00	123	32	0	729808896	48	5612
2026-01-18 11:43:12.70	62.07	9.64	-37.0	-38.1	22.1	0.00e+00	123	32	0	732954624	48	5611
2026-01-18 11:43:13.70	62.24	9.65	-37.0	-38.1	22.0	0.00e+00	122	32	0	736100352	48	5608
2026-01-18 11:43:14.71	62.42	9.66	-36.9	-37.9	22.1	0.00e+00	123	32	0	739246080	48	5489
2026-01-18 11:43:15.72	62.60	9.67	-36.7	-37.7	22.4	0.00e+00	124	32	0	742391808	46	6053
2026-01-18 11:43:16.73	62.77	9.67	-36.8	-37.8	22.2	0.00e+00	123	32	0	745537536	46	6110
2026-01-18 11:43:17.73	62.95	9.68	-36.8	-37.8	22.3	0.00e+00	122	32	0	748683264	46	6112
2026-01-18 11:43:18.75	63.13	9.69	-36.8	-37.9	22.2	0.00e+00	123	32	0	751828992	46	6151
2026-01-18 11:43:19.76	63.31	9.70	-37.0	-38.0	22.1	0.00e+00	122	32	0	754974720	46	6248
2026-01-18 11:43:20.77	63.49	9.71	-36.8	-37.9	22.3	0.00e+00	120	32	0	758120448	46	6139
2026-01-18 11:43:21.78	63.66	9.72	-36.9	-37.9	22.2	0.00e+00	123	32	0	761266176	46	6173
2026-01-18 11:43:22.78	63.84	9.72	-36.7	-37.8	22.3	0.00e+00	122	32	0	764411904	46	6076
2026-01-18 11:43:23.79	64.02	9.73	-36.8	-37.8	22.2	0.00e+00	122	32	0	767557632	46	6105
2026-01-18 11:43:24.80	64.20	9.74	-37.0	-38.0	22.1	0.00e+00	123	32	0	770703360	46	6240
2026-01-18 11:43:25.81	64.37	9.75	-36.7	-37.7	22.3	0.00e+00	123	32	0	773849088	46	6045
2026-01-18 11:43:26.82	64.55	9.75	-36.8	-37.9	22.1	0.00e+00	123	32	0	776994816	46	6139
2026-01-18 11:43:27.83	64.73	9.76	-36.8	-37.8	22.2	0.00e+00	123	32	0	780140544	46	6114
2026-01-18 11:43:28.84	64.91	9.77	-36.8	-37.8	22.2	0.00e+00	122	32	0	783286272	46	6115
2026-01-18 11:43:29.85	65.09	9.77	-36.7	-37.8	22.2	0.00e+00	122	32	0	786432000	46	6066
2026-01-18 11:43:30.86	65.27	9.78	-36.9	-37.9	22.2	0.00e+00	122	32	0	789577728	46	6157
2026-01-18 11:43:31.87	65.45	9.78	-36.8	-37.8	22.2	0.00e+00	123	32	0	792723456	46	6089
2026-01-18 11:43:32.88	65.63	9.79	-36.9	-37.9	22.1	0.00e+00	120	32	0	795869184	46	6187
2026-01-18 11:43:33.89	65.80	9.79	-36.8	-37.8	22.3	0.00e+00	122	32	0	799014912	46	6112
2026-01-18 11:43:34.90	65.98	9.80	-36.8	-37.8	22.3	0.00e+00	123	32	0	802160640	46	6102
2026-01-18 11:43:35.91	66.16	9.80	-36.9	-37.9	22.2	0.00e+00	121	32	0	805306368	46	6183
2026-01-18 11:43:36.92	66.34	9.81	-36.9	-37.9	22.2	0.00e+00	121	32	0	808452096	46	6155
2026-01-18 11:43:37.93	66.52	9.81	-36.9	-37.9	22.2	0.00e+00	120	32	0	811597824	46	6174
2026-01-18 11:43:38.94	66.70	9.82	-36.7	-37.7	22.3	0.00e+00	123	32	0	814743552	46	6057
2026-01-18 11:43:39.94	66.88	9.82	-36.8	-37.8	22.2	0.00e+00	123	32	0	817889280	46	6114
2026-01-18 11:43:40.96	67.06	9.82	-36.7	-37.8	22.2	0.00e+00	122	32	0	821035008	46	6083
2026-01-18 11:43:41.96	67.24	9.83	-37.0	-38.0	22.2	0.00e+00	120	32	0	824180736	46	6252
2026-01-18 11:43:42.97	67.42	9.83	-37.0	-38.0	22.1	0.00e+00	123	32	0	827326464	46	6265
2026-01-18 11:43:43.98	67.59	9.83	-36.8	-37.8	22.4	0.00e+00	123	32	0	830472192	46	6092
2026-01-18 11:43:44.99	67.77	9.83	-36.8	-37.8	22.4	0.00e+00	123	32	0	833617920	46	6083
2026-01-18 11:43:46.00	67.95	9.84	-36.8	-37.8	22.3	0.00e+00	120	32	0	836763648	46	6106
2026-01-18 11:43:47.01	68.13	9.84	-36.8	-37.8	22.2	0.00e+00	123	32	0	839909376	46	6102
2026-01-18 11:43:48.02	68.31	9.84	-36.8	-37.8	22.3	0.00e+00	122	32	0	843055104	46	6111
2026-01-18 11:43:49.03	68.49	9.84	-36.8	-37.9	22.2	0.00e+00	122	32	0	846200832	46	6141
2026-01-18 11:43:50.04	68.67	9.84	-36.8	-37.8	22.3	0.00e+00	122	32	0	849346560	46	6116
2026-01-18 11:43:51.04	68.85	9.84	-36.9	-37.9	22.2	0.00e+00	123	32	0	852492288	46	6200
2026-01-18 11:43:52.05	69.03	9.84	-37.0	-38.0	22.2	0.00e+00	122	32	0	855638016	46	6245
2026-01-18 11:43:53.06	69.21	9.84	-36.8	-37.8	22.3	0.00e+00	123	32	0	858783744	46	6130
2026-01-18 11:43:54.07	69.39	9.85	-36.7	-37.7	22.4	0.00e+00	123	32	0	861929472	46	6062
2026-01-18 11:43:55.08	69.57	9.85	-36.8	-37.8	22.3	0.00e+00	122	32	0	865075200	46	6088
2026-01-18 11:43:56.09	69.75	9.84	-36.7	-37.7	22.4	0.00e+00	123	32	0	868220928	46	6026
2026-01-18 11:43:57.10	69.93	9.84	-36.7	-37.8	22.3	0.00e+00	123	32	0	871366656	46	6076
2026-01-18 11:43:58.11	70.11	9.84	-36.8	-37.8	22.3	0.00e+00	123	32	0	874512384	46	6103
2026-01-18 11:43:59.12	70.29	9.84	-36.7	-37.7	22.3	0.00e+00	122	32	0	877658112	46	6062
2026-01-18 11:44:00.13	70.47	9.84	-36.9	-37.9	22.2	0.00e+00	123	32	0	880803840	46	6181
2026-01-18 11:44:01.14	70.65	9.84	-36.7	-37.7	22.3	0.00e+00	122	32	0	883949568	46	6029
2026-01-18 11:44:02.15	70.83	9.84	-36.8	-37.8	22.3	0.00e+00	123	32	0	887095296	46	6110
2026-01-18 11:44:03.16	71.01	9.84	-36.9	-37.9	22.2	0.00e+00	123	32	0	890241024	46	6164
2026-01-18 11:44:04.17	71.19	9.83	-36.6	-37.6	22.4	0.00e+00	120	32	0	893386752	46	5992
2026-01-18 11:44:05.18	71.36	9.83	-36.5	-37.5	22.4	0.00e+00	123	32	0	896532480	46	5892
2026-01-18 11:44:06.18	71.54	9.83	-36.6	-37.6	22.3	0.00e+00	123	32	0	899678208	46	5976
2026-01-18 11:44:07.19	71.72	9.83	-36.5	-37.5	22.4	0.00e+00	122	32	0	902823936	46	5917
2026-01-18 11:44:08.20	71.90	9.82	-36.8	-37.8	22.3	0.00e+00	120	32	0	905969664	46	6104
2026-01-18 11:44:09.21	72.08	9.82	-36.7	-37.7	22.3	0.00e+00	122	32	0	909115392	46	6047
2026-01-18 11:44:10.22	72.26	9.82	-36.9	-38.0	22.1	0.00e+00	120	32	0	912261120	46	6207
2026-01-18 11:44:11.23	72.44	9.81	-36.6	-37.6	22.4	0.00e+00	123	32	0	915406848	46	5945
2026-01-18 11:44:12.24	72.62	9.81	-36.6	-37.6	22.5	0.00e+00	122	32	0	918552576	46	5976
2026-01-18 11:44:13.25	72.80	9.80	-36.6	-37.6	22.5	0.00e+00	122	32	0	921698304	46	5971
2026-01-18 11:44:14.26	72.98	9.80	-36.6	-37.6	22.5	0.00e+00	123	32	0	924844032	46	5988
2026-01-18 11:44:15.27	73.16	9.79	-36.6	-37.6	22.5	0.00e+00	123	32	0	927989760	46	5986
2026-01-18 11:44:16.27	73.33	9.79	-36.6	-37.6	22.6	0.00e+00	123	32	0	931135488	46	5927
2026-01-18 11:44:17.28	73.51	9.78	-36.5	-37.5	22.6	0.00e+00	122	32	0	934281216	46	5895
2026-01-18 11:44:18.29	73.69	9.78	-36.6	-37.6	22.4	0.00e+00	118	32	0	937426944	46	5976
2026-01-18 11:44:19.30	73.87	9.77	-36.7	-37.7	22.3	0.00e+00	123	32	0	940572672	46	6041
2026-01-18 11:44:20.31	74.05	9.76	-36.6	-37.6	22.4	0.00e+00	121	32	0	943718400	46	5994
2026-01-18 11:44:21.32	74.23	9.76	-36.7	-37.7	22.4	0.00e+00	123	32	0	946864128	46	6006
2026-01-18 11:44:22.33	74.41	9.75	-36.6	-37.6	22.5	0.00e+00	124	32	0	950009856	46	5960
2026-01-18 11:44:23.34	74.59	9.75	-36.5	-37.5	22.5	0.00e+00	122	32	0	953155584	46	5910
2026-01-18 11:44:24.35	74.76	9.74	-36.6	-37.6	22.4	0.00e+00	120	32	0	956301312	46	5994
2026-01-18 11:44:25.36	74.94	9.73	-36.7	-37.7	22.4	0.00e+00	123	32	0	959447040	46	6061
2026-01-18 11:44:26.37	75.12	9.72	-36.8	-37.8	22.4	0.00e+00	121	32	0	962592768	46	6103
2026-01-18 11:44:27.38	75.30	9.72	-36.6	-37.6	22.5	0.00e+00	123	32	0	965738496	46	5989
2026-01-18 11:44:28.39	75.48	9.71	-36.7	-37.8	22.4	0.00e+00	122	32	0	968884224	46	6067
2026-01-18 11:44:29.40	75.65	9.70	-36.6	-37.6	22.5	0.00e+00	123	32	0	972029952	46	5989
2026-01-18 11:44:30.40	75.83	9.69	-36.8	-37.8	22.4	0.00e+00	122	32	0	975175680	46	6084
2026-01-18 11:44:31.41	76.01	9.68	-36.7	-37.7	22.5	0.00e+00	122	32	0	978321408	46	6032
2026-01-18 11:44:32.42	76.19	9.67	-36.9	-37.9	22.3	0.00e+00	122	32	0	981467136	46	6177
2026-01-18 11:44:33.43	76.36	9.66	-36.7	-37.6	22.5	0.00e+00	120	32	0	984612864	46	5991
2026-01-18 11:44:34.44	76.54	9.65	-36.7	-37.7	22.4	0.00e+00	123	32	0	987758592	46	6039
2026-01-18 11:44:35.45	76.72	9.64	-36.7	-37.7	22.4	0.00e+00	122	32	0	990904320	46	6052
2026-01-18 11:44:36.46	76.90	9.63	-36.7	-37.7	22.4	0.00e+00	123	32	0	994050048	46	6055
2026-01-18 11:44:37.47	77.07	9.62	-36.7	-37.8	22.4	0.00e+00	122	32	0	997195776	46	6083
2026-01-18 11:44:38.48	77.25	9.61	-36.8	-37.9	22.4	0.00e+00	122	32	0	1000341504	46	6162
2026-01-18 11:44:39.48	77.43	9.60	-36.8	-37.9	22.3	0.00e+00	123	32	0	1003487232	46	6160
2026-01-18 11:44:40.49	77.60	9.59	-37.0	-38.1	22.2	0.00e+00	122	32	0	1006632960	46	6337
2026-01-18 11:44:41.51	77.78	9.58	-36.8	-37.9	22.3	0.00e+00	123	32	0	1009778688	46	6182
2026-01-18 11:44:42.52	77.96	9.57	-37.0	-38.1	22.1	0.00e+00	122	32	0	1012924416	46	6322
2026-01-18 11:44:43.53	78.13	9.56	-37.0	-38.1	22.1	0.00e+00	123	32	0	1016070144	46	6349
2026-01-18 11:44:44.53	78.31	9.55	-36.9	-38.1	22.2	0.00e+00	123	32	0	1019215872	46	6290
2026-01-18 11:44:45.54	78.49	9.53	-36.9	-38.1	22.1	0.00e+00	123	32	0	1022361600	46	6291
2026-01-18 11:44:46.55	78.66	9.52	-36.9	-38.0	22.2	0.00e+00	123	32	0	1025507328	46	6229
2026-01-18 11:44:47.56	78.84	9.51	-37.1	-38.2	22.0	0.00e+00	123	32	0	1028653056	46	6403
2026-01-18 11:44:48.57	79.01	9.50	-37.0	-38.2	22.0	0.00e+00	123	32	0	1031798784	46	6369
2026-01-18 11:44:49.58	79.19	9.48	-37.1	-38.2	22.1	0.00e+00	123	32	0	1034944512	46	6376
2026-01-18 11:44:50.59	79.36	9.47	-37.1	-38.2	22.0	0.00e+00	127	32	0	1038090240	46	6398
2026-01-18 11:44:51.60	79.54	9.46	-37.1	-38.2	22.0	0.00e+00	123	32	0	1041235968	46	6416
2026-01-18 11:44:52.61	79.72	9.44	-37.2	-38.3	21.9	0.00e+00	122	32	0	1044381696	46	6432
2026-01-18 11:44:53.62	79.89	9.43	-37.2	-38.3	22.0	0.00e+00	123	32	0	1048576000	46	6459
2026-01-18 11:44:54.62	80.06	9.42	-37.2	-38.3	22.0	0.00e+00	121	32	0	1051721728	46	6425
2026-01-18 11:44:55.63	80.24	9.40	-37.2	-38.2	21.9	0.00e+00	122	32	0	1053818880	46	6414
2026-01-18 11:44:56.64	80.41	9.39	-37.2	-38.3	21.9	0.00e+00	123	32	0	1056964608	46	6428
2026-01-18 11:44:57.65	80.59	9.37	-37.1	-38.2	22.0	0.00e+00	123	32	0	1060110336	46	6386
2026-01-18 11:44:58.66	80.76	9.36	-37.3	-38.3	21.8	0.00e+00	123	32	0	1064304640	46	6472
2026-01-18 11:44:59.67	80.94	9.34	-37.2	-38.3	21.9	0.00e+00	123	32	0	1067450368	46	6449
2026-01-18 11:45:00.68	81.11	9.33	-37.0	-38.0	22.1	0.00e+00	123	32	0	1070596096	46	6269
2026-01-18 11:45:01.69	81.28	9.31	-37.0	-38.0	22.1	0.00e+00	123	32	0	1073741824	46	6255
2026-01-18 11:45:02.70	81.46	9.30	-37.1	-38.1	22.0	0.00e+00	123	32	0	1076887552	46	6308
2026-01-18 11:45:03.71	81.63	9.28	-36.9	-37.9	22.1	0.00e+00	123	32	0	1080033280	46	6201
2026-01-18 11:45:04.72	81.80	9.26	-37.0	-38.1	21.9	0.00e+00	123	32	0	1083179008	46	6297
2026-01-18 11:45:05.73	81.98	9.25	-37.1	-38.2	21.9	0.00e+00	122	32	0	1086324736	46	6369
2026-01-18 11:45:06.74	82.15	9.23	-37.2	-38.3	21.8	0.00e+00	122	32	0	1089470464	46	6450
2026-01-18 11:45:07.75	82.32	9.21	-37.2	-38.3	21.7	0.00e+00	120	32	0	1092616192	46	6467
2026-01-18 11:45:08.75	82.49	9.20	-36.9	-38.0	22.0	0.00e+00	123	32	0	1095761920	46	6230
2026-01-18 11:45:09.76	82.66	9.18	-36.9	-38.0	22.0	0.00e+00	122	32	0	1098907648	46	6235
2026-01-18 11:45:10.77	82.84	9.16	-37.0	-38.1	21.9	0.00e+00	123	32	0	1102053376	46	6288
2026-01-18 11:45:11.78	83.01	9.14	-37.0	-38.0	21.9	0.00e+00	120	32	0	1105199104	46	6256
2026-01-18 11:45:12.79	83.18	9.12	-37.0	-38.0	21.9	0.00e+00	123	32	0	1108344832	46	6252
2026-01-18 11:45:13.80	83.35	9.11	-36.9	-37.9	22.0	0.00e+00	120	32	0	1111490560	46	6178
2026-01-18 11:45:14.81	83.52	9.09	-36.8	-37.9	22.0	0.00e+00	122	32	0	1114636288	46	6140
2026-01-18 11:45:15.82	83.69	9.07	-36.9	-37.9	22.0	0.00e+00	123	32	0	1117782016	46	6195
2026-01-18 11:45:16.83	83.86	9.05	-36.8	-37.9	22.1	0.00e+00	123	32	0	1120927744	46	6155
2026-01-18 11:45:17.83	84.03	9.03	-36.9	-38.0	22.0	0.00e+00	122	32	0	1124073472	46	6231
2026-01-18 11:45:18.85	84.20	9.01	-36.9	-37.9	22.0	0.00e+00	123	32	0	1127219200	46	6181
2026-01-18 11:45:19.86	84.38	8.99	-36.9	-38.0	22.1	0.00e+00	122	32	0	1130364928	46	6206
2026-01-18 11:45:20.87	84.55	8.97	-37.0	-38.1	22.1	0.00e+00	122	32	0	1133510656	46	6286
2026-01-18 11:45:21.87	84.71	8.95	-36.9	-37.9	22.1	0.00e+00	122	32	0	1136656384	46	6179
2026-01-18 11:45:22.89	84.88	8.93	-37.0	-38.0	22.1	0.00e+00	123	32	0	1139802112	46	6242
2026-01-18 11:45:23.90	85.05	8.91	-37.0	-38.1	21.9	0.00e+00	123	32	0	1142947840	46	6308
2026-01-18 11:45:24.90	85.22	8.89	-36.8	-37.8	22.1	0.00e+00	123	32	0	1146093568	46	6115
2026-01-18 11:45:25.91	85.39	8.87	-36.9	-37.9	22.0	0.00e+00	123	32	0	1149239296	46	6152
2026-01-18 11:45:26.92	85.56	8.85	-36.8	-37.8	22.2	0.00e+00	123	32	0	1152385024	46	6131
2026-01-18 11:45:27.93	85.73	8.83	-36.8	-37.8	22.2	0.00e+00	122	32	0	1155530752	46	6120
2026-01-18 11:45:28.94	85.89	8.81	-36.9	-38.0	22.0	0.00e+00	123	32	0	1158676480	46	6222
2026-01-18 11:45:29.95	86.06	8.79	-36.9	-37.9	22.1	0.00e+00	123	32	0	1161822208	46	6171
2026-01-18 11:45:30.96	86.23	8.77	-36.9	-37.9	22.2	0.00e+00	122	32	0	1164967936	46	6155
2026-01-18 11:45:31.96	86.40	8.74	-36.8	-37.9	22.2	0.00e+00	122	32	0	1168113664	46	6151
2026-01-18 11:45:32.97	86.56	8.72	-36.8	-37.9	22.2	0.00e+00	123	32	0	1171259392	46	6153
2026-01-18 11:45:33.98	86.73	8.70	-36.8	-37.8	22.3	0.00e+00	123	32	0	1174405120	46	6115
2026-01-18 11:45:34.99	86.90	8.68	-36.7	-37.8	22.3	0.00e+00	122	32	0	1177550848	46	6078
2026-01-18 11:45:36.00	87.06	8.66	-36.7	-37.7	22.4	0.00e+00	121	32	0	1180696576	46	6011
2026-01-18 11:45:37.01	87.23	8.63	-36.8	-37.8	22.4	0.00e+00	123	32	0	1183842304	46	6065
2026-01-18 11:45:38.02	87.40	8.61	-36.7	-37.7	22.4	0.00e+00	122	33	0	1186988032	46	6001
2026-01-18 11:45:39.03	87.56	8.59	-36.8	-37.8	22.3	0.00e+00	120	32	0	1190133760	46	6069
2026-01-18 11:45:40.04	87.73	8.56	-36.9	-37.9	22.2	0.00e+00	122	32	0	1193279488	46	6167
2026-01-18 11:45:41.05	87.89	8.54	-36.9	-37.9	22.2	0.00e+00	123	32	0	1196425216	46	6162
2026-01-18 11:45:42.06	88.06	8.52	-37.0	-38.0	22.1	0.00e+00	122	32	0	1199570944	46	6265
2026-01-18 11:45:43.07	88.22	8.49	-37.0	-38.0	22.1	0.00e+00	123	32	0	1202716672	46	6241
2026-01-18 11:45:44.08	88.39	8.47	-36.9	-37.9	22.2	0.00e+00	123	32	0	1205862400	46	6177
2026-01-18 11:45:45.09	88.55	8.44	-37.0	-38.0	22.0	0.00e+00	122	32	0	1209008128	46	6262
2026-01-18 11:45:46.09	88.71	8.42	-36.9	-38.0	22.0	0.00e+00	123	32	0	1212153856	46	6212
2026-01-18 11:45:47.10	88.88	8.40	-36.9	-38.0	22.1	0.00e+00	123	32	0	1215299584	46	6211
2026-01-18 11:45:48.11	89.04	8.37	-36.9	-38.0	22.1	0.00e+00	123	32	0	1218445312	46	6217
2026-01-18 11:45:49.12	89.20	8.35	-37.1	-38.1	21.9	0.00e+00	123	32	0	1221591040	46	6350
2026-01-18 11:45:50.13	89.37	8.32	-37.0	-38.0	22.0	0.00e+00	123	32	0	1224736768	46	6263
2026-01-18 11:45:51.14	89.53	8.30	-37.2	-38.3	21.8	0.00e+00	122	32	0	1227882496	46	6454
2026-01-18 11:45:52.15	89.69	8.27	-37.1	-38.2	21.8	0.00e+00	123	32	0	1231028224	46	6377
2026-01-18 11:45:53.16	89.85	8.24	-36.9	-38.0	22.0	0.00e+00	122	32	0	1234173952	46	6247
2026-01-18 11:45:54.17	90.01	8.22	-37.0	-38.0	22.0	0.00e+00	123	32	0	1237319680	46	6246
2026-01-18 11:45:55.18	90.18	8.19	-37.1	-38.2	21.9	0.00e+00	120	32	0	1240465408	46	6363
2026-01-18 11:45:56.19	90.34	8.17	-37.0	-38.0	22.0	0.00e+00	123	32	0	1243611136	46	6252
2026-01-18 11:45:57.20	90.50	8.14	-37.1	-38.1	21.9	0.00e+00	123	32	0	1246756864	46	6330
2026-01-18 11:45:58.21	90.66	8.11	-37.1	-38.1	22.0	0.00e+00	122	32	0	1249902592	46	6310
2026-01-18 11:45:59.21	90.82	8.09	-37.0	-38.1	22.0	0.00e+00	122	32	0	1253048320	46	6299
2026-01-18 11:46:00.22	90.98	8.06	-37.2	-38.3	21.7	0.00e+00	122	32	0	1256194048	46	6473
2026-01-18 11:46:01.23	91.14	8.03	-37.4	-38.5	21.6	0.00e+00	120	32	0	1259339776	46	6602
2026-01-18 11:46:02.24	91.30	8.01	-37.0	-38.1	21.9	0.00e+00	123	32	0	1262485504	46	6316
2026-01-18 11:46:03.25	91.46	7.98	-37.2	-38.3	21.8	0.00e+00	123	32	0	1265631232	46	6494
2026-01-18 11:46:04.26	91.61	7.95	-37.1	-38.3	21.7	0.00e+00	123	32	0	1268776960	46	6481
2026-01-18 11:46:05.27	91.77	7.92	-37.0	-38.2	21.8	0.00e+00	120	32	0	1271922688	46	6372
2026-01-18 11:46:06.28	91.93	7.90	-37.2	-38.4	21.6	0.00e+00	123	32	0	1275068416	46	6567
2026-01-18 11:46:07.29	92.09	7.87	-37.2	-38.4	21.6	0.00e+00	122	32	0	1278214144	46	6517
2026-01-18 11:46:08.30	92.25	7.84	-37.1	-38.4	21.6	0.00e+00	123	32	0	1281359872	46	6524
2026-01-18 11:46:09.31	92.40	7.81	-37.0	-38.2	21.8	0.00e+00	123	32	0	1284505600	46	6376
2026-01-18 11:46:10.32	92.56	7.78	-36.9	-38.0	22.0	0.00e+00	123	32	0	1287651328	46	6214
2026-01-18 11:46:11.33	92.72	7.76	-36.8	-37.9	22.1	0.00e+00	123	32	0	1290797056	46	6179
2026-01-18 11:46:12.34	92.88	7.73	-36.9	-38.0	22.0	0.00e+00	123	32	0	1293942784	46	6217
2026-01-18 11:46:13.34	93.03	7.70	-36.7	-37.8	22.2	0.00e+00	123	32	0	1297088512	46	6101
2026-01-18 11:46:14.35	93.19	7.67	-36.8	-37.9	22.1	0.00e+00	123	32	0	1300234240	46	6190
2026-01-18 11:46:15.36	93.34	7.64	-36.9	-38.1	22.0	0.00e+00	120	32	0	1303379968	46	6300
2026-01-18 11:46:16.37	93.50	7.61	-37.0	-38.1	21.9	0.00e+00	122	32	0	1306525696	46	6350
2026-01-18 11:46:17.38	93.65	7.58	-37.0	-38.1	21.9	0.00e+00	122	32	0	1309671424	46	6335
2026-01-18 11:46:18.39	93.81	7.55	-37.1	-38.2	21.8	0.00e+00	120	32	0	1312817152	46	6406
2026-01-18 11:46:19.40	93.96	7.52	-37.2	-38.3	21.8	0.00e+00	123	32	0	1315962880	46	6443
2026-01-18 11:46:20.41	94.12	7.49	-37.3	-38.4	21.7	0.00e+00	123	32	0	1319108608	46	6505
2026-01-18 11:46:21.42	94.27	7.46	-37.4	-38.5	21.7	0.00e+00	118	32	0	1322254336	46	6617
2026-01-18 11:46:22.43	94.42	7.43	-37.4	-38.5	21.6	0.00e+00	122	32	0	1325400064	46	6615
2026-01-18 11:46:23.44	94.58	7.40	-37.5	-38.6	21.5	0.00e+00	123	32	0	1328545792	46	6690
2026-01-18 11:46:24.45	94.73	7.37	-37.4	-38.6	21.4	0.00e+00	123	32	0	1331691520	46	6667
2026-01-18 11:46:25.46	94.88	7.34	-37.6	-38.7	21.3	0.00e+00	122	32	0	1334837248	46	6763
2026-01-18 11:46:26.47	95.04	7.31	-37.6	-38.7	21.4	0.00e+00	120	32	0	1337982976	46	6777
2026-01-18 11:46:27.47	95.19	7.28	-37.6	-38.7	21.4	0.00e+00	122	32	0	1341128704	46	6750
2026-01-18 11:46:28.48	95.34	7.25	-37.4	-38.5	21.6	0.00e+00	123	32	0	1344274432	46	6613
2026-01-18 11:46:29.50	95.49	7.22	-37.3	-38.4	21.6	0.00e+00	122	32	0	1347420160	46	6546
2026-01-18 11:46:30.50	95.64	7.19	-37.3	-38.4	21.7	0.00e+00	122	32	0	1350565888	46	6516
2026-01-18 11:46:31.52	95.79	7.16	-37.2	-38.3	21.7	0.00e+00	122	32	0	1353711616	46	6475
2026-01-18 11:46:32.52	95.94	7.12	-37.1	-38.2	21.8	0.00e+00	122	32	0	1356857344	46	6397
2026-01-18 11:46:33.53	96.09	7.09	-37.1	-38.4	21.7	0.00e+00	122	32	0	1360003072	46	6501
2026-01-18 11:46:34.54	96.24	7.06	-37.2	-38.4	21.5	0.00e+00	123	32	0	1363148800	46	6571
2026-01-18 11:46:35.55	96.39	7.03	-37.2	-38.4	21.7	0.00e+00	121	32	0	1366294528	46	6539
2026-01-18 11:46:36.56	96.54	7.00	-37.4	-38.5	21.6	0.00e+00	122	32	0	1369440256	46	6629
2026-01-18 11:46:37.57	96.69	6.97	-37.5	-38.7	21.4	0.00e+00	122	32	0	1372585984	46	6727
2026-01-18 11:46:38.58	96.84	6.93	-37.4	-38.6	21.5	0.00e+00	123	32	0	1375731712	46	6650
2026-01-18 11:46:39.59	96.99	6.90	-37.6	-38.7	21.3	0.00e+00	123	32	0	1378877440	46	6780
2026-01-18 11:46:40.60	97.13	6.87	-37.7	-38.8	21.4	0.00e+00	124	32	0	1382023168	46	6820
2026-01-18 11:46:41.61	97.28	6.84	-37.8	-38.9	21.2	0.00e+00	122	32	0	1385168896	48	6159
2026-01-18 11:46:42.62	97.43	6.80	-37.8	-38.9	21.0	0.00e+00	122	32	0	1388314624	48	6194
2026-01-18 11:46:43.62	97.58	6.77	-37.7	-38.9	21.1	0.00e+00	123	32	0	1391460352	48	6158
2026-01-18 11:46:44.63	97.72	6.74	-37.7	-38.8	21.1	0.00e+00	122	32	0	1394606080	48	6132
2026-01-18 11:46:45.65	97.87	6.70	-37.8	-38.9	21.0	0.00e+00	122	32	0	1397751808	48	6193
2026-01-18 11:46:46.65	98.02	6.67	-37.7	-38.9	21.0	0.00e+00	124	32	0	1400897536	48	6141
2026-01-18 11:46:47.66	98.16	6.64	-37.5	-38.7	21.2	0.00e+00	123	32	0	1404043264	48	6055
2026-01-18 11:46:48.67	98.31	6.61	-37.4	-38.6	21.3	0.00e+00	123	32	0	1407188992	48	5994
2026-01-18 11:46:49.68	98.45	6.57	-37.4	-38.7	21.3	0.00e+00	123	32	0	1410334720	48	6001
2026-01-18 11:46:50.69	98.60	6.54	-37.6	-38.8	21.1	0.00e+00	123	32	0	1413480448	48	6100
2026-01-18 11:46:51.70	98.74	6.50	-37.6	-38.9	21.2	0.00e+00	122	32	0	1416626176	48	6150
2026-01-18 11:46:52.71	98.89	6.47	-37.7	-38.9	20.9	0.00e+00	122	32	0	1419771904	48	6204
2026-01-18 11:46:53.72	99.03	6.44	-37.7	-39.0	21.1	0.00e+00	122	32	0	1422917632	48	6208
2026-01-18 11:46:54.73	99.17	6.40	-38.0	-39.2	20.8	0.00e+00	123	32	0	1426063360	48	6391
2026-01-18 11:46:55.74	99.32	6.37	-37.7	-38.9	21.0	0.00e+00	122	32	0	1429209088	48	6182
2026-01-18 11:46:56.75	99.46	6.33	-37.9	-39.0	20.9	0.00e+00	123	32	0	1432354816	48	6266
2026-01-18 11:46:57.75	99.60	6.30	-38.0	-39.1	20.8	0.00e+00	122	32	0	1435500544	48	6347
2026-01-18 11:46:58.76	99.74	6.27	-37.8	-39.0	21.0	0.00e+00	120	32	0	1439694848	48	6210
2026-01-18 11:46:59.77	99.88	6.23	-37.8	-39.0	20.9	0.00e+00	123	32	0	1441792000	48	6234
2026-01-18 11:47:00.78	100.03	6.20	-37.8	-39.0	21.0	0.00e+00	122	32	0	1444937728	48	6225
2026-01-18 11:47:01.79	100.17	6.16	-37.9	-39.1	20.9	0.00e+00	123	32	0	1448083456	48	6298
2026-01-18 11:47:02.80	100.31	6.13	-38.0	-39.2	20.9	0.00e+00	123	32	0	1451229184	48	6365
2026-01-18 11:47:03.81	100.45	6.09	-38.0	-39.1	20.9	0.00e+00	122	32	0	1454374912	48	6294
2026-01-18 11:47:04.81	100.59	6.06	-37.9	-39.0	21.0	0.00e+00	123	32	0	1458569216	48	6244
2026-01-18 11:47:05.82	100.73	6.02	-37.8	-39.0	21.0	0.00e+00	123	32	0	1461714944	48	6228
2026-01-18 11:47:06.83	100.87	5.99	-37.8	-39.0	20.7	0.00e+00	122	32	0	1463812096	48	6272
2026-01-18 11:47:07.84	101.01	5.95	-37.7	-39.0	20.7	0.00e+00	123	32	0	1466957824	48	6225
2026-01-18 11:47:08.85	101.15	5.92	-37.8	-39.0	20.9	0.00e+00	123	32	0	1470103552	48	6230
2026-01-18 11:47:09.86	101.29	5.88	-37.9	-39.0	20.9	0.00e+00	122	32	0	1474297856	48	6258
2026-01-18 11:47:10.87	101.42	5.85	-37.8	-39.0	20.9	0.00e+00	123	32	0	1477443584	48	6224
2026-01-18 11:47:11.88	101.56	5.81	-37.8	-38.9	20.7	0.00e+00	122	32	0	1480589312	48	6202
2026-01-18 11:47:12.89	101.70	5.77	-37.8	-39.0	20.7	0.00e+00	123	32	0	1483735040	48	6225
2026-01-18 11:47:13.90	101.84	5.74	-37.7	-38.9	20.8	0.00e+00	123	32	0	1486880768	48	6164
2026-01-18 11:47:14.91	101.97	5.70	-37.8	-39.1	20.7	0.00e+00	123	32	0	1488977920	48	6299
2026-01-18 11:47:15.92	102.11	5.67	-37.7	-39.0	20.9	0.00e+00	122	32	0	1493172224	48	6226
2026-01-18 11:47:16.93	102.25	5.63	-37.8	-39.0	20.8	0.00e+00	123	32	0	1496317952	48	6269
2026-01-18 11:47:17.94	102.38	5.59	-37.8	-39.0	20.9	0.00e+00	123	32	0	1499463680	48	6275
2026-01-18 11:47:18.95	102.52	5.56	-37.7	-39.0	20.9	0.00e+00	123	32	0	1502609408	48	6212
2026-01-18 11:47:19.95	102.65	5.52	-37.9	-39.1	20.8	0.00e+00	123	32	0	1505755136	48	6278
2026-01-18 11:47:20.96	102.79	5.49	-37.9	-39.1	20.7	0.00e+00	122	32	0	1508900864	48	6301
2026-01-18 11:47:21.97	102.92	5.45	-38.0	-39.2	20.6	0.00e+00	123	32	0	1512046592	48	6378
2026-01-18 11:47:22.98	103.06	5.41	-37.9	-39.1	20.7	0.00e+00	122	32	0	1515192320	48	6283
2026-01-18 11:47:23.99	103.19	5.38	-37.8	-38.9	20.7	0.00e+00	122	32	0	1518338048	48	6190
2026-01-18 11:47:25.00	103.33	5.34	-37.9	-39.0	20.7	0.00e+00	122	33	0	1521483776	48	6260
2026-01-18 11:47:26.01	103.46	5.30	-37.9	-39.1	20.7	0.00e+00	123	32	0	1524629504	48	6325
2026-01-18 11:47:27.02	103.59	5.27	-38.0	-39.3	20.6	0.00e+00	122	32	0	1527775232	48	6432
2026-01-18 11:47:28.02	103.72	5.23	-37.8	-39.1	20.8	0.00e+00	123	32	0	1530920960	48	6288
2026-01-18 11:47:29.03	103.86	5.19	-37.9	-39.2	20.7	0.00e+00	123	33	0	1534066688	48	6383
2026-01-18 11:47:30.04	103.99	5.15	-38.0	-39.3	20.6	0.00e+00	120	32	0	1537212416	48	6436
2026-01-18 11:47:31.05	104.12	5.12	-38.2	-39.5	20.4	0.00e+00	123	32	0	1540358144	48	6577
2026-01-18 11:47:32.06	104.25	5.08	-37.8	-39.1	20.7	0.00e+00	123	32	0	1543503872	48	6313
2026-01-18 11:47:33.07	104.38	5.04	-37.7	-39.0	20.7	0.00e+00	123	32	0	1546649600	48	6264
2026-01-18 11:47:34.08	104.52	5.01	-37.9	-39.2	20.6	0.00e+00	122	32	0	1549795328	48	6391
2026-01-18 11:47:35.09	104.65	4.97	-37.7	-38.8	20.9	0.00e+00	123	33	0	1552941056	48	6127
2026-01-18 11:47:36.10	104.78	4.93	-38.1	-39.2	20.6	0.00e+00	124	32	0	1556086784	48	6422
2026-01-18 11:47:37.10	104.91	4.89	-38.0	-39.2	20.5	0.00e+00	123	32	0	1559232512	48	6401
2026-01-18 11:47:38.11	105.03	4.86	-38.1	-39.6	20.2	0.00e+00	123	33	0	1562378240	48	6658
2026-01-18 11:47:39.13	105.17	4.82	-37.9	-39.4	20.4	0.00e+00	122	32	0	1565523968	48	6534
2026-01-18 11:47:40.14	105.29	4.78	-37.8	-39.5	20.2	0.00e+00	123	32	0	1568669696	48	6608
2026-01-18 11:47:41.15	105.42	4.74	-37.8	-39.6	20.2	0.00e+00	122	33	0	1571815424	48	6712
2026-01-18 11:47:42.16	105.55	4.70	-37.8	-39.5	20.2	0.00e+00	123	33	0	1574961152	48	6578
2026-01-18 11:47:43.17	105.68	4.67	-38.1	-39.5	20.2	0.00e+00	123	33	0	1578106880	48	6642
2026-01-18 11:47:44.18	105.81	4.63	-38.4	-39.6	20.1	0.00e+00	120	33	0	1581252608	48	6723
2026-01-18 11:47:45.19	105.94	4.59	-38.6	-39.8	19.9	0.00e+00	123	32	0	1584398336	48	6814
2026-01-18 11:47:46.20	106.06	4.55	-38.4	-39.7	19.9	0.00e+00	123	32	0	1587544064	48	6794
2026-01-18 11:47:47.20	106.19	4.51	-38.3	-39.7	20.0	0.00e+00	123	33	0	1590689792	48	6757
2026-01-18 11:47:48.21	106.31	4.48	-38.3	-39.8	19.8	0.00e+00	123	33	0	1593835520	48	6832
2026-01-18 11:47:49.22	106.44	4.44	-38.2	-39.8	19.8	0.00e+00	123	32	0	1596981248	48	6871
2026-01-18 11:47:50.23	106.57	4.40	-38.1	-39.6	20.0	0.00e+00	122	33	0	1600126976	48	6675
2026-01-18 11:47:51.24	106.69	4.36	-38.6	-39.9	19.6	0.00e+00	120	33	0	1603272704	48	6959
2026-01-18 11:47:52.25	106.82	4.32	-38.9	-40.1	19.4	0.00e+00	122	32	0	1606418432	50	6350
2026-01-18 11:47:53.26	106.94	4.28	-38.6	-40.1	19.5	0.00e+00	120	33	0	1609564160	50	6287
2026-01-18 11:47:54.27	107.07	4.24	-38.5	-40.1	19.4	0.00e+00	122	33	0	1612709888	50	6283
2026-01-18 11:47:55.28	107.19	4.21	-38.6	-40.2	19.3	0.00e+00	121	32	0	1615855616	50	6406
2026-01-18 11:47:56.29	107.32	4.17	-38.9	-40.5	18.8	0.00e+00	120	33	0	1619001344	50	6642
2026-01-18 11:47:57.29	107.44	4.13	-38.6	-40.1	19.4	0.00e+00	123	33	0	1622147072	50	6287
2026-01-18 11:47:58.30	107.56	4.09	-39.0	-40.3	19.2	0.00e+00	123	32	0	1625292800	50	6464
2026-01-18 11:47:59.31	107.68	4.05	-38.9	-40.4	19.2	0.00e+00	123	32	0	1628438528	50	6509
2026-01-18 11:48:00.32	107.81	4.01	-38.8	-40.4	19.0	0.00e+00	123	32	0	1631584256	50	6501
2026-01-18 11:48:01.33	107.93	3.97	-38.8	-40.3	19.0	0.00e+00	120	32	0	1634729984	50	6491
2026-01-18 11:48:02.34	108.05	3.93	-39.0	-40.5	18.9	0.00e+00	122	32	0	1637875712	50	6613
2026-01-18 11:48:03.35	108.17	3.89	-39.3	-40.8	18.7	0.00e+00	120	33	0	1641021440	50	6843
2026-01-18 11:48:04.36	108.30	3.85	-39.2	-40.7	18.6	0.00e+00	122	32	0	1644167168	50	6746
2026-01-18 11:48:05.37	108.42	3.82	-39.3	-40.9	18.5	0.00e+00	123	32	0	1647312896	50	6931
2026-01-18 11:48:06.38	108.54	3.78	-39.2	-40.7	18.6	0.00e+00	120	32	0	1650458624	50	6798
2026-01-18 11:48:07.39	108.66	3.74	-39.4	-40.8	18.6	0.00e+00	123	32	0	1653604352	50	6867
2026-01-18 11:48:08.40	108.78	3.70	-39.5	-41.0	18.4	0.00e+00	120	32	0	1656750080	50	6976
2026-01-18 11:48:09.41	108.90	3.66	-39.4	-40.8	18.6	0.00e+00	122	32	0	1659895808	50	6849
2026-01-18 11:48:10.42	109.02	3.62	-39.7	-41.3	18.0	0.00e+00	123	33	0	1663041536	50	7220
2026-01-18 11:48:11.42	109.14	3.58	-39.4	-41.1	18.2	0.00e+00	120	32	0	1666187264	50	7053
2026-01-18 11:48:12.43	109.25	3.54	-39.2	-40.7	18.4	0.00e+00	123	32	0	1669332992	50	6759
2026-01-18 11:48:13.44	109.37	3.50	-39.6	-41.2	18.0	0.00e+00	123	32	0	1672478720	50	7154
2026-01-18 11:48:14.45	109.49	3.46	-39.4	-40.8	18.4	0.00e+00	123	32	0	1675624448	50	6863
2026-01-18 11:48:15.46	109.61	3.42	-39.4	-40.9	18.2	0.00e+00	123	32	0	1678770176	50	6961
2026-01-18 11:48:16.47	109.73	3.38	-39.9	-41.5	17.8	0.00e+00	120	33	0	1681915904	52	6632
2026-01-18 11:48:17.48	109.85	3.34	-39.6	-41.1	18.1	0.00e+00	123	32	0	1685061632	52	6348
2026-01-18 11:48:18.49	109.96	3.30	-40.3	-42.0	17.3	0.00e+00	123	32	0	1688207360	52	6983
2026-01-18 11:48:19.50	110.08	3.26	-39.8	-41.4	17.8	0.00e+00	123	32	0	1691353088	52	6524
2026-01-18 11:48:20.51	110.20	3.22	-38.9	-40.5	18.4	0.00e+00	120	32	0	1694498816	52	5915
2026-01-18 11:48:21.52	110.31	3.18	-39.4	-41.3	17.5	0.00e+00	123	32	0	1697644544	52	6483
2026-01-18 11:48:22.53	110.43	3.14	-39.4	-41.5	17.4	0.00e+00	123	32	0	1700790272	52	6593
2026-01-18 11:48:23.53	110.54	3.10	-39.3	-41.3	17.6	0.00e+00	120	32	0	1703936000	52	6455
2026-01-18 11:48:24.54	110.66	3.06	-39.4	-41.3	17.3	0.00e+00	122	33	0	1707081728	52	6487
2026-01-18 11:48:25.55	110.77	3.02	-39.8	-41.8	16.9	0.00e+00	121	33	0	1710227456	52	6879
2026-01-18 11:48:26.56	110.89	2.98	-40.4	-42.3	14.9	0.00e+00	122	33	0	1713373184	52	7223
2026-01-18 11:48:27.57	111.00	2.94	-46.7	-61.1	3.5	1.52e+00	0	33	104	1713373184	60	39744
2026-01-18 11:48:28.58	111.12	2.90	-47.9	-61.4	3.5	1.52e+00	0	33	104	1713373184	60	41293
2026-01-18 11:48:29.59	111.23	2.86	-48.8	-61.5	3.5	1.52e+00	0	33	104	1713373184	60	41952
2026-01-18 11:48:30.60	111.34	2.82	-48.8	-61.8	3.5	1.52e+00	0	33	104	1713373184	60	43420
2026-01-18 11:48:31.61	111.46	2.78	-49.0	-62.0	3.5	1.52e+00	0	33	104	1713373184	60	44067
2026-01-18 11:48:32.62	111.57	2.74	-48.9	-62.0	3.5	1.52e+00	0	33	104	1713373184	60	44403
2026-01-18 11:48:33.63	111.68	2.70	-49.2	-62.1	3.5	1.52e+00	0	33	104	1713373184	60	44541
2026-01-18 11:48:34.63	111.80	2.66	-49.2	-62.2	3.5	1.52e+00	0	33	104	1713373184	60	44999
2026-01-18 11:48:35.64	111.91	2.62	-49.3	-62.1	3.5	1.52e+00	0	32	104	1713373184	60	44797
2026-01-18 11:48:36.65	112.02	2.58	-49.3	-62.2	3.5	1.52e+00	0	33	104	1713373184	60	45129
2026-01-18 11:48:37.66	112.13	2.54	-49.4	-62.2	3.5	1.52e+00	0	33	104	1713373184	60	45367
2026-01-18 11:48:38.67	112.24	2.50	-49.3	-62.2	3.5	1.52e+00	0	33	104	1713373184	60	45373
2026-01-18 11:48:39.68	112.35	2.46	-49.4	-62.2	3.5	1.52e+00	0	33	104	1713373184	60	45382
2026-01-18 11:48:40.69	112.46	2.42	-49.4	-62.2	3.5	1.51e+00	0	33	104	1713373184	60	45284
2026-01-18 11:48:41.70	112.57	2.38	-49.4	-62.2	3.5	1.52e+00	0	33	104	1713373184	60	45461
2026-01-18 11:48:42.71	112.68	2.34	-49.4	-62.2	3.5	1.52e+00	0	33	104	1713373184	60	45260
2026-01-18 11:48:43.72	112.79	2.30	-49.3	-62.3	3.5	1.52e+00	0	33	104	1713373184	60	45505
2026-01-18 11:48:44.73	112.90	2.26	-49.4	-62.3	3.5	1.52e+00	0	33	104	1713373184	60	45666
2026-01-18 11:48:45.73	113.01	2.22	-49.4	-62.3	3.5	1.52e+00	0	33	104	1713373184	60	45651
2026-01-18 11:48:46.74	113.12	2.18	-49.4	-62.3	3.5	1.52e+00	0	33	104	1713373184	60	45608
2026-01-18 11:48:47.75	113.23	2.13	-49.4	-62.3	3.5	1.52e+00	0	33	104	1713373184	60	45532
2026-01-18 11:48:48.76	113.34	2.09	-49.4	-62.2	3.5	1.52e+00	0	33	104	1713373184	60	45468
2026-01-18 11:48:49.77	113.45	2.05	-49.4	-62.3	3.5	1.52e+00	0	33	104	1713373184	60	45495
2026-01-18 11:48:50.78	113.55	2.01	-49.4	-62.3	3.5	1.52e+00	0	33	104	1713373184	60	45557
2026-01-18 11:48:51.79	113.66	1.97	-49.4	-62.2	3.5	1.52e+00	0	33	104	1713373184	60	45403
2026-01-18 11:48:52.80	113.77	1.93	-49.4	-62.2	3.5	1.52e+00	0	33	104	1713373184	60	45320
2026-01-18 11:48:53.81	113.88	1.89	-49.4	-62.2	3.5	1.52e+00	0	33	104	1713373184	60	45356
2026-01-18 11:48:54.82	113.98	1.85	-49.4	-62.2	3.5	1.51e+00	0	33	104	1713373184	60	45379
2026-01-18 11:48:55.83	114.09	1.81	-49.4	-62.2	3.5	1.52e+00	0	33	104	1713373184	60	45402
2026-01-18 11:48:56.84	114.19	1.77	-49.4	-62.2	3.5	1.52e+00	0	33	104	1713373184	60	45372
2026-01-18 11:48:57.84	114.30	1.73	-49.4	-62.3	3.5	1.52e+00	0	33	104	1713373184	60	45503
2026-01-18 11:48:58.86	114.41	1.69	-49.4	-62.2	3.5	1.52e+00	0	33	104	1713373184	60	45221
2026-01-18 11:48:59.87	114.51	1.65	-49.4	-62.2	3.5	1.52e+00	0	33	104	1713373184	60	45237
2026-01-18 11:49:00.88	114.62	1.60	-49.4	-62.2	3.5	1.52e+00	0	33	104	1713373184	60	45211
2026-01-18 11:49:01.88	114.72	1.56	-49.4	-62.2	3.5	1.52e+00	0	33	104	1713373184	60	45363
2026-01-18 11:49:02.89	114.82	1.52	-49.4	-62.2	3.5	1.51e+00	0	33	104	1713373184	60	45268
2026-01-18 11:49:03.90	114.93	1.48	-49.4	-62.2	3.5	1.52e+00	0	33	104	1713373184	60	45447
2026-01-18 11:49:04.91	115.03	1.44	-49.4	-62.2	3.5	1.52e+00	0	33	104	1713373184	60	45393
2026-01-18 11:49:05.92	115.14	1.40	-49.4	-62.2	3.5	1.52e+00	0	33	104	1713373184	60	45426
2026-01-18 11:49:06.93	115.24	1.36	-49.4	-62.2	3.5	1.52e+00	0	33	104	1713373184	60	45357
2026-01-18 11:49:07.93	115.34	1.32	-49.4	-62.2	3.5	1.52e+00	0	33	104	1713373184	60	45469
2026-01-18 11:49:08.94	115.44	1.28	-49.4	-62.3	3.5	1.52e+00	0	33	104	1713373184	60	45482
2026-01-18 11:49:09.95	115.55	1.24	-49.4	-62.2	3.5	1.52e+00	0	33	104	1713373184	60	44974
2026-01-18 11:49:10.96	115.65	1.19	-49.4	-62.2	3.5	1.52e+00	0	33	104	1713373184	60	45176
2026-01-18 11:49:11.97	115.75	1.15	-49.4	-62.2	3.5	1.51e+00	0	33	104	1713373184	60	45306
2026-01-18 11:49:12.98	115.85	1.11	-49.4	-62.2	3.5	1.52e+00	0	33	104	1713373184	60	45249
2026-01-18 11:49:13.99	115.95	1.07	-49.4	-62.2	3.5	1.52e+00	0	33	104	1713373184	60	45385
2026-01-18 11:49:15.00	116.06	1.03	-49.4	-62.2	3.5	1.52e+00	0	33	104	1713373184	60	45277
2026-01-18 11:49:16.01	116.16	0.99	-49.4	-62.2	3.5	1.52e+00	0	33	104	1713373184	60	45258
2026-01-18 11:49:17.02	116.26	0.95	-49.4	-62.2	3.5	1.52e+00	0	33	104	1713373184	60	45428
2026-01-18 11:49:18.02	116.36	0.91	-49.4	-62.2	3.5	1.52e+00	0	33	104	1713373184	60	45241
2026-01-18 11:49:19.03	116.46	0.87	-49.4	-62.2	3.5	1.52e+00	0	33	104	1713373184	60	45371
2026-01-18 11:49:20.04	116.56	0.82	-49.4	-62.3	3.5	1.52e+00	0	33	104	1713373184	60	45577
2026-01-18 11:49:21.05	116.66	0.78	-49.4	-62.2	3.5	1.52e+00	0	33	104	1713373184	60	45308
2026-01-18 11:49:22.06	116.76	0.74	-49.4	-62.2	3.5	1.52e+00	0	33	104	1713373184	60	45364
2026-01-18 11:49:23.07	116.86	0.70	-49.4	-62.2	3.5	1.52e+00	0	33	104	1713373184	60	45256
2026-01-18 11:49:24.08	116.95	0.66	-49.4	-62.3	3.5	1.52e+00	0	33	104	1713373184	60	45500
2026-01-18 11:49:25.08	117.05	0.62	-49.4	-62.2	3.5	1.52e+00	0	33	104	1713373184	60	45183
2026-01-18 11:49:26.09	117.15	0.58	-49.4	-62.2	3.5	1.52e+00	0	33	104	1713373184	60	45413
2026-01-18 11:49:27.10	117.25	0.54	-49.4	-62.2	3.5	1.52e+00	0	33	104	1713373184	60	45469
2026-01-18 11:49:28.11	117.35	0.49	-49.4	-62.2	3.5	1.52e+00	0	33	104	1713373184	60	45441
2026-01-18 11:49:29.12	117.44	0.45	-49.4	-62.3	3.5	1.52e+00	0	33	104	1713373184	60	45496
2026-01-18 11:49:30.13	117.54	0.41	-49.4	-62.2	3.5	1.52e+00	0	33	104	1713373184	60	45390
2026-01-18 11:49:31.14	117.64	0.37	-49.4	-62.2	3.5	1.52e+00	0	33	104	1713373184	60	45301
2026-01-18 11:49:32.14	117.73	0.33	-49.4	-62.2	3.5	1.52e+00	0	33	104	1713373184	60	45379
2026-01-18 11:49:33.15	117.83	0.29	-49.4	-62.2	3.5	1.52e+00	0	33	104	1713373184	60	45303
2026-01-18 11:49:34.17	117.93	0.25	-49.4	-62.2	3.5	1.52e+00	0	33	104	1713373184	60	45122
2026-01-18 11:49:35.17	118.02	0.21	-49.4	-62.2	3.5	1.52e+00	0	33	104	1713373184	60	45171
2026-01-18 11:49:36.18	118.12	0.16	-49.4	-62.2	3.5	1.52e+00	0	33	104	1713373184	60	45276
2026-01-18 11:49:37.19	118.21	0.12	-49.4	-62.2	3.5	1.52e+00	0	33	104	1713373184	60	45337
2026-01-18 11:49:38.20	118.31	0.08	-49.4	-62.2	3.5	1.52e+00	0	33	104	1713373184	60	45271
2026-01-18 11:49:39.21	118.40	0.04	-49.4	-62.2	3.5	1.52e+00	0	33	104	1713373184	60	45189
2026-01-18 11:49:40.22	118.50	-0.00	-49.4	-62.2	3.5	1.51e+00	0	33	104	1713373184	60	45356
