passes_logs/2026/01/18/R4.6S_Anadyr/R4.6S_Anadyr__20260118_194709_FENGYUN_3D_rec.log

#Pass ID: 20260118_194709_FENGYUN 3D
#Satellite: FENGYUN 3D
#Configuration: FENGYUN 3D
#almurnet v.1.7.20251203
#Start time: 2026-01-18 19:47:12

#Version: 2.2.20231116
#Station: R4.6S_Anadyr
#Location: 177.4865 lon 64.73178 lat
#TLE: 1 43010U 17072A   26017.96359538  .00000271  00000+0  15011-3 0  9999
#TLE: 2 43010  98.9936 349.8252 0002386 103.8840 256.2601 14.19697057423673

#Time	Az	El	Level	Level2	SNR	BER	BlckErr	Temp	State	Recorded	gain1	gain2
2026-01-18 19:47:12.16	34.48	0.13	-50.1	-67.8	3.5	3.02e+01	0	38	0	0	60	94484
2026-01-18 19:47:13.16	34.42	0.19	-49.6	-61.8	3.6	8.46e-01	0	39	104	0	60	44374
2026-01-18 19:47:14.17	34.35	0.24	-49.6	-61.8	3.6	8.45e-01	0	39	104	0	60	44478
2026-01-18 19:47:15.18	34.29	0.29	-49.6	-61.8	3.6	8.45e-01	0	39	104	0	60	44568
2026-01-18 19:47:16.19	34.23	0.35	-49.7	-61.8	3.6	8.47e-01	0	39	104	0	60	44408
2026-01-18 19:47:17.20	34.16	0.40	-49.7	-61.8	3.6	8.46e-01	0	39	104	0	60	44591
2026-01-18 19:47:18.21	34.10	0.45	-49.7	-61.8	3.6	8.45e-01	0	40	104	0	60	44606
2026-01-18 19:47:19.22	34.03	0.51	-49.7	-61.8	3.6	8.46e-01	0	40	104	0	60	44559
2026-01-18 19:47:20.23	33.97	0.56	-49.7	-61.9	3.6	8.44e-01	0	40	104	0	60	44991
2026-01-18 19:47:21.24	33.91	0.61	-49.7	-61.9	3.6	8.44e-01	0	40	104	0	60	45236
2026-01-18 19:47:22.25	33.84	0.67	-49.7	-61.9	3.6	8.45e-01	0	40	104	0	60	44763
2026-01-18 19:47:23.26	33.78	0.72	-49.6	-61.8	3.6	8.45e-01	0	40	104	0	60	44683
2026-01-18 19:47:24.27	33.71	0.77	-49.7	-61.8	3.6	8.46e-01	0	40	104	0	60	44309
2026-01-18 19:47:25.27	33.65	0.83	-49.6	-61.7	3.6	8.45e-01	0	40	104	0	60	44081
2026-01-18 19:47:26.28	33.58	0.88	-49.5	-61.7	3.6	8.45e-01	0	40	104	0	60	43951
2026-01-18 19:47:27.29	33.51	0.93	-49.4	-61.6	3.6	8.46e-01	0	40	104	0	60	43482
2026-01-18 19:47:28.30	33.45	0.99	-49.4	-61.5	3.6	8.44e-01	0	40	104	0	60	42970
2026-01-18 19:47:29.31	33.38	1.04	-49.2	-61.5	3.6	8.45e-01	0	40	104	0	60	42826
2026-01-18 19:47:30.32	33.31	1.10	-49.2	-61.4	3.6	8.45e-01	0	40	104	0	60	42355
2026-01-18 19:47:31.33	33.25	1.15	-49.1	-61.3	3.6	8.45e-01	0	40	104	0	60	41930
2026-01-18 19:47:32.34	33.18	1.20	-49.1	-61.2	3.6	8.46e-01	0	40	104	0	60	41604
2026-01-18 19:47:33.35	33.11	1.26	-49.0	-61.0	3.6	8.45e-01	0	40	104	0	60	40774
2026-01-18 19:47:34.36	33.04	1.31	-48.7	-60.9	3.6	8.45e-01	0	40	104	0	60	39943
2026-01-18 19:47:35.37	32.97	1.37	-48.5	-60.6	3.6	8.46e-01	0	40	104	0	60	38722
2026-01-18 19:47:36.38	32.91	1.42	-48.1	-60.2	3.6	8.45e-01	0	40	104	0	60	37114
2026-01-18 19:47:37.39	32.84	1.48	-47.8	-59.8	3.6	8.45e-01	0	40	104	0	60	35339
2026-01-18 19:47:38.40	32.77	1.53	-47.8	-59.9	3.6	8.44e-01	0	40	104	0	60	35724
2026-01-18 19:47:39.41	32.70	1.59	-47.8	-59.8	3.6	8.45e-01	0	40	104	0	60	35473
2026-01-18 19:47:40.42	32.63	1.64	-47.8	-59.9	3.5	8.45e-01	0	40	104	0	60	35741
2026-01-18 19:47:41.42	32.56	1.69	-47.8	-59.9	3.6	8.45e-01	0	40	104	0	60	35686
2026-01-18 19:47:42.43	32.49	1.75	-47.8	-59.9	3.6	8.45e-01	0	40	104	0	60	35790
2026-01-18 19:47:43.44	32.42	1.80	-47.8	-60.0	3.6	8.45e-01	0	40	104	0	60	35981
2026-01-18 19:47:44.45	32.35	1.86	-47.8	-60.0	3.6	8.45e-01	0	40	104	0	60	35966
2026-01-18 19:47:45.46	32.28	1.91	-47.8	-59.9	3.6	8.45e-01	0	40	104	0	60	35717
2026-01-18 19:47:46.47	32.21	1.97	-47.8	-59.9	3.6	8.46e-01	0	40	104	0	60	35827
2026-01-18 19:47:47.48	32.14	2.02	-47.8	-59.9	3.6	8.45e-01	0	40	104	0	60	35695
2026-01-18 19:47:48.49	32.06	2.08	-47.8	-59.8	3.6	8.46e-01	0	40	104	0	60	35160
2026-01-18 19:47:49.50	31.99	2.13	-47.8	-59.5	3.6	8.45e-01	0	40	104	0	60	34018
2026-01-18 19:47:50.50	31.92	2.19	-47.8	-59.2	3.6	8.45e-01	0	40	104	0	60	33009
2026-01-18 19:47:51.51	31.85	2.25	-47.7	-59.1	3.6	8.45e-01	0	40	104	0	60	32675
2026-01-18 19:47:52.52	31.78	2.30	-47.7	-59.2	3.6	8.45e-01	0	40	104	0	60	32850
2026-01-18 19:47:53.54	31.70	2.36	-47.8	-59.5	3.6	8.45e-01	0	40	104	0	60	34200
2026-01-18 19:47:54.54	31.63	2.41	-47.8	-59.9	3.6	8.47e-01	0	40	104	0	60	35610
2026-01-18 19:47:55.55	31.56	2.47	-47.8	-59.9	3.6	8.45e-01	0	40	104	0	60	35806
2026-01-18 19:47:56.56	31.48	2.52	-47.8	-59.6	3.6	8.45e-01	0	40	104	0	60	34543
2026-01-18 19:47:57.58	31.41	2.58	-47.8	-59.3	3.6	8.46e-01	0	40	104	0	60	33422
2026-01-18 19:47:58.58	31.33	2.63	-47.8	-59.3	3.6	8.46e-01	0	40	104	0	60	33419
2026-01-18 19:47:59.59	31.26	2.69	-47.8	-59.7	3.6	8.45e-01	0	40	104	0	60	34842
2026-01-18 19:48:00.60	31.18	2.75	-47.8	-59.6	3.6	8.46e-01	0	40	104	0	60	34648
2026-01-18 19:48:01.61	31.11	2.80	-47.7	-58.6	3.6	8.45e-01	0	40	104	0	60	30773
2026-01-18 19:48:02.62	31.03	2.86	-47.5	-56.8	3.7	8.42e-01	0	40	0	0	60	25126
2026-01-18 19:48:03.63	30.95	2.92	-47.4	-56.4	4.0	8.37e-01	0	40	104	0	60	23782
2026-01-18 19:48:04.64	30.88	2.97	-47.5	-57.1	3.6	8.37e-01	0	40	104	0	60	25853
2026-01-18 19:48:05.65	30.80	3.03	-47.6	-57.9	3.6	8.44e-01	0	40	104	0	60	28341
2026-01-18 19:48:06.66	30.72	3.08	-47.6	-57.8	3.7	8.44e-01	0	40	104	0	60	28064
2026-01-18 19:48:07.67	30.65	3.14	-47.2	-53.5	4.6	8.33e-01	0	40	0	0	60	17037
2026-01-18 19:48:08.68	30.57	3.20	-46.4	-51.0	7.1	2.72e-01	0	40	0	3145728	60	12815
2026-01-18 19:48:09.69	30.49	3.25	-45.6	-49.1	9.5	4.08e-02	0	40	0	8388608	60	10348
2026-01-18 19:48:10.70	30.41	3.31	-45.4	-48.9	7.6	6.58e-03	0	40	0	13631488	60	10034
2026-01-18 19:48:11.71	30.33	3.37	-47.8	-58.1	3.7	8.44e-01	0	40	104	14680064	60	29104
2026-01-18 19:48:12.72	30.26	3.42	-45.6	-49.6	10.5	7.31e-01	0	40	104	14680064	60	10870
2026-01-18 19:48:13.72	30.18	3.48	-40.1	-41.2	18.5	5.35e-03	0	40	0	18874368	56	5220
2026-01-18 19:48:14.74	30.10	3.54	-42.6	-44.6	11.8	0.00e+00	0	40	0	25165824	50	10950
2026-01-18 19:48:15.75	30.02	3.59	-46.4	-51.8	9.5	8.40e-01	0	41	104	25165824	60	14003
2026-01-18 19:48:16.76	29.94	3.65	-37.6	-38.5	20.6	0.00e+00	0	40	0	29360128	48	6054
2026-01-18 19:48:17.77	29.86	3.71	-37.4	-38.3	20.7	0.00e+00	0	40	0	34603008	48	5925
2026-01-18 19:48:18.78	29.77	3.77	-38.0	-39.0	20.1	0.00e+00	0	41	0	40894464	48	6417
2026-01-18 19:48:19.79	29.69	3.82	-38.0	-38.9	20.1	0.00e+00	0	40	0	46137344	48	6383
2026-01-18 19:48:20.80	29.61	3.88	-38.2	-39.1	20.2	0.00e+00	0	40	0	51380224	48	6518
2026-01-18 19:48:21.81	29.53	3.94	-37.9	-38.8	20.3	0.00e+00	0	41	0	57671680	48	6288
2026-01-18 19:48:22.82	29.45	3.99	-37.8	-38.8	20.4	0.00e+00	0	41	0	62914560	48	6258
2026-01-18 19:48:23.83	29.37	4.05	-38.1	-39.1	20.1	0.00e+00	0	41	0	69206016	48	6483
2026-01-18 19:48:24.84	29.28	4.11	-38.0	-39.0	19.9	0.00e+00	0	41	0	74448896	48	6391
2026-01-18 19:48:25.85	29.20	4.17	-37.8	-38.7	20.6	0.00e+00	0	41	0	79691776	48	6201
2026-01-18 19:48:26.86	29.12	4.23	-37.8	-38.7	20.5	0.00e+00	0	41	0	85983232	48	6192
2026-01-18 19:48:27.86	29.03	4.28	-38.0	-38.9	20.3	0.00e+00	0	40	0	91226112	48	6348
2026-01-18 19:48:28.88	28.95	4.34	-38.1	-39.1	20.3	0.00e+00	0	41	0	97517568	48	6481
2026-01-18 19:48:29.89	28.86	4.40	-37.7	-38.6	20.7	0.00e+00	0	40	0	102760448	48	6122
2026-01-18 19:48:30.89	28.78	4.46	-37.4	-38.3	21.0	0.00e+00	0	40	0	109051904	48	5932
2026-01-18 19:48:31.91	28.69	4.51	-37.5	-38.4	20.9	0.00e+00	0	40	0	114294784	48	6023
2026-01-18 19:48:32.92	28.61	4.57	-37.7	-38.6	20.7	0.00e+00	0	40	0	119537664	48	6124
2026-01-18 19:48:33.93	28.52	4.63	-37.4	-38.3	21.1	0.00e+00	0	41	0	125829120	48	5916
2026-01-18 19:48:34.94	28.43	4.69	-37.5	-38.3	20.9	0.00e+00	0	41	0	131072000	48	5951
2026-01-18 19:48:35.95	28.35	4.75	-37.5	-38.4	21.0	0.00e+00	0	40	0	137363456	48	5967
2026-01-18 19:48:36.96	28.26	4.81	-37.3	-38.2	21.1	0.00e+00	0	41	0	142606336	48	5855
2026-01-18 19:48:37.97	28.17	4.86	-37.2	-38.1	21.3	0.00e+00	0	41	0	148897792	48	5768
2026-01-18 19:48:38.98	28.08	4.92	-37.2	-38.1	21.3	0.00e+00	0	41	0	154140672	48	5762
2026-01-18 19:48:39.99	28.00	4.98	-37.4	-38.2	21.1	0.00e+00	0	41	0	159383552	48	5895
2026-01-18 19:48:41.00	27.91	5.04	-37.3	-38.1	21.2	0.00e+00	0	41	0	165675008	48	5819
2026-01-18 19:48:42.01	27.82	5.10	-37.3	-38.2	21.1	0.00e+00	0	41	0	170917888	48	5861
2026-01-18 19:48:43.02	27.73	5.16	-37.4	-38.2	21.1	0.00e+00	0	41	0	177209344	48	5888
2026-01-18 19:48:44.03	27.64	5.22	-37.2	-38.1	21.3	0.00e+00	0	41	0	182452224	48	5763
2026-01-18 19:48:45.04	27.55	5.27	-36.8	-37.6	21.7	0.00e+00	0	41	0	187695104	48	5492
2026-01-18 19:48:46.04	27.46	5.33	-36.9	-37.7	21.6	0.00e+00	0	40	0	193986560	48	5539
2026-01-18 19:48:47.05	27.37	5.39	-36.9	-37.7	21.6	0.00e+00	0	41	0	199229440	48	5544
2026-01-18 19:48:48.06	27.28	5.45	-36.9	-37.8	21.6	0.00e+00	0	41	0	205520896	48	5576
2026-01-18 19:48:49.07	27.19	5.51	-36.7	-37.5	21.9	0.00e+00	0	41	0	210763776	46	6084
2026-01-18 19:48:50.08	27.09	5.57	-36.8	-37.6	21.8	0.00e+00	0	41	0	217055232	46	6122
2026-01-18 19:48:51.09	27.00	5.63	-36.9	-37.8	21.7	0.00e+00	0	41	0	222298112	46	6248
2026-01-18 19:48:52.10	26.91	5.69	-37.0	-37.9	21.6	0.00e+00	0	41	0	227540992	46	6324
2026-01-18 19:48:53.11	26.82	5.75	-37.0	-37.8	21.6	0.00e+00	0	41	0	233832448	46	6293
2026-01-18 19:48:54.12	26.72	5.81	-36.9	-37.7	21.8	0.00e+00	0	41	0	239075328	46	6220
2026-01-18 19:48:55.13	26.63	5.87	-36.9	-37.8	21.7	0.00e+00	0	41	0	245366784	46	6280
2026-01-18 19:48:56.14	26.53	5.93	-36.9	-37.7	21.7	0.00e+00	0	41	0	250609664	46	6200
2026-01-18 19:48:57.15	26.44	5.98	-36.8	-37.6	21.8	0.00e+00	0	41	0	255852544	46	6166
2026-01-18 19:48:58.16	26.34	6.04	-36.7	-37.5	21.9	0.00e+00	0	41	0	262144000	46	6058
2026-01-18 19:48:59.17	26.25	6.10	-36.9	-37.7	21.9	0.00e+00	0	41	0	267386880	46	6201
2026-01-18 19:49:00.18	26.15	6.16	-36.7	-37.6	21.9	0.00e+00	0	41	0	273678336	46	6112
2026-01-18 19:49:01.19	26.06	6.22	-36.7	-37.6	22.0	0.00e+00	0	41	0	278921216	46	6104
2026-01-18 19:49:02.20	25.96	6.28	-36.7	-37.5	22.0	0.00e+00	0	41	0	284164096	46	6054
2026-01-18 19:49:03.21	25.86	6.34	-36.8	-37.6	22.0	0.00e+00	0	41	0	290455552	46	6160
2026-01-18 19:49:04.22	25.76	6.40	-36.9	-37.7	21.7	0.00e+00	0	41	0	295698432	46	6217
2026-01-18 19:49:05.23	25.67	6.46	-36.6	-37.4	22.1	0.00e+00	0	41	0	301989888	46	6000
2026-01-18 19:49:06.24	25.57	6.52	-36.6	-37.4	22.1	0.00e+00	0	41	0	307232768	46	6016
2026-01-18 19:49:07.25	25.47	6.58	-36.5	-37.3	22.3	0.00e+00	0	41	0	313524224	46	5937
2026-01-18 19:49:08.26	25.37	6.64	-36.6	-37.4	22.1	0.00e+00	0	41	0	318767104	46	6020
2026-01-18 19:49:09.27	25.27	6.70	-36.4	-37.2	22.3	0.00e+00	0	41	0	325058560	46	5829
2026-01-18 19:49:10.28	25.17	6.76	-36.6	-37.4	22.3	0.00e+00	0	41	0	330301440	46	5997
2026-01-18 19:49:11.29	25.07	6.83	-36.5	-37.2	22.3	0.00e+00	0	41	0	335544320	46	5895
2026-01-18 19:49:12.30	24.97	6.89	-36.5	-37.3	22.2	0.00e+00	0	41	0	341835776	46	5918
2026-01-18 19:49:13.31	24.87	6.95	-36.4	-37.2	22.5	0.00e+00	0	41	0	347078656	46	5846
2026-01-18 19:49:14.32	24.76	7.01	-36.4	-37.2	22.4	0.00e+00	0	41	0	352321536	46	5889
2026-01-18 19:49:15.33	24.66	7.07	-36.6	-37.4	22.2	0.00e+00	0	41	0	358612992	46	5976
2026-01-18 19:49:16.34	24.56	7.13	-36.4	-37.2	22.4	0.00e+00	0	41	0	363855872	46	5893
2026-01-18 19:49:17.35	24.46	7.19	-36.5	-37.3	22.4	0.00e+00	0	41	0	370147328	46	5915
2026-01-18 19:49:18.36	24.35	7.25	-36.3	-37.1	22.5	0.00e+00	0	41	0	375390208	46	5816
2026-01-18 19:49:19.37	24.25	7.31	-36.6	-37.4	22.3	0.00e+00	0	41	0	380633088	46	5967
2026-01-18 19:49:20.38	24.14	7.37	-36.3	-37.1	22.6	0.00e+00	0	41	0	386924544	46	5771
2026-01-18 19:49:21.39	24.04	7.43	-36.3	-37.1	22.6	0.00e+00	0	41	0	392167424	46	5769
2026-01-18 19:49:22.40	23.93	7.49	-36.1	-36.9	22.8	0.00e+00	0	41	0	398458880	46	5641
2026-01-18 19:49:23.41	23.83	7.55	-36.3	-37.1	22.5	0.00e+00	0	41	0	403701760	46	5819
2026-01-18 19:49:24.42	23.72	7.62	-36.3	-37.1	22.5	0.00e+00	0	41	0	409993216	46	5783
2026-01-18 19:49:25.43	23.61	7.68	-36.1	-36.9	22.8	0.00e+00	0	41	0	415236096	46	5660
2026-01-18 19:49:26.44	23.51	7.74	-36.0	-36.8	22.9	0.00e+00	0	41	0	421527552	46	5577
2026-01-18 19:49:27.45	23.40	7.80	-35.9	-36.6	23.0	0.00e+00	0	41	0	426770432	46	5499
2026-01-18 19:49:28.46	23.29	7.86	-36.0	-36.8	22.9	0.00e+00	0	41	0	432013312	46	5574
2026-01-18 19:49:29.47	23.18	7.92	-36.0	-36.8	22.9	0.00e+00	0	41	0	438304768	46	5593
2026-01-18 19:49:30.48	23.07	7.98	-36.1	-36.8	22.9	0.00e+00	0	41	0	443547648	46	5623
2026-01-18 19:49:31.49	22.96	8.04	-36.2	-37.0	22.8	0.00e+00	0	41	0	449839104	46	5729
2026-01-18 19:49:32.50	22.85	8.11	-36.3	-37.1	22.5	0.00e+00	0	41	0	455081984	46	5776
2026-01-18 19:49:33.51	22.74	8.17	-36.2	-37.0	22.7	0.00e+00	0	41	0	460324864	46	5704
2026-01-18 19:49:34.52	22.63	8.23	-36.4	-37.1	22.7	0.00e+00	0	41	0	466616320	46	5821
2026-01-18 19:49:35.53	22.52	8.29	-36.0	-36.8	22.9	0.00e+00	0	41	0	471859200	46	5601
2026-01-18 19:49:36.54	22.41	8.35	-36.1	-36.9	22.9	0.00e+00	0	41	0	478150656	46	5688
2026-01-18 19:49:37.55	22.29	8.41	-36.1	-36.8	22.9	0.00e+00	0	41	0	483393536	46	5621
2026-01-18 19:49:38.56	22.18	8.48	-36.1	-36.9	22.8	0.00e+00	0	41	0	488636416	46	5653
2026-01-18 19:49:39.57	22.07	8.54	-36.2	-36.9	22.8	0.00e+00	0	41	0	494927872	46	5680
2026-01-18 19:49:40.58	21.95	8.60	-36.0	-36.8	22.9	0.00e+00	0	41	0	500170752	46	5570
2026-01-18 19:49:41.59	21.84	8.66	-35.8	-36.5	23.3	0.00e+00	0	41	0	506462208	46	5404
2026-01-18 19:49:42.60	21.72	8.72	-35.6	-36.3	23.3	0.00e+00	0	41	0	511705088	44	5961
2026-01-18 19:49:43.61	21.61	8.79	-35.6	-36.4	23.4	0.00e+00	0	41	0	517996544	44	5974
2026-01-18 19:49:44.62	21.49	8.85	-35.7	-36.5	23.3	0.00e+00	0	41	0	523239424	44	6042
2026-01-18 19:49:45.63	21.38	8.91	-35.5	-36.2	23.5	0.00e+00	0	41	0	529530880	44	5869
2026-01-18 19:49:46.64	21.26	8.97	-35.5	-36.3	23.5	0.00e+00	0	41	0	534773760	44	5926
2026-01-18 19:49:47.64	21.14	9.03	-35.3	-36.1	23.6	0.00e+00	0	41	0	540016640	44	5769
2026-01-18 19:49:48.65	21.02	9.10	-35.2	-35.9	23.8	0.00e+00	0	41	0	546308096	44	5689
2026-01-18 19:49:49.66	20.90	9.16	-35.3	-36.0	23.8	0.00e+00	0	41	0	551550976	44	5723
2026-01-18 19:49:50.67	20.79	9.22	-35.1	-35.8	23.9	0.00e+00	0	41	0	557842432	44	5576
2026-01-18 19:49:51.69	20.66	9.28	-35.3	-36.0	23.7	0.00e+00	0	41	0	563085312	44	5716
2026-01-18 19:49:52.69	20.55	9.34	-35.3	-36.0	23.7	0.00e+00	0	41	0	568328192	44	5727
2026-01-18 19:49:53.70	20.42	9.41	-35.1	-35.8	23.9	0.00e+00	0	41	0	574619648	44	5630
2026-01-18 19:49:54.72	20.30	9.47	-35.0	-35.8	24.0	0.00e+00	0	41	0	579862528	44	5572
2026-01-18 19:49:55.72	20.18	9.53	-35.2	-35.9	23.8	0.00e+00	0	41	0	586153984	44	5648
2026-01-18 19:49:56.73	20.06	9.59	-35.2	-35.9	23.8	0.00e+00	0	41	0	591396864	44	5666
2026-01-18 19:49:57.74	19.94	9.66	-35.1	-35.8	23.9	0.00e+00	0	41	0	596639744	44	5602
2026-01-18 19:49:58.75	19.81	9.72	-35.2	-35.9	23.8	0.00e+00	0	41	0	602931200	44	5655
2026-01-18 19:49:59.76	19.69	9.78	-35.3	-36.0	23.8	0.00e+00	0	41	0	608174080	44	5736
2026-01-18 19:50:00.77	19.56	9.84	-35.5	-36.2	23.6	0.00e+00	0	41	0	614465536	44	5879
2026-01-18 19:50:01.78	19.44	9.91	-35.4	-36.1	23.6	0.00e+00	0	41	0	619708416	44	5784
2026-01-18 19:50:02.78	19.31	9.97	-35.5	-36.2	23.5	0.00e+00	0	41	0	625999872	44	5883
2026-01-18 19:50:03.79	19.19	10.03	-35.2	-35.9	23.9	0.00e+00	0	41	0	631242752	44	5680
2026-01-18 19:50:04.80	19.06	10.09	-35.3	-36.0	23.8	0.00e+00	0	41	0	636485632	44	5744
2026-01-18 19:50:05.81	18.93	10.16	-35.1	-35.8	24.0	0.00e+00	0	41	0	642777088	44	5588
2026-01-18 19:50:06.82	18.81	10.22	-35.1	-35.8	23.9	0.00e+00	0	41	0	648019968	44	5624
2026-01-18 19:50:07.83	18.68	10.28	-35.2	-36.0	23.8	0.00e+00	0	41	0	654311424	44	5702
2026-01-18 19:50:08.84	18.55	10.35	-35.2	-36.0	23.8	0.00e+00	0	41	0	659554304	44	5696
2026-01-18 19:50:09.85	18.42	10.41	-35.2	-36.0	23.8	0.00e+00	0	41	0	664797184	44	5702
2026-01-18 19:50:10.86	18.29	10.47	-35.2	-35.9	23.9	0.00e+00	0	41	0	671088640	44	5673
2026-01-18 19:50:11.87	18.16	10.53	-35.1	-35.8	24.0	0.00e+00	0	41	0	676331520	44	5626
2026-01-18 19:50:12.88	18.03	10.60	-35.1	-35.8	24.0	0.00e+00	0	41	0	682622976	44	5600
2026-01-18 19:50:13.89	17.89	10.66	-35.1	-35.8	24.0	0.00e+00	0	41	0	687865856	44	5574
2026-01-18 19:50:14.91	17.76	10.72	-34.9	-35.6	24.2	0.00e+00	0	41	0	693108736	44	5476
2026-01-18 19:50:15.92	17.63	10.79	-34.9	-35.6	24.2	0.00e+00	0	41	0	699400192	44	5468
2026-01-18 19:50:16.93	17.49	10.85	-35.0	-35.7	24.1	0.00e+00	0	41	0	704643072	44	5535
2026-01-18 19:50:17.94	17.36	10.91	-34.9	-35.6	24.3	0.00e+00	0	41	0	710934528	44	5444
2026-01-18 19:50:18.95	17.23	10.97	-34.8	-35.5	24.3	0.00e+00	0	41	0	716177408	44	5432
2026-01-18 19:50:19.95	17.09	11.04	-34.8	-35.5	24.3	0.00e+00	0	41	0	722468864	44	5417
2026-01-18 19:50:20.96	16.96	11.10	-34.9	-35.6	24.2	0.00e+00	0	41	0	727711744	44	5448
2026-01-18 19:50:21.97	16.82	11.16	-34.9	-35.6	24.2	0.00e+00	0	41	0	734003200	44	5448
2026-01-18 19:50:22.98	16.68	11.22	-34.8	-35.5	24.3	0.00e+00	0	41	0	739246080	44	5419
2026-01-18 19:50:23.99	16.54	11.29	-34.9	-35.6	24.2	0.00e+00	0	41	0	744488960	44	5453
2026-01-18 19:50:25.00	16.40	11.35	-34.9	-35.6	24.2	0.00e+00	0	41	0	750780416	44	5486
2026-01-18 19:50:26.01	16.27	11.41	-34.9	-35.6	24.2	0.00e+00	0	41	0	756023296	44	5479
2026-01-18 19:50:27.02	16.13	11.48	-34.8	-35.6	24.3	0.00e+00	0	41	0	762314752	44	5442
2026-01-18 19:50:28.03	15.99	11.54	-34.8	-35.5	24.3	0.00e+00	0	41	0	767557632	44	5430
2026-01-18 19:50:29.04	15.84	11.60	-34.8	-35.5	24.3	0.00e+00	0	41	0	772800512	42	6092
2026-01-18 19:50:30.05	15.70	11.66	-34.6	-35.3	24.6	0.00e+00	0	41	0	779091968	42	5943
2026-01-18 19:50:31.06	15.56	11.73	-34.6	-35.3	24.5	0.00e+00	0	41	0	784334848	42	5941
2026-01-18 19:50:32.06	15.42	11.79	-34.6	-35.3	24.5	0.00e+00	0	41	0	789577728	42	5959
2026-01-18 19:50:33.08	15.28	11.85	-34.5	-35.2	24.7	0.00e+00	0	41	0	795869184	42	5876
2026-01-18 19:50:34.09	15.13	11.92	-34.6	-35.3	24.6	0.00e+00	0	41	0	801112064	42	5909
2026-01-18 19:50:35.09	14.99	11.98	-34.6	-35.3	24.6	0.00e+00	0	41	0	807403520	42	5912
2026-01-18 19:50:36.10	14.84	12.04	-34.6	-35.3	24.6	0.00e+00	0	41	0	812646400	42	5901
2026-01-18 19:50:37.11	14.70	12.10	-34.6	-35.3	24.6	0.00e+00	0	41	0	818937856	42	5947
2026-01-18 19:50:38.12	14.55	12.17	-34.6	-35.3	24.6	0.00e+00	0	41	0	824180736	42	5916
2026-01-18 19:50:39.13	14.40	12.23	-34.5	-35.2	24.7	0.00e+00	0	41	0	830472192	42	5874
2026-01-18 19:50:40.14	14.25	12.29	-34.6	-35.3	24.6	0.00e+00	0	41	0	835715072	42	5908
2026-01-18 19:50:41.15	14.11	12.35	-34.5	-35.2	24.7	0.00e+00	0	41	0	840957952	42	5854
2026-01-18 19:50:42.15	13.96	12.42	-34.4	-35.1	24.8	0.00e+00	0	41	0	847249408	42	5772
2026-01-18 19:50:43.16	13.81	12.48	-34.3	-35.0	24.9	0.00e+00	0	41	0	852492288	42	5720
2026-01-18 19:50:44.17	13.66	12.54	-34.4	-35.1	24.7	0.00e+00	0	41	0	858783744	42	5791
2026-01-18 19:50:45.18	13.51	12.60	-34.4	-35.0	24.8	0.00e+00	0	41	0	864026624	42	5743
2026-01-18 19:50:46.19	13.36	12.67	-34.4	-35.0	24.8	0.00e+00	0	41	0	869269504	42	5751
2026-01-18 19:50:47.20	13.20	12.73	-34.4	-35.1	24.7	0.00e+00	0	41	0	875560960	42	5805
2026-01-18 19:50:48.21	13.05	12.79	-34.5	-35.2	24.7	0.00e+00	0	41	0	880803840	42	5850
2026-01-18 19:50:49.22	12.90	12.85	-34.5	-35.2	24.7	0.00e+00	0	41	0	887095296	42	5830
2026-01-18 19:50:50.23	12.74	12.91	-34.5	-35.2	24.7	0.00e+00	0	41	0	892338176	42	5865
2026-01-18 19:50:51.24	12.59	12.98	-34.3	-35.0	24.9	0.00e+00	0	41	0	897581056	42	5734
2026-01-18 19:50:52.25	12.43	13.04	-34.3	-35.0	24.9	0.00e+00	0	41	0	903872512	42	5732
2026-01-18 19:50:53.26	12.28	13.10	-34.3	-35.0	24.9	0.00e+00	0	41	0	909115392	42	5715
2026-01-18 19:50:54.27	12.12	13.16	-34.2	-34.9	25.0	0.00e+00	0	41	0	915406848	42	5669
2026-01-18 19:50:55.28	11.96	13.22	-34.2	-34.8	25.0	0.00e+00	0	41	0	920649728	42	5628
2026-01-18 19:50:56.29	11.80	13.29	-34.3	-35.0	25.0	0.00e+00	0	41	0	926941184	42	5698
2026-01-18 19:50:57.30	11.64	13.35	-34.3	-35.0	24.9	0.00e+00	0	41	0	932184064	42	5701
2026-01-18 19:50:58.31	11.48	13.41	-34.3	-34.9	25.0	0.00e+00	0	41	0	937426944	42	5690
2026-01-18 19:50:59.32	11.32	13.47	-34.3	-34.9	24.9	0.00e+00	0	41	0	943718400	42	5690
2026-01-18 19:51:00.33	11.16	13.53	-34.2	-34.8	25.1	0.00e+00	0	41	0	948961280	42	5628
2026-01-18 19:51:01.33	11.00	13.59	-34.2	-34.9	25.1	0.00e+00	0	41	0	955252736	42	5658
2026-01-18 19:51:02.34	10.84	13.66	-34.1	-34.8	25.1	0.00e+00	0	41	0	960495616	42	5589
2026-01-18 19:51:03.35	10.68	13.72	-34.2	-34.9	24.9	0.00e+00	0	41	0	965738496	42	5684
2026-01-18 19:51:04.36	10.51	13.78	-34.4	-35.0	24.9	0.00e+00	0	41	0	972029952	42	5757
2026-01-18 19:51:05.37	10.35	13.84	-34.2	-34.9	25.1	0.00e+00	0	41	0	977272832	42	5649
2026-01-18 19:51:06.38	10.18	13.90	-34.2	-34.9	25.0	0.00e+00	0	41	0	983564288	42	5643
2026-01-18 19:51:07.40	10.01	13.96	-34.3	-35.0	24.9	0.00e+00	0	41	0	988807168	42	5720
2026-01-18 19:51:08.41	9.85	14.02	-34.2	-34.9	25.0	0.00e+00	0	41	0	994050048	42	5671
2026-01-18 19:51:09.41	9.68	14.08	-34.2	-34.9	25.1	0.00e+00	0	41	0	1000341504	42	5632
2026-01-18 19:51:10.43	9.51	14.15	-34.0	-34.7	25.3	0.00e+00	0	41	0	1005584384	42	5521
2026-01-18 19:51:11.44	9.34	14.21	-33.9	-34.6	25.3	0.00e+00	0	41	0	1011875840	42	5457
2026-01-18 19:51:12.45	9.17	14.27	-33.8	-34.5	25.4	0.00e+00	0	41	0	1017118720	42	5420
2026-01-18 19:51:13.46	9.00	14.33	-33.9	-34.6	25.3	0.00e+00	0	41	0	1023410176	42	5468
2026-01-18 19:51:14.47	8.83	14.39	-33.8	-34.5	25.3	0.00e+00	0	41	0	1028653056	40	6048
2026-01-18 19:51:15.48	8.66	14.45	-33.8	-34.4	25.4	0.00e+00	0	41	0	1034944512	40	6030
2026-01-18 19:51:16.49	8.49	14.51	-33.8	-34.4	25.4	0.00e+00	0	41	0	1040187392	40	6016
2026-01-18 19:51:17.50	8.32	14.57	-33.8	-34.4	25.4	0.00e+00	0	41	0	1045430272	40	6025
2026-01-18 19:51:18.50	8.14	14.63	-33.8	-34.5	25.4	0.00e+00	0	41	0	1051721728	40	6049
2026-01-18 19:51:19.51	7.97	14.69	-34.0	-34.7	25.2	0.00e+00	0	41	0	1056964608	40	6211
2026-01-18 19:51:20.52	7.79	14.75	-34.1	-34.8	25.1	0.00e+00	0	41	0	1063256064	40	6297
2026-01-18 19:51:21.53	7.62	14.81	-34.1	-34.8	25.1	0.00e+00	0	41	0	1068498944	40	6292
2026-01-18 19:51:22.54	7.44	14.87	-34.3	-35.0	25.0	0.00e+00	0	41	0	1073741824	40	6412
2026-01-18 19:51:23.55	7.26	14.93	-34.1	-34.8	25.2	0.00e+00	0	41	0	1080033280	40	6288
2026-01-18 19:51:24.56	7.09	14.99	-34.0	-34.7	25.2	0.00e+00	0	41	0	1085276160	40	6235
2026-01-18 19:51:25.56	6.91	15.04	-34.0	-34.7	25.2	0.00e+00	0	41	0	1090519040	40	6200
2026-01-18 19:51:26.58	6.73	15.10	-33.8	-34.5	25.5	0.00e+00	0	41	0	1096810496	40	6070
2026-01-18 19:51:27.58	6.55	15.16	-33.9	-34.6	25.3	0.00e+00	0	41	0	1102053376	40	6106
2026-01-18 19:51:28.59	6.37	15.22	-33.8	-34.5	25.5	0.00e+00	0	41	0	1108344832	40	6047
2026-01-18 19:51:29.60	6.19	15.28	-33.7	-34.4	25.4	0.00e+00	0	41	0	1113587712	40	6014
2026-01-18 19:51:30.61	6.01	15.34	-33.7	-34.3	25.6	0.00e+00	0	41	0	1119879168	40	5954
2026-01-18 19:51:31.62	5.82	15.39	-33.6	-34.2	25.6	0.00e+00	0	41	0	1125122048	40	5892
2026-01-18 19:51:32.63	5.64	15.45	-33.4	-34.1	25.7	0.00e+00	0	41	0	1131413504	40	5797
2026-01-18 19:51:33.64	5.45	15.51	-33.4	-34.1	25.7	0.00e+00	0	41	0	1136656384	40	5762
2026-01-18 19:51:34.65	5.27	15.57	-33.4	-34.1	25.8	0.00e+00	0	41	0	1141899264	40	5782
2026-01-18 19:51:35.66	5.08	15.63	-33.4	-34.0	25.8	0.00e+00	0	41	0	1148190720	40	5740
2026-01-18 19:51:36.68	4.89	15.68	-33.5	-34.2	25.7	0.00e+00	0	41	0	1153433600	40	5867
2026-01-18 19:51:37.69	4.71	15.74	-33.5	-34.1	25.7	0.00e+00	0	41	0	1159725056	40	5785
2026-01-18 19:51:38.70	4.52	15.80	-33.4	-34.1	25.8	0.00e+00	0	41	0	1164967936	40	5794
2026-01-18 19:51:39.71	4.33	15.85	-33.5	-34.2	25.7	0.00e+00	0	41	0	1170210816	40	5847
2026-01-18 19:51:40.72	4.14	15.91	-33.5	-34.2	25.7	0.00e+00	0	41	0	1176502272	40	5860
2026-01-18 19:51:41.73	3.95	15.97	-33.6	-34.2	25.7	0.00e+00	0	41	0	1181745152	40	5890
2026-01-18 19:51:42.74	3.76	16.02	-33.6	-34.3	25.6	0.00e+00	0	41	0	1188036608	40	5906
2026-01-18 19:51:43.75	3.57	16.08	-33.4	-34.1	25.7	0.00e+00	0	41	0	1193279488	40	5789
2026-01-18 19:51:44.76	3.37	16.14	-33.4	-34.1	25.8	0.00e+00	0	41	0	1198522368	40	5791
2026-01-18 19:51:45.77	3.18	16.19	-33.4	-34.1	25.8	0.00e+00	0	41	0	1204813824	40	5780
2026-01-18 19:51:46.78	2.99	16.25	-33.3	-34.0	25.9	0.00e+00	0	41	0	1210056704	40	5740
2026-01-18 19:51:47.79	2.79	16.30	-33.1	-33.8	26.0	0.00e+00	0	41	0	1216348160	40	5600
2026-01-18 19:51:48.80	2.60	16.36	-33.1	-33.7	26.0	0.00e+00	0	41	0	1221591040	40	5547
2026-01-18 19:51:49.81	2.40	16.41	-33.3	-33.9	25.9	0.00e+00	0	41	0	1227882496	40	5691
2026-01-18 19:51:50.82	2.20	16.47	-33.3	-34.0	25.8	0.00e+00	0	41	0	1233125376	40	5727
2026-01-18 19:51:51.83	2.01	16.52	-33.3	-34.0	25.8	0.00e+00	0	41	0	1239416832	40	5711
2026-01-18 19:51:52.84	1.81	16.58	-33.5	-34.2	25.7	0.00e+00	0	41	0	1244659712	40	5859
2026-01-18 19:51:53.85	1.61	16.63	-33.4	-34.1	25.8	0.00e+00	0	41	0	1249902592	40	5792
2026-01-18 19:51:54.86	1.41	16.68	-33.3	-34.0	25.9	0.00e+00	0	41	0	1256194048	40	5704
2026-01-18 19:51:55.87	1.21	16.74	-33.2	-33.9	26.0	0.00e+00	0	41	0	1261436928	40	5667
2026-01-18 19:51:56.88	1.01	16.79	-33.1	-33.8	26.0	0.00e+00	0	41	0	1267728384	40	5589
2026-01-18 19:51:57.89	0.80	16.84	-33.3	-34.0	25.9	0.00e+00	0	41	0	1272971264	40	5719
2026-01-18 19:51:58.90	0.60	16.89	-33.1	-33.8	26.0	0.00e+00	0	41	0	1278214144	40	5600
2026-01-18 19:51:59.92	0.40	16.95	-33.3	-34.0	25.9	0.00e+00	0	41	0	1284505600	40	5703
2026-01-18 19:52:00.93	0.19	17.00	-33.4	-34.0	25.8	0.00e+00	0	41	0	1289748480	40	5722
2026-01-18 19:52:01.94	359.99	17.05	-33.3	-34.0	25.9	0.00e+00	0	41	0	1296039936	40	5703
2026-01-18 19:52:02.95	359.78	17.10	-33.2	-33.8	26.1	0.00e+00	0	41	0	1301282816	40	5620
2026-01-18 19:52:03.96	359.58	17.15	-33.1	-33.8	26.0	0.00e+00	0	41	0	1306525696	40	5594
2026-01-18 19:52:04.97	359.37	17.21	-32.9	-33.6	26.2	0.00e+00	0	41	0	1312817152	40	5445
2026-01-18 19:52:05.98	359.16	17.26	-32.9	-33.6	26.2	0.00e+00	0	41	0	1318060032	40	5448
2026-01-18 19:52:06.99	358.95	17.31	-33.0	-33.6	26.2	0.00e+00	0	41	0	1324351488	40	5482
2026-01-18 19:52:08.00	358.74	17.36	-33.0	-33.6	26.1	0.00e+00	0	41	0	1329594368	40	5501
2026-01-18 19:52:09.01	358.53	17.41	-32.9	-33.5	26.3	0.00e+00	0	41	0	1335885824	40	5409
2026-01-18 19:52:10.02	358.32	17.46	-32.8	-33.4	26.3	0.00e+00	0	41	0	1341128704	40	5375
2026-01-18 19:52:11.03	358.11	17.51	-32.8	-33.5	26.3	0.00e+00	0	41	0	1347420160	40	5386
2026-01-18 19:52:12.04	357.90	17.56	-32.8	-33.5	26.3	0.00e+00	0	41	0	1352663040	40	5381
2026-01-18 19:52:13.05	357.69	17.60	-32.9	-33.6	26.3	0.00e+00	0	41	0	1357905920	40	5452
2026-01-18 19:52:14.06	357.47	17.65	-32.8	-33.4	26.4	0.00e+00	0	41	0	1364197376	40	5374
2026-01-18 19:52:15.07	357.26	17.70	-32.9	-33.5	26.3	0.00e+00	0	41	0	1369440256	40	5422
2026-01-18 19:52:16.08	357.04	17.75	-32.9	-33.6	26.3	0.00e+00	0	41	0	1375731712	40	5456
2026-01-18 19:52:17.09	356.83	17.80	-33.1	-33.7	26.1	0.00e+00	0	41	0	1380974592	40	5532
2026-01-18 19:52:18.10	356.61	17.84	-32.9	-33.6	26.2	0.00e+00	0	41	0	1386217472	40	5479
2026-01-18 19:52:19.10	356.40	17.89	-33.1	-33.7	26.2	0.00e+00	0	41	0	1392508928	40	5532
2026-01-18 19:52:20.11	356.18	17.94	-32.9	-33.5	26.3	0.00e+00	0	41	0	1397751808	40	5437
2026-01-18 19:52:21.12	355.96	17.98	-32.7	-33.3	26.5	0.00e+00	0	41	0	1404043264	38	5944
2026-01-18 19:52:22.13	355.74	18.03	-32.6	-33.2	26.6	0.00e+00	0	41	0	1409286144	38	5883
2026-01-18 19:52:23.14	355.52	18.07	-32.6	-33.2	26.6	0.00e+00	0	41	0	1414529024	38	5882
2026-01-18 19:52:24.15	355.30	18.12	-32.7	-33.3	26.5	0.00e+00	0	41	0	1420820480	38	5935
2026-01-18 19:52:25.16	355.08	18.16	-32.8	-33.5	26.3	0.00e+00	0	41	0	1426063360	38	6050
2026-01-18 19:52:26.17	354.86	18.21	-32.8	-33.4	26.3	0.00e+00	0	41	0	1432354816	38	6030
2026-01-18 19:52:27.18	354.64	18.25	-32.7	-33.3	26.5	0.00e+00	0	41	0	1437597696	38	5962
2026-01-18 19:52:28.19	354.42	18.29	-32.7	-33.4	26.4	0.00e+00	0	41	0	1443889152	38	6003
2026-01-18 19:52:29.20	354.19	18.34	-32.6	-33.3	26.5	0.00e+00	0	41	0	1449132032	38	5931
2026-01-18 19:52:30.21	353.97	18.38	-32.7	-33.3	26.5	0.00e+00	0	41	0	1454374912	38	5964
2026-01-18 19:52:31.22	353.74	18.42	-32.6	-33.2	26.6	0.00e+00	0	41	0	1460666368	38	5860
2026-01-18 19:52:32.23	353.52	18.46	-32.8	-33.4	26.4	0.00e+00	0	41	0	1465909248	38	6002
2026-01-18 19:52:33.24	353.29	18.51	-32.8	-33.4	26.5	0.00e+00	0	41	0	1472200704	38	6007
2026-01-18 19:52:34.25	353.07	18.55	-32.8	-33.5	26.4	0.00e+00	0	41	0	1477443584	38	6054
2026-01-18 19:52:35.26	352.84	18.59	-32.9	-33.6	26.2	0.00e+00	0	41	0	1482686464	38	6160
2026-01-18 19:52:36.27	352.61	18.63	-33.0	-33.7	26.2	0.00e+00	0	41	0	1488977920	38	6179
2026-01-18 19:52:37.28	352.38	18.67	-32.9	-33.6	26.3	0.00e+00	0	41	0	1494220800	38	6119
2026-01-18 19:52:38.29	352.15	18.71	-32.9	-33.5	26.3	0.00e+00	0	41	0	1500512256	38	6072
2026-01-18 19:52:39.29	351.93	18.75	-32.9	-33.6	26.4	0.00e+00	0	41	0	1505755136	38	6111
2026-01-18 19:52:40.30	351.70	18.79	-32.9	-33.6	26.3	0.00e+00	0	41	0	1510998016	38	6119
2026-01-18 19:52:41.31	351.47	18.83	-32.9	-33.6	26.3	0.00e+00	0	41	0	1517289472	38	6119
2026-01-18 19:52:42.32	351.23	18.86	-32.7	-33.4	26.5	0.00e+00	0	41	0	1522532352	38	5992
2026-01-18 19:52:43.33	351.00	18.90	-33.0	-33.6	26.3	0.00e+00	0	41	0	1528823808	38	6141
2026-01-18 19:52:44.34	350.77	18.94	-32.9	-33.6	26.3	0.00e+00	0	41	0	1534066688	38	6124
2026-01-18 19:52:45.35	350.54	18.97	-32.9	-33.6	26.3	0.00e+00	0	41	0	1540358144	38	6114
2026-01-18 19:52:46.36	350.30	19.01	-32.9	-33.5	26.4	0.00e+00	0	41	0	1545601024	38	6081
2026-01-18 19:52:47.37	350.07	19.05	-32.8	-33.5	26.4	0.00e+00	0	41	0	1550843904	38	6069
2026-01-18 19:52:48.38	349.83	19.08	-32.6	-33.3	26.5	0.00e+00	0	41	0	1557135360	38	5908
2026-01-18 19:52:49.39	349.60	19.12	-32.6	-33.2	26.7	0.00e+00	0	41	0	1562378240	38	5851
2026-01-18 19:52:50.40	349.36	19.15	-32.6	-33.2	26.6	0.00e+00	0	41	0	1568669696	38	5872
2026-01-18 19:52:51.41	349.13	19.19	-32.5	-33.1	26.7	0.00e+00	0	41	0	1573912576	38	5801
2026-01-18 19:52:52.42	348.89	19.22	-32.4	-33.1	26.7	0.00e+00	0	41	0	1579155456	38	5779
2026-01-18 19:52:53.42	348.65	19.25	-32.2	-32.9	26.8	0.00e+00	0	41	0	1585446912	38	5636
2026-01-18 19:52:54.43	348.42	19.28	-32.3	-33.0	26.7	0.00e+00	0	41	0	1590689792	38	5730
2026-01-18 19:52:55.44	348.18	19.32	-32.2	-32.8	26.9	0.00e+00	0	41	0	1596981248	38	5619
2026-01-18 19:52:56.45	347.94	19.35	-32.2	-32.9	26.8	0.00e+00	0	41	0	1602224128	38	5655
2026-01-18 19:52:57.47	347.70	19.38	-32.1	-32.8	26.9	0.00e+00	0	41	0	1607467008	38	5602
2026-01-18 19:52:58.47	347.46	19.41	-32.2	-32.8	26.9	0.00e+00	0	41	0	1613758464	38	5586
2026-01-18 19:52:59.48	347.22	19.44	-32.2	-32.8	27.0	0.00e+00	0	41	0	1619001344	38	5595
2026-01-18 19:53:00.49	346.98	19.47	-32.1	-32.8	27.0	0.00e+00	0	41	0	1625292800	38	5592
2026-01-18 19:53:01.50	346.74	19.50	-32.2	-32.8	26.9	0.00e+00	0	41	0	1630535680	38	5604
2026-01-18 19:53:02.51	346.49	19.53	-32.2	-32.9	26.9	0.00e+00	0	41	0	1636827136	38	5645
2026-01-18 19:53:03.52	346.25	19.56	-32.2	-32.9	26.9	0.00e+00	0	41	0	1642070016	38	5664
2026-01-18 19:53:04.53	346.01	19.58	-32.3	-32.9	26.9	0.00e+00	0	41	0	1648361472	38	5655
2026-01-18 19:53:05.54	345.76	19.61	-32.2	-32.8	26.9	0.00e+00	0	41	0	1653604352	38	5626
2026-01-18 19:53:06.55	345.52	19.64	-32.1	-32.8	27.0	0.00e+00	0	41	0	1658847232	38	5583
2026-01-18 19:53:07.56	345.28	19.66	-32.1	-32.7	27.0	0.00e+00	0	41	0	1665138688	38	5548
2026-01-18 19:53:08.57	345.03	19.69	-32.1	-32.7	27.0	0.00e+00	0	41	0	1670381568	38	5560
2026-01-18 19:53:09.58	344.79	19.71	-32.1	-32.7	27.0	0.00e+00	0	41	0	1676673024	38	5531
2026-01-18 19:53:10.59	344.54	19.74	-32.2	-32.8	27.0	0.00e+00	0	41	0	1681915904	38	5577
2026-01-18 19:53:11.60	344.30	19.76	-32.1	-32.7	27.1	0.00e+00	0	41	0	1687158784	38	5523
2026-01-18 19:53:12.61	344.05	19.79	-32.1	-32.7	27.0	0.00e+00	0	41	0	1693450240	38	5554
2026-01-18 19:53:13.62	343.80	19.81	-32.0	-32.7	27.1	0.00e+00	0	41	0	1698693120	38	5507
2026-01-18 19:53:14.63	343.56	19.83	-32.0	-32.6	27.1	0.00e+00	0	41	0	1704984576	38	5483
2026-01-18 19:53:15.64	343.31	19.85	-32.1	-32.8	27.0	0.00e+00	0	41	0	1710227456	38	5573
2026-01-18 19:53:16.65	343.06	19.87	-32.1	-32.7	27.0	0.00e+00	0	41	0	1715470336	38	5566
2026-01-18 19:53:17.66	342.81	19.90	-32.2	-32.8	27.0	0.00e+00	0	41	0	1721761792	38	5625
2026-01-18 19:53:18.67	342.56	19.92	-32.2	-32.9	26.9	0.00e+00	0	41	0	1727004672	38	5654
2026-01-18 19:53:19.68	342.32	19.93	-32.3	-32.9	26.9	0.00e+00	0	41	0	1733296128	38	5665
2026-01-18 19:53:20.68	342.07	19.95	-32.3	-33.0	26.8	0.00e+00	0	41	0	1738539008	38	5718
2026-01-18 19:53:21.69	341.82	19.97	-32.3	-33.0	26.9	0.00e+00	0	41	0	1744830464	38	5713
2026-01-18 19:53:22.70	341.57	19.99	-32.2	-32.9	26.9	0.00e+00	0	41	0	1750073344	38	5631
2026-01-18 19:53:23.71	341.32	20.01	-32.2	-32.9	27.0	0.00e+00	0	41	0	1755316224	38	5637
2026-01-18 19:53:24.72	341.07	20.03	-32.3	-32.9	26.8	0.00e+00	0	41	0	1761607680	38	5694
2026-01-18 19:53:25.73	340.82	20.04	-32.4	-33.0	26.7	0.00e+00	0	41	0	1766850560	38	5759
2026-01-18 19:53:26.74	340.57	20.06	-32.4	-33.0	26.8	0.00e+00	0	41	0	1773142016	38	5739
2026-01-18 19:53:27.75	340.32	20.07	-32.3	-32.9	26.8	0.00e+00	0	41	0	1778384896	38	5633
2026-01-18 19:53:28.76	340.07	20.09	-32.3	-33.0	26.8	0.00e+00	0	41	0	1783627776	38	5701
2026-01-18 19:53:29.77	339.82	20.10	-32.3	-33.0	26.8	0.00e+00	0	41	0	1789919232	38	5700
2026-01-18 19:53:30.78	339.56	20.11	-32.4	-33.1	26.8	0.00e+00	0	41	0	1795162112	38	5771
2026-01-18 19:53:31.79	339.31	20.13	-32.3	-33.0	26.8	0.00e+00	0	41	0	1801453568	38	5713
2026-01-18 19:53:32.80	339.06	20.14	-32.2	-32.9	26.9	0.00e+00	0	41	0	1806696448	38	5639
2026-01-18 19:53:33.81	338.81	20.15	-32.1	-32.8	27.0	0.00e+00	0	41	0	1811939328	38	5571
2026-01-18 19:53:34.82	338.56	20.16	-32.1	-32.7	26.9	0.00e+00	0	41	0	1818230784	38	5542
2026-01-18 19:53:35.83	338.30	20.17	-32.3	-32.9	26.9	0.00e+00	0	41	0	1823473664	38	5680
2026-01-18 19:53:36.84	338.05	20.18	-32.2	-32.8	26.9	0.00e+00	0	41	0	1829765120	38	5624
2026-01-18 19:53:37.84	337.80	20.19	-32.2	-32.8	26.9	0.00e+00	0	41	0	1835008000	38	5576
2026-01-18 19:53:38.86	337.54	20.20	-32.1	-32.8	27.0	0.00e+00	0	41	0	1841299456	38	5589
2026-01-18 19:53:39.87	337.29	20.21	-32.2	-32.9	26.9	0.00e+00	0	41	0	1846542336	38	5658
2026-01-18 19:53:40.88	337.04	20.22	-32.2	-32.8	26.9	0.00e+00	0	41	0	1852833792	38	5595
2026-01-18 19:53:41.89	336.78	20.22	-32.4	-33.0	26.8	0.00e+00	0	41	0	1858076672	38	5737
2026-01-18 19:53:42.90	336.53	20.23	-32.3	-32.9	26.6	0.00e+00	0	41	0	1863319552	38	5684
2026-01-18 19:53:43.91	336.28	20.24	-32.3	-33.0	26.8	0.00e+00	0	41	0	1869611008	38	5714
2026-01-18 19:53:44.92	336.02	20.24	-32.3	-33.0	26.8	0.00e+00	0	41	0	1874853888	38	5720
2026-01-18 19:53:45.92	335.77	20.25	-32.5	-33.1	26.6	0.00e+00	0	41	0	1881145344	38	5810
2026-01-18 19:53:46.93	335.52	20.25	-32.6	-33.2	26.5	0.00e+00	0	41	0	1886388224	38	5867
2026-01-18 19:53:47.94	335.26	20.26	-32.6	-33.3	26.5	0.00e+00	0	41	0	1891631104	38	5906
2026-01-18 19:53:48.95	335.01	20.26	-32.5	-33.1	26.6	0.00e+00	0	41	0	1897922560	38	5822
2026-01-18 19:53:49.96	334.75	20.26	-32.4	-33.1	26.6	0.00e+00	0	41	0	1903165440	38	5771
2026-01-18 19:53:50.97	334.50	20.26	-32.4	-32.9	26.7	0.00e+00	0	41	0	1909456896	38	5689
2026-01-18 19:53:51.98	334.24	20.26	-32.2	-32.9	26.9	0.00e+00	0	41	0	1914699776	38	5665
2026-01-18 19:53:52.99	333.99	20.26	-32.3	-33.0	26.8	0.00e+00	0	41	0	1919942656	38	5729
2026-01-18 19:53:54.01	333.73	20.26	-32.2	-32.8	27.0	0.00e+00	0	41	0	1926234112	38	5573
2026-01-18 19:53:55.01	333.48	20.26	-32.1	-32.7	26.9	0.00e+00	0	41	0	1931476992	38	5566
2026-01-18 19:53:56.02	333.23	20.26	-32.1	-32.7	26.9	0.00e+00	0	41	0	1937768448	38	5565
2026-01-18 19:53:57.03	332.97	20.26	-32.1	-32.7	27.0	0.00e+00	0	41	0	1943011328	38	5535
2026-01-18 19:53:58.04	332.72	20.26	-32.2	-32.8	27.0	0.00e+00	0	41	0	1949302784	38	5619
2026-01-18 19:53:59.05	332.46	20.26	-32.2	-32.9	26.9	0.00e+00	0	41	0	1954545664	38	5657
2026-01-18 19:54:00.06	332.21	20.25	-32.2	-32.8	27.0	0.00e+00	0	41	0	1959788544	38	5608
2026-01-18 19:54:01.07	331.96	20.25	-32.4	-33.0	26.9	0.00e+00	0	41	0	1966080000	38	5748
2026-01-18 19:54:02.08	331.70	20.24	-32.2	-32.8	27.0	0.00e+00	0	41	0	1971322880	38	5600
2026-01-18 19:54:03.09	331.45	20.24	-32.2	-32.8	26.8	0.00e+00	0	41	0	1977614336	38	5592
2026-01-18 19:54:04.10	331.19	20.23	-32.3	-33.0	26.9	0.00e+00	0	40	0	1982857216	38	5705
2026-01-18 19:54:05.11	330.94	20.22	-32.3	-32.9	26.7	0.00e+00	0	41	0	1988100096	38	5641
2026-01-18 19:54:06.12	330.69	20.22	-32.2	-32.8	26.8	0.00e+00	0	41	0	1994391552	38	5614
2026-01-18 19:54:07.13	330.43	20.21	-32.2	-32.8	26.9	0.00e+00	0	41	0	1999634432	38	5571
2026-01-18 19:54:08.14	330.18	20.20	-32.2	-32.8	27.0	0.00e+00	0	41	0	2005925888	38	5576
2026-01-18 19:54:09.15	329.93	20.19	-32.2	-32.8	27.0	0.00e+00	0	41	0	2011168768	38	5612
2026-01-18 19:54:10.16	329.67	20.18	-32.2	-32.9	26.8	0.00e+00	0	41	0	2016411648	38	5667
2026-01-18 19:54:11.17	329.42	20.17	-32.4	-33.0	26.8	0.00e+00	0	41	0	2022703104	38	5724
2026-01-18 19:54:12.18	329.17	20.16	-32.5	-33.2	26.7	0.00e+00	0	41	0	2027945984	38	5862
2026-01-18 19:54:13.19	328.91	20.15	-32.5	-33.1	26.7	0.00e+00	0	41	0	2034237440	38	5816
2026-01-18 19:54:14.20	328.66	20.14	-32.5	-33.1	26.8	0.00e+00	0	41	0	2039480320	38	5801
2026-01-18 19:54:15.21	328.41	20.13	-32.4	-33.1	26.8	0.00e+00	0	41	0	2045771776	38	5762
2026-01-18 19:54:16.22	328.16	20.11	-32.4	-33.1	26.9	0.00e+00	0	41	0	2051014656	38	5794
2026-01-18 19:54:17.23	327.91	20.10	-32.3	-32.9	26.9	0.00e+00	0	41	0	2057306112	38	5669
2026-01-18 19:54:18.24	327.65	20.09	-32.2	-32.8	27.1	0.00e+00	0	41	0	2062548992	38	5605
2026-01-18 19:54:19.25	327.40	20.07	-32.1	-32.7	27.1	0.00e+00	0	41	0	2067791872	38	5528
2026-01-18 19:54:20.26	327.15	20.06	-32.2	-32.8	27.1	0.00e+00	0	41	0	2074083328	38	5610
2026-01-18 19:54:21.27	326.90	20.04	-32.1	-32.8	27.1	0.00e+00	0	41	0	2079326208	38	5617
2026-01-18 19:54:22.28	326.65	20.02	-32.2	-32.8	27.0	0.00e+00	0	40	0	2085617664	38	5623
2026-01-18 19:54:23.29	326.40	20.01	-32.4	-33.0	26.9	0.00e+00	0	41	0	2090860544	38	5701
2026-01-18 19:54:24.30	326.15	19.99	-32.4	-33.0	26.9	0.00e+00	0	41	0	2096103424	38	5738
2026-01-18 19:54:25.31	325.90	19.97	-32.3	-33.0	27.0	0.00e+00	0	41	0	2102394880	38	5704
2026-01-18 19:54:26.32	325.65	19.95	-32.2	-32.9	27.0	0.00e+00	0	41	0	2107637760	38	5635
2026-01-18 19:54:27.33	325.40	19.93	-32.1	-32.7	27.1	0.00e+00	0	41	0	2113929216	38	5533
2026-01-18 19:54:28.34	325.15	19.91	-32.0	-32.7	27.1	0.00e+00	0	41	0	2119172096	38	5504
2026-01-18 19:54:29.35	324.90	19.89	-32.2	-32.8	27.0	0.00e+00	0	41	0	2124414976	38	5593
2026-01-18 19:54:30.36	324.66	19.87	-32.2	-32.9	27.0	0.00e+00	0	41	0	2130706432	38	5638
2026-01-18 19:54:31.37	324.41	19.85	-32.3	-32.9	27.0	0.00e+00	0	41	0	2135949312	38	5671
2026-01-18 19:54:32.38	324.16	19.83	-32.2	-32.9	27.0	0.00e+00	0	41	0	2142240768	38	5656
2026-01-18 19:54:33.39	323.91	19.81	-32.3	-32.9	26.9	0.00e+00	0	41	0	2147483648	38	5646
2026-01-18 19:54:34.40	323.67	19.78	-32.3	-32.9	27.0	0.00e+00	0	41	0	2153775104	38	5649
2026-01-18 19:54:35.41	323.42	19.76	-32.3	-33.0	26.8	0.00e+00	0	41	0	2159017984	38	5738
2026-01-18 19:54:36.42	323.17	19.74	-32.2	-32.8	27.0	0.00e+00	0	41	0	2165309440	38	5602
2026-01-18 19:54:37.43	322.93	19.71	-32.2	-32.8	27.1	0.00e+00	0	41	0	2170552320	38	5599
2026-01-18 19:54:38.44	322.68	19.69	-32.2	-32.8	27.0	0.00e+00	0	41	0	2175795200	38	5612
2026-01-18 19:54:39.45	322.44	19.66	-32.2	-32.8	27.0	0.00e+00	0	41	0	2182086656	38	5604
2026-01-18 19:54:40.46	322.19	19.64	-32.2	-32.8	27.0	0.00e+00	0	41	0	2187329536	38	5629
2026-01-18 19:54:41.47	321.95	19.61	-32.3	-32.9	27.0	0.00e+00	0	41	0	2193620992	38	5675
2026-01-18 19:54:42.48	321.71	19.58	-32.3	-33.0	26.9	0.00e+00	0	41	0	2198863872	38	5712
2026-01-18 19:54:43.49	321.46	19.55	-32.3	-33.0	26.9	0.00e+00	0	41	0	2204106752	38	5743
2026-01-18 19:54:44.50	321.22	19.53	-32.4	-33.1	26.9	0.00e+00	0	41	0	2210398208	38	5762
2026-01-18 19:54:45.51	320.98	19.50	-32.5	-33.2	26.8	0.00e+00	0	41	0	2215641088	38	5835
2026-01-18 19:54:46.53	320.73	19.47	-32.5	-33.2	26.7	0.00e+00	0	41	0	2221932544	38	5856
2026-01-18 19:54:47.54	320.49	19.44	-32.5	-33.2	26.8	0.00e+00	0	41	0	2227175424	38	5848
2026-01-18 19:54:48.55	320.25	19.41	-32.4	-33.0	26.8	0.00e+00	0	41	0	2232418304	38	5759
2026-01-18 19:54:49.56	320.01	19.38	-32.3	-32.9	27.0	0.00e+00	0	41	0	2238709760	38	5675
2026-01-18 19:54:50.57	319.77	19.35	-32.2	-32.8	27.1	0.00e+00	0	41	0	2243952640	38	5580
2026-01-18 19:54:51.58	319.53	19.31	-32.1	-32.8	27.2	0.00e+00	0	41	0	2250244096	38	5586
2026-01-18 19:54:52.59	319.29	19.28	-32.1	-32.7	27.0	0.00e+00	0	41	0	2255486976	38	5535
2026-01-18 19:54:53.60	319.06	19.25	-32.2	-32.8	27.0	0.00e+00	0	41	0	2261778432	38	5607
2026-01-18 19:54:54.61	318.82	19.22	-32.2	-32.7	27.0	0.00e+00	0	40	0	2267021312	38	5554
2026-01-18 19:54:55.62	318.58	19.18	-32.2	-32.8	27.0	0.00e+00	0	41	0	2273312768	38	5597
2026-01-18 19:54:56.63	318.34	19.15	-32.2	-32.9	26.9	0.00e+00	0	41	0	2278555648	38	5685
2026-01-18 19:54:57.64	318.11	19.11	-32.4	-32.9	26.9	0.00e+00	0	40	0	2283798528	38	5686
2026-01-18 19:54:58.65	317.87	19.08	-32.3	-33.0	26.8	0.00e+00	0	41	0	2290089984	38	5750
2026-01-18 19:54:59.66	317.64	19.04	-32.5	-33.2	26.8	0.00e+00	0	40	0	2295332864	38	5866
2026-01-18 19:55:00.67	317.40	19.01	-32.5	-33.2	26.6	0.00e+00	0	41	0	2301624320	38	5873
2026-01-18 19:55:01.68	317.17	18.97	-32.6	-33.2	26.6	0.00e+00	0	41	0	2306867200	38	5850
2026-01-18 19:55:02.69	316.93	18.93	-32.7	-33.4	26.6	0.00e+00	0	40	0	2312110080	38	5994
2026-01-18 19:55:03.70	316.70	18.90	-32.5	-33.2	26.7	0.00e+00	0	41	0	2318401536	38	5849
2026-01-18 19:55:04.71	316.47	18.86	-32.6	-33.3	26.7	0.00e+00	0	40	0	2323644416	38	5943
2026-01-18 19:55:05.72	316.24	18.82	-32.6	-33.2	26.7	0.00e+00	0	40	0	2329935872	38	5866
2026-01-18 19:55:06.73	316.01	18.78	-32.6	-33.3	26.7	0.00e+00	0	41	0	2335178752	38	5917
2026-01-18 19:55:07.74	315.78	18.74	-32.7	-33.3	26.6	0.00e+00	0	41	0	2340421632	38	5963
2026-01-18 19:55:08.75	315.55	18.71	-32.7	-33.3	26.7	0.00e+00	0	40	0	2346713088	38	5930
2026-01-18 19:55:09.76	315.32	18.67	-32.5	-33.2	26.8	0.00e+00	0	40	0	2351955968	38	5867
2026-01-18 19:55:10.77	315.09	18.63	-32.3	-32.9	26.9	0.00e+00	0	40	0	2358247424	38	5651
2026-01-18 19:55:11.78	314.86	18.58	-32.2	-32.8	27.0	0.00e+00	0	40	0	2363490304	38	5586
2026-01-18 19:55:12.79	314.63	18.54	-32.3	-33.0	26.9	0.00e+00	0	40	0	2369781760	38	5745
2026-01-18 19:55:13.80	314.41	18.50	-32.5	-33.2	26.7	0.00e+00	0	40	0	2375024640	38	5875
2026-01-18 19:55:14.81	314.18	18.46	-32.6	-33.1	26.7	0.00e+00	0	40	0	2380267520	38	5820
2026-01-18 19:55:15.82	313.95	18.42	-32.7	-33.4	26.6	0.00e+00	0	40	0	2386558976	38	5972
2026-01-18 19:55:16.83	313.73	18.38	-32.6	-33.3	26.6	0.00e+00	0	40	0	2391801856	38	5920
2026-01-18 19:55:17.84	313.50	18.33	-32.6	-33.3	26.7	0.00e+00	0	41	0	2398093312	38	5957
2026-01-18 19:55:18.85	313.28	18.29	-32.7	-33.4	26.6	0.00e+00	0	41	0	2403336192	38	5970
2026-01-18 19:55:19.86	313.06	18.25	-32.7	-33.2	26.6	0.00e+00	0	41	0	2408579072	38	5877
2026-01-18 19:55:20.87	312.83	18.20	-32.7	-33.3	26.7	0.00e+00	0	40	0	2414870528	38	5930
2026-01-18 19:55:21.88	312.61	18.16	-32.7	-33.3	26.6	0.00e+00	0	40	0	2420113408	38	5941
2026-01-18 19:55:22.89	312.39	18.11	-32.7	-33.3	26.6	0.00e+00	0	40	0	2426404864	38	5956
2026-01-18 19:55:23.90	312.17	18.07	-32.9	-33.5	26.4	0.00e+00	0	41	0	2431647744	38	6091
2026-01-18 19:55:24.91	311.95	18.02	-32.8	-33.5	26.4	0.00e+00	0	41	0	2436890624	38	6051
2026-01-18 19:55:25.92	311.73	17.98	-32.9	-33.5	26.5	0.00e+00	0	41	0	2443182080	38	6075
2026-01-18 19:55:26.93	311.51	17.93	-33.0	-33.7	26.3	0.00e+00	0	41	0	2448424960	38	6185
2026-01-18 19:55:27.94	311.30	17.88	-33.0	-33.6	26.3	0.00e+00	0	40	0	2454716416	38	6158
2026-01-18 19:55:28.94	311.08	17.84	-33.0	-33.6	26.4	0.00e+00	0	40	0	2459959296	38	6170
2026-01-18 19:55:29.95	310.86	17.79	-32.9	-33.5	26.4	0.00e+00	0	41	0	2466250752	38	6062
2026-01-18 19:55:30.96	310.65	17.74	-32.8	-33.5	26.5	0.00e+00	0	40	0	2471493632	38	6099
2026-01-18 19:55:31.97	310.43	17.69	-32.9	-33.6	26.4	0.00e+00	0	40	0	2477785088	38	6152
2026-01-18 19:55:32.98	310.22	17.65	-33.0	-33.7	26.4	0.00e+00	0	41	0	2483027968	38	6203
2026-01-18 19:55:33.99	310.01	17.60	-33.0	-33.6	26.4	0.00e+00	0	41	0	2488270848	38	6166
2026-01-18 19:55:35.00	309.79	17.55	-33.0	-33.8	26.3	0.00e+00	0	40	0	2494562304	38	6248
2026-01-18 19:55:36.00	309.58	17.50	-33.0	-33.6	26.4	0.00e+00	0	41	0	2499805184	38	6142
2026-01-18 19:55:37.01	309.37	17.45	-33.0	-33.5	26.4	0.00e+00	0	41	0	2505048064	38	6102
2026-01-18 19:55:38.02	309.16	17.40	-33.0	-33.6	26.4	0.00e+00	0	40	0	2511339520	38	6142
2026-01-18 19:55:39.03	308.95	17.35	-33.0	-33.7	26.3	0.00e+00	0	41	0	2516582400	38	6216
2026-01-18 19:55:40.04	308.74	17.30	-33.1	-33.7	26.3	0.00e+00	0	40	0	2522873856	38	6199
2026-01-18 19:55:41.06	308.53	17.25	-33.1	-33.8	26.2	0.00e+00	0	41	0	2528116736	38	6251
2026-01-18 19:55:42.06	308.32	17.20	-33.2	-33.7	26.2	0.00e+00	0	41	0	2533359616	38	6222
2026-01-18 19:55:43.07	308.12	17.15	-33.2	-33.8	26.1	0.00e+00	0	41	0	2539651072	38	6292
2026-01-18 19:55:44.08	307.91	17.10	-33.4	-34.1	26.0	0.00e+00	0	40	0	2544893952	38	6512
2026-01-18 19:55:45.09	307.70	17.05	-33.4	-34.0	26.0	0.00e+00	0	41	0	2551185408	38	6441
2026-01-18 19:55:46.10	307.50	16.99	-33.5	-34.2	26.0	0.00e+00	0	41	0	2556428288	38	6581
2026-01-18 19:55:47.11	307.29	16.94	-33.5	-34.1	25.9	0.00e+00	0	40	0	2562719744	38	6503
2026-01-18 19:55:48.13	307.09	16.89	-33.5	-34.0	25.9	0.00e+00	0	41	0	2567962624	38	6461
2026-01-18 19:55:49.14	306.88	16.84	-33.4	-34.1	26.0	0.00e+00	0	41	0	2574254080	38	6487
2026-01-18 19:55:50.15	306.68	16.78	-33.3	-33.9	26.1	0.00e+00	0	41	0	2579496960	38	6337
2026-01-18 19:55:51.16	306.48	16.73	-33.3	-34.0	26.2	0.00e+00	0	41	0	2584739840	38	6402
2026-01-18 19:55:52.17	306.28	16.68	-33.3	-33.9	26.0	0.00e+00	0	41	0	2591031296	38	6378
2026-01-18 19:55:53.18	306.08	16.62	-33.5	-34.0	25.9	0.00e+00	0	41	0	2596274176	38	6455
2026-01-18 19:55:54.19	305.88	16.57	-33.5	-34.1	25.9	0.00e+00	0	40	0	2602565632	38	6513
2026-01-18 19:55:55.20	305.68	16.51	-33.5	-34.1	25.9	0.00e+00	0	40	0	2607808512	38	6503
2026-01-18 19:55:56.21	305.48	16.46	-33.5	-34.1	25.9	0.00e+00	0	40	0	2613051392	38	6497
2026-01-18 19:55:57.22	305.28	16.40	-33.4	-34.2	25.9	0.00e+00	0	40	0	2619342848	38	6554
2026-01-18 19:55:58.23	305.09	16.35	-33.3	-34.0	26.1	0.00e+00	0	41	0	2624585728	38	6393
2026-01-18 19:55:59.24	304.89	16.29	-33.2	-33.8	26.1	0.00e+00	0	40	0	2630877184	38	6281
2026-01-18 19:56:00.25	304.70	16.24	-33.3	-34.0	26.0	0.00e+00	0	40	0	2636120064	38	6396
2026-01-18 19:56:01.26	304.50	16.18	-33.4	-34.0	25.9	0.00e+00	0	41	0	2641362944	38	6425
2026-01-18 19:56:02.27	304.31	16.13	-33.5	-34.1	25.9	0.00e+00	0	41	0	2647654400	38	6481
2026-01-18 19:56:03.28	304.12	16.07	-33.6	-34.2	25.9	0.00e+00	0	40	0	2652897280	38	6594
2026-01-18 19:56:04.29	303.92	16.02	-33.4	-34.0	25.9	0.00e+00	0	40	0	2659188736	38	6443
2026-01-18 19:56:05.30	303.73	15.96	-33.5	-34.1	26.0	0.00e+00	0	40	0	2664431616	38	6494
2026-01-18 19:56:06.31	303.54	15.90	-33.5	-34.1	25.9	0.00e+00	0	41	0	2670723072	38	6487
2026-01-18 19:56:07.32	303.35	15.85	-33.6	-34.3	25.8	0.00e+00	0	40	0	2675965952	38	6644
2026-01-18 19:56:08.33	303.16	15.79	-33.7	-34.3	25.7	0.00e+00	0	40	0	2682257408	38	6655
2026-01-18 19:56:09.34	302.97	15.73	-33.6	-34.4	25.7	0.00e+00	0	40	0	2687500288	40	5975
2026-01-18 19:56:10.35	302.79	15.67	-33.6	-34.4	25.7	0.00e+00	0	41	0	2692743168	40	5978
2026-01-18 19:56:11.36	302.60	15.62	-33.6	-34.3	25.8	0.00e+00	0	40	0	2699034624	40	5923
2026-01-18 19:56:12.37	302.41	15.56	-33.5	-34.1	25.8	0.00e+00	0	41	0	2704277504	40	5781
2026-01-18 19:56:13.38	302.23	15.50	-33.6	-34.2	25.9	0.00e+00	0	40	0	2710568960	40	5870
2026-01-18 19:56:14.39	302.04	15.44	-33.6	-34.2	25.7	0.00e+00	0	40	0	2715811840	40	5887
2026-01-18 19:56:15.40	301.86	15.39	-33.8	-34.4	25.6	0.00e+00	0	40	0	2721054720	40	5991
2026-01-18 19:56:16.41	301.67	15.33	-34.0	-34.7	25.4	0.00e+00	0	40	0	2727346176	40	6229
2026-01-18 19:56:17.42	301.49	15.27	-33.7	-34.3	25.7	0.00e+00	0	40	0	2732589056	40	5941
2026-01-18 19:56:18.43	301.31	15.21	-33.6	-34.3	25.7	0.00e+00	0	40	0	2738880512	40	5958
2026-01-18 19:56:19.44	301.13	15.15	-33.5	-34.2	25.9	0.00e+00	0	41	0	2744123392	40	5885
2026-01-18 19:56:20.45	300.95	15.09	-33.6	-34.2	25.8	0.00e+00	0	41	0	2749366272	40	5852
2026-01-18 19:56:21.46	300.77	15.03	-33.6	-34.3	25.7	0.00e+00	0	40	0	2755657728	40	5957
2026-01-18 19:56:22.47	300.59	14.97	-33.8	-34.4	25.6	0.00e+00	0	40	0	2760900608	40	6000
2026-01-18 19:56:23.48	300.41	14.92	-33.9	-34.5	25.4	0.00e+00	0	41	0	2767192064	40	6057
2026-01-18 19:56:24.49	300.23	14.86	-34.0	-34.7	25.4	0.00e+00	0	41	0	2772434944	40	6224
2026-01-18 19:56:25.50	300.05	14.80	-34.0	-34.6	25.3	0.00e+00	0	40	0	2778726400	40	6148
2026-01-18 19:56:26.51	299.88	14.74	-33.7	-34.4	25.5	0.00e+00	0	40	0	2783969280	40	6028
2026-01-18 19:56:27.52	299.70	14.68	-33.6	-34.2	25.5	0.00e+00	0	40	0	2790260736	40	5869
2026-01-18 19:56:28.54	299.53	14.62	-33.6	-34.2	25.5	0.00e+00	0	40	0	2795503616	40	5888
2026-01-18 19:56:29.55	299.35	14.56	-33.6	-34.3	25.5	0.00e+00	0	40	0	2800746496	40	5904
2026-01-18 19:56:30.56	299.18	14.50	-33.7	-34.4	25.2	0.00e+00	0	40	0	2807037952	40	6026
2026-01-18 19:56:31.57	299.01	14.44	-33.9	-34.7	25.2	0.00e+00	0	40	0	2812280832	40	6205
2026-01-18 19:56:32.58	298.83	14.38	-33.9	-34.5	25.2	0.00e+00	0	40	0	2818572288	40	6094
2026-01-18 19:56:33.59	298.66	14.31	-33.9	-34.6	25.2	0.00e+00	0	40	0	2823815168	40	6143
2026-01-18 19:56:34.60	298.49	14.25	-33.9	-34.5	25.3	0.00e+00	0	40	0	2829058048	40	6035
2026-01-18 19:56:35.61	298.32	14.19	-33.8	-34.4	25.4	0.00e+00	0	40	0	2835349504	40	6020
2026-01-18 19:56:36.62	298.15	14.13	-33.9	-34.6	25.2	0.00e+00	0	40	0	2840592384	40	6168
2026-01-18 19:56:37.63	297.98	14.07	-33.8	-34.4	25.2	0.00e+00	0	40	0	2846883840	40	6001
2026-01-18 19:56:38.64	297.82	14.01	-34.0	-34.7	25.2	0.00e+00	0	40	0	2852126720	40	6188
2026-01-18 19:56:39.64	297.65	13.95	-34.1	-34.8	25.2	0.00e+00	0	40	0	2857369600	40	6262
2026-01-18 19:56:40.65	297.48	13.89	-34.0	-34.6	25.1	0.00e+00	0	41	0	2863661056	40	6172
2026-01-18 19:56:41.66	297.32	13.83	-34.2	-34.8	25.0	0.00e+00	0	40	0	2868903936	40	6278
2026-01-18 19:56:42.67	297.15	13.77	-34.2	-34.8	25.1	0.00e+00	0	40	0	2875195392	40	6291
2026-01-18 19:56:43.68	296.99	13.70	-34.4	-35.0	24.9	0.00e+00	0	40	0	2880438272	40	6439
2026-01-18 19:56:44.69	296.83	13.64	-34.4	-35.1	24.9	0.00e+00	0	40	0	2886729728	40	6520
2026-01-18 19:56:45.70	296.66	13.58	-34.2	-34.8	25.1	0.00e+00	0	40	0	2891972608	40	6279
2026-01-18 19:56:46.71	296.50	13.52	-34.3	-35.0	24.9	0.00e+00	0	40	0	2897215488	40	6441
2026-01-18 19:56:47.72	296.34	13.46	-34.4	-35.0	24.8	0.00e+00	0	40	0	2903506944	40	6400
2026-01-18 19:56:48.73	296.18	13.40	-34.4	-35.1	24.9	0.00e+00	0	40	0	2908749824	40	6480
2026-01-18 19:56:49.74	296.02	13.33	-34.4	-35.0	24.9	0.00e+00	0	40	0	2915041280	40	6460
2026-01-18 19:56:50.75	295.86	13.27	-34.4	-35.0	24.8	0.00e+00	0	40	0	2920284160	40	6463
2026-01-18 19:56:51.76	295.70	13.21	-34.4	-35.1	24.8	0.00e+00	0	40	0	2925527040	40	6505
2026-01-18 19:56:52.77	295.54	13.15	-34.4	-35.1	24.8	0.00e+00	0	40	0	2931818496	40	6531
2026-01-18 19:56:53.78	295.38	13.09	-34.6	-35.2	24.8	0.00e+00	0	40	0	2937061376	40	6613
2026-01-18 19:56:54.79	295.23	13.02	-34.4	-35.0	25.0	0.00e+00	0	40	0	2943352832	40	6436
2026-01-18 19:56:55.80	295.07	12.96	-34.3	-35.0	25.0	0.00e+00	0	40	0	2948595712	40	6446
2026-01-18 19:56:56.81	294.92	12.90	-34.3	-35.1	24.9	0.00e+00	0	40	0	2953838592	40	6484
2026-01-18 19:56:57.82	294.76	12.84	-34.5	-35.2	24.8	0.00e+00	0	40	0	2960130048	40	6563
2026-01-18 19:56:58.83	294.61	12.77	-34.5	-35.3	24.7	0.00e+00	0	41	0	2965372928	40	6621
2026-01-18 19:56:59.84	294.45	12.71	-34.5	-35.1	24.8	0.00e+00	0	40	0	2971664384	40	6536
2026-01-18 19:57:00.85	294.30	12.65	-34.5	-35.2	24.7	0.00e+00	0	40	0	2976907264	40	6614
2026-01-18 19:57:01.86	294.15	12.59	-34.4	-35.2	24.8	0.00e+00	0	41	0	2983198720	40	6580
2026-01-18 19:57:02.86	294.00	12.52	-34.5	-35.1	24.7	0.00e+00	0	41	0	2988441600	40	6527
2026-01-18 19:57:03.87	293.85	12.46	-34.6	-35.3	24.6	0.00e+00	0	41	0	2994733056	40	6636
2026-01-18 19:57:04.88	293.70	12.40	-34.6	-35.3	24.6	0.00e+00	0	41	0	2999975936	40	6636
2026-01-18 19:57:05.89	293.55	12.34	-34.7	-35.3	24.6	0.00e+00	0	41	0	3005218816	40	6684
2026-01-18 19:57:06.90	293.40	12.27	-34.8	-35.5	24.5	0.00e+00	0	41	0	3011510272	42	6039
2026-01-18 19:57:07.91	293.25	12.21	-34.8	-35.4	24.5	0.00e+00	0	41	0	3016753152	42	6031
2026-01-18 19:57:08.92	293.10	12.15	-34.8	-35.6	24.5	0.00e+00	0	40	0	3021996032	42	6139
2026-01-18 19:57:09.93	292.96	12.09	-34.8	-35.4	24.4	0.00e+00	0	40	0	3028287488	42	6031
2026-01-18 19:57:10.94	292.81	12.02	-34.9	-35.6	24.4	0.00e+00	0	40	0	3033530368	42	6140
2026-01-18 19:57:11.95	292.66	11.96	-34.7	-35.3	24.5	0.00e+00	0	40	0	3039821824	42	5946
2026-01-18 19:57:12.96	292.52	11.90	-34.7	-35.3	24.6	0.00e+00	0	41	0	3045064704	42	5913
2026-01-18 19:57:13.97	292.37	11.83	-34.8	-35.6	24.4	0.00e+00	0	40	0	3050307584	42	6119
2026-01-18 19:57:14.98	292.23	11.77	-34.7	-35.4	24.6	0.00e+00	0	40	0	3056599040	42	5974
2026-01-18 19:57:15.99	292.09	11.71	-34.7	-35.4	24.6	0.00e+00	0	40	0	3061841920	42	6004
2026-01-18 19:57:17.00	291.94	11.65	-34.7	-35.3	24.5	0.00e+00	0	40	0	3068133376	42	5952
2026-01-18 19:57:18.01	291.80	11.58	-34.7	-35.3	24.5	0.00e+00	0	40	0	3073376256	42	5929
2026-01-18 19:57:19.02	291.66	11.52	-34.7	-35.4	24.5	0.00e+00	0	41	0	3079667712	42	5985
2026-01-18 19:57:20.03	291.52	11.46	-34.8	-35.4	24.4	0.00e+00	0	40	0	3084910592	42	6004
2026-01-18 19:57:21.04	291.38	11.39	-34.8	-35.5	24.4	0.00e+00	0	41	0	3091202048	42	6097
2026-01-18 19:57:22.05	291.24	11.33	-34.7	-35.4	24.5	0.00e+00	0	40	0	3096444928	42	5966
2026-01-18 19:57:23.06	291.10	11.27	-34.9	-35.6	24.4	0.00e+00	0	40	0	3101687808	42	6155
2026-01-18 19:57:24.06	290.96	11.21	-34.9	-35.6	24.4	0.00e+00	0	40	0	3107979264	42	6151
2026-01-18 19:57:25.07	290.83	11.14	-34.9	-35.6	24.3	0.00e+00	0	40	0	3113222144	42	6131
2026-01-18 19:57:26.08	290.69	11.08	-34.9	-35.6	24.3	0.00e+00	0	40	0	3119513600	42	6136
2026-01-18 19:57:27.09	290.55	11.02	-35.0	-35.7	24.2	0.00e+00	0	41	0	3124756480	42	6197
2026-01-18 19:57:28.10	290.42	10.95	-35.2	-36.0	24.0	0.00e+00	0	41	0	3129999360	42	6412
2026-01-18 19:57:29.11	290.28	10.89	-35.1	-35.9	24.1	0.00e+00	0	40	0	3136290816	42	6371
2026-01-18 19:57:30.12	290.15	10.83	-35.2	-35.9	24.1	0.00e+00	0	40	0	3141533696	42	6384
2026-01-18 19:57:31.13	290.01	10.77	-35.4	-36.2	23.8	0.00e+00	0	40	0	3147825152	42	6562
2026-01-18 19:57:32.13	289.88	10.70	-35.4	-36.0	23.9	0.00e+00	0	40	0	3153068032	42	6440
2026-01-18 19:57:33.14	289.75	10.64	-35.4	-36.1	23.9	0.00e+00	0	40	0	3158310912	42	6491
2026-01-18 19:57:34.15	289.62	10.58	-35.3	-35.9	23.9	0.00e+00	0	40	0	3164602368	42	6350
2026-01-18 19:57:35.16	289.48	10.51	-35.4	-36.1	23.8	0.00e+00	0	40	0	3169845248	42	6504
2026-01-18 19:57:36.18	289.35	10.45	-35.4	-36.1	23.8	0.00e+00	0	40	0	3176136704	42	6533
2026-01-18 19:57:37.19	289.22	10.39	-35.4	-36.0	23.9	0.00e+00	0	40	0	3181379584	42	6430
2026-01-18 19:57:38.19	289.09	10.33	-35.4	-36.1	23.9	0.00e+00	0	41	0	3187671040	42	6484
2026-01-18 19:57:39.20	288.96	10.26	-35.3	-36.0	23.9	0.00e+00	0	40	0	3192913920	42	6431
2026-01-18 19:57:40.21	288.83	10.20	-35.4	-36.1	23.9	0.00e+00	0	40	0	3198156800	42	6511
2026-01-18 19:57:41.22	288.71	10.14	-35.4	-36.2	23.7	0.00e+00	0	40	0	3204448256	42	6541
2026-01-18 19:57:42.23	288.58	10.07	-35.6	-36.3	23.6	0.00e+00	0	41	0	3209691136	42	6627
2026-01-18 19:57:43.24	288.45	10.01	-35.5	-36.3	23.6	0.00e+00	0	41	0	3215982592	44	5939
2026-01-18 19:57:44.25	288.32	9.95	-35.4	-36.1	23.7	0.00e+00	0	40	0	3221225472	44	5771
2026-01-18 19:57:45.26	288.20	9.89	-35.4	-36.1	23.7	0.00e+00	0	41	0	3226468352	44	5782
2026-01-18 19:57:46.27	288.07	9.82	-35.5	-36.3	23.7	0.00e+00	0	40	0	3232759808	44	5898
2026-01-18 19:57:47.27	287.95	9.76	-35.4	-36.1	23.8	0.00e+00	0	40	0	3238002688	44	5768
2026-01-18 19:57:48.28	287.82	9.70	-35.4	-36.1	23.6	0.00e+00	0	40	0	3244294144	44	5802
2026-01-18 19:57:49.29	287.70	9.64	-35.2	-35.9	23.9	0.00e+00	0	40	0	3249537024	44	5647
2026-01-18 19:57:50.31	287.57	9.57	-35.3	-36.1	23.9	0.00e+00	0	40	0	3254779904	44	5806
2026-01-18 19:57:51.32	287.45	9.51	-35.2	-35.9	23.8	0.00e+00	0	41	0	3261071360	44	5643
2026-01-18 19:57:52.33	287.33	9.45	-35.5	-36.2	23.6	0.00e+00	0	40	0	3266314240	44	5852
2026-01-18 19:57:53.33	287.21	9.39	-35.5	-36.3	23.6	0.00e+00	0	40	0	3272605696	44	5943
2026-01-18 19:57:54.35	287.09	9.32	-35.6	-36.3	23.6	0.00e+00	0	40	0	3277848576	44	5951
2026-01-18 19:57:55.35	286.97	9.26	-35.6	-36.4	23.5	0.00e+00	0	40	0	3284140032	44	5965
2026-01-18 19:57:56.36	286.85	9.20	-35.6	-36.5	23.4	0.00e+00	0	40	0	3289382912	44	6043
2026-01-18 19:57:57.37	286.73	9.14	-35.7	-36.6	23.4	0.00e+00	0	40	0	3295674368	44	6113
2026-01-18 19:57:58.38	286.61	9.07	-35.7	-36.5	23.4	0.00e+00	0	40	0	3300917248	44	6103
2026-01-18 19:57:59.39	286.49	9.01	-35.6	-36.3	23.4	0.00e+00	0	40	0	3306160128	44	5946
2026-01-18 19:58:00.40	286.37	8.95	-35.6	-36.4	23.5	0.00e+00	0	40	0	3312451584	44	6021
2026-01-18 19:58:01.41	286.25	8.89	-35.6	-36.3	23.5	0.00e+00	0	40	0	3317694464	44	5926
2026-01-18 19:58:02.42	286.14	8.82	-35.7	-36.5	23.4	0.00e+00	0	40	0	3323985920	44	6056
2026-01-18 19:58:03.43	286.02	8.76	-35.7	-36.5	23.5	0.00e+00	0	40	0	3329228800	44	6041
2026-01-18 19:58:04.44	285.90	8.70	-35.6	-36.3	23.4	0.00e+00	0	40	0	3334471680	44	5925
2026-01-18 19:58:05.45	285.79	8.64	-35.8	-36.6	23.3	0.00e+00	0	40	0	3340763136	44	6128
2026-01-18 19:58:06.46	285.67	8.58	-35.9	-36.6	23.2	0.00e+00	0	40	0	3346006016	44	6150
2026-01-18 19:58:07.47	285.56	8.51	-36.0	-36.8	23.1	0.00e+00	0	40	0	3351248896	44	6257
2026-01-18 19:58:08.48	285.44	8.45	-36.0	-36.9	23.0	0.00e+00	0	40	0	3357540352	44	6342
2026-01-18 19:58:09.49	285.33	8.39	-36.0	-36.7	23.1	0.00e+00	0	40	0	3362783232	44	6188
2026-01-18 19:58:10.50	285.22	8.33	-36.0	-36.7	23.1	0.00e+00	0	40	0	3369074688	44	6232
2026-01-18 19:58:11.51	285.11	8.27	-36.0	-36.7	23.1	0.00e+00	0	40	0	3374317568	44	6242
2026-01-18 19:58:12.52	284.99	8.21	-36.1	-36.9	23.0	0.00e+00	0	41	0	3380609024	44	6385
2026-01-18 19:58:13.53	284.88	8.14	-36.1	-36.9	23.0	0.00e+00	0	40	0	3385851904	44	6336
2026-01-18 19:58:14.54	284.77	8.08	-36.1	-36.8	23.0	0.00e+00	0	40	0	3392143360	44	6280
2026-01-18 19:58:15.55	284.66	8.02	-36.1	-36.8	23.0	0.00e+00	0	40	0	3397386240	44	6281
2026-01-18 19:58:16.56	284.55	7.96	-36.1	-36.8	22.9	0.00e+00	0	40	0	3402629120	44	6253
2026-01-18 19:58:17.57	284.44	7.90	-36.3	-37.0	22.7	0.00e+00	0	41	0	3408920576	44	6448
2026-01-18 19:58:18.58	284.33	7.84	-36.3	-37.0	22.8	0.00e+00	0	40	0	3414163456	44	6419
2026-01-18 19:58:19.59	284.22	7.77	-36.4	-37.1	22.6	0.00e+00	0	41	0	3420454912	44	6510
2026-01-18 19:58:20.60	284.11	7.71	-36.5	-37.2	22.5	0.00e+00	0	41	0	3425697792	44	6590
2026-01-18 19:58:21.61	284.01	7.65	-36.5	-37.3	22.5	0.00e+00	0	40	0	3430940672	44	6665
2026-01-18 19:58:22.62	283.90	7.59	-36.6	-37.3	22.4	0.00e+00	0	40	0	3437232128	44	6655
2026-01-18 19:58:23.63	283.79	7.53	-36.2	-36.9	22.8	0.00e+00	0	40	0	3442475008	44	6364
2026-01-18 19:58:24.64	283.68	7.47	-36.3	-37.1	22.7	0.00e+00	0	40	0	3448766464	44	6514
2026-01-18 19:58:25.65	283.58	7.41	-36.1	-36.8	22.9	0.00e+00	0	40	0	3454009344	44	6269
2026-01-18 19:58:26.66	283.47	7.35	-36.1	-37.0	22.9	0.00e+00	0	40	0	3459252224	44	6392
2026-01-18 19:58:27.67	283.37	7.28	-36.1	-36.8	22.8	0.00e+00	0	40	0	3465543680	44	6284
2026-01-18 19:58:28.68	283.26	7.22	-36.2	-36.9	22.8	0.00e+00	0	41	0	3470786560	44	6327
2026-01-18 19:58:29.69	283.16	7.16	-36.1	-36.8	22.8	0.00e+00	0	40	0	3477078016	44	6306
2026-01-18 19:58:30.70	283.06	7.10	-36.3	-37.0	22.7	0.00e+00	0	40	0	3482320896	44	6404
2026-01-18 19:58:31.71	282.95	7.04	-36.5	-37.3	22.5	0.00e+00	0	40	0	3488612352	44	6688
2026-01-18 19:58:32.72	282.85	6.98	-36.3	-37.1	22.6	0.00e+00	0	40	0	3493855232	44	6507
2026-01-18 19:58:33.73	282.75	6.92	-36.4	-37.1	22.6	0.00e+00	0	40	0	3500146688	44	6485
2026-01-18 19:58:34.74	282.65	6.86	-36.6	-37.3	22.3	0.00e+00	0	40	0	3505389568	44	6634
2026-01-18 19:58:35.75	282.54	6.80	-36.6	-37.4	22.3	0.00e+00	0	40	0	3510632448	44	6698
2026-01-18 19:58:36.77	282.44	6.74	-36.5	-37.4	22.4	0.00e+00	0	40	0	3516923904	44	6696
2026-01-18 19:58:37.78	282.34	6.68	-36.5	-37.2	22.4	0.00e+00	0	41	0	3522166784	44	6586
2026-01-18 19:58:38.79	282.24	6.62	-36.4	-37.2	22.6	0.00e+00	0	40	0	3528458240	44	6589
2026-01-18 19:58:39.80	282.14	6.56	-36.4	-37.1	22.5	0.00e+00	0	40	0	3533701120	44	6484
2026-01-18 19:58:40.81	282.04	6.50	-36.5	-37.4	22.4	0.00e+00	0	40	0	3538944000	44	6726
2026-01-18 19:58:41.82	281.94	6.44	-36.6	-37.3	22.3	0.00e+00	0	40	0	3545235456	44	6655
2026-01-18 19:58:42.83	281.84	6.38	-36.8	-37.5	22.1	0.00e+00	0	40	0	3550478336	44	6821
2026-01-18 19:58:43.84	281.75	6.32	-36.7	-37.5	22.2	0.00e+00	0	40	0	3556769792	46	6034
2026-01-18 19:58:44.85	281.65	6.26	-36.8	-37.6	22.1	0.00e+00	0	40	0	3562012672	46	6155
2026-01-18 19:58:45.86	281.55	6.20	-36.8	-37.6	22.1	0.00e+00	0	40	0	3567255552	46	6111
2026-01-18 19:58:46.87	281.45	6.14	-36.7	-37.6	22.1	0.00e+00	0	41	0	3573547008	46	6143
