passes_logs/2026/01/18/R4.6S_Anadyr/R4.6S_Anadyr__20260118_190132_AQUA_rec.log

#Pass ID: 20260118_190132_AQUA
#Satellite: AQUA
#Configuration: AQUA
#almurnet v.1.7.20251203
#Start time: 2026-01-18 19:01:34

#Version: 2.2.20231116
#Station: R4.6S_Anadyr
#Location: 177.4865 lon 64.73178 lat
#TLE: 1 27424U 02022A   26017.62394888  .00000781  00000+0  16630-3 0  9993
#TLE: 2 27424  98.4086 344.0954 0002010  75.0132 339.4723 14.61825944261279

#Time	Az	El	Level	Level2	SNR	BER	BlckErr	Temp	State	Recorded	gain1	gain2
2026-01-18 19:01:34.76	27.39	0.14	-49.7	-64.7	3.5	1.51e+00	0	39	0	0	60	61903
2026-01-18 19:01:35.76	27.32	0.20	-50.1	-68.0	3.5	3.02e+01	0	40	104	0	60	96419
2026-01-18 19:01:36.77	27.25	0.25	-50.1	-68.0	3.5	3.02e+01	0	40	104	0	60	96463
2026-01-18 19:01:37.78	27.18	0.31	-50.1	-67.9	3.5	3.02e+01	0	40	104	0	60	96033
2026-01-18 19:01:38.79	27.10	0.36	-50.1	-68.0	3.5	3.02e+01	0	40	104	0	60	97020
2026-01-18 19:01:39.80	27.03	0.41	-50.2	-68.0	3.5	3.02e+01	0	40	104	0	60	96665
2026-01-18 19:01:40.82	26.96	0.47	-50.2	-68.0	3.5	3.02e+01	0	40	104	0	60	97143
2026-01-18 19:01:41.82	26.88	0.52	-50.2	-68.0	3.5	3.02e+01	0	40	104	0	60	97130
2026-01-18 19:01:42.84	26.81	0.58	-50.2	-68.0	3.5	3.02e+01	0	40	104	0	60	97203
2026-01-18 19:01:43.84	26.74	0.63	-50.2	-68.0	3.5	3.02e+01	0	40	104	0	60	97117
2026-01-18 19:01:44.86	26.66	0.69	-50.2	-68.0	3.5	3.02e+01	0	40	104	0	60	96498
2026-01-18 19:01:45.87	26.59	0.74	-50.1	-68.0	3.5	3.02e+01	0	40	104	0	60	96520
2026-01-18 19:01:46.88	26.51	0.80	-50.1	-67.9	3.5	3.02e+01	0	40	104	0	60	95683
2026-01-18 19:01:47.89	26.43	0.85	-50.0	-67.9	3.5	3.02e+01	0	40	104	0	60	95356
2026-01-18 19:01:48.90	26.36	0.91	-50.0	-67.8	3.5	3.02e+01	0	40	104	0	60	94743
2026-01-18 19:01:49.91	26.28	0.96	-49.9	-67.8	3.5	3.02e+01	0	40	104	0	60	94007
2026-01-18 19:01:50.92	26.21	1.02	-49.8	-67.6	3.5	3.02e+01	0	40	104	0	60	92631
2026-01-18 19:01:51.93	26.13	1.07	-49.7	-67.6	3.5	3.02e+01	0	40	104	0	60	92105
2026-01-18 19:01:52.94	26.05	1.13	-49.5	-67.4	3.5	3.02e+01	0	41	104	0	60	90716
2026-01-18 19:01:53.95	25.98	1.18	-49.4	-67.3	3.5	3.02e+01	0	40	104	0	60	89136
2026-01-18 19:01:54.96	25.90	1.24	-49.4	-67.2	3.5	3.02e+01	0	40	104	0	60	88385
2026-01-18 19:01:55.97	25.82	1.29	-49.2	-67.1	3.5	3.02e+01	0	41	104	0	60	87107
2026-01-18 19:01:56.98	25.74	1.35	-49.0	-66.9	3.5	3.02e+01	0	41	104	0	60	84931
2026-01-18 19:01:57.99	25.66	1.41	-48.8	-66.6	3.5	3.02e+01	0	40	104	0	60	82542
2026-01-18 19:01:59.00	25.58	1.46	-48.4	-66.3	3.5	3.02e+01	0	40	104	0	60	79579
2026-01-18 19:02:00.01	25.50	1.52	-48.4	-66.2	3.5	3.02e+01	0	40	104	0	60	78466
2026-01-18 19:02:01.02	25.43	1.57	-48.4	-66.2	3.5	3.02e+01	0	40	104	0	60	78415
2026-01-18 19:02:02.03	25.35	1.63	-48.4	-66.2	3.5	3.02e+01	0	40	104	0	60	78563
2026-01-18 19:02:03.04	25.26	1.68	-48.4	-66.2	3.5	3.02e+01	0	40	104	0	60	78274
2026-01-18 19:02:04.05	25.18	1.74	-48.4	-66.2	3.5	3.02e+01	0	41	104	0	60	78613
2026-01-18 19:02:05.06	25.10	1.80	-48.4	-66.2	3.5	3.02e+01	0	41	104	0	60	78539
2026-01-18 19:02:06.07	25.02	1.85	-48.4	-66.2	3.5	3.02e+01	0	41	104	0	60	78472
2026-01-18 19:02:07.08	24.94	1.91	-48.4	-66.2	3.5	3.02e+01	0	40	104	0	60	78416
2026-01-18 19:02:08.09	24.86	1.97	-48.4	-66.2	3.5	3.02e+01	0	41	104	0	60	78706
2026-01-18 19:02:09.10	24.78	2.02	-48.4	-66.2	3.5	3.02e+01	0	41	104	0	60	78808
2026-01-18 19:02:10.11	24.69	2.08	-48.4	-66.3	3.5	3.02e+01	0	41	104	0	60	79075
2026-01-18 19:02:11.12	24.61	2.13	-48.4	-66.2	3.5	3.02e+01	0	41	104	0	60	78962
2026-01-18 19:02:12.13	24.53	2.19	-48.4	-66.2	3.5	3.02e+01	0	41	104	0	60	78935
2026-01-18 19:02:13.14	24.44	2.25	-48.4	-66.2	3.5	3.02e+01	0	41	104	0	60	78419
2026-01-18 19:02:14.15	24.36	2.30	-48.3	-66.0	3.5	3.02e+01	0	41	104	0	60	76927
2026-01-18 19:02:15.16	24.27	2.36	-48.3	-65.9	3.5	3.02e+01	0	40	104	0	60	76130
2026-01-18 19:02:16.17	24.19	2.42	-48.3	-66.0	3.5	3.02e+01	0	40	104	0	60	76455
2026-01-18 19:02:17.18	24.10	2.48	-48.3	-65.9	3.6	3.02e+01	0	41	104	0	60	76342
2026-01-18 19:02:18.19	24.02	2.53	-48.4	-66.1	3.5	3.02e+01	0	40	104	0	60	77838
2026-01-18 19:02:19.20	23.93	2.59	-48.4	-66.3	3.5	3.02e+01	0	41	104	0	60	79194
2026-01-18 19:02:20.21	23.84	2.65	-48.3	-66.1	3.5	3.02e+01	0	41	104	0	60	77894
2026-01-18 19:02:21.22	23.76	2.70	-48.3	-66.0	3.5	3.02e+01	0	41	104	0	60	76583
2026-01-18 19:02:22.22	23.67	2.76	-48.3	-65.9	3.5	3.02e+01	0	40	104	0	60	75643
2026-01-18 19:02:23.24	23.58	2.82	-48.4	-66.1	3.5	3.02e+01	0	41	104	0	60	77495
2026-01-18 19:02:24.25	23.49	2.88	-48.3	-66.0	3.5	3.02e+01	0	41	104	0	60	76819
2026-01-18 19:02:25.26	23.40	2.93	-48.2	-65.6	3.5	3.02e+01	0	41	104	0	60	73041
2026-01-18 19:02:26.27	23.32	2.99	-48.1	-64.8	3.5	3.02e+01	0	40	104	0	60	67223
2026-01-18 19:02:27.27	23.23	3.05	-48.1	-64.9	3.5	3.02e+01	0	41	104	0	60	67464
2026-01-18 19:02:28.28	23.14	3.11	-48.2	-65.1	3.5	3.02e+01	0	40	104	0	60	68960
2026-01-18 19:02:29.29	23.05	3.16	-48.2	-65.3	3.5	3.02e+01	0	41	104	0	60	71198
2026-01-18 19:02:30.30	22.96	3.22	-47.8	-63.7	3.5	3.02e+01	0	41	104	0	60	59033
2026-01-18 19:02:31.31	22.87	3.28	-47.2	-61.6	3.5	3.02e+01	0	41	104	0	60	46138
2026-01-18 19:02:32.32	22.77	3.34	-46.9	-60.9	3.5	3.02e+01	0	41	104	0	60	42510
2026-01-18 19:02:33.33	22.68	3.40	-48.1	-64.5	3.5	3.02e+01	0	41	104	0	60	64747
2026-01-18 19:02:34.35	22.59	3.45	-48.1	-64.6	3.5	3.02e+01	0	41	104	0	60	64999
2026-01-18 19:02:35.35	22.50	3.51	-44.1	-55.8	3.6	3.02e+01	0	41	104	0	60	23801
2026-01-18 19:02:36.36	22.40	3.57	-40.7	-51.5	3.5	3.02e+01	0	41	104	0	54	20317
2026-01-18 19:02:37.37	22.31	3.63	-48.1	-65.0	3.5	3.02e+01	0	41	104	0	60	68435
2026-01-18 19:02:38.38	22.22	3.69	-40.1	-50.8	3.5	3.02e+01	0	41	104	0	54	18766
2026-01-18 19:02:39.39	22.12	3.75	-40.1	-50.8	3.5	3.02e+01	0	41	104	0	54	18752
2026-01-18 19:02:40.40	22.03	3.80	-39.4	-49.9	3.5	3.02e+01	0	41	104	0	54	17026
2026-01-18 19:02:41.41	21.93	3.86	-39.5	-50.0	3.5	3.02e+01	0	41	104	0	54	17271
2026-01-18 19:02:42.42	21.84	3.92	-40.1	-50.7	3.4	3.02e+01	0	40	104	0	58	14847
2026-01-18 19:02:43.43	21.74	3.98	-45.6	-58.0	3.5	3.02e+01	0	40	104	0	60	30438
2026-01-18 19:02:44.44	21.64	4.04	-47.3	-61.6	3.5	3.02e+01	0	41	104	0	60	46151
2026-01-18 19:02:45.45	21.55	4.10	-44.8	-56.8	3.5	3.02e+01	0	40	104	0	58	29848
2026-01-18 19:02:46.46	21.45	4.16	-48.5	-66.3	3.5	3.02e+01	0	41	104	0	60	79827
2026-01-18 19:02:47.47	21.35	4.22	-42.8	-53.9	3.5	3.02e+01	0	40	104	0	60	19051
2026-01-18 19:02:48.48	21.25	4.27	-41.5	-52.3	3.5	3.02e+01	0	41	104	0	58	17806
2026-01-18 19:02:49.49	21.16	4.33	-41.7	-52.6	3.5	3.02e+01	0	41	104	0	58	18338
2026-01-18 19:02:50.50	21.06	4.39	-47.2	-61.2	3.5	3.02e+01	0	41	104	0	60	44135
2026-01-18 19:02:51.51	20.96	4.45	-48.2	-64.2	3.5	3.02e+01	0	41	104	0	60	62145
2026-01-18 19:02:52.52	20.86	4.51	-45.7	-58.2	3.5	3.02e+01	0	41	104	0	58	35190
2026-01-18 19:02:53.53	20.76	4.57	-48.5	-65.6	3.5	3.02e+01	0	41	104	0	60	73675
2026-01-18 19:02:54.54	20.66	4.63	-42.8	-53.9	3.5	3.02e+01	0	41	104	0	60	19069
2026-01-18 19:02:55.55	20.55	4.69	-41.2	-52.0	3.5	3.02e+01	0	41	104	0	58	17156
2026-01-18 19:02:56.56	20.45	4.75	-41.1	-51.8	3.5	3.02e+01	0	41	104	0	56	18875
2026-01-18 19:02:57.57	20.35	4.81	-40.4	-51.0	3.5	3.02e+01	0	41	104	0	56	17233
2026-01-18 19:02:58.58	20.25	4.87	-40.3	-50.9	3.5	3.02e+01	0	40	104	0	56	17040
2026-01-18 19:02:59.59	20.14	4.93	-39.6	-50.2	3.5	3.02e+01	0	41	104	0	54	17494
2026-01-18 19:03:00.60	20.04	4.99	-41.5	-52.3	3.5	3.02e+01	0	40	104	0	54	22525
2026-01-18 19:03:01.61	19.93	5.05	-46.4	-59.2	3.5	3.02e+01	0	41	104	0	60	35261
2026-01-18 19:03:02.62	19.83	5.11	-47.3	-61.2	3.5	3.02e+01	0	41	104	0	60	44089
2026-01-18 19:03:03.63	19.72	5.17	-48.7	-66.0	3.5	3.02e+01	0	40	104	0	60	77054
2026-01-18 19:03:04.64	19.62	5.23	-48.4	-64.6	3.5	3.02e+01	0	41	104	0	60	65555
2026-01-18 19:03:05.65	19.51	5.29	-46.4	-59.2	3.5	3.02e+01	0	40	104	0	60	35047
2026-01-18 19:03:06.66	19.41	5.35	-46.0	-58.5	3.5	3.02e+01	0	41	104	0	60	32424
2026-01-18 19:03:07.67	19.30	5.41	-44.7	-56.4	3.5	3.02e+01	0	40	104	0	60	25336
2026-01-18 19:03:08.68	19.19	5.47	-46.1	-58.7	3.5	3.02e+01	0	41	104	0	60	33011
2026-01-18 19:03:09.69	19.08	5.53	-44.1	-55.7	3.6	3.02e+01	0	41	104	0	60	23412
2026-01-18 19:03:10.70	18.97	5.59	-48.8	-66.4	3.5	3.02e+01	0	40	104	0	60	80309
2026-01-18 19:03:11.71	18.86	5.65	-48.7	-65.8	3.5	3.02e+01	0	41	104	0	60	75044
2026-01-18 19:03:12.72	18.75	5.71	-40.0	-50.5	3.5	3.02e+01	0	41	104	0	56	16210
2026-01-18 19:03:13.73	18.64	5.77	-40.3	-50.9	3.5	3.02e+01	0	41	104	0	56	17025
2026-01-18 19:03:14.74	18.53	5.84	-40.4	-50.9	3.6	3.02e+01	0	41	104	0	56	17019
2026-01-18 19:03:15.75	18.42	5.90	-39.9	-50.4	3.5	3.02e+01	0	41	104	0	54	17991
2026-01-18 19:03:16.76	18.31	5.96	-40.6	-51.2	3.5	3.02e+01	0	40	104	0	54	19727
2026-01-18 19:03:17.77	18.20	6.02	-38.9	-49.4	3.5	3.02e+01	0	40	104	0	52	18032
2026-01-18 19:03:18.78	18.08	6.08	-44.0	-55.4	3.5	3.02e+01	0	40	104	0	60	22568
2026-01-18 19:03:19.79	17.97	6.14	-48.7	-65.6	3.5	3.02e+01	0	41	104	0	60	73695
2026-01-18 19:03:20.81	17.86	6.20	-43.7	-54.9	3.5	3.02e+01	0	41	104	0	60	21413
2026-01-18 19:03:21.81	17.74	6.26	-48.8	-66.4	3.5	3.02e+01	0	41	104	0	60	80420
2026-01-18 19:03:22.82	17.63	6.32	-43.0	-54.2	3.5	3.02e+01	0	41	104	0	60	19640
2026-01-18 19:03:23.83	17.51	6.39	-41.1	-51.8	3.5	3.02e+01	0	41	104	0	58	16726
2026-01-18 19:03:24.84	17.39	6.45	-41.3	-52.0	3.5	3.02e+01	0	40	104	0	58	17172
2026-01-18 19:03:25.85	17.28	6.51	-40.6	-51.2	3.5	3.02e+01	0	41	104	0	56	17563
2026-01-18 19:03:26.86	17.16	6.57	-48.9	-66.0	3.5	3.02e+01	0	40	104	0	60	76571
2026-01-18 19:03:27.87	17.04	6.63	-44.4	-56.0	3.5	3.02e+01	0	41	104	0	60	24275
2026-01-18 19:03:28.88	16.92	6.69	-48.9	-66.4	3.5	3.02e+01	0	41	104	0	60	80487
2026-01-18 19:03:29.90	16.80	6.76	-48.7	-65.3	3.5	3.02e+01	0	41	104	0	60	70761
2026-01-18 19:03:30.91	16.68	6.82	-43.7	-54.9	3.5	3.02e+01	0	41	104	0	60	21380
2026-01-18 19:03:31.91	16.57	6.88	-43.6	-54.8	3.5	3.02e+01	0	41	104	0	60	21230
2026-01-18 19:03:32.92	16.44	6.94	-44.1	-55.4	3.5	3.02e+01	0	41	104	0	60	22751
2026-01-18 19:03:33.94	16.32	7.00	-43.2	-54.3	3.5	3.02e+01	0	41	104	0	60	19989
2026-01-18 19:03:34.94	16.20	7.06	-41.0	-51.7	3.5	3.02e+01	0	41	104	0	58	16624
2026-01-18 19:03:35.95	16.08	7.13	-39.1	-49.6	3.5	3.02e+01	0	41	104	0	54	16422
2026-01-18 19:03:36.96	15.96	7.19	-44.6	-56.2	3.5	3.02e+01	0	41	104	0	60	24752
2026-01-18 19:03:37.97	15.83	7.25	-48.7	-65.1	3.5	3.02e+01	0	41	104	0	60	69106
2026-01-18 19:03:38.98	15.71	7.31	-43.1	-54.1	3.5	3.02e+01	0	41	104	0	60	19558
2026-01-18 19:03:39.99	15.58	7.38	-49.0	-66.7	3.5	3.02e+01	0	41	104	0	60	82870
2026-01-18 19:03:41.00	15.46	7.44	-41.8	-52.7	3.5	3.02e+01	0	41	104	0	60	16535
2026-01-18 19:03:42.02	15.33	7.50	-41.2	-52.0	3.6	3.02e+01	0	41	104	0	58	17135
2026-01-18 19:03:43.02	15.21	7.56	-41.0	-51.7	3.5	3.02e+01	0	41	104	0	56	18610
2026-01-18 19:03:44.03	15.08	7.62	-41.5	-52.2	3.5	3.02e+01	0	41	104	0	56	19844
2026-01-18 19:03:45.04	14.95	7.69	-48.9	-65.9	3.5	3.02e+01	0	41	104	0	60	76331
2026-01-18 19:03:46.05	14.82	7.75	-43.6	-54.8	3.6	3.02e+01	0	41	104	0	60	21049
2026-01-18 19:03:47.06	14.69	7.81	-49.1	-66.7	3.5	3.02e+01	0	41	104	0	60	82957
2026-01-18 19:03:48.07	14.56	7.87	-49.1	-66.7	3.5	3.02e+01	0	41	104	0	60	83568
2026-01-18 19:03:49.08	14.43	7.94	-40.2	-50.8	3.5	3.02e+01	0	41	104	0	54	18796
2026-01-18 19:03:50.09	14.30	8.00	-39.1	-49.5	3.5	3.02e+01	0	41	104	0	54	16219
2026-01-18 19:03:51.11	14.17	8.06	-38.7	-49.1	3.5	3.02e+01	0	41	104	0	52	17488
2026-01-18 19:03:52.11	14.04	8.13	-38.4	-48.7	3.5	3.02e+01	0	41	104	0	52	16676
2026-01-18 19:03:53.12	13.90	8.19	-38.5	-48.9	3.5	3.02e+01	0	41	104	0	52	16971
2026-01-18 19:03:54.14	13.77	8.25	-43.4	-54.5	3.5	3.02e+01	0	41	104	0	60	20409
2026-01-18 19:03:55.15	13.64	8.31	-44.3	-55.6	3.5	3.02e+01	0	41	104	0	60	23307
2026-01-18 19:03:56.15	13.50	8.38	-48.9	-65.6	3.5	3.02e+01	0	41	104	0	60	73020
2026-01-18 19:03:57.17	13.37	8.44	-41.5	-52.3	3.5	3.02e+01	0	41	104	0	60	15908
2026-01-18 19:03:58.18	13.23	8.50	-49.1	-66.6	3.5	3.02e+01	0	41	104	0	60	82159
2026-01-18 19:03:59.19	13.09	8.57	-44.4	-55.9	3.5	3.02e+01	0	41	104	0	60	24073
2026-01-18 19:04:00.19	12.96	8.63	-44.6	-56.0	3.5	3.02e+01	0	41	104	0	60	24408
2026-01-18 19:04:01.21	12.82	8.69	-42.6	-53.5	3.5	3.02e+01	0	41	104	0	60	18156
2026-01-18 19:04:02.21	12.68	8.75	-42.3	-53.2	3.5	3.02e+01	0	41	104	0	58	19639
2026-01-18 19:04:03.22	12.54	8.82	-48.3	-62.9	3.5	3.02e+01	0	41	104	0	60	54026
2026-01-18 19:04:04.23	12.40	8.88	-41.1	-51.6	3.5	3.02e+01	0	41	104	0	58	16495
2026-01-18 19:04:05.24	12.26	8.94	-49.0	-65.9	3.5	3.02e+01	0	41	104	0	60	76011
2026-01-18 19:04:06.25	12.12	9.01	-49.2	-66.1	3.5	3.02e+01	0	41	104	0	60	77563
2026-01-18 19:04:07.26	11.98	9.07	-43.7	-54.8	3.5	3.02e+01	0	41	104	0	60	21130
2026-01-18 19:04:08.27	11.83	9.13	-43.7	-54.9	3.5	3.02e+01	0	41	104	0	60	21397
2026-01-18 19:04:09.28	11.69	9.20	-44.0	-55.2	3.5	3.02e+01	0	41	104	0	60	22178
2026-01-18 19:04:10.29	11.55	9.26	-42.8	-53.7	3.5	3.02e+01	0	41	104	0	60	18611
2026-01-18 19:04:11.30	11.40	9.32	-42.8	-53.8	3.5	3.02e+01	0	41	104	0	60	18811
2026-01-18 19:04:12.31	11.26	9.39	-41.4	-52.0	3.5	3.02e+01	0	41	104	0	58	17191
2026-01-18 19:04:13.32	11.11	9.45	-43.6	-54.7	3.5	3.02e+01	0	41	104	0	60	20973
2026-01-18 19:04:14.33	10.96	9.51	-49.1	-65.9	3.5	3.02e+01	0	41	104	0	60	76074
2026-01-18 19:04:15.34	10.81	9.58	-38.2	-48.6	3.5	3.02e+01	0	41	104	0	52	16401
2026-01-18 19:04:16.35	10.67	9.64	-49.2	-66.8	3.5	3.02e+01	0	41	104	0	60	83754
2026-01-18 19:04:17.36	10.52	9.70	-39.0	-49.5	3.5	3.02e+01	0	41	104	0	54	16184
2026-01-18 19:04:18.37	10.37	9.76	-38.4	-48.7	3.5	3.02e+01	0	41	104	0	52	16666
2026-01-18 19:04:19.38	10.22	9.83	-38.3	-48.7	3.5	3.02e+01	0	41	104	0	52	16519
2026-01-18 19:04:20.39	10.07	9.89	-40.1	-50.6	3.3	3.02e+01	0	41	104	0	52	20605
2026-01-18 19:04:21.40	9.91	9.95	-48.9	-64.7	3.5	3.02e+01	0	41	104	0	60	66385
2026-01-18 19:04:22.41	9.76	10.02	-40.5	-51.1	3.5	3.02e+01	0	40	104	0	56	17424
2026-01-18 19:04:23.42	9.61	10.08	-48.8	-64.6	3.5	3.02e+01	0	41	104	0	60	65178
2026-01-18 19:04:24.43	9.45	10.14	-46.9	-59.6	3.5	3.02e+01	0	41	104	0	60	36660
2026-01-18 19:04:25.44	9.30	10.21	-43.6	-54.7	3.5	3.02e+01	0	40	104	0	60	20865
2026-01-18 19:04:26.45	9.14	10.27	-42.9	-53.8	3.5	3.02e+01	0	41	104	0	60	18905
2026-01-18 19:04:27.46	8.99	10.33	-43.0	-54.0	3.5	3.02e+01	0	41	104	0	60	19262
2026-01-18 19:04:28.47	8.83	10.40	-42.8	-53.7	3.5	3.02e+01	0	41	104	0	60	18591
2026-01-18 19:04:29.48	8.67	10.46	-43.2	-54.2	3.5	3.02e+01	0	41	104	0	60	19665
2026-01-18 19:04:30.49	8.51	10.52	-44.2	-55.4	3.5	3.02e+01	0	41	104	0	60	22576
2026-01-18 19:04:31.50	8.35	10.59	-44.3	-55.6	3.5	3.02e+01	0	41	104	0	60	23261
2026-01-18 19:04:32.51	8.19	10.65	-47.2	-60.3	3.5	3.02e+01	0	41	104	0	60	39695
2026-01-18 19:04:33.52	8.03	10.71	-43.3	-54.3	3.5	3.02e+01	0	41	104	0	54	28053
2026-01-18 19:04:34.53	7.87	10.78	-49.0	-65.0	3.6	3.02e+01	0	41	104	0	60	68464
2026-01-18 19:04:35.54	7.71	10.84	-41.0	-51.7	3.6	3.02e+01	0	41	104	0	56	18573
2026-01-18 19:04:36.55	7.55	10.90	-39.9	-50.4	3.5	3.02e+01	0	41	104	0	56	16075
2026-01-18 19:04:37.56	7.38	10.96	-40.6	-51.1	3.5	3.02e+01	0	41	104	0	54	19524
2026-01-18 19:04:38.56	7.22	11.03	-46.8	-59.4	3.5	3.02e+01	0	41	104	0	60	35731
2026-01-18 19:04:39.57	7.05	11.09	-45.0	-56.6	3.5	3.02e+01	0	41	104	0	60	26052
2026-01-18 19:04:40.58	6.89	11.15	-48.8	-64.3	3.5	3.02e+01	0	41	104	0	60	62838
2026-01-18 19:04:41.59	6.72	11.21	-49.3	-66.4	3.5	3.02e+01	0	41	104	0	60	80090
2026-01-18 19:04:42.60	6.55	11.28	-39.3	-49.7	3.5	3.02e+01	0	41	104	0	56	14778
2026-01-18 19:04:43.61	6.38	11.34	-39.0	-49.4	3.5	3.02e+01	0	41	104	0	54	16076
2026-01-18 19:04:44.62	6.21	11.40	-39.0	-49.4	3.5	3.02e+01	0	41	104	0	52	17919
2026-01-18 19:04:45.63	6.04	11.47	-39.1	-49.6	3.6	3.02e+01	0	41	104	0	52	18397
2026-01-18 19:04:46.64	5.87	11.53	-39.1	-49.5	3.5	3.02e+01	0	41	104	0	52	18293
2026-01-18 19:04:47.65	5.70	11.59	-39.1	-49.5	3.5	3.02e+01	0	41	104	0	52	18289
2026-01-18 19:04:48.66	5.53	11.65	-42.5	-53.3	3.5	3.02e+01	0	41	104	0	56	22329
2026-01-18 19:04:49.67	5.35	11.71	-48.6	-63.3	3.5	3.02e+01	0	41	104	0	60	56546
2026-01-18 19:04:50.68	5.18	11.78	-42.6	-53.4	3.5	3.02e+01	0	40	104	0	60	17992
2026-01-18 19:04:51.69	5.00	11.84	-49.1	-65.4	3.5	3.02e+01	0	41	104	0	60	71832
2026-01-18 19:04:52.70	4.83	11.90	-45.4	-57.2	3.6	3.02e+01	0	41	104	0	60	27830
2026-01-18 19:04:53.71	4.65	11.96	-39.9	-50.4	3.5	3.02e+01	0	41	104	0	56	15963
2026-01-18 19:04:54.72	4.47	12.02	-39.1	-49.6	3.5	3.02e+01	0	41	104	0	54	16329
2026-01-18 19:04:55.73	4.30	12.09	-39.1	-49.6	3.5	3.02e+01	0	41	104	0	54	16362
2026-01-18 19:04:56.74	4.12	12.15	-49.4	-66.8	3.5	3.02e+01	0	41	104	0	60	84055
2026-01-18 19:04:57.75	3.94	12.21	-41.7	-52.4	3.4	3.02e+01	0	41	104	0	60	16103
2026-01-18 19:04:58.76	3.76	12.27	-48.9	-64.4	3.5	3.02e+01	0	41	104	0	60	63929
2026-01-18 19:04:59.77	3.57	12.33	-49.6	-67.4	3.5	3.02e+01	0	41	104	0	60	90723
2026-01-18 19:05:00.78	3.39	12.39	-39.1	-49.5	3.5	3.02e+01	0	41	104	0	52	18138
2026-01-18 19:05:01.78	3.21	12.45	-39.3	-49.7	3.5	3.02e+01	0	41	104	0	54	16557
2026-01-18 19:05:02.79	3.03	12.52	-38.8	-49.2	3.6	3.02e+01	0	41	104	0	54	15639
2026-01-18 19:05:03.80	2.84	12.58	-38.6	-48.9	3.5	3.02e+01	0	41	104	0	52	17066
2026-01-18 19:05:04.81	2.66	12.64	-38.4	-48.7	3.6	3.02e+01	0	41	104	0	52	16652
2026-01-18 19:05:05.82	2.47	12.70	-38.6	-49.0	3.5	3.02e+01	0	41	104	0	50	19275
2026-01-18 19:05:06.83	2.28	12.76	-44.5	-55.8	3.5	3.02e+01	0	41	104	0	60	23823
2026-01-18 19:05:07.84	2.09	12.82	-49.6	-67.5	3.5	3.02e+01	0	41	104	0	60	91147
2026-01-18 19:05:08.85	1.90	12.88	-40.2	-50.7	3.5	3.02e+01	0	41	104	0	56	16628
2026-01-18 19:05:09.86	1.71	12.94	-49.0	-64.7	3.5	3.02e+01	0	41	104	0	60	65918
2026-01-18 19:05:10.87	1.52	13.00	-38.7	-49.1	3.5	3.02e+01	0	41	104	0	54	15508
2026-01-18 19:05:11.88	1.33	13.06	-38.4	-48.7	3.5	3.02e+01	0	41	104	0	52	16625
2026-01-18 19:05:12.89	1.14	13.12	-38.0	-48.4	3.5	3.02e+01	0	41	104	0	50	17953
2026-01-18 19:05:13.90	0.95	13.18	-38.3	-48.6	3.5	3.02e+01	0	41	104	0	50	18503
2026-01-18 19:05:14.91	0.75	13.24	-49.7	-67.4	3.5	3.02e+01	0	41	104	0	60	89834
2026-01-18 19:05:15.92	0.56	13.30	-40.6	-51.2	3.5	3.02e+01	0	41	104	0	58	15593
2026-01-18 19:05:16.93	0.36	13.36	-49.3	-65.7	3.5	3.02e+01	0	41	104	0	60	74010
2026-01-18 19:05:17.94	0.16	13.42	-49.1	-64.9	3.5	3.02e+01	0	41	104	0	60	67639
2026-01-18 19:05:18.95	359.97	13.48	-41.1	-51.7	3.5	3.02e+01	0	41	104	0	54	20832
2026-01-18 19:05:19.96	359.77	13.54	-39.7	-50.1	3.5	3.02e+01	0	41	104	0	54	17355
2026-01-18 19:05:20.97	359.57	13.60	-40.0	-50.5	3.5	3.02e+01	0	41	104	0	54	18168
2026-01-18 19:05:21.98	359.37	13.65	-40.0	-50.4	3.5	3.02e+01	0	40	104	0	54	18023
2026-01-18 19:05:22.98	359.17	13.71	-39.8	-50.3	3.5	3.02e+01	0	41	104	0	54	17733
2026-01-18 19:05:23.99	358.97	13.77	-37.9	-48.2	3.5	3.02e+01	0	41	104	0	50	17520
2026-01-18 19:05:25.00	358.76	13.83	-46.8	-59.4	3.5	3.02e+01	0	41	104	0	60	35852
2026-01-18 19:05:26.01	358.56	13.89	-49.5	-66.6	3.5	3.02e+01	0	41	104	0	60	81898
2026-01-18 19:05:27.02	358.36	13.94	-41.0	-51.6	3.5	3.02e+01	0	41	104	0	58	16333
2026-01-18 19:05:28.03	358.15	14.00	-49.4	-66.4	3.5	3.02e+01	0	41	104	0	60	79997
2026-01-18 19:05:29.04	357.94	14.06	-41.6	-52.3	3.5	3.02e+01	0	41	104	0	60	15875
2026-01-18 19:05:30.05	357.74	14.11	-40.7	-51.2	3.5	3.02e+01	0	41	104	0	56	17607
2026-01-18 19:05:31.06	357.53	14.17	-41.2	-51.8	3.5	3.02e+01	0	41	104	0	56	18888
2026-01-18 19:05:32.07	357.32	14.23	-41.3	-51.9	3.5	3.02e+01	0	40	104	0	56	19068
2026-01-18 19:05:33.08	357.11	14.28	-48.4	-62.7	3.5	3.02e+01	0	41	104	0	60	52318
2026-01-18 19:05:34.09	356.90	14.34	-38.3	-48.6	3.5	3.02e+01	0	41	104	0	52	16401
2026-01-18 19:05:35.10	356.69	14.40	-49.3	-66.0	3.6	3.02e+01	0	40	104	0	60	76434
2026-01-18 19:05:36.11	356.48	14.45	-47.1	-60.0	3.5	3.02e+01	0	41	104	0	60	38435
2026-01-18 19:05:37.12	356.26	14.51	-43.1	-54.1	3.6	3.02e+01	0	41	104	0	58	21789
2026-01-18 19:05:38.13	356.05	14.56	-39.3	-49.8	3.5	3.02e+01	0	41	104	0	54	16748
2026-01-18 19:05:39.14	355.83	14.62	-39.6	-50.0	3.5	3.02e+01	0	41	104	0	54	17267
2026-01-18 19:05:40.15	355.62	14.67	-39.5	-50.0	3.5	3.02e+01	0	41	104	0	52	19218
2026-01-18 19:05:41.16	355.40	14.73	-39.2	-49.6	3.5	3.02e+01	0	40	104	0	52	18428
2026-01-18 19:05:42.17	355.18	14.78	-37.8	-48.1	3.5	3.02e+01	0	40	104	0	50	17401
2026-01-18 19:05:43.18	354.96	14.83	-47.6	-60.9	3.5	3.02e+01	0	41	104	0	60	42767
2026-01-18 19:05:44.19	354.75	14.89	-48.8	-63.9	3.5	3.02e+01	0	41	104	0	60	60551
2026-01-18 19:05:45.20	354.53	14.94	-39.2	-49.5	3.5	3.02e+01	0	41	104	0	56	14469
2026-01-18 19:05:46.21	354.30	14.99	-49.4	-66.2	3.5	3.02e+01	0	41	104	0	60	78178
2026-01-18 19:05:47.22	354.08	15.05	-40.0	-50.4	3.5	3.02e+01	0	40	104	0	56	16101
2026-01-18 19:05:48.23	353.86	15.10	-38.7	-49.1	3.5	3.02e+01	0	41	104	0	52	17342
2026-01-18 19:05:49.24	353.64	15.15	-38.2	-48.5	3.5	3.02e+01	0	41	104	0	52	16211
2026-01-18 19:05:50.25	353.41	15.20	-37.6	-47.9	3.5	3.02e+01	0	41	104	0	50	16968
2026-01-18 19:05:51.26	353.19	15.26	-42.6	-53.3	3.5	3.02e+01	0	40	104	0	60	17779
2026-01-18 19:05:52.27	352.96	15.31	-37.4	-47.7	3.5	3.02e+01	0	40	104	0	50	16574
2026-01-18 19:05:53.27	352.74	15.36	-49.3	-65.4	3.5	3.02e+01	0	41	104	0	60	71987
2026-01-18 19:05:54.28	352.51	15.41	-42.6	-53.5	3.5	3.02e+01	0	40	104	0	60	18298
2026-01-18 19:05:55.29	352.28	15.46	-44.0	-55.1	3.5	3.02e+01	0	41	104	0	60	21968
2026-01-18 19:05:56.30	352.05	15.51	-40.2	-50.6	3.5	3.02e+01	0	40	104	0	54	18410
2026-01-18 19:05:57.31	351.82	15.56	-39.0	-49.3	3.5	3.02e+01	0	41	104	0	54	15940
2026-01-18 19:05:58.32	351.59	15.61	-38.6	-49.0	3.5	3.02e+01	0	41	104	0	52	17232
2026-01-18 19:05:59.33	351.36	15.66	-38.1	-48.5	3.5	3.02e+01	0	40	104	0	52	16314
2026-01-18 19:06:00.34	351.12	15.71	-38.3	-48.7	3.5	3.02e+01	0	40	104	0	50	18544
2026-01-18 19:06:01.35	350.89	15.75	-37.3	-47.5	3.5	3.02e+01	0	40	104	0	50	16312
2026-01-18 19:06:02.36	350.66	15.80	-49.3	-65.5	3.5	3.02e+01	0	41	104	0	60	72794
2026-01-18 19:06:03.37	350.42	15.85	-39.2	-49.6	3.5	3.02e+01	0	41	104	0	56	14591
2026-01-18 19:06:04.38	350.19	15.90	-42.5	-53.2	3.5	3.02e+01	0	41	104	0	60	17682
2026-01-18 19:06:05.39	349.95	15.94	-38.5	-48.8	3.5	3.02e+01	0	41	104	0	52	16861
2026-01-18 19:06:06.40	349.71	15.99	-37.9	-48.1	3.5	3.02e+01	0	40	104	0	50	17488
2026-01-18 19:06:07.41	349.47	16.04	-37.6	-47.8	3.5	3.02e+01	0	41	104	0	50	16878
2026-01-18 19:06:08.42	349.23	16.08	-37.8	-48.1	3.5	3.02e+01	0	40	104	0	50	17311
2026-01-18 19:06:09.43	348.99	16.13	-38.4	-48.8	3.5	3.02e+01	0	40	104	0	54	15022
2026-01-18 19:06:10.44	348.75	16.17	-39.0	-49.3	3.5	3.02e+01	0	41	104	0	50	20034
2026-01-18 19:06:11.45	348.51	16.22	-49.7	-67.1	3.5	3.02e+01	0	41	104	0	60	87046
2026-01-18 19:06:12.46	348.27	16.26	-41.8	-52.4	3.5	3.02e+01	0	41	104	0	60	16047
2026-01-18 19:06:13.47	348.03	16.31	-47.1	-59.8	3.5	3.02e+01	0	41	104	0	60	37678
2026-01-18 19:06:14.48	347.78	16.35	-44.6	-55.9	3.5	3.02e+01	0	41	104	0	60	23880
2026-01-18 19:06:15.49	347.54	16.39	-44.8	-56.2	3.5	3.02e+01	0	41	104	0	60	24730
2026-01-18 19:06:16.50	347.29	16.44	-44.7	-56.0	3.5	3.02e+01	0	40	104	0	60	24368
2026-01-18 19:06:17.51	347.05	16.48	-40.8	-51.3	3.5	3.02e+01	0	40	104	0	58	15791
2026-01-18 19:06:18.52	346.80	16.52	-41.6	-52.2	3.5	3.02e+01	0	40	104	0	54	22133
2026-01-18 19:06:19.53	346.55	16.56	-42.5	-53.2	3.5	3.02e+01	0	41	104	0	60	17593
2026-01-18 19:06:20.54	346.30	16.60	-41.4	-52.0	3.3	3.02e+01	0	41	104	0	60	15403
2026-01-18 19:06:21.55	346.06	16.64	-47.4	-60.2	3.5	3.02e+01	0	40	104	0	58	43940
2026-01-18 19:06:22.55	345.81	16.68	-46.4	-58.6	3.5	3.02e+01	0	41	104	0	60	32573
2026-01-18 19:06:23.56	345.56	16.72	-39.5	-50.0	3.5	3.02e+01	0	40	104	0	54	17150
2026-01-18 19:06:24.57	345.31	16.76	-40.1	-50.6	3.5	3.02e+01	0	41	104	0	54	18469
2026-01-18 19:06:25.58	345.06	16.80	-39.8	-50.3	3.5	3.02e+01	0	41	104	0	54	17732
2026-01-18 19:06:26.59	344.80	16.84	-48.6	-62.8	3.4	3.02e+01	0	41	104	0	60	53352
2026-01-18 19:06:27.60	344.55	16.87	-48.4	-62.6	3.5	3.02e+01	0	41	104	0	60	52158
2026-01-18 19:06:28.61	344.30	16.91	-42.8	-53.6	3.5	3.02e+01	0	41	104	0	58	20714
2026-01-18 19:06:29.62	344.04	16.95	-39.6	-50.2	3.5	3.02e+01	0	41	104	0	56	15596
2026-01-18 19:06:30.63	343.79	16.98	-48.1	-61.6	3.5	3.02e+01	0	41	104	0	60	46019
2026-01-18 19:06:31.64	343.53	17.02	-44.0	-55.1	3.5	3.02e+01	0	41	104	0	60	21982
2026-01-18 19:06:32.65	343.27	17.05	-38.7	-49.1	3.5	3.02e+01	0	41	104	0	52	17317
2026-01-18 19:06:33.66	343.02	17.09	-38.7	-49.1	3.5	3.02e+01	0	41	104	0	52	17329
2026-01-18 19:06:34.67	342.76	17.12	-38.5	-48.8	3.5	3.02e+01	0	41	104	0	52	16839
2026-01-18 19:06:35.68	342.50	17.16	-42.7	-53.5	3.5	3.02e+01	0	41	104	0	56	22948
2026-01-18 19:06:36.69	342.24	17.19	-40.2	-50.6	3.6	3.02e+01	0	41	104	0	56	16494
2026-01-18 19:06:37.70	341.98	17.22	-48.7	-63.1	3.5	3.02e+01	0	41	104	0	60	55017
2026-01-18 19:06:38.71	341.72	17.25	-47.6	-60.7	3.5	3.02e+01	0	41	104	0	60	41776
2026-01-18 19:06:39.72	341.46	17.29	-42.5	-53.2	3.5	3.02e+01	0	41	104	0	56	22182
2026-01-18 19:06:40.73	341.20	17.32	-42.3	-53.0	3.5	3.02e+01	0	41	104	0	60	17201
2026-01-18 19:06:41.74	340.94	17.35	-41.2	-51.7	3.5	3.02e+01	0	41	104	0	58	16638
2026-01-18 19:06:42.75	340.68	17.38	-40.6	-51.2	3.5	3.02e+01	0	41	104	0	56	17505
2026-01-18 19:06:43.76	340.41	17.41	-38.9	-49.3	3.5	3.02e+01	0	40	104	0	54	15780
2026-01-18 19:06:44.77	340.15	17.43	-41.4	-52.0	3.5	3.02e+01	0	41	104	0	54	21583
2026-01-18 19:06:45.78	339.89	17.46	-39.3	-49.6	3.5	3.02e+01	0	41	104	0	52	18418
2026-01-18 19:06:46.79	339.62	17.49	-49.6	-67.3	3.5	3.02e+01	0	41	104	0	60	89126
2026-01-18 19:06:47.80	339.36	17.52	-46.6	-59.0	3.6	3.02e+01	0	41	104	0	60	34496
2026-01-18 19:06:48.81	339.09	17.54	-45.1	-56.5	3.4	3.02e+01	0	41	104	0	60	25866
2026-01-18 19:06:49.82	338.82	17.57	-42.0	-52.6	5.5	3.02e+01	0	41	104	0	60	16479
2026-01-18 19:06:50.83	338.56	17.59	-40.7	-42.6	22.6	3.02e+01	0	40	104	0	56	6536
2026-01-18 19:06:51.84	338.29	17.62	-39.9	-41.4	25.7	3.02e+01	0	41	0	1048576	56	5690
2026-01-18 19:06:52.85	338.02	17.64	-40.2	-41.7	25.8	3.02e+01	0	41	0	2621440	54	6643
2026-01-18 19:06:53.86	337.75	17.67	-39.2	-40.7	26.3	3.02e+01	0	40	0	4718592	54	5861
2026-01-18 19:06:54.88	337.48	17.69	-38.7	-40.0	26.9	3.02e+01	0	41	0	6291456	52	6134
2026-01-18 19:06:55.88	337.22	17.71	-37.6	-38.9	28.0	3.02e+01	0	40	0	8388608	50	6002
2026-01-18 19:06:56.90	336.95	17.73	-37.2	-38.5	28.4	3.02e+01	0	41	0	10485760	50	5748
2026-01-18 19:06:57.91	336.68	17.76	-37.3	-38.6	28.3	3.02e+01	0	41	0	12058624	50	5821
2026-01-18 19:06:58.92	336.41	17.78	-37.3	-38.5	28.3	3.02e+01	0	41	0	14155776	50	5788
2026-01-18 19:06:59.93	336.13	17.80	-37.2	-38.5	28.3	3.02e+01	0	40	0	16252928	50	5764
2026-01-18 19:07:00.94	335.86	17.82	-37.3	-38.6	28.3	3.02e+01	0	40	0	17825792	50	5803
2026-01-18 19:07:01.95	335.59	17.83	-37.3	-38.6	28.3	3.02e+01	0	40	0	19922944	50	5804
2026-01-18 19:07:02.96	335.32	17.85	-37.3	-38.6	28.3	3.02e+01	0	41	0	21495808	50	5814
2026-01-18 19:07:03.97	335.05	17.87	-37.4	-38.7	28.3	3.02e+01	0	41	0	23592960	50	5862
2026-01-18 19:07:04.98	334.78	17.89	-37.3	-38.6	28.3	3.02e+01	0	40	0	25690112	50	5824
2026-01-18 19:07:05.99	334.50	17.90	-37.4	-38.7	28.2	3.02e+01	0	40	0	27262976	50	5873
2026-01-18 19:07:07.00	334.23	17.92	-37.1	-38.3	28.5	3.02e+01	0	41	0	29360128	50	5633
2026-01-18 19:07:08.01	333.96	17.93	-37.2	-38.5	28.3	3.02e+01	0	41	0	30932992	50	5753
2026-01-18 19:07:09.02	333.68	17.95	-37.5	-38.8	28.2	3.02e+01	0	41	0	33030144	50	5951
2026-01-18 19:07:10.03	333.41	17.96	-37.4	-38.7	28.2	3.02e+01	0	40	0	35127296	50	5884
2026-01-18 19:07:11.04	333.14	17.98	-37.4	-38.7	28.2	3.02e+01	0	40	0	36700160	50	5909
2026-01-18 19:07:12.05	332.86	17.99	-37.3	-38.5	28.4	3.02e+01	0	40	0	38797312	50	5771
2026-01-18 19:07:13.06	332.59	18.00	-37.2	-38.5	28.4	3.02e+01	0	40	0	40370176	50	5755
2026-01-18 19:07:14.07	332.31	18.01	-37.5	-38.7	28.2	3.02e+01	0	41	0	42467328	50	5926
2026-01-18 19:07:15.08	332.04	18.02	-37.4	-38.7	28.2	3.02e+01	0	41	0	44564480	50	5904
2026-01-18 19:07:16.09	331.76	18.03	-37.4	-38.7	28.2	3.02e+01	0	40	0	46137344	50	5884
2026-01-18 19:07:17.10	331.49	18.04	-37.5	-38.7	28.2	3.02e+01	0	40	0	48234496	50	5918
2026-01-18 19:07:18.11	331.21	18.05	-37.3	-38.6	28.3	3.02e+01	0	40	0	49807360	50	5806
2026-01-18 19:07:19.12	330.94	18.06	-37.4	-38.7	28.3	3.02e+01	0	40	0	51904512	50	5866
2026-01-18 19:07:20.13	330.66	18.06	-37.2	-38.5	28.4	3.02e+01	0	40	0	54001664	50	5749
2026-01-18 19:07:21.14	330.38	18.07	-37.3	-38.6	28.3	3.02e+01	0	40	0	55574528	50	5827
2026-01-18 19:07:22.15	330.11	18.08	-37.5	-38.7	28.1	3.02e+01	0	41	0	57671680	50	5918
2026-01-18 19:07:23.16	329.83	18.08	-37.5	-38.7	28.1	3.02e+01	0	40	0	59768832	50	5917
2026-01-18 19:07:24.17	329.55	18.09	-37.6	-38.8	28.0	3.02e+01	0	41	0	61341696	50	5989
2026-01-18 19:07:25.18	329.28	18.09	-37.5	-38.7	28.1	3.02e+01	0	41	0	63438848	50	5924
2026-01-18 19:07:26.19	329.00	18.09	-37.3	-38.5	28.3	3.02e+01	0	41	0	65011712	50	5783
2026-01-18 19:07:27.20	328.73	18.10	-37.4	-38.7	28.2	3.02e+01	0	40	0	67108864	50	5861
2026-01-18 19:07:28.21	328.45	18.10	-37.4	-38.7	28.2	3.02e+01	0	41	0	69206016	50	5876
2026-01-18 19:07:29.22	328.17	18.10	-37.4	-38.7	28.2	3.02e+01	0	41	0	70778880	50	5868
2026-01-18 19:07:30.23	327.90	18.10	-37.5	-38.7	28.1	3.02e+01	0	41	0	72876032	50	5922
2026-01-18 19:07:31.24	327.62	18.10	-37.6	-38.8	28.0	3.02e+01	0	40	0	74448896	50	5987
2026-01-18 19:07:32.25	327.34	18.10	-37.4	-38.6	28.2	3.02e+01	0	40	0	76546048	50	5855
2026-01-18 19:07:33.26	327.07	18.10	-37.3	-38.6	28.3	3.02e+01	0	40	0	78643200	50	5814
2026-01-18 19:07:34.27	326.79	18.10	-37.4	-38.6	28.2	3.02e+01	0	40	0	80216064	50	5831
2026-01-18 19:07:35.28	326.51	18.09	-37.7	-39.0	27.9	3.02e+01	0	41	0	82313216	50	6125
2026-01-18 19:07:36.29	326.24	18.09	-37.5	-38.8	28.1	3.02e+01	0	40	0	84410368	50	5946
2026-01-18 19:07:37.30	325.96	18.09	-37.6	-38.8	28.1	3.02e+01	0	40	0	85983232	50	5991
2026-01-18 19:07:38.31	325.68	18.08	-37.6	-38.9	28.1	3.02e+01	0	40	0	88080384	50	6006
2026-01-18 19:07:39.32	325.41	18.08	-37.4	-38.6	28.2	3.02e+01	0	41	0	89653248	50	5850
2026-01-18 19:07:40.33	325.13	18.07	-37.3	-38.5	28.4	3.02e+01	0	40	0	91750400	50	5761
2026-01-18 19:07:41.34	324.85	18.07	-37.3	-38.6	28.3	3.02e+01	0	41	0	93847552	50	5796
2026-01-18 19:07:42.35	324.58	18.06	-37.4	-38.7	28.2	3.02e+01	0	40	0	95420416	50	5867
2026-01-18 19:07:43.36	324.30	18.05	-37.5	-38.8	28.1	3.02e+01	0	40	0	97517568	50	5952
2026-01-18 19:07:44.37	324.03	18.04	-37.9	-39.1	27.9	3.02e+01	0	40	0	99614720	50	6201
2026-01-18 19:07:45.38	323.75	18.03	-37.7	-38.9	28.0	3.02e+01	0	40	0	101187584	50	6064
2026-01-18 19:07:46.39	323.48	18.02	-37.7	-39.0	27.9	3.02e+01	0	40	0	103284736	50	6116
2026-01-18 19:07:47.40	323.20	18.01	-37.3	-38.6	28.3	3.02e+01	0	40	0	104857600	50	5803
2026-01-18 19:07:48.41	322.92	18.00	-37.2	-38.5	28.3	3.02e+01	0	41	0	106954752	50	5753
2026-01-18 19:07:49.42	322.65	17.99	-37.4	-38.7	28.1	3.02e+01	0	41	0	108527616	50	5902
2026-01-18 19:07:50.42	322.38	17.98	-37.5	-38.8	28.1	3.02e+01	0	40	0	110624768	50	5938
2026-01-18 19:07:51.43	322.10	17.97	-37.6	-38.9	28.1	3.02e+01	0	40	0	112721920	50	6050
2026-01-18 19:07:52.44	321.83	17.95	-37.7	-39.0	27.9	3.02e+01	0	40	0	114294784	50	6107
2026-01-18 19:07:53.45	321.56	17.94	-37.7	-39.0	27.9	3.02e+01	0	40	0	116391936	50	6069
2026-01-18 19:07:54.46	321.28	17.92	-38.1	-39.4	27.6	3.02e+01	0	40	0	117964800	50	6381
2026-01-18 19:07:55.47	321.01	17.91	-37.7	-39.0	27.9	3.02e+01	0	41	0	120061952	50	6122
2026-01-18 19:07:56.48	320.74	17.89	-37.4	-38.6	28.3	3.02e+01	0	40	0	122159104	50	5828
2026-01-18 19:07:57.49	320.46	17.87	-37.7	-39.0	28.0	3.02e+01	0	40	0	123731968	50	6103
2026-01-18 19:07:58.50	320.19	17.86	-37.2	-38.4	28.3	3.02e+01	0	40	0	125829120	50	5719
2026-01-18 19:07:59.51	319.92	17.84	-37.6	-38.9	28.1	3.02e+01	0	40	0	127926272	50	6010
2026-01-18 19:08:00.52	319.65	17.82	-37.7	-39.0	27.8	3.02e+01	0	40	0	129499136	50	6123
2026-01-18 19:08:01.53	319.38	17.80	-37.4	-38.7	28.2	3.02e+01	0	40	0	131596288	50	5908
2026-01-18 19:08:02.54	319.11	17.78	-37.5	-38.7	28.2	3.02e+01	0	40	0	133169152	50	5906
2026-01-18 19:08:03.55	318.84	17.76	-37.8	-39.1	27.8	3.02e+01	0	40	0	135266304	50	6183
2026-01-18 19:08:04.55	318.57	17.74	-37.9	-39.2	27.7	3.02e+01	0	40	0	137363456	50	6222
2026-01-18 19:08:05.56	318.30	17.72	-37.9	-39.2	27.8	3.02e+01	0	40	0	138936320	50	6226
2026-01-18 19:08:06.58	318.03	17.70	-38.6	-40.0	27.0	3.02e+01	0	41	0	141033472	50	6812
2026-01-18 19:08:07.58	317.76	17.67	-37.5	-38.7	28.2	3.02e+01	0	40	0	142606336	50	5908
2026-01-18 19:08:08.59	317.49	17.65	-37.4	-38.7	28.2	3.02e+01	0	40	0	144703488	50	5878
2026-01-18 19:08:09.60	317.22	17.63	-37.4	-38.6	28.2	3.02e+01	0	41	0	146800640	50	5852
2026-01-18 19:08:10.61	316.96	17.60	-37.4	-38.7	28.2	3.02e+01	0	40	0	148373504	50	5870
2026-01-18 19:08:11.62	316.69	17.58	-37.8	-39.1	27.9	3.02e+01	0	40	0	150470656	50	6156
2026-01-18 19:08:12.63	316.42	17.55	-37.5	-38.8	28.2	3.02e+01	0	40	0	152567808	50	5928
2026-01-18 19:08:13.64	316.16	17.52	-37.5	-38.7	28.3	3.02e+01	0	40	0	154140672	50	5908
2026-01-18 19:08:14.65	315.89	17.50	-37.5	-38.7	28.2	3.02e+01	0	40	0	156237824	50	5910
2026-01-18 19:08:15.65	315.63	17.47	-37.4	-38.6	28.3	3.02e+01	0	40	0	157810688	50	5840
2026-01-18 19:08:16.66	315.36	17.44	-37.5	-38.7	28.1	3.02e+01	0	40	0	159907840	50	5918
2026-01-18 19:08:17.67	315.10	17.41	-37.5	-38.7	28.2	3.02e+01	0	40	0	162004992	50	5919
2026-01-18 19:08:18.68	314.84	17.38	-37.3	-38.6	28.4	3.02e+01	0	40	0	163577856	50	5800
2026-01-18 19:08:19.69	314.57	17.35	-37.9	-39.2	27.8	3.02e+01	0	41	0	165675008	50	6240
2026-01-18 19:08:20.70	314.31	17.32	-37.4	-38.7	28.2	3.02e+01	0	40	0	167247872	50	5883
2026-01-18 19:08:21.71	314.05	17.29	-37.6	-38.8	28.0	3.02e+01	0	40	0	169345024	50	5991
2026-01-18 19:08:22.72	313.79	17.26	-37.3	-38.6	28.3	3.02e+01	0	40	0	171442176	50	5813
2026-01-18 19:08:23.73	313.53	17.23	-37.3	-38.6	28.3	3.02e+01	0	41	0	173015040	50	5820
2026-01-18 19:08:24.74	313.27	17.20	-37.5	-38.8	28.2	3.02e+01	0	40	0	175112192	50	5960
2026-01-18 19:08:25.75	313.01	17.16	-37.4	-38.7	28.2	3.02e+01	0	40	0	176685056	50	5868
2026-01-18 19:08:26.76	312.75	17.13	-37.4	-38.7	28.2	3.02e+01	0	40	0	178782208	50	5866
2026-01-18 19:08:27.77	312.49	17.10	-37.3	-38.6	28.3	3.02e+01	0	40	0	180879360	50	5801
2026-01-18 19:08:28.78	312.23	17.06	-37.8	-39.1	27.3	3.02e+01	0	40	0	182452224	48	6956
2026-01-18 19:08:29.78	311.98	17.03	-37.1	-38.3	28.5	3.02e+01	0	41	0	184549376	50	5612
2026-01-18 19:08:30.80	311.72	16.99	-38.6	-40.0	26.8	3.02e+01	0	40	0	186122240	50	6880
2026-01-18 19:08:31.81	311.46	16.96	-37.8	-39.0	27.7	3.02e+01	0	40	0	188219392	50	6130
2026-01-18 19:08:32.82	311.21	16.92	-37.6	-38.9	28.0	3.02e+01	0	41	0	190316544	50	6029
2026-01-18 19:08:33.83	310.96	16.88	-37.4	-38.7	28.3	3.02e+01	0	40	0	191889408	50	5859
2026-01-18 19:08:34.83	310.70	16.85	-38.0	-39.3	27.5	3.02e+01	0	40	0	193986560	50	6329
2026-01-18 19:08:35.84	310.45	16.81	-37.1	-38.4	28.3	3.02e+01	0	40	0	196083712	48	6377
2026-01-18 19:08:36.85	310.20	16.77	-37.3	-38.6	27.8	3.02e+01	0	41	0	197656576	50	5826
2026-01-18 19:08:37.86	309.95	16.73	-37.9	-39.2	27.4	3.02e+01	0	40	0	199753728	48	6982
2026-01-18 19:08:38.87	309.70	16.69	-37.8	-39.0	27.7	3.02e+01	0	41	0	201326592	50	6107
2026-01-18 19:08:39.88	309.45	16.65	-38.7	-40.1	26.6	3.02e+01	0	40	0	203423744	50	6926
2026-01-18 19:08:40.88	309.20	16.61	-38.5	-39.9	27.3	3.02e+01	0	40	0	205520896	52	6005
2026-01-18 19:08:41.89	308.95	16.57	-38.0	-39.3	27.6	3.02e+01	0	40	0	207093760	50	6323
2026-01-18 19:08:42.90	308.70	16.53	-37.8	-39.1	27.7	3.02e+01	0	40	0	209190912	50	6187
2026-01-18 19:08:43.91	308.45	16.49	-37.8	-39.1	27.5	3.02e+01	0	40	0	210763776	50	6187
2026-01-18 19:08:44.92	308.21	16.45	-37.3	-38.6	28.3	3.02e+01	0	40	0	212860928	50	5806
2026-01-18 19:08:45.93	307.96	16.40	-37.9	-39.3	27.5	3.02e+01	0	41	0	214958080	48	7049
2026-01-18 19:08:46.94	307.72	16.36	-37.0	-38.2	28.5	3.02e+01	0	40	0	216530944	50	5588
2026-01-18 19:08:47.95	307.47	16.32	-37.7	-39.0	27.9	3.02e+01	0	40	0	218628096	50	6110
2026-01-18 19:08:48.96	307.23	16.27	-37.5	-38.8	28.2	3.02e+01	0	40	0	220200960	50	5968
2026-01-18 19:08:49.97	306.99	16.23	-37.0	-38.2	28.5	3.02e+01	0	40	0	222298112	48	6267
2026-01-18 19:08:50.98	306.74	16.18	-37.3	-38.6	28.1	3.02e+01	0	40	0	224395264	48	6535
2026-01-18 19:08:51.99	306.50	16.14	-37.4	-38.7	28.0	3.02e+01	0	40	0	225968128	48	6629
2026-01-18 19:08:53.00	306.26	16.09	-37.5	-38.7	28.0	3.02e+01	0	40	0	228065280	50	5904
2026-01-18 19:08:54.01	306.02	16.05	-37.4	-38.7	28.1	3.02e+01	0	40	0	229638144	50	5888
2026-01-18 19:08:55.01	305.78	16.00	-37.5	-38.8	28.1	3.02e+01	0	40	0	231735296	50	5963
2026-01-18 19:08:56.02	305.55	15.96	-37.6	-38.8	28.1	3.02e+01	0	40	0	233832448	50	5985
2026-01-18 19:08:57.03	305.31	15.91	-37.7	-38.9	28.0	3.02e+01	0	40	0	235405312	50	6059
2026-01-18 19:08:58.04	305.07	15.86	-37.3	-38.5	28.2	3.02e+01	0	40	0	237502464	50	5784
2026-01-18 19:08:59.05	304.84	15.81	-38.1	-39.5	27.5	3.02e+01	0	40	0	239075328	50	6432
2026-01-18 19:09:00.06	304.60	15.77	-38.0	-39.2	27.6	3.02e+01	0	40	0	241172480	50	6273
2026-01-18 19:09:01.07	304.37	15.72	-38.3	-39.6	27.4	3.02e+01	0	40	0	243269632	50	6553
2026-01-18 19:09:02.08	304.13	15.67	-38.2	-39.5	27.6	3.02e+01	0	40	0	244842496	50	6470
2026-01-18 19:09:03.09	303.90	15.62	-37.7	-39.0	27.9	3.02e+01	0	40	0	246939648	50	6067
2026-01-18 19:09:04.10	303.67	15.57	-38.4	-39.7	27.3	3.02e+01	0	40	0	249036800	50	6633
2026-01-18 19:09:05.11	303.44	15.52	-37.3	-38.5	28.3	3.02e+01	0	40	0	250609664	50	5783
2026-01-18 19:09:06.12	303.21	15.47	-37.8	-39.1	27.9	3.02e+01	0	40	0	252706816	50	6145
2026-01-18 19:09:07.13	302.98	15.42	-37.8	-39.1	27.8	3.02e+01	0	40	0	254279680	50	6139
2026-01-18 19:09:08.13	302.75	15.37	-37.8	-39.1	27.6	3.02e+01	0	40	0	256376832	50	6166
2026-01-18 19:09:09.15	302.52	15.32	-38.3	-39.6	27.6	3.02e+01	0	40	0	258473984	50	6555
2026-01-18 19:09:10.15	302.30	15.27	-37.7	-39.0	27.7	3.02e+01	0	40	0	260046848	50	6088
2026-01-18 19:09:11.16	302.07	15.22	-38.3	-39.6	27.5	3.02e+01	0	40	0	262144000	50	6571
2026-01-18 19:09:12.17	301.85	15.16	-37.9	-39.2	27.7	3.02e+01	0	40	0	263716864	50	6210
2026-01-18 19:09:13.18	301.62	15.11	-38.4	-39.8	27.2	3.02e+01	0	40	0	265814016	50	6671
2026-01-18 19:09:14.19	301.40	15.06	-37.9	-39.2	27.6	3.02e+01	0	40	0	267911168	50	6255
2026-01-18 19:09:15.20	301.18	15.01	-38.3	-39.6	27.2	3.02e+01	0	40	0	269484032	50	6546
2026-01-18 19:09:16.21	300.96	14.95	-38.4	-39.7	27.0	3.02e+01	0	40	0	271581184	50	6611
2026-01-18 19:09:17.21	300.74	14.90	-37.7	-39.0	27.8	3.02e+01	0	40	0	273154048	50	6102
2026-01-18 19:09:18.22	300.52	14.85	-38.4	-39.8	27.4	3.02e+01	0	40	0	275251200	50	6687
2026-01-18 19:09:19.23	300.30	14.79	-37.8	-39.0	27.8	3.02e+01	0	40	0	277348352	50	6134
2026-01-18 19:09:20.24	300.08	14.74	-38.1	-39.4	27.7	3.02e+01	0	40	0	278921216	50	6373
2026-01-18 19:09:21.25	299.86	14.68	-37.7	-39.0	28.0	3.02e+01	0	40	0	281018368	50	6069
2026-01-18 19:09:22.26	299.64	14.63	-38.2	-39.5	27.4	3.02e+01	0	40	0	282591232	50	6482
2026-01-18 19:09:23.27	299.43	14.57	-37.6	-38.8	28.2	3.02e+01	0	40	0	284688384	50	5979
2026-01-18 19:09:24.28	299.21	14.52	-37.9	-39.2	27.5	3.02e+01	0	40	0	286785536	50	6253
2026-01-18 19:09:25.29	299.00	14.46	-37.7	-39.0	27.6	3.02e+01	0	40	0	288358400	50	6128
2026-01-18 19:09:26.29	298.79	14.41	-37.5	-38.7	27.9	3.02e+01	0	40	0	290455552	50	5890
2026-01-18 19:09:27.30	298.58	14.35	-38.7	-40.2	26.5	3.02e+01	0	40	0	292552704	50	6973
2026-01-18 19:09:28.31	298.37	14.30	-37.0	-38.2	28.5	3.02e+01	0	40	0	294125568	50	5591
2026-01-18 19:09:29.32	298.15	14.24	-38.0	-39.4	27.5	3.02e+01	0	40	0	296222720	50	6374
2026-01-18 19:09:30.33	297.94	14.18	-37.1	-38.3	28.3	3.02e+01	0	40	0	297795584	50	5618
2026-01-18 19:09:31.34	297.74	14.13	-37.5	-38.8	27.9	3.02e+01	0	40	0	299892736	48	6654
2026-01-18 19:09:32.35	297.53	14.07	-37.7	-39.1	27.5	3.02e+01	0	40	0	301989888	50	6135
2026-01-18 19:09:33.36	297.32	14.01	-37.2	-38.4	28.3	3.02e+01	0	40	0	303562752	50	5696
2026-01-18 19:09:34.37	297.11	13.95	-37.9	-39.3	27.6	3.02e+01	0	40	0	305659904	50	6291
2026-01-18 19:09:35.38	296.91	13.90	-37.1	-38.3	28.3	3.02e+01	0	40	0	307232768	50	5626
2026-01-18 19:09:36.39	296.70	13.84	-37.4	-38.6	28.2	3.02e+01	0	40	0	309329920	50	5852
2026-01-18 19:09:37.40	296.50	13.78	-37.8	-39.1	27.7	3.02e+01	0	40	0	311427072	50	6194
2026-01-18 19:09:38.41	296.30	13.72	-37.3	-38.5	28.3	3.02e+01	0	40	0	312999936	50	5775
2026-01-18 19:09:39.42	296.10	13.66	-37.9	-39.2	27.7	3.02e+01	0	40	0	315097088	50	6241
2026-01-18 19:09:40.43	295.89	13.61	-37.6	-38.9	27.8	3.02e+01	0	40	0	317194240	50	6021
2026-01-18 19:09:41.43	295.70	13.55	-37.8	-39.1	27.8	3.02e+01	0	40	0	318767104	50	6168
2026-01-18 19:09:42.44	295.50	13.49	-38.6	-39.9	27.0	3.02e+01	0	40	0	320864256	50	6797
2026-01-18 19:09:43.45	295.30	13.43	-37.3	-38.6	28.2	3.02e+01	0	40	0	322437120	50	5813
2026-01-18 19:09:44.46	295.10	13.37	-37.4	-38.7	28.1	3.02e+01	0	40	0	324534272	50	5863
2026-01-18 19:09:45.47	294.90	13.31	-37.7	-39.0	27.7	3.02e+01	0	40	0	326631424	50	6119
2026-01-18 19:09:46.48	294.71	13.25	-37.7	-38.9	27.9	3.02e+01	0	40	0	328204288	50	6057
2026-01-18 19:09:47.50	294.51	13.19	-37.5	-38.8	28.0	3.02e+01	0	40	0	330301440	50	5946
2026-01-18 19:09:48.51	294.32	13.13	-37.6	-38.9	27.8	3.02e+01	0	40	0	331874304	50	6040
2026-01-18 19:09:49.51	294.13	13.07	-37.6	-38.9	28.0	3.02e+01	0	40	0	333971456	50	6017
2026-01-18 19:09:50.53	293.93	13.01	-37.7	-39.0	27.8	3.02e+01	0	40	0	336068608	50	6134
2026-01-18 19:09:51.53	293.74	12.95	-37.7	-39.0	27.7	3.02e+01	0	40	0	337641472	50	6106
2026-01-18 19:09:52.54	293.55	12.89	-37.6	-38.9	27.9	3.02e+01	0	40	0	339738624	50	6028
2026-01-18 19:09:53.55	293.36	12.83	-37.7	-39.0	27.8	3.02e+01	0	40	0	341311488	50	6083
2026-01-18 19:09:54.56	293.17	12.77	-37.7	-39.0	27.8	3.02e+01	0	40	0	343408640	50	6090
2026-01-18 19:09:55.57	292.98	12.71	-37.6	-38.8	27.9	3.02e+01	0	40	0	345505792	50	5980
2026-01-18 19:09:56.58	292.79	12.65	-37.6	-38.9	28.0	3.02e+01	0	40	0	347078656	50	5995
2026-01-18 19:09:57.58	292.61	12.59	-37.7	-39.0	27.6	3.02e+01	0	40	0	349175808	50	6085
2026-01-18 19:09:58.59	292.42	12.53	-38.2	-39.6	27.4	3.02e+01	0	40	0	350748672	50	6513
2026-01-18 19:09:59.60	292.24	12.47	-38.2	-39.5	27.3	3.02e+01	0	40	0	352845824	50	6498
2026-01-18 19:10:00.61	292.06	12.40	-37.7	-39.0	27.7	3.02e+01	0	40	0	354942976	50	6105
2026-01-18 19:10:01.62	291.87	12.34	-37.7	-38.9	27.9	3.02e+01	0	40	0	356515840	50	6058
2026-01-18 19:10:02.63	291.69	12.28	-37.8	-39.1	27.7	3.02e+01	0	40	0	358612992	50	6179
2026-01-18 19:10:03.64	291.51	12.22	-37.9	-39.3	27.5	3.02e+01	0	40	0	360185856	50	6306
2026-01-18 19:10:04.65	291.33	12.16	-37.8	-39.1	27.7	3.02e+01	0	40	0	362283008	50	6135
2026-01-18 19:10:05.65	291.15	12.10	-37.6	-38.8	27.8	3.02e+01	0	40	0	364380160	50	5968
2026-01-18 19:10:06.66	290.97	12.03	-37.9	-39.2	27.5	3.02e+01	0	40	0	365953024	50	6260
2026-01-18 19:10:07.67	290.79	11.97	-37.9	-39.2	27.5	3.02e+01	0	40	0	368050176	50	6239
2026-01-18 19:10:08.68	290.61	11.91	-37.6	-38.9	27.8	3.02e+01	0	40	0	370147328	50	6028
2026-01-18 19:10:09.69	290.44	11.85	-37.7	-39.0	27.8	3.02e+01	0	40	0	371720192	50	6093
2026-01-18 19:10:10.70	290.26	11.79	-37.9	-39.2	27.6	3.02e+01	0	40	0	373817344	50	6249
2026-01-18 19:10:11.71	290.09	11.72	-37.9	-39.2	27.5	3.02e+01	0	40	0	375390208	50	6271
2026-01-18 19:10:12.72	289.91	11.66	-37.8	-39.1	27.6	3.02e+01	0	40	0	377487360	50	6160
2026-01-18 19:10:13.73	289.74	11.60	-37.8	-39.1	27.7	3.02e+01	0	40	0	379584512	50	6142
2026-01-18 19:10:14.74	289.57	11.54	-37.7	-39.0	27.7	3.02e+01	0	40	0	381157376	50	6112
2026-01-18 19:10:15.74	289.40	11.47	-37.9	-39.3	27.5	3.02e+01	0	40	0	383254528	50	6287
2026-01-18 19:10:16.75	289.22	11.41	-38.0	-39.4	27.4	3.02e+01	0	40	0	384827392	50	6371
2026-01-18 19:10:17.76	289.05	11.35	-38.1	-39.4	27.3	3.02e+01	0	40	0	386924544	50	6408
2026-01-18 19:10:18.77	288.88	11.29	-37.8	-39.1	27.6	3.02e+01	0	40	0	389021696	50	6161
2026-01-18 19:10:19.78	288.72	11.22	-37.8	-39.1	27.6	3.02e+01	0	40	0	390594560	50	6191
2026-01-18 19:10:20.79	288.55	11.16	-37.7	-39.0	27.7	3.02e+01	0	40	0	392691712	50	6095
2026-01-18 19:10:21.80	288.38	11.10	-37.9	-39.2	27.5	3.02e+01	0	40	0	394264576	50	6217
2026-01-18 19:10:22.81	288.21	11.03	-38.0	-39.3	27.4	3.02e+01	0	40	0	396361728	50	6317
2026-01-18 19:10:23.82	288.05	10.97	-38.1	-39.4	27.3	3.02e+01	0	40	0	398458880	50	6371
2026-01-18 19:10:24.83	287.88	10.91	-38.0	-39.3	27.3	3.02e+01	0	40	0	400031744	50	6343
2026-01-18 19:10:25.84	287.72	10.85	-38.2	-39.6	27.1	3.02e+01	0	40	0	402128896	50	6531
2026-01-18 19:10:26.85	287.56	10.78	-37.9	-39.2	27.5	3.02e+01	0	40	0	403701760	50	6223
2026-01-18 19:10:27.86	287.39	10.72	-38.0	-39.3	27.4	3.02e+01	0	40	0	405798912	50	6289
2026-01-18 19:10:28.87	287.23	10.66	-37.9	-39.2	27.5	3.02e+01	0	40	0	407896064	50	6235
2026-01-18 19:10:29.88	287.07	10.59	-38.1	-39.4	27.3	3.02e+01	0	40	0	409468928	50	6423
2026-01-18 19:10:30.89	286.91	10.53	-38.3	-39.6	27.1	3.02e+01	0	40	0	411566080	50	6549
2026-01-18 19:10:31.90	286.75	10.47	-38.2	-39.6	27.1	3.02e+01	0	40	0	413663232	50	6527
2026-01-18 19:10:32.91	286.59	10.40	-38.2	-39.6	27.1	3.02e+01	0	40	0	415236096	50	6503
2026-01-18 19:10:33.92	286.43	10.34	-37.9	-39.2	27.4	3.02e+01	0	40	0	417333248	50	6244
2026-01-18 19:10:34.93	286.28	10.28	-37.9	-39.2	27.4	3.02e+01	0	40	0	418906112	50	6253
2026-01-18 19:10:35.94	286.12	10.21	-38.0	-39.4	27.3	3.02e+01	0	40	0	421003264	50	6357
2026-01-18 19:10:36.95	285.97	10.15	-38.2	-39.5	27.1	3.02e+01	0	40	0	423100416	50	6476
2026-01-18 19:10:37.96	285.81	10.09	-38.2	-39.6	27.0	3.02e+01	0	40	0	424673280	50	6508
2026-01-18 19:10:38.96	285.66	10.02	-38.2	-39.6	27.1	3.02e+01	0	40	0	426770432	50	6508
2026-01-18 19:10:39.97	285.50	9.96	-38.2	-39.6	27.1	3.02e+01	0	40	0	428343296	50	6521
2026-01-18 19:10:40.98	285.35	9.90	-38.4	-39.8	26.9	3.02e+01	0	40	0	430440448	50	6682
2026-01-18 19:10:41.99	285.20	9.83	-38.4	-39.8	26.9	3.02e+01	0	40	0	432537600	50	6680
2026-01-18 19:10:43.00	285.05	9.77	-38.5	-39.9	26.8	3.02e+01	0	40	0	434110464	50	6772
2026-01-18 19:10:44.01	284.90	9.71	-38.4	-39.8	26.9	3.02e+01	0	40	0	436207616	50	6677
2026-01-18 19:10:45.02	284.75	9.64	-38.5	-39.8	26.8	3.02e+01	0	40	0	438304768	50	6725
2026-01-18 19:10:46.03	284.60	9.58	-38.5	-39.9	26.7	3.02e+01	0	40	0	439877632	50	6743
2026-01-18 19:10:47.03	284.45	9.52	-38.0	-39.3	27.2	3.02e+01	0	40	0	441974784	50	6299
2026-01-18 19:10:48.04	284.30	9.45	-38.2	-39.5	27.1	3.02e+01	0	40	0	443547648	50	6482
2026-01-18 19:10:49.05	284.16	9.39	-38.4	-39.8	26.9	3.02e+01	0	40	0	445644800	50	6655
2026-01-18 19:10:50.06	284.01	9.33	-38.5	-39.8	26.8	3.02e+01	0	40	0	447217664	50	6709
2026-01-18 19:10:51.06	283.87	9.26	-38.5	-39.9	26.7	3.02e+01	0	40	0	449314816	50	6776
2026-01-18 19:10:52.07	283.72	9.20	-38.6	-40.0	26.5	3.02e+01	0	40	0	451411968	50	6876
2026-01-18 19:10:53.08	283.58	9.14	-38.4	-39.7	26.8	3.02e+01	0	40	0	452984832	50	6642
2026-01-18 19:10:54.09	283.43	9.07	-38.2	-39.6	27.0	3.02e+01	0	40	0	455081984	50	6517
2026-01-18 19:10:55.10	283.29	9.01	-38.3	-39.7	27.0	3.02e+01	0	40	0	456654848	50	6582
2026-01-18 19:10:56.11	283.15	8.95	-38.3	-39.6	26.9	3.02e+01	0	40	0	458752000	50	6557
2026-01-18 19:10:57.12	283.01	8.88	-38.3	-39.7	26.9	3.02e+01	0	40	0	460849152	50	6605
2026-01-18 19:10:58.13	282.86	8.82	-38.6	-40.0	26.6	3.02e+01	0	40	0	462422016	50	6833
2026-01-18 19:10:59.14	282.72	8.76	-38.7	-40.1	26.5	3.02e+01	0	40	0	464519168	50	6915
2026-01-18 19:11:00.15	282.59	8.70	-38.6	-40.0	26.5	3.02e+01	0	40	0	466616320	50	6815
2026-01-18 19:11:01.15	282.45	8.63	-38.6	-40.0	26.6	3.02e+01	0	40	0	468189184	50	6835
2026-01-18 19:11:02.16	282.31	8.57	-38.5	-39.9	26.7	3.02e+01	0	40	0	470286336	50	6736
2026-01-18 19:11:03.17	282.17	8.51	-38.5	-39.9	26.7	3.02e+01	0	40	0	471859200	50	6729
2026-01-18 19:11:04.18	282.03	8.44	-38.5	-39.9	26.7	3.02e+01	0	40	0	473956352	50	6734
2026-01-18 19:11:05.19	281.90	8.38	-38.7	-40.1	26.5	3.02e+01	0	40	0	476053504	50	6949
2026-01-18 19:11:06.20	281.76	8.32	-38.6	-40.0	26.6	3.02e+01	0	40	0	477626368	50	6818
2026-01-18 19:11:07.21	281.63	8.25	-38.9	-40.3	26.2	3.02e+01	0	40	0	479723520	50	7121
2026-01-18 19:11:08.22	281.49	8.19	-39.1	-40.6	26.0	3.02e+01	0	40	0	481296384	52	6515
2026-01-18 19:11:09.23	281.36	8.13	-38.9	-40.4	26.3	3.02e+01	0	40	0	483393536	52	6358
2026-01-18 19:11:10.24	281.23	8.07	-38.8	-40.2	26.5	3.02e+01	0	40	0	485490688	52	6223
2026-01-18 19:11:11.25	281.09	8.00	-38.6	-40.0	26.6	3.02e+01	0	40	0	487063552	52	6110
2026-01-18 19:11:12.26	280.96	7.94	-38.7	-40.1	26.5	3.02e+01	0	40	0	489160704	52	6163
2026-01-18 19:11:13.27	280.83	7.88	-38.8	-40.2	26.4	3.02e+01	0	40	0	491257856	52	6206
2026-01-18 19:11:14.28	280.70	7.81	-38.8	-40.2	26.3	3.02e+01	0	40	0	492830720	52	6261
2026-01-18 19:11:15.29	280.57	7.75	-39.0	-40.4	26.2	3.02e+01	0	40	0	494927872	52	6383
2026-01-18 19:11:16.30	280.44	7.69	-38.8	-40.2	26.3	3.02e+01	0	40	0	496500736	52	6271
2026-01-18 19:11:17.31	280.31	7.63	-38.9	-40.3	26.3	3.02e+01	0	40	0	498597888	52	6322
2026-01-18 19:11:18.32	280.19	7.56	-39.0	-40.4	26.1	3.02e+01	0	40	0	500170752	52	6407
2026-01-18 19:11:19.33	280.06	7.50	-39.0	-40.4	26.1	3.02e+01	0	40	0	502267904	52	6404
2026-01-18 19:11:20.34	279.93	7.44	-38.9	-40.3	26.2	3.02e+01	0	40	0	504365056	52	6335
2026-01-18 19:11:21.34	279.81	7.38	-38.9	-40.3	26.2	3.02e+01	0	40	0	505937920	52	6289
2026-01-18 19:11:22.35	279.68	7.32	-39.0	-40.4	26.1	3.02e+01	0	40	0	508035072	52	6414
2026-01-18 19:11:23.36	279.55	7.25	-39.2	-40.7	25.8	3.02e+01	0	40	0	510132224	52	6604
2026-01-18 19:11:24.37	279.43	7.19	-39.0	-40.4	26.0	3.02e+01	0	40	0	511705088	52	6422
2026-01-18 19:11:25.38	279.31	7.13	-39.1	-40.5	26.0	3.02e+01	0	40	0	513802240	52	6474
2026-01-18 19:11:26.38	279.18	7.07	-39.3	-40.7	25.8	3.02e+01	0	40	0	515375104	52	6620
2026-01-18 19:11:27.39	279.06	7.00	-39.0	-40.4	26.1	3.02e+01	0	40	0	517472256	52	6381
2026-01-18 19:11:28.40	278.94	6.94	-39.0	-40.4	26.0	3.02e+01	0	40	0	519569408	52	6388
2026-01-18 19:11:29.41	278.82	6.88	-39.1	-40.5	26.0	3.02e+01	0	40	0	521142272	52	6478
2026-01-18 19:11:30.42	278.70	6.82	-39.2	-40.7	25.8	3.02e+01	0	40	0	523239424	52	6590
2026-01-18 19:11:31.43	278.58	6.76	-38.9	-40.3	26.2	3.02e+01	0	40	0	524812288	52	6319
2026-01-18 19:11:32.44	278.46	6.69	-39.0	-40.5	25.9	3.02e+01	0	40	0	526909440	52	6450
2026-01-18 19:11:33.45	278.34	6.63	-39.1	-40.5	25.9	3.02e+01	0	40	0	529006592	52	6475
2026-01-18 19:11:34.46	278.22	6.57	-39.0	-40.5	25.9	3.02e+01	0	40	0	530579456	52	6451
2026-01-18 19:11:35.47	278.10	6.51	-39.2	-40.7	25.8	3.02e+01	0	40	0	532676608	52	6609
2026-01-18 19:11:36.48	277.98	6.45	-39.3	-40.8	25.7	3.02e+01	0	40	0	534773760	52	6690
2026-01-18 19:11:37.49	277.87	6.39	-39.3	-40.8	25.6	3.02e+01	0	40	0	536346624	52	6668
2026-01-18 19:11:38.50	277.75	6.32	-39.3	-40.7	25.7	3.02e+01	0	40	0	538443776	52	6641
2026-01-18 19:11:39.51	277.63	6.26	-39.2	-40.6	25.7	3.02e+01	0	41	0	540016640	52	6571
2026-01-18 19:11:40.51	277.52	6.20	-39.0	-40.5	25.8	3.02e+01	0	40	0	542113792	52	6444
2026-01-18 19:11:41.53	277.40	6.14	-39.1	-40.6	25.8	3.02e+01	0	40	0	544210944	52	6527
2026-01-18 19:11:42.54	277.29	6.08	-39.1	-40.6	25.7	3.02e+01	0	41	0	545783808	52	6540
2026-01-18 19:11:43.54	277.18	6.02	-39.4	-40.9	25.4	3.02e+01	0	40	0	547880960	52	6766
2026-01-18 19:11:44.55	277.06	5.96	-39.1	-40.6	25.7	3.02e+01	0	40	0	549453824	52	6528
2026-01-18 19:11:45.56	276.95	5.90	-39.3	-40.8	25.5	3.02e+01	0	41	0	551550976	52	6699
2026-01-18 19:11:46.57	276.84	5.84	-39.4	-40.9	25.5	3.02e+01	0	41	0	553123840	52	6735
2026-01-18 19:11:47.58	276.73	5.77	-39.4	-40.9	25.4	3.02e+01	0	40	0	555220992	52	6743
2026-01-18 19:11:48.59	276.62	5.71	-39.7	-41.3	25.0	3.02e+01	0	40	0	557318144	52	7058
2026-01-18 19:11:49.60	276.50	5.65	-39.9	-41.5	24.8	3.02e+01	0	40	0	558891008	52	7225
2026-01-18 19:11:50.61	276.39	5.59	-40.1	-41.7	24.7	3.02e+01	0	40	0	560988160	54	6597
2026-01-18 19:11:51.61	276.29	5.53	-39.6	-41.2	25.2	3.02e+01	0	40	0	563085312	54	6219
2026-01-18 19:11:52.62	276.18	5.47	-39.6	-41.1	25.1	3.02e+01	0	40	0	564658176	54	6167
2026-01-18 19:11:53.63	276.07	5.41	-39.6	-41.1	25.1	3.02e+01	0	40	0	566755328	54	6165
2026-01-18 19:11:54.64	275.96	5.35	-39.7	-41.3	25.0	3.02e+01	0	40	0	568328192	54	6310
2026-01-18 19:11:55.65	275.85	5.29	-39.5	-41.0	25.3	3.02e+01	0	41	0	570425344	54	6103
2026-01-18 19:11:56.66	275.75	5.23	-39.6	-41.1	25.1	3.02e+01	0	41	0	572522496	54	6188
2026-01-18 19:11:57.67	275.64	5.17	-39.7	-41.3	25.0	3.02e+01	0	40	0	574095360	54	6299
2026-01-18 19:11:58.68	275.53	5.11	-39.5	-41.0	25.2	3.02e+01	0	41	0	576192512	54	6100
2026-01-18 19:11:59.69	275.43	5.05	-39.4	-40.9	25.2	3.02e+01	0	40	0	578289664	54	6058
2026-01-18 19:12:00.70	275.32	4.99	-39.7	-41.3	24.8	3.02e+01	0	40	0	579862528	54	6323
2026-01-18 19:12:01.71	275.22	4.93	-40.1	-41.7	24.5	3.02e+01	0	40	0	581959680	54	6598
2026-01-18 19:12:02.72	275.11	4.87	-39.7	-41.3	24.9	3.02e+01	0	40	0	583532544	54	6309
2026-01-18 19:12:03.73	275.01	4.81	-39.4	-41.0	25.1	3.02e+01	0	40	0	585629696	54	6084
2026-01-18 19:12:04.73	274.91	4.75	-39.6	-41.1	25.0	3.02e+01	0	40	0	587726848	54	6162
2026-01-18 19:12:05.74	274.80	4.69	-40.0	-41.6	24.5	3.02e+01	0	40	0	589299712	54	6549
2026-01-18 19:12:06.75	274.70	4.63	-39.7	-41.2	24.9	3.02e+01	0	40	0	591396864	54	6270
2026-01-18 19:12:07.76	274.60	4.57	-39.8	-41.4	24.8	3.02e+01	0	40	0	592969728	54	6395
2026-01-18 19:12:08.77	274.50	4.51	-39.4	-41.0	25.1	3.02e+01	0	40	0	595066880	54	6082
2026-01-18 19:12:09.78	274.40	4.45	-39.7	-41.3	24.8	3.02e+01	0	40	0	597164032	54	6309
2026-01-18 19:12:10.79	274.30	4.39	-39.8	-41.3	24.7	3.02e+01	0	40	0	598736896	54	6330
2026-01-18 19:12:11.80	274.20	4.33	-39.9	-41.5	24.7	3.02e+01	0	40	0	600834048	54	6426
2026-01-18 19:12:12.81	274.10	4.27	-39.8	-41.4	24.7	3.02e+01	0	40	0	602406912	54	6404
2026-01-18 19:12:13.82	274.00	4.21	-39.5	-41.0	25.0	3.02e+01	0	40	0	604504064	54	6119
2026-01-18 19:12:14.83	273.90	4.15	-39.6	-41.1	24.9	3.02e+01	0	40	0	606601216	54	6190
2026-01-18 19:12:15.84	273.80	4.09	-39.8	-41.4	24.6	3.02e+01	0	40	0	608174080	54	6417
2026-01-18 19:12:16.85	273.70	4.04	-39.6	-41.2	24.8	3.02e+01	0	40	0	610271232	54	6215
2026-01-18 19:12:17.86	273.61	3.98	-40.1	-41.7	24.2	3.02e+01	0	40	0	611844096	54	6639
2026-01-18 19:12:18.86	273.51	3.92	-39.6	-41.1	24.8	3.02e+01	0	41	0	613941248	54	6194
2026-01-18 19:12:19.87	273.42	3.86	-39.9	-41.5	24.4	3.02e+01	0	40	0	616038400	54	6466
2026-01-18 19:12:20.88	273.32	3.80	-40.5	-42.2	23.7	3.02e+01	0	40	0	617611264	54	6985
2026-01-18 19:12:21.89	273.22	3.74	-40.1	-41.8	24.1	3.02e+01	0	40	0	619708416	54	6683
2026-01-18 19:12:22.90	273.13	3.68	-40.0	-41.6	24.2	3.02e+01	0	40	0	621281280	54	6568
2026-01-18 19:12:23.91	273.03	3.62	-40.2	-41.8	24.0	3.02e+01	0	40	0	623378432	54	6725
2026-01-18 19:12:24.92	272.94	3.57	-40.6	-42.3	23.5	3.02e+01	0	40	0	625475584	54	7093
2026-01-18 19:12:25.93	272.85	3.51	-40.5	-42.2	24.0	3.02e+01	0	40	0	627048448	54	6996
2026-01-18 19:12:26.94	272.75	3.45	-40.1	-41.7	23.9	3.02e+01	0	40	0	629145600	54	6640
2026-01-18 19:12:27.95	272.66	3.39	-40.6	-42.3	23.7	3.02e+01	0	40	0	631242752	54	7092
2026-01-18 19:12:28.96	272.57	3.33	-40.4	-42.1	23.9	3.02e+01	0	40	0	632815616	54	6928
2026-01-18 19:12:29.97	272.47	3.27	-40.0	-41.7	24.0	3.02e+01	0	40	0	634912768	54	6611
2026-01-18 19:12:30.98	272.38	3.22	-40.4	-42.2	23.7	3.02e+01	0	40	0	636485632	56	6214
2026-01-18 19:12:31.99	272.29	3.16	-40.0	-41.7	24.0	3.02e+01	0	40	0	638582784	54	6628
2026-01-18 19:12:33.00	272.20	3.10	-40.6	-42.3	23.3	3.02e+01	0	40	0	640679936	54	7114
2026-01-18 19:12:34.01	272.11	3.04	-40.3	-42.1	23.7	3.02e+01	0	41	0	642252800	54	6892
2026-01-18 19:12:35.02	272.02	2.99	-49.1	-66.6	3.5	3.02e+01	0	40	104	643301376	60	81947
2026-01-18 19:12:36.03	271.93	2.93	-49.6	-67.3	3.5	3.02e+01	0	41	104	643301376	60	89505
2026-01-18 19:12:37.04	271.84	2.87	-49.8	-67.6	3.5	3.02e+01	0	41	104	643301376	60	92510
2026-01-18 19:12:38.05	271.75	2.81	-50.0	-67.8	3.5	3.02e+01	0	41	104	643301376	60	94481
2026-01-18 19:12:39.06	271.66	2.75	-50.1	-67.9	3.5	3.02e+01	0	41	104	643301376	60	95340
2026-01-18 19:12:40.07	271.58	2.70	-50.1	-67.9	3.5	3.02e+01	0	40	104	643301376	60	96088
2026-01-18 19:12:41.08	271.49	2.64	-50.2	-67.9	3.5	3.02e+01	0	40	104	643301376	60	96040
2026-01-18 19:12:42.09	271.40	2.58	-50.2	-68.1	3.5	3.02e+01	0	40	104	643301376	60	97568
2026-01-18 19:12:43.10	271.31	2.53	-50.3	-68.1	3.5	3.02e+01	0	40	104	643301376	60	97473
2026-01-18 19:12:44.11	271.23	2.47	-50.3	-68.1	3.5	3.02e+01	0	41	104	643301376	60	98193
2026-01-18 19:12:45.12	271.14	2.41	-50.3	-68.1	3.5	3.02e+01	0	40	104	643301376	60	97876
2026-01-18 19:12:46.13	271.05	2.35	-50.3	-68.1	3.5	3.02e+01	0	40	104	643301376	60	97716
2026-01-18 19:12:47.14	270.97	2.30	-50.3	-68.1	3.5	3.02e+01	0	41	104	643301376	60	98157
2026-01-18 19:12:48.15	270.88	2.24	-50.3	-68.1	3.5	3.02e+01	0	41	104	643301376	60	98028
2026-01-18 19:12:49.16	270.80	2.18	-50.2	-68.1	3.5	3.02e+01	0	41	104	643301376	60	97584
2026-01-18 19:12:50.17	270.71	2.13	-50.2	-68.1	3.5	3.02e+01	0	41	104	643301376	60	98244
2026-01-18 19:12:51.18	270.63	2.07	-50.0	-68.1	3.5	3.02e+01	0	41	104	643301376	60	97985
2026-01-18 19:12:52.19	270.55	2.01	-50.1	-68.0	3.5	3.02e+01	0	41	104	643301376	60	97099
2026-01-18 19:12:53.20	270.46	1.96	-50.1	-68.0	3.5	3.02e+01	0	41	104	643301376	60	96909
2026-01-18 19:12:54.21	270.38	1.90	-50.1	-68.0	3.5	3.02e+01	0	41	104	643301376	60	97048
2026-01-18 19:12:55.22	270.30	1.84	-50.1	-68.1	3.5	3.02e+01	0	41	104	643301376	60	97428
2026-01-18 19:12:56.23	270.22	1.79	-50.1	-68.0	3.5	3.02e+01	0	41	104	643301376	60	97108
2026-01-18 19:12:57.24	270.13	1.73	-50.1	-68.0	3.5	3.02e+01	0	41	104	643301376	60	96677
2026-01-18 19:12:58.25	270.05	1.68	-50.1	-68.0	3.5	3.02e+01	0	41	104	643301376	60	96545
2026-01-18 19:12:59.26	269.97	1.62	-50.1	-68.0	3.5	3.02e+01	0	41	104	643301376	60	96484
2026-01-18 19:13:00.27	269.89	1.56	-50.1	-68.0	3.5	3.02e+01	0	41	104	643301376	60	96570
2026-01-18 19:13:01.28	269.81	1.51	-50.2	-68.0	3.5	3.02e+01	0	41	104	643301376	60	96794
2026-01-18 19:13:02.29	269.73	1.45	-50.2	-68.1	3.5	3.02e+01	0	41	104	643301376	60	97262
2026-01-18 19:13:03.30	269.65	1.40	-50.2	-68.0	3.5	3.02e+01	0	41	104	643301376	60	96629
2026-01-18 19:13:04.31	269.57	1.34	-50.2	-68.0	3.5	3.02e+01	0	41	104	643301376	60	96968
2026-01-18 19:13:05.32	269.49	1.29	-50.2	-68.1	3.5	3.02e+01	0	41	104	643301376	60	97513
2026-01-18 19:13:06.33	269.41	1.23	-50.2	-68.0	3.5	3.02e+01	0	41	104	643301376	60	96356
2026-01-18 19:13:07.34	269.33	1.17	-50.2	-68.0	3.5	3.02e+01	0	41	104	643301376	60	96848
2026-01-18 19:13:08.35	269.26	1.12	-50.2	-68.0	3.5	3.02e+01	0	41	104	643301376	60	96723
2026-01-18 19:13:09.36	269.18	1.06	-50.2	-68.0	3.5	3.02e+01	0	41	104	643301376	60	96781
2026-01-18 19:13:10.37	269.10	1.01	-50.2	-68.0	3.5	3.02e+01	0	41	104	643301376	60	96893
2026-01-18 19:13:11.38	269.02	0.95	-50.1	-68.0	3.5	3.02e+01	0	40	104	643301376	60	96552
2026-01-18 19:13:12.39	268.95	0.90	-50.2	-68.0	3.5	3.02e+01	0	41	104	643301376	60	97037
2026-01-18 19:13:13.40	268.87	0.84	-50.2	-68.0	3.5	3.02e+01	0	41	104	643301376	60	97079
2026-01-18 19:13:14.41	268.80	0.79	-50.1	-68.0	3.5	3.02e+01	0	41	104	643301376	60	96384
2026-01-18 19:13:15.42	268.72	0.73	-50.2	-68.0	3.5	3.02e+01	0	41	104	643301376	60	96657
2026-01-18 19:13:16.43	268.64	0.68	-50.2	-68.0	3.5	3.02e+01	0	41	104	643301376	60	96883
2026-01-18 19:13:17.44	268.57	0.62	-50.2	-67.9	3.5	3.02e+01	0	41	104	643301376	60	96079
2026-01-18 19:13:18.45	268.49	0.57	-50.1	-68.0	3.5	3.02e+01	0	41	104	643301376	60	96123
2026-01-18 19:13:19.45	268.42	0.51	-50.1	-68.0	3.5	3.02e+01	0	41	104	643301376	60	96301
2026-01-18 19:13:20.47	268.34	0.46	-50.1	-68.0	3.5	3.02e+01	0	40	104	643301376	60	96630
2026-01-18 19:13:21.48	268.27	0.40	-50.2	-68.0	3.5	3.02e+01	0	41	104	643301376	60	96868
2026-01-18 19:13:22.49	268.20	0.35	-50.1	-67.9	3.5	3.02e+01	0	41	104	643301376	60	96113
2026-01-18 19:13:23.50	268.12	0.30	-50.1	-68.0	3.5	3.02e+01	0	41	104	643301376	60	96512
2026-01-18 19:13:24.51	268.05	0.24	-50.1	-68.0	3.5	3.02e+01	0	41	104	643301376	60	96349
2026-01-18 19:13:25.52	267.98	0.19	-50.1	-67.9	3.5	3.02e+01	0	41	104	643301376	60	96112
2026-01-18 19:13:26.53	267.91	0.13	-50.1	-68.0	3.5	3.02e+01	0	41	104	643301376	60	96348
2026-01-18 19:13:27.54	267.83	0.08	-50.1	-68.0	3.5	3.02e+01	0	41	104	643301376	60	96799
2026-01-18 19:13:28.55	267.76	0.02	-50.1	-68.0	3.5	3.02e+01	0	40	104	643301376	60	96388
2026-01-18 19:13:29.56	267.69	-0.03	-50.1	-68.0	3.5	3.02e+01	0	40	104	643301376	60	96579
2026-01-18 19:13:30.57	267.62	-0.08	-50.1	-68.0	3.5	3.02e+01	0	40	104	643301376	60	96646

#Closed at: 2026-01-18 19:13:31
#Recorded file [643 MB]: D:/lorett/data/35029_260119_070134.dat