passes_logs/2026/01/18/R4.6S_Anadyr/R4.6S_Anadyr__20260118_120744_SUOMI_NPP_rec.log

#Pass ID: 20260118_120744_SUOMI NPP
#Satellite: SUOMI NPP
#Configuration: NPP
#almurnet v.1.7.20251203
#Start time: 2026-01-18 12:07:45

#Version: 2.2.20231116
#Station: R4.6S_Anadyr
#Location: 177.4865 lon 64.73178 lat
#TLE: 1 37849U 11061A   26017.57099531  .00000072  00000+0  54974-4 0  9996
#TLE: 2 37849  98.7814 319.5974 0002398  59.1749 300.9663 14.19525865737072

#Time	Az	El	Level	Level2	SNR	BER	BlckErr	Temp	State	Recorded	gain1	gain2
2026-01-18 12:07:45.52	19.61	0.05	-49.4	-61.9	3.5	1.52e+00	0	30	0	0	60	43485
2026-01-18 12:07:46.52	19.70	0.10	-49.6	-64.8	3.6	1.51e+00	0	31	104	0	60	62563
2026-01-18 12:07:47.53	19.78	0.14	-49.6	-64.7	3.6	1.51e+00	0	31	104	0	60	62420
2026-01-18 12:07:48.53	19.87	0.19	-49.6	-64.8	3.6	1.51e+00	0	31	104	0	60	63040
2026-01-18 12:07:49.54	19.95	0.24	-49.6	-64.8	3.6	1.51e+00	0	31	104	0	60	62833
2026-01-18 12:07:50.55	20.03	0.28	-49.6	-64.8	3.6	1.51e+00	0	31	104	0	60	62652
2026-01-18 12:07:51.56	20.12	0.33	-49.7	-64.8	3.6	1.51e+00	0	31	104	0	60	62839
2026-01-18 12:07:52.57	20.20	0.37	-49.7	-64.9	3.6	1.51e+00	0	31	104	0	60	63378
2026-01-18 12:07:53.58	20.29	0.42	-49.6	-64.9	3.6	1.51e+00	0	32	104	0	60	63898
2026-01-18 12:07:54.59	20.38	0.47	-49.7	-64.9	3.6	1.51e+00	0	32	104	0	60	63707
2026-01-18 12:07:55.60	20.46	0.51	-49.7	-65.0	3.6	1.51e+00	0	32	104	0	60	63922
2026-01-18 12:07:56.61	20.55	0.56	-49.7	-64.9	3.6	1.51e+00	0	32	104	0	60	63254
2026-01-18 12:07:57.62	20.63	0.60	-49.6	-64.9	3.6	1.51e+00	0	32	104	0	60	63324
2026-01-18 12:07:58.63	20.72	0.65	-49.6	-64.8	3.6	1.51e+00	0	32	104	0	60	63017
2026-01-18 12:07:59.63	20.81	0.70	-49.6	-64.8	3.6	1.51e+00	0	32	104	0	60	62780
2026-01-18 12:08:00.65	20.89	0.74	-49.5	-64.7	3.6	1.51e+00	0	32	104	0	60	62157
2026-01-18 12:08:01.65	20.98	0.79	-49.5	-64.7	3.6	1.51e+00	0	32	104	0	60	61926
2026-01-18 12:08:02.66	21.07	0.84	-49.4	-64.6	3.6	1.51e+00	0	32	104	0	60	61287
2026-01-18 12:08:03.67	21.16	0.88	-49.3	-64.5	3.6	1.51e+00	0	32	104	0	60	60812
2026-01-18 12:08:04.68	21.24	0.93	-49.1	-64.4	3.6	1.51e+00	0	32	104	0	60	60058
2026-01-18 12:08:05.69	21.33	0.97	-49.1	-64.3	3.6	1.51e+00	0	32	104	0	60	59498
2026-01-18 12:08:06.70	21.42	1.02	-49.0	-64.1	3.6	1.51e+00	0	32	104	0	60	58275
2026-01-18 12:08:07.71	21.51	1.07	-48.9	-64.0	3.6	1.51e+00	0	32	104	0	60	57539
2026-01-18 12:08:08.72	21.60	1.11	-48.7	-63.8	3.6	1.51e+00	0	32	104	0	60	56072
2026-01-18 12:08:09.73	21.69	1.16	-48.2	-63.4	3.6	1.51e+00	0	32	104	0	60	53718
2026-01-18 12:08:10.73	21.78	1.21	-47.9	-63.1	3.6	1.51e+00	0	32	104	0	60	51585
2026-01-18 12:08:11.74	21.87	1.25	-47.9	-63.1	3.6	1.51e+00	0	32	104	0	60	51543
2026-01-18 12:08:12.75	21.96	1.30	-47.9	-63.1	3.6	1.51e+00	0	32	104	0	60	51459
2026-01-18 12:08:13.75	22.05	1.34	-47.9	-63.1	3.6	1.51e+00	0	32	104	0	60	51550
2026-01-18 12:08:14.76	22.14	1.39	-47.9	-63.0	3.6	1.51e+00	0	32	104	0	60	51246
2026-01-18 12:08:15.77	22.23	1.44	-47.9	-63.1	3.6	1.51e+00	0	32	104	0	60	51369
2026-01-18 12:08:16.78	22.32	1.48	-47.9	-63.1	3.6	1.51e+00	0	32	104	0	60	51373
2026-01-18 12:08:17.79	22.41	1.53	-47.9	-63.1	3.6	1.51e+00	0	32	104	0	60	51391
2026-01-18 12:08:18.80	22.50	1.58	-47.9	-63.1	3.6	1.51e+00	0	32	104	0	60	51531
2026-01-18 12:08:19.81	22.60	1.62	-47.9	-63.1	3.6	1.51e+00	0	32	104	0	60	51612
2026-01-18 12:08:20.82	22.69	1.67	-47.9	-63.0	3.6	1.51e+00	0	32	104	0	60	51265
2026-01-18 12:08:21.83	22.78	1.72	-47.9	-63.1	3.6	1.51e+00	0	32	104	0	60	51567
2026-01-18 12:08:22.84	22.87	1.76	-47.9	-63.0	3.6	1.51e+00	0	32	104	0	60	51168
2026-01-18 12:08:23.85	22.97	1.81	-47.9	-63.1	3.6	1.51e+00	0	32	104	0	60	51524
2026-01-18 12:08:24.85	23.06	1.86	-47.9	-63.0	3.6	1.51e+00	0	32	104	0	60	51264
2026-01-18 12:08:25.86	23.15	1.90	-47.9	-63.0	3.6	1.51e+00	0	32	104	0	60	51320
2026-01-18 12:08:26.87	23.25	1.95	-47.9	-63.0	3.6	1.51e+00	0	32	104	0	60	51036
2026-01-18 12:08:27.88	23.34	2.00	-47.9	-63.0	3.6	1.51e+00	0	32	104	0	60	51210
2026-01-18 12:08:28.89	23.44	2.04	-47.9	-62.9	3.6	1.51e+00	0	32	104	0	60	50720
2026-01-18 12:08:29.90	23.53	2.09	-47.9	-63.0	3.6	1.51e+00	0	32	104	0	60	51129
2026-01-18 12:08:30.91	23.63	2.14	-47.9	-63.0	3.6	1.51e+00	0	32	104	0	60	50965
2026-01-18 12:08:31.92	23.72	2.18	-47.9	-63.0	3.6	1.51e+00	0	32	104	0	60	51244
2026-01-18 12:08:32.93	23.82	2.23	-47.9	-63.0	3.6	1.51e+00	0	32	104	0	60	50887
2026-01-18 12:08:33.94	23.91	2.28	-47.9	-63.0	3.6	1.51e+00	0	32	104	0	60	51238
2026-01-18 12:08:34.95	24.01	2.33	-47.9	-63.1	3.6	1.51e+00	0	32	104	0	60	51417
2026-01-18 12:08:35.96	24.11	2.37	-47.9	-62.9	3.6	1.51e+00	0	32	104	0	60	50537
2026-01-18 12:08:36.97	24.20	2.42	-47.8	-62.3	3.6	1.51e+00	0	32	104	0	60	47033
2026-01-18 12:08:37.98	24.30	2.47	-47.8	-61.9	3.6	1.51e+00	0	32	104	0	60	44771
2026-01-18 12:08:38.98	24.40	2.51	-47.8	-62.0	3.6	1.51e+00	0	32	104	0	60	45285
2026-01-18 12:08:39.99	24.50	2.56	-47.8	-61.5	3.6	1.51e+00	0	32	104	0	60	43054
2026-01-18 12:08:41.00	24.59	2.61	-47.6	-58.1	4.7	1.37e+00	92	32	104	0	60	28983
2026-01-18 12:08:42.01	24.69	2.65	-46.9	-53.2	8.3	3.18e-01	0	32	0	1048576	60	16449
2026-01-18 12:08:43.02	24.79	2.70	-45.8	-50.0	11.9	2.00e-03	0	32	0	3145728	60	11407
2026-01-18 12:08:44.02	24.89	2.75	-44.6	-47.6	14.4	3.80e-06	0	32	0	5242880	60	8715
2026-01-18 12:08:45.03	24.99	2.79	-43.5	-45.9	16.2	0.00e+00	0	32	0	7340032	60	7134
2026-01-18 12:08:46.04	25.09	2.84	-42.8	-44.8	17.2	0.00e+00	69	32	0	8388608	60	6285
2026-01-18 12:08:47.05	25.19	2.89	-43.1	-45.3	16.4	0.00e+00	0	32	0	10485760	58	7431
2026-01-18 12:08:48.05	25.29	2.94	-43.7	-46.2	15.6	0.00e+00	76	32	0	12582912	58	8258
2026-01-18 12:08:49.06	25.39	2.98	-44.8	-48.0	13.7	0.00e+00	0	32	0	14680064	60	9056
2026-01-18 12:08:50.07	25.49	3.03	-46.0	-50.6	10.8	5.32e-04	0	32	0	16777216	60	12270
2026-01-18 12:08:51.08	25.59	3.08	-43.6	-46.0	16.0	7.87e-04	0	32	0	17825792	60	7234
2026-01-18 12:08:52.08	25.69	3.12	-47.7	-62.1	3.6	6.87e-03	0	32	104	19922944	60	45846
2026-01-18 12:08:53.10	25.79	3.17	-45.9	-50.4	11.2	1.13e+00	4	32	104	19922944	60	12010
2026-01-18 12:08:54.10	25.89	3.22	-43.6	-45.9	16.2	3.30e-04	0	32	0	19922944	60	7155
2026-01-18 12:08:55.11	26.00	3.26	-47.9	-62.7	3.6	2.74e-05	0	32	104	22020096	60	49171
2026-01-18 12:08:56.12	26.10	3.31	-44.1	-46.8	5.9	1.48e+00	0	32	104	22020096	60	7875
2026-01-18 12:08:57.13	26.20	3.36	-43.6	-45.9	16.1	0.00e+00	0	32	0	22020096	60	7120
2026-01-18 12:08:58.14	26.31	3.41	-43.4	-45.6	16.5	0.00e+00	0	32	0	24117248	60	6897
2026-01-18 12:08:59.15	26.41	3.45	-42.3	-44.2	17.9	0.00e+00	0	32	0	25165824	58	6548
2026-01-18 12:09:00.16	26.51	3.50	-42.5	-44.4	17.7	0.00e+00	17	32	0	27262976	58	6759
2026-01-18 12:09:01.16	26.62	3.55	-42.4	-44.3	17.9	0.00e+00	0	32	0	29360128	58	6626
2026-01-18 12:09:02.17	26.72	3.59	-42.2	-44.0	18.0	0.00e+00	83	32	0	31457280	58	6420
2026-01-18 12:09:03.18	26.83	3.64	-42.2	-43.9	18.0	0.00e+00	0	32	0	33554432	58	6384
2026-01-18 12:09:04.19	26.93	3.69	-42.1	-43.9	18.0	0.00e+00	92	32	0	35651584	58	6354
2026-01-18 12:09:05.20	27.04	3.74	-42.3	-44.1	18.1	0.00e+00	0	32	0	36700160	58	6526
2026-01-18 12:09:06.21	27.14	3.78	-42.1	-43.8	18.0	0.00e+00	0	32	0	38797312	58	6311
2026-01-18 12:09:07.22	27.25	3.83	-41.9	-43.6	18.5	0.00e+00	0	32	0	40894464	56	6889
2026-01-18 12:09:08.22	27.35	3.88	-41.5	-43.0	18.7	0.00e+00	0	32	0	42991616	56	6420
2026-01-18 12:09:09.23	27.46	3.92	-41.7	-43.4	18.7	0.00e+00	74	32	0	45088768	56	6694
2026-01-18 12:09:10.24	27.57	3.97	-41.6	-43.2	18.9	0.00e+00	0	32	0	46137344	56	6567
2026-01-18 12:09:11.24	27.67	4.02	-41.8	-43.4	18.7	0.00e+00	72	32	0	48234496	56	6728
2026-01-18 12:09:12.25	27.78	4.07	-41.5	-43.0	19.2	0.00e+00	0	32	0	50331648	56	6432
2026-01-18 12:09:13.26	27.89	4.11	-40.9	-42.4	19.6	0.00e+00	0	32	0	52428800	56	5973
2026-01-18 12:09:14.27	28.00	4.16	-41.2	-42.7	19.2	0.00e+00	0	32	0	53477376	56	6222
2026-01-18 12:09:15.27	28.11	4.21	-41.1	-42.6	19.5	0.00e+00	0	32	0	55574528	56	6145
2026-01-18 12:09:16.28	28.22	4.25	-40.8	-42.1	19.9	0.00e+00	1	32	0	57671680	56	5827
2026-01-18 12:09:17.29	28.32	4.30	-41.1	-42.6	19.5	0.00e+00	0	32	0	59768832	56	6132
2026-01-18 12:09:18.30	28.43	4.35	-41.0	-42.4	19.7	0.00e+00	48	32	0	61865984	56	6011
2026-01-18 12:09:19.31	28.54	4.40	-41.1	-42.6	19.4	0.00e+00	0	32	0	63963136	56	6129
2026-01-18 12:09:20.32	28.66	4.44	-41.2	-42.7	19.2	0.00e+00	0	32	0	65011712	56	6208
2026-01-18 12:09:21.33	28.77	4.49	-41.3	-42.8	19.0	0.00e+00	0	32	0	67108864	56	6257
2026-01-18 12:09:22.34	28.88	4.54	-41.3	-42.8	19.1	0.00e+00	0	32	0	69206016	56	6260
2026-01-18 12:09:23.35	28.99	4.58	-41.6	-43.2	19.1	0.00e+00	35	32	0	71303168	56	6554
2026-01-18 12:09:24.35	29.10	4.63	-41.4	-42.9	19.4	0.00e+00	0	32	0	73400320	56	6383
2026-01-18 12:09:25.37	29.21	4.68	-41.5	-43.0	19.1	0.00e+00	44	32	0	74448896	56	6444
2026-01-18 12:09:26.37	29.32	4.73	-41.3	-42.8	19.4	0.00e+00	0	32	0	76546048	56	6296
2026-01-18 12:09:27.38	29.44	4.77	-41.4	-42.8	19.4	0.00e+00	0	32	0	78643200	56	6315
2026-01-18 12:09:28.39	29.55	4.82	-41.3	-42.8	19.4	0.00e+00	0	32	0	80740352	56	6279
2026-01-18 12:09:29.40	29.66	4.87	-41.4	-42.9	19.4	0.00e+00	0	32	0	82837504	56	6323
2026-01-18 12:09:30.41	29.78	4.91	-41.4	-42.9	19.5	0.00e+00	0	32	0	83886080	56	6365
2026-01-18 12:09:31.42	29.89	4.96	-41.3	-42.7	19.7	0.00e+00	33	32	0	85983232	56	6196
2026-01-18 12:09:32.43	30.01	5.01	-41.6	-43.1	19.4	0.00e+00	92	32	0	88080384	56	6486
2026-01-18 12:09:33.44	30.12	5.06	-41.3	-42.7	19.7	0.00e+00	29	32	0	90177536	56	6192
2026-01-18 12:09:34.45	30.24	5.10	-41.6	-43.1	19.3	0.00e+00	92	32	0	92274688	56	6506
2026-01-18 12:09:35.45	30.35	5.15	-41.3	-42.7	19.7	0.00e+00	0	32	0	93323264	56	6205
2026-01-18 12:09:36.47	30.47	5.20	-41.2	-42.5	19.8	0.00e+00	0	32	0	95420416	56	6100
2026-01-18 12:09:37.48	30.59	5.25	-41.2	-42.6	19.8	0.00e+00	0	32	0	97517568	56	6110
2026-01-18 12:09:38.49	30.70	5.29	-41.3	-42.7	19.7	0.00e+00	0	32	0	99614720	56	6180
2026-01-18 12:09:39.49	30.82	5.34	-41.3	-42.7	19.8	0.00e+00	70	32	0	101711872	56	6197
2026-01-18 12:09:40.50	30.94	5.39	-41.2	-42.7	19.8	0.00e+00	0	32	0	102760448	56	6175
2026-01-18 12:09:41.51	31.05	5.43	-41.3	-42.7	19.8	0.00e+00	75	32	0	104857600	56	6180
2026-01-18 12:09:42.52	31.17	5.48	-41.0	-42.4	19.9	0.00e+00	0	32	0	106954752	56	6003
2026-01-18 12:09:43.53	31.29	5.53	-41.3	-42.7	19.8	0.00e+00	0	32	0	109051904	56	6236
2026-01-18 12:09:44.53	31.41	5.57	-41.4	-42.9	19.6	0.00e+00	0	32	0	111149056	56	6323
2026-01-18 12:09:45.54	31.53	5.62	-41.0	-42.3	20.1	0.00e+00	0	32	0	112197632	56	5917
2026-01-18 12:09:46.55	31.65	5.67	-40.7	-42.0	20.2	0.00e+00	65	32	0	114294784	54	6447
2026-01-18 12:09:47.56	31.77	5.71	-40.8	-42.1	20.3	0.00e+00	0	32	0	116391936	54	6478
2026-01-18 12:09:48.56	31.89	5.76	-40.8	-42.1	20.3	0.00e+00	92	32	0	118489088	54	6507
2026-01-18 12:09:49.57	32.01	5.81	-40.8	-42.2	20.3	0.00e+00	0	32	0	120586240	54	6549
2026-01-18 12:09:50.58	32.13	5.86	-40.8	-42.1	20.2	0.00e+00	0	32	0	121634816	54	6524
2026-01-18 12:09:51.59	32.25	5.90	-40.8	-42.1	20.3	0.00e+00	0	32	0	123731968	54	6516
2026-01-18 12:09:52.60	32.37	5.95	-41.0	-42.3	20.2	0.00e+00	0	32	0	125829120	54	6682
2026-01-18 12:09:53.61	32.49	6.00	-40.7	-42.0	20.3	0.00e+00	0	32	0	127926272	54	6429
2026-01-18 12:09:54.62	32.62	6.04	-40.5	-41.7	20.6	0.00e+00	0	32	0	130023424	54	6212
2026-01-18 12:09:55.63	32.74	6.09	-40.6	-41.9	20.5	0.00e+00	92	32	0	132120576	54	6360
2026-01-18 12:09:56.63	32.86	6.14	-40.1	-41.3	21.1	0.00e+00	0	32	0	133169152	54	5905
2026-01-18 12:09:57.64	32.99	6.18	-40.1	-41.3	21.0	0.00e+00	0	32	0	135266304	54	5921
2026-01-18 12:09:58.65	33.11	6.23	-40.2	-41.3	21.0	0.00e+00	0	32	0	137363456	54	5961
2026-01-18 12:09:59.66	33.23	6.28	-40.3	-41.5	20.8	0.00e+00	0	32	0	139460608	54	6060
2026-01-18 12:10:00.67	33.36	6.32	-40.2	-41.4	20.9	0.00e+00	0	32	0	140509184	54	5985
2026-01-18 12:10:01.68	33.49	6.37	-40.1	-41.3	21.1	0.00e+00	0	32	0	142606336	54	5941
2026-01-18 12:10:02.69	33.61	6.42	-40.1	-41.3	21.0	0.00e+00	90	32	0	144703488	54	5935
2026-01-18 12:10:03.70	33.74	6.46	-40.2	-41.4	21.0	0.00e+00	0	32	0	146800640	54	5965
2026-01-18 12:10:04.71	33.86	6.51	-40.1	-41.2	21.1	0.00e+00	37	32	0	148897792	54	5887
2026-01-18 12:10:05.72	33.99	6.56	-40.2	-41.4	21.1	0.00e+00	0	32	0	149946368	54	5997
2026-01-18 12:10:06.73	34.12	6.60	-40.0	-41.2	21.1	0.00e+00	0	32	0	152043520	54	5874
2026-01-18 12:10:07.74	34.25	6.65	-40.0	-41.2	21.2	0.00e+00	0	32	0	154140672	54	5863
2026-01-18 12:10:08.74	34.37	6.70	-39.8	-40.9	21.5	0.00e+00	0	32	0	156237824	54	5663
2026-01-18 12:10:09.76	34.50	6.74	-39.8	-40.9	21.3	0.00e+00	92	32	0	158334976	52	6359
2026-01-18 12:10:10.76	34.63	6.79	-39.8	-41.0	21.5	0.00e+00	0	32	0	160432128	52	6412
2026-01-18 12:10:11.77	34.76	6.83	-39.7	-40.8	21.4	0.00e+00	92	32	0	161480704	52	6307
2026-01-18 12:10:12.78	34.89	6.88	-39.7	-40.8	21.5	0.00e+00	0	33	0	163577856	52	6303
2026-01-18 12:10:13.79	35.02	6.93	-39.5	-40.6	21.6	0.00e+00	0	33	0	165675008	52	6167
2026-01-18 12:10:14.80	35.15	6.97	-39.7	-40.8	21.6	0.00e+00	0	33	0	167772160	52	6260
2026-01-18 12:10:15.81	35.28	7.02	-39.7	-40.8	21.6	0.00e+00	0	32	0	169869312	52	6292
2026-01-18 12:10:16.81	35.41	7.07	-39.8	-40.9	21.5	0.00e+00	15	32	0	170917888	52	6388
2026-01-18 12:10:17.82	35.54	7.11	-40.0	-41.2	21.3	0.00e+00	0	33	0	173015040	52	6583
2026-01-18 12:10:18.83	35.67	7.16	-40.0	-41.2	21.2	0.00e+00	64	33	0	175112192	52	6540
2026-01-18 12:10:19.84	35.81	7.20	-40.1	-41.3	21.1	0.00e+00	0	32	0	177209344	52	6618
2026-01-18 12:10:20.85	35.94	7.25	-40.1	-41.3	21.0	0.00e+00	0	33	0	179306496	52	6649
2026-01-18 12:10:21.86	36.07	7.30	-40.2	-41.4	21.1	0.00e+00	0	33	0	180355072	52	6726
2026-01-18 12:10:22.86	36.20	7.34	-40.2	-41.4	21.1	0.00e+00	0	32	0	182452224	52	6724
2026-01-18 12:10:23.87	36.34	7.39	-40.1	-41.3	21.2	0.00e+00	5	32	0	184549376	52	6620
2026-01-18 12:10:24.88	36.47	7.43	-40.1	-41.3	21.3	0.00e+00	0	32	0	186646528	52	6666
2026-01-18 12:10:25.89	36.61	7.48	-40.1	-41.2	21.2	0.00e+00	92	32	0	188743680	52	6587
2026-01-18 12:10:26.90	36.74	7.52	-40.1	-41.2	21.3	0.00e+00	0	32	0	189792256	52	6583
2026-01-18 12:10:27.91	36.88	7.57	-40.0	-41.2	21.3	0.00e+00	0	33	0	191889408	52	6541
2026-01-18 12:10:28.92	37.01	7.62	-39.8	-41.0	21.4	0.00e+00	0	32	0	193986560	52	6409
2026-01-18 12:10:29.93	37.15	7.66	-39.9	-41.0	21.4	0.00e+00	0	33	0	196083712	52	6457
2026-01-18 12:10:30.94	37.29	7.71	-40.0	-41.2	21.3	0.00e+00	57	33	0	198180864	52	6554
2026-01-18 12:10:31.94	37.42	7.75	-40.1	-41.3	21.3	0.00e+00	0	32	0	199229440	52	6631
2026-01-18 12:10:32.95	37.56	7.80	-40.0	-41.2	21.4	0.00e+00	69	32	0	201326592	52	6551
2026-01-18 12:10:33.96	37.70	7.84	-40.2	-41.3	21.2	0.00e+00	0	33	0	203423744	52	6680
2026-01-18 12:10:34.97	37.84	7.89	-40.2	-41.3	21.2	0.00e+00	82	33	0	205520896	52	6676
2026-01-18 12:10:35.98	37.98	7.93	-40.3	-41.5	21.1	0.00e+00	0	33	0	207618048	52	6808
2026-01-18 12:10:36.98	38.12	7.98	-40.3	-41.5	21.1	0.00e+00	0	33	0	208666624	52	6811
2026-01-18 12:10:37.99	38.26	8.02	-40.3	-41.4	21.0	0.00e+00	57	33	0	210763776	52	6766
2026-01-18 12:10:39.00	38.40	8.07	-40.2	-41.4	21.2	0.00e+00	0	33	0	212860928	52	6712
2026-01-18 12:10:40.00	38.53	8.11	-40.4	-41.6	20.9	0.00e+00	26	33	0	214958080	52	6920
2026-01-18 12:10:41.01	38.68	8.16	-40.2	-41.3	21.2	0.00e+00	0	33	0	217055232	52	6668
2026-01-18 12:10:42.02	38.82	8.20	-40.0	-41.2	21.4	0.00e+00	92	33	0	218103808	52	6563
2026-01-18 12:10:43.03	38.96	8.25	-40.0	-41.2	21.2	0.00e+00	0	33	0	220200960	52	6557
2026-01-18 12:10:44.04	39.10	8.29	-40.0	-41.1	21.1	0.00e+00	0	33	0	222298112	52	6525
2026-01-18 12:10:45.04	39.24	8.34	-40.1	-41.3	21.1	0.00e+00	0	33	0	224395264	52	6621
2026-01-18 12:10:46.05	39.39	8.38	-40.1	-41.2	21.3	0.00e+00	0	32	0	226492416	52	6587
2026-01-18 12:10:47.06	39.53	8.42	-40.2	-41.3	21.2	0.00e+00	72	32	0	227540992	52	6668
2026-01-18 12:10:48.07	39.67	8.47	-40.3	-41.5	21.1	0.00e+00	0	33	0	229638144	52	6826
2026-01-18 12:10:49.08	39.82	8.51	-40.1	-41.2	21.3	0.00e+00	91	33	0	231735296	52	6586
2026-01-18 12:10:50.09	39.96	8.56	-40.2	-41.4	21.2	0.00e+00	0	33	0	233832448	52	6697
2026-01-18 12:10:51.10	40.11	8.60	-40.3	-41.5	21.1	0.00e+00	0	32	0	235929600	52	6800
2026-01-18 12:10:52.11	40.25	8.65	-40.4	-41.6	21.1	0.00e+00	0	32	0	236978176	52	6852
2026-01-18 12:10:53.12	40.40	8.69	-40.0	-41.2	21.4	0.00e+00	0	33	0	239075328	52	6561
2026-01-18 12:10:54.13	40.55	8.73	-40.2	-41.3	21.3	0.00e+00	8	33	0	241172480	52	6664
2026-01-18 12:10:55.14	40.69	8.78	-40.2	-41.3	21.2	0.00e+00	0	33	0	243269632	52	6667
2026-01-18 12:10:56.15	40.84	8.82	-40.1	-41.3	21.3	0.00e+00	87	33	0	245366784	52	6627
2026-01-18 12:10:57.15	40.99	8.86	-40.2	-41.4	21.2	0.00e+00	0	33	0	246415360	52	6716
2026-01-18 12:10:58.16	41.14	8.91	-40.1	-41.3	21.3	0.00e+00	0	33	0	248512512	52	6656
2026-01-18 12:10:59.17	41.28	8.95	-40.3	-41.4	21.1	0.00e+00	0	32	0	250609664	52	6757
2026-01-18 12:11:00.18	41.43	8.99	-40.6	-41.9	20.7	0.00e+00	0	33	0	252706816	52	7106
2026-01-18 12:11:01.19	41.58	9.04	-40.7	-41.9	20.7	0.00e+00	72	32	0	254803968	54	6368
2026-01-18 12:11:02.20	41.73	9.08	-40.7	-42.0	20.8	0.00e+00	0	33	0	256901120	54	6397
2026-01-18 12:11:03.21	41.88	9.12	-40.6	-41.8	20.9	0.00e+00	92	33	0	257949696	54	6294
2026-01-18 12:11:04.22	42.03	9.17	-40.6	-41.8	20.8	0.00e+00	0	33	0	260046848	54	6304
2026-01-18 12:11:05.23	42.19	9.21	-40.2	-41.4	21.2	0.00e+00	92	33	0	262144000	54	6020
2026-01-18 12:11:06.23	42.34	9.25	-40.6	-41.8	20.8	0.00e+00	0	33	0	264241152	54	6296
2026-01-18 12:11:07.24	42.49	9.30	-40.2	-41.3	21.3	0.00e+00	0	33	0	266338304	54	5938
2026-01-18 12:11:08.25	42.64	9.34	-40.1	-41.2	21.3	0.00e+00	0	33	0	267386880	54	5866
2026-01-18 12:11:09.26	42.79	9.38	-40.3	-41.5	21.1	0.00e+00	0	33	0	269484032	54	6035
2026-01-18 12:11:10.26	42.95	9.42	-40.4	-41.6	21.1	0.00e+00	87	33	0	271581184	54	6132
2026-01-18 12:11:11.27	43.10	9.47	-40.4	-41.7	21.0	0.00e+00	0	33	0	273678336	54	6176
2026-01-18 12:11:12.28	43.25	9.51	-40.5	-41.8	20.9	0.00e+00	90	33	0	275775488	54	6268
2026-01-18 12:11:13.29	43.41	9.55	-40.8	-42.0	20.7	0.00e+00	0	33	0	276824064	54	6451
2026-01-18 12:11:14.30	43.56	9.59	-40.8	-42.1	20.6	0.00e+00	0	33	0	278921216	54	6491
2026-01-18 12:11:15.30	43.72	9.63	-40.9	-42.2	20.5	0.00e+00	0	33	0	281018368	54	6590
2026-01-18 12:11:16.31	43.87	9.68	-40.7	-42.0	20.7	0.00e+00	0	33	0	283115520	54	6437
2026-01-18 12:11:17.32	44.03	9.72	-40.9	-42.2	20.5	0.00e+00	0	33	0	285212672	54	6589
2026-01-18 12:11:18.33	44.19	9.76	-40.9	-42.2	20.6	0.00e+00	0	33	0	286261248	54	6556
2026-01-18 12:11:19.34	44.34	9.80	-40.7	-42.0	20.8	0.00e+00	90	33	0	288358400	54	6395
2026-01-18 12:11:20.35	44.50	9.84	-40.7	-41.9	20.8	0.00e+00	0	33	0	290455552	54	6369
2026-01-18 12:11:21.36	44.66	9.88	-40.7	-42.0	20.8	0.00e+00	0	33	0	292552704	54	6411
2026-01-18 12:11:22.37	44.82	9.92	-40.6	-41.9	20.9	0.00e+00	0	33	0	294649856	54	6322
2026-01-18 12:11:23.38	44.98	9.96	-40.3	-41.5	21.2	0.00e+00	0	33	0	295698432	54	6081
2026-01-18 12:11:24.38	45.14	10.01	-40.5	-41.7	21.0	0.00e+00	71	33	0	297795584	54	6194
2026-01-18 12:11:25.39	45.30	10.05	-40.7	-41.9	20.8	0.00e+00	0	33	0	299892736	54	6361
2026-01-18 12:11:26.40	45.46	10.09	-40.7	-42.0	20.9	0.00e+00	84	33	0	301989888	54	6403
2026-01-18 12:11:27.41	45.62	10.13	-40.9	-42.2	20.6	0.00e+00	0	33	0	304087040	54	6556
2026-01-18 12:11:28.42	45.78	10.17	-40.6	-41.9	20.8	0.00e+00	0	33	0	305135616	54	6346
2026-01-18 12:11:29.43	45.94	10.21	-40.9	-42.2	20.5	0.00e+00	0	33	0	307232768	54	6591
2026-01-18 12:11:30.44	46.10	10.25	-41.0	-42.3	20.6	0.00e+00	30	33	0	309329920	54	6636
2026-01-18 12:11:31.45	46.26	10.29	-41.1	-42.4	20.4	0.00e+00	57	33	0	311427072	54	6726
2026-01-18 12:11:32.46	46.43	10.33	-41.1	-42.4	20.5	0.00e+00	0	33	0	313524224	54	6721
2026-01-18 12:11:33.47	46.59	10.37	-41.1	-42.4	20.4	0.00e+00	65	33	0	314572800	54	6710
2026-01-18 12:11:34.48	46.75	10.41	-41.3	-42.6	20.3	0.00e+00	0	33	0	316669952	54	6872
2026-01-18 12:11:35.49	46.92	10.45	-41.3	-42.7	20.2	0.00e+00	0	33	0	318767104	54	6952
2026-01-18 12:11:36.50	47.08	10.49	-41.2	-42.5	20.3	0.00e+00	0	33	0	320864256	54	6848
2026-01-18 12:11:37.51	47.25	10.52	-41.3	-42.6	20.3	0.00e+00	0	33	0	322961408	54	6873
2026-01-18 12:11:38.52	47.41	10.56	-41.2	-42.5	20.3	0.00e+00	0	33	0	324009984	54	6810
2026-01-18 12:11:39.53	47.58	10.60	-41.3	-42.7	20.1	0.00e+00	0	33	0	326107136	54	6944
2026-01-18 12:11:40.54	47.75	10.64	-41.3	-42.7	20.2	0.00e+00	72	33	0	328204288	54	6951
2026-01-18 12:11:41.55	47.91	10.68	-41.3	-42.6	20.2	0.00e+00	0	33	0	330301440	54	6923
2026-01-18 12:11:42.56	48.08	10.72	-41.3	-42.6	20.2	0.00e+00	77	33	0	332398592	54	6926
2026-01-18 12:11:43.57	48.25	10.76	-41.4	-42.7	20.0	0.00e+00	0	33	0	333447168	54	6984
2026-01-18 12:11:44.57	48.41	10.79	-41.4	-42.7	19.9	0.00e+00	0	33	0	335544320	54	6969
2026-01-18 12:11:45.58	48.58	10.83	-41.1	-42.4	20.4	0.00e+00	0	33	0	337641472	54	6763
2026-01-18 12:11:46.59	48.75	10.87	-41.4	-42.7	20.2	0.00e+00	0	33	0	339738624	54	6984
2026-01-18 12:11:47.60	48.92	10.91	-41.0	-42.3	20.6	0.00e+00	15	33	0	341835776	54	6662
2026-01-18 12:11:48.61	49.09	10.94	-40.9	-42.1	20.6	0.00e+00	0	33	0	342884352	54	6538
2026-01-18 12:11:49.62	49.26	10.98	-40.8	-42.0	20.8	0.00e+00	91	33	0	344981504	54	6439
2026-01-18 12:11:50.63	49.43	11.02	-40.8	-42.0	20.8	0.00e+00	0	33	0	347078656	54	6420
2026-01-18 12:11:51.64	49.60	11.06	-40.9	-42.1	20.8	0.00e+00	0	33	0	349175808	54	6506
2026-01-18 12:11:52.65	49.77	11.09	-40.9	-42.2	20.6	0.00e+00	0	33	0	351272960	54	6574
2026-01-18 12:11:53.66	49.95	11.13	-40.8	-42.0	20.8	0.00e+00	0	33	0	353370112	54	6454
2026-01-18 12:11:54.66	50.12	11.16	-41.0	-42.3	20.6	0.00e+00	7	33	0	354418688	54	6635
2026-01-18 12:11:55.67	50.29	11.20	-40.9	-42.2	20.5	0.00e+00	0	33	0	356515840	54	6554
2026-01-18 12:11:56.68	50.46	11.24	-40.8	-42.1	20.7	0.00e+00	88	33	0	358612992	54	6503
2026-01-18 12:11:57.69	50.64	11.27	-40.9	-42.2	20.7	0.00e+00	0	33	0	360710144	54	6568
2026-01-18 12:11:58.70	50.81	11.31	-40.8	-42.1	20.7	0.00e+00	0	33	0	362807296	54	6477
2026-01-18 12:11:59.71	50.98	11.34	-40.7	-41.9	21.0	0.00e+00	0	33	0	363855872	54	6345
2026-01-18 12:12:00.72	51.16	11.38	-40.7	-41.9	20.9	0.00e+00	0	33	0	365953024	54	6361
2026-01-18 12:12:01.73	51.33	11.41	-40.5	-41.7	20.9	0.00e+00	70	33	0	368050176	54	6237
2026-01-18 12:12:02.74	51.51	11.45	-40.5	-41.7	21.1	0.00e+00	0	33	0	370147328	54	6190
2026-01-18 12:12:03.75	51.68	11.48	-40.4	-41.6	21.1	0.00e+00	70	33	0	372244480	54	6138
2026-01-18 12:12:04.76	51.86	11.52	-40.6	-41.9	20.9	0.00e+00	0	33	0	373293056	54	6318
2026-01-18 12:12:05.77	52.04	11.55	-40.6	-41.9	21.0	0.00e+00	0	33	0	375390208	54	6329
2026-01-18 12:12:06.78	52.22	11.59	-40.7	-41.9	20.9	0.00e+00	0	33	0	377487360	54	6362
2026-01-18 12:12:07.79	52.39	11.62	-40.7	-41.9	20.9	0.00e+00	0	33	0	379584512	54	6361
2026-01-18 12:12:08.79	52.57	11.65	-40.9	-42.1	20.9	0.00e+00	0	33	0	381681664	54	6534
2026-01-18 12:12:09.80	52.75	11.69	-41.0	-42.3	20.5	0.00e+00	0	33	0	382730240	54	6634
2026-01-18 12:12:10.81	52.93	11.72	-41.0	-42.2	20.7	0.00e+00	69	33	0	384827392	54	6585
2026-01-18 12:12:11.82	53.11	11.76	-41.1	-42.4	20.5	0.00e+00	0	33	0	386924544	54	6733
2026-01-18 12:12:12.83	53.28	11.79	-40.9	-42.2	20.6	0.00e+00	0	33	0	389021696	54	6578
2026-01-18 12:12:13.84	53.46	11.82	-40.8	-42.1	20.8	0.00e+00	0	33	0	391118848	54	6486
2026-01-18 12:12:14.85	53.65	11.85	-40.9	-42.2	20.7	0.00e+00	0	33	0	392167424	54	6564
2026-01-18 12:12:15.86	53.83	11.89	-41.1	-42.4	20.5	0.00e+00	0	33	0	394264576	54	6706
2026-01-18 12:12:16.87	54.01	11.92	-41.2	-42.5	20.4	0.00e+00	0	33	0	396361728	54	6816
2026-01-18 12:12:17.88	54.19	11.95	-40.7	-41.9	20.9	0.00e+00	69	33	0	398458880	54	6340
2026-01-18 12:12:18.88	54.37	11.98	-40.8	-42.1	20.7	0.00e+00	0	33	0	400556032	54	6483
2026-01-18 12:12:19.89	54.55	12.01	-40.6	-41.8	21.1	0.00e+00	47	33	0	401604608	54	6280
2026-01-18 12:12:20.90	54.73	12.04	-40.5	-41.7	21.0	0.00e+00	0	33	0	403701760	54	6187
2026-01-18 12:12:21.91	54.92	12.08	-40.4	-41.6	21.3	0.00e+00	0	33	0	405798912	54	6110
2026-01-18 12:12:22.92	55.10	12.11	-40.2	-41.3	21.4	0.00e+00	0	33	0	407896064	54	5958
2026-01-18 12:12:23.93	55.28	12.14	-40.1	-41.2	21.6	0.00e+00	0	33	0	409993216	54	5876
2026-01-18 12:12:24.94	55.47	12.17	-39.7	-40.8	21.8	0.00e+00	76	33	0	411041792	52	6251
2026-01-18 12:12:25.94	55.65	12.20	-39.7	-40.8	21.9	0.00e+00	0	33	0	413138944	52	6283
2026-01-18 12:12:26.95	55.84	12.23	-39.7	-40.8	21.9	0.00e+00	91	33	0	415236096	52	6259
2026-01-18 12:12:27.96	56.02	12.26	-39.7	-40.8	22.0	0.00e+00	0	33	0	417333248	52	6269
2026-01-18 12:12:28.97	56.21	12.29	-39.8	-40.9	21.9	0.00e+00	0	33	0	419430400	52	6344
2026-01-18 12:12:29.98	56.39	12.32	-40.0	-41.1	21.6	0.00e+00	0	33	0	421527552	52	6529
2026-01-18 12:12:30.99	56.58	12.34	-40.2	-41.3	21.5	0.00e+00	0	33	0	422576128	52	6647
2026-01-18 12:12:32.00	56.77	12.37	-40.2	-41.4	21.3	0.00e+00	0	33	0	424673280	52	6715
2026-01-18 12:12:33.01	56.95	12.40	-40.3	-41.4	21.1	0.00e+00	0	33	0	426770432	52	6756
2026-01-18 12:12:34.01	57.14	12.43	-40.4	-41.5	21.3	0.00e+00	74	33	0	428867584	52	6812
2026-01-18 12:12:35.02	57.33	12.46	-40.1	-41.2	21.5	0.00e+00	0	33	0	429916160	52	6589
2026-01-18 12:12:36.03	57.51	12.49	-39.9	-41.0	21.8	0.00e+00	0	33	0	432013312	52	6418
2026-01-18 12:12:37.04	57.70	12.51	-39.7	-40.7	21.9	0.00e+00	0	33	0	434110464	52	6221
2026-01-18 12:12:38.05	57.89	12.54	-39.4	-40.5	22.2	0.00e+00	0	33	0	436207616	52	6034
2026-01-18 12:12:39.05	58.08	12.57	-39.6	-40.6	22.1	0.00e+00	0	33	0	438304768	52	6170
2026-01-18 12:12:40.06	58.27	12.59	-39.5	-40.6	22.1	0.00e+00	0	33	0	439353344	52	6114
2026-01-18 12:12:41.07	58.46	12.62	-39.6	-40.7	22.0	0.00e+00	92	33	0	441450496	52	6211
2026-01-18 12:12:42.08	58.65	12.65	-40.0	-41.1	21.7	0.00e+00	0	33	0	443547648	52	6477
2026-01-18 12:12:43.09	58.84	12.67	-40.1	-41.2	21.6	0.00e+00	0	33	0	445644800	52	6575
2026-01-18 12:12:44.10	59.03	12.70	-40.1	-41.2	21.6	0.00e+00	0	33	0	447741952	52	6584
2026-01-18 12:12:45.11	59.22	12.72	-39.8	-40.9	21.8	0.00e+00	0	33	0	449839104	52	6374
2026-01-18 12:12:46.12	59.41	12.75	-39.5	-40.6	22.1	0.00e+00	49	33	0	450887680	52	6112
2026-01-18 12:12:47.13	59.60	12.77	-39.3	-40.3	22.3	0.00e+00	0	33	0	452984832	52	5946
2026-01-18 12:12:48.14	59.80	12.80	-39.2	-40.2	22.3	0.00e+00	73	33	0	455081984	52	5832
2026-01-18 12:12:49.14	59.99	12.82	-39.3	-40.3	22.2	0.00e+00	0	33	0	457179136	52	5940
2026-01-18 12:12:50.15	60.18	12.85	-39.4	-40.5	22.1	0.00e+00	46	33	0	459276288	52	6036
2026-01-18 12:12:51.16	60.37	12.87	-40.0	-41.1	21.7	0.00e+00	0	33	0	460324864	52	6471
2026-01-18 12:12:52.17	60.57	12.90	-40.2	-41.4	21.3	0.00e+00	0	33	0	462422016	52	6704
2026-01-18 12:12:53.18	60.76	12.92	-40.6	-41.8	21.1	0.00e+00	33	33	0	464519168	52	7084
2026-01-18 12:12:54.19	60.95	12.94	-40.5	-41.7	21.2	0.00e+00	0	33	0	466616320	52	6965
2026-01-18 12:12:55.20	61.15	12.96	-40.2	-41.3	21.5	0.00e+00	73	33	0	468713472	52	6646
2026-01-18 12:12:56.21	61.34	12.99	-40.1	-41.2	21.6	0.00e+00	0	33	0	469762048	52	6554
2026-01-18 12:12:57.22	61.54	13.01	-39.7	-40.8	21.9	0.00e+00	86	33	0	471859200	52	6262
2026-01-18 12:12:58.23	61.73	13.03	-40.1	-41.2	21.7	0.00e+00	0	33	0	473956352	52	6553
2026-01-18 12:12:59.24	61.93	13.05	-40.3	-41.5	21.3	0.00e+00	0	33	0	476053504	52	6791
2026-01-18 12:13:00.25	62.12	13.07	-41.0	-42.3	20.7	0.00e+00	0	33	0	478150656	54	6619
2026-01-18 12:13:01.26	62.32	13.10	-41.6	-43.0	20.1	0.00e+00	0	33	0	479199232	54	7178
2026-01-18 12:13:02.27	62.51	13.12	-42.0	-43.5	19.5	0.00e+00	15	33	0	481296384	56	6810
2026-01-18 12:13:03.28	62.71	13.14	-42.1	-43.6	19.5	0.00e+00	0	33	0	483393536	56	6858
2026-01-18 12:13:04.29	62.91	13.16	-41.7	-43.1	19.9	0.00e+00	76	33	0	485490688	56	6491
2026-01-18 12:13:05.30	63.10	13.18	-41.2	-42.5	20.5	0.00e+00	0	33	0	487587840	56	6088
2026-01-18 12:13:06.31	63.30	13.20	-41.2	-42.5	20.6	0.00e+00	0	33	0	488636416	56	6068
2026-01-18 12:13:07.32	63.50	13.22	-40.4	-41.6	21.2	0.00e+00	0	33	0	490733568	54	6106
2026-01-18 12:13:08.33	63.70	13.24	-40.5	-41.6	21.2	0.00e+00	0	33	0	492830720	54	6149
2026-01-18 12:13:09.34	63.90	13.26	-40.6	-41.8	21.0	0.00e+00	49	33	0	494927872	54	6291
2026-01-18 12:13:10.34	64.09	13.27	-40.7	-41.9	20.9	0.00e+00	0	33	0	497025024	54	6370
2026-01-18 12:13:11.35	64.29	13.29	-41.1	-42.3	20.5	0.00e+00	52	33	0	498073600	54	6680
2026-01-18 12:13:12.36	64.49	13.31	-41.3	-42.6	20.4	0.00e+00	0	33	0	500170752	54	6875
2026-01-18 12:13:13.37	64.69	13.33	-40.9	-42.2	20.7	0.00e+00	83	33	0	502267904	54	6571
2026-01-18 12:13:14.38	64.89	13.34	-40.8	-42.0	21.0	0.00e+00	30	33	0	504365056	54	6447
2026-01-18 12:13:15.39	65.09	13.36	-40.5	-41.7	21.2	0.00e+00	0	33	0	506462208	54	6187
2026-01-18 12:13:16.40	65.29	13.38	-40.6	-41.7	21.0	0.00e+00	73	33	0	507510784	54	6237
2026-01-18 12:13:17.41	65.49	13.39	-40.2	-41.3	21.4	0.00e+00	31	33	0	509607936	54	5961
2026-01-18 12:13:18.41	65.68	13.41	-40.5	-41.7	21.1	0.00e+00	65	33	0	511705088	54	6178
2026-01-18 12:13:19.43	65.89	13.43	-40.5	-41.7	21.1	0.00e+00	0	33	0	513802240	54	6193
2026-01-18 12:13:20.44	66.09	13.44	-40.7	-42.0	21.0	0.00e+00	49	33	0	515899392	54	6408
2026-01-18 12:13:21.45	66.29	13.46	-40.7	-41.9	21.0	0.00e+00	0	33	0	517996544	54	6343
2026-01-18 12:13:22.46	66.49	13.47	-40.5	-41.7	21.1	0.00e+00	0	33	0	519045120	54	6232
2026-01-18 12:13:23.47	66.69	13.49	-40.3	-41.4	21.4	0.00e+00	0	33	0	521142272	54	6028
2026-01-18 12:13:24.47	66.89	13.50	-40.0	-41.1	21.7	0.00e+00	30	33	0	523239424	54	5815
2026-01-18 12:13:25.48	67.09	13.52	-39.7	-40.8	21.9	0.00e+00	73	33	0	525336576	54	5604
2026-01-18 12:13:26.49	67.29	13.53	-39.8	-40.9	21.8	0.00e+00	0	33	0	527433728	52	6339
2026-01-18 12:13:27.50	67.49	13.54	-39.8	-40.9	21.8	0.00e+00	92	33	0	528482304	52	6320
2026-01-18 12:13:28.51	67.70	13.56	-40.0	-41.1	21.7	0.00e+00	0	33	0	530579456	52	6525
2026-01-18 12:13:29.52	67.90	13.57	-39.8	-40.9	21.8	0.00e+00	0	33	0	532676608	52	6343
2026-01-18 12:13:30.52	68.10	13.58	-40.0	-41.1	21.4	0.00e+00	0	33	0	534773760	52	6488
2026-01-18 12:13:31.53	68.30	13.59	-40.2	-41.3	21.4	0.00e+00	0	33	0	536870912	52	6655
2026-01-18 12:13:32.54	68.51	13.60	-40.2	-41.3	21.6	0.00e+00	46	33	0	537919488	52	6663
2026-01-18 12:13:33.55	68.71	13.62	-39.7	-40.8	22.0	0.00e+00	0	33	0	540016640	52	6298
2026-01-18 12:13:34.56	68.91	13.63	-39.4	-40.4	22.2	0.00e+00	92	33	0	542113792	52	6017
2026-01-18 12:13:35.57	69.11	13.64	-39.1	-40.1	22.5	0.00e+00	0	33	0	544210944	52	5808
2026-01-18 12:13:36.57	69.32	13.65	-38.9	-39.9	22.7	0.00e+00	0	33	0	546308096	52	5639
2026-01-18 12:13:37.58	69.52	13.66	-38.9	-39.8	22.6	0.00e+00	0	33	0	547356672	52	5628
2026-01-18 12:13:38.59	69.72	13.67	-38.9	-39.8	22.7	0.00e+00	0	33	0	549453824	52	5617
2026-01-18 12:13:39.60	69.93	13.68	-39.0	-40.0	22.5	0.00e+00	0	33	0	551550976	52	5750
2026-01-18 12:13:40.61	70.13	13.69	-39.1	-40.1	22.5	0.00e+00	0	33	0	553648128	52	5809
2026-01-18 12:13:41.62	70.33	13.69	-39.2	-40.3	22.3	0.00e+00	92	33	0	555745280	52	5908
2026-01-18 12:13:42.63	70.54	13.70	-39.3	-40.4	22.4	0.00e+00	0	33	0	556793856	52	5968
2026-01-18 12:13:43.64	70.74	13.71	-39.4	-40.4	22.2	0.00e+00	3	33	0	558891008	52	6013
2026-01-18 12:13:44.64	70.95	13.72	-39.5	-40.6	22.1	0.00e+00	0	33	0	560988160	52	6120
2026-01-18 12:13:45.65	71.15	13.73	-39.6	-40.7	22.1	0.00e+00	0	33	0	563085312	52	6230
2026-01-18 12:13:46.66	71.35	13.73	-39.6	-40.7	22.0	0.00e+00	41	33	0	565182464	52	6179
2026-01-18 12:13:47.67	71.56	13.74	-39.8	-40.9	21.7	0.00e+00	0	33	0	566231040	52	6354
2026-01-18 12:13:48.68	71.76	13.75	-39.7	-40.8	21.9	0.00e+00	92	33	0	568328192	52	6292
2026-01-18 12:13:49.69	71.97	13.75	-39.5	-40.7	22.0	0.00e+00	0	33	0	570425344	52	6182
2026-01-18 12:13:50.70	72.17	13.76	-39.5	-40.6	22.2	0.00e+00	40	33	0	572522496	52	6117
2026-01-18 12:13:51.71	72.38	13.76	-39.5	-40.5	22.2	0.00e+00	0	33	0	574619648	52	6098
2026-01-18 12:13:52.72	72.58	13.77	-39.3	-40.4	22.3	0.00e+00	0	33	0	575668224	52	6004
2026-01-18 12:13:53.73	72.79	13.77	-39.3	-40.3	22.3	0.00e+00	25	33	0	577765376	52	5955
2026-01-18 12:13:54.73	72.99	13.78	-39.5	-40.5	22.1	0.00e+00	0	33	0	579862528	52	6091
2026-01-18 12:13:55.74	73.20	13.78	-39.7	-40.7	22.0	0.00e+00	92	33	0	581959680	52	6238
2026-01-18 12:13:56.75	73.40	13.79	-40.0	-41.1	21.7	0.00e+00	0	33	0	584056832	52	6469
2026-01-18 12:13:57.76	73.61	13.79	-40.0	-41.2	21.7	0.00e+00	92	33	0	585105408	52	6544
2026-01-18 12:13:58.77	73.81	13.79	-39.8	-40.8	21.9	0.00e+00	0	33	0	587202560	52	6312
2026-01-18 12:13:59.78	74.02	13.80	-39.6	-40.7	22.1	0.00e+00	0	33	0	589299712	52	6179
2026-01-18 12:14:00.79	74.22	13.80	-39.6	-40.7	22.0	0.00e+00	0	33	0	591396864	52	6224
2026-01-18 12:14:01.80	74.43	13.80	-39.6	-40.7	22.1	0.00e+00	0	33	0	593494016	52	6231
2026-01-18 12:14:02.81	74.64	13.80	-39.4	-40.4	22.1	0.00e+00	5	33	0	594542592	52	6002
2026-01-18 12:14:03.82	74.84	13.80	-39.4	-40.5	22.2	0.00e+00	0	33	0	596639744	52	6064
2026-01-18 12:14:04.83	75.05	13.80	-39.7	-40.8	22.0	0.00e+00	92	33	0	598736896	52	6251
2026-01-18 12:14:05.84	75.25	13.81	-39.7	-40.8	21.9	0.00e+00	0	33	0	600834048	52	6262
2026-01-18 12:14:06.85	75.46	13.81	-39.6	-40.7	22.0	0.00e+00	0	33	0	602931200	52	6189
2026-01-18 12:14:07.86	75.66	13.81	-39.6	-40.7	22.0	0.00e+00	0	33	0	603979776	52	6211
2026-01-18 12:14:08.87	75.87	13.81	-39.3	-40.4	22.3	0.00e+00	0	33	0	606076928	52	5990
2026-01-18 12:14:09.87	76.07	13.81	-39.3	-40.4	22.4	0.00e+00	13	33	0	608174080	52	5970
2026-01-18 12:14:10.88	76.28	13.80	-39.2	-40.2	22.4	0.00e+00	0	33	0	610271232	52	5856
2026-01-18 12:14:11.89	76.48	13.80	-39.2	-40.2	22.4	0.00e+00	71	33	0	612368384	52	5880
2026-01-18 12:14:12.90	76.69	13.80	-39.3	-40.3	22.4	0.00e+00	0	33	0	614465536	52	5956
2026-01-18 12:14:13.91	76.90	13.80	-39.4	-40.5	22.2	0.00e+00	0	33	0	615514112	52	6047
2026-01-18 12:14:14.92	77.10	13.80	-39.3	-40.3	22.4	0.00e+00	0	33	0	617611264	52	5926
2026-01-18 12:14:15.93	77.31	13.79	-39.1	-40.1	22.5	0.00e+00	0	33	0	619708416	52	5824
2026-01-18 12:14:16.93	77.51	13.79	-39.1	-40.1	22.6	0.00e+00	3	33	0	621805568	52	5795
2026-01-18 12:14:17.94	77.72	13.79	-39.0	-40.0	22.5	0.00e+00	0	33	0	623902720	52	5742
2026-01-18 12:14:18.95	77.92	13.78	-38.6	-39.5	23.0	0.00e+00	85	33	0	624951296	50	6083
2026-01-18 12:14:19.96	78.13	13.78	-38.2	-39.2	23.2	0.00e+00	0	33	0	627048448	50	5830
2026-01-18 12:14:20.97	78.33	13.78	-38.4	-39.3	23.0	0.00e+00	90	33	0	629145600	50	5949
2026-01-18 12:14:21.97	78.54	13.77	-38.5	-39.5	22.9	0.00e+00	0	33	0	631242752	50	6045
2026-01-18 12:14:22.98	78.74	13.77	-38.4	-39.4	23.0	0.00e+00	0	33	0	633339904	50	5975
2026-01-18 12:14:23.99	78.95	13.76	-38.6	-39.6	22.3	0.00e+00	65	33	0	634388480	50	6108
2026-01-18 12:14:25.00	79.15	13.76	-38.7	-39.7	22.5	0.00e+00	0	33	0	636485632	50	6175
2026-01-18 12:14:26.01	79.36	13.75	-38.7	-39.7	22.9	0.00e+00	68	33	0	638582784	50	6175
2026-01-18 12:14:27.02	79.56	13.74	-38.8	-39.8	22.7	0.00e+00	0	33	0	640679936	50	6272
2026-01-18 12:14:28.03	79.77	13.74	-38.7	-39.7	22.7	0.00e+00	89	33	0	642777088	50	6233
2026-01-18 12:14:29.03	79.97	13.73	-38.7	-39.7	22.8	0.00e+00	0	33	0	643825664	50	6214
2026-01-18 12:14:30.04	80.17	13.72	-38.8	-39.8	22.7	0.00e+00	0	33	0	645922816	50	6277
2026-01-18 12:14:31.05	80.38	13.72	-39.0	-40.0	22.4	0.00e+00	0	33	0	648019968	50	6412
2026-01-18 12:14:32.05	80.58	13.71	-38.9	-39.8	22.6	0.00e+00	0	33	0	650117120	50	6316
2026-01-18 12:14:33.06	80.78	13.70	-39.0	-40.0	22.5	0.00e+00	66	33	0	652214272	50	6409
2026-01-18 12:14:34.07	80.99	13.69	-39.0	-40.0	22.5	0.00e+00	0	33	0	653262848	50	6456
2026-01-18 12:14:35.08	81.19	13.68	-39.1	-40.1	22.4	0.00e+00	80	33	0	655360000	50	6511
2026-01-18 12:14:36.09	81.40	13.67	-39.3	-40.4	22.4	0.00e+00	0	33	0	657457152	50	6704
2026-01-18 12:14:37.10	81.60	13.66	-39.1	-40.2	22.5	0.00e+00	0	33	0	659554304	50	6551
2026-01-18 12:14:38.11	81.81	13.65	-39.0	-40.0	22.5	0.00e+00	0	33	0	661651456	50	6431
2026-01-18 12:14:39.12	82.01	13.64	-38.8	-39.8	22.8	0.00e+00	0	33	0	662700032	50	6278
2026-01-18 12:14:40.12	82.21	13.63	-39.0	-40.0	22.6	0.00e+00	72	33	0	664797184	50	6430
2026-01-18 12:14:41.13	82.41	13.62	-39.0	-40.0	22.6	0.00e+00	0	33	0	666894336	50	6447
2026-01-18 12:14:42.14	82.62	13.61	-39.1	-40.1	22.4	0.00e+00	92	33	0	668991488	50	6539
2026-01-18 12:14:43.15	82.82	13.60	-39.2	-40.2	22.5	0.00e+00	0	33	0	671088640	50	6580
2026-01-18 12:14:44.15	83.02	13.59	-39.2	-40.2	22.4	0.00e+00	0	33	0	672137216	50	6603
2026-01-18 12:14:45.16	83.22	13.57	-39.3	-40.4	22.3	0.00e+00	0	33	0	674234368	50	6696
2026-01-18 12:14:46.17	83.43	13.56	-39.0	-40.1	22.5	0.00e+00	0	33	0	676331520	50	6490
2026-01-18 12:14:47.18	83.63	13.55	-38.8	-39.9	22.6	0.00e+00	0	33	0	678428672	50	6348
2026-01-18 12:14:48.19	83.83	13.54	-38.8	-39.8	22.7	0.00e+00	0	33	0	680525824	50	6312
2026-01-18 12:14:49.19	84.03	13.52	-38.8	-39.8	22.7	0.00e+00	92	33	0	681574400	50	6260
2026-01-18 12:14:50.20	84.23	13.51	-38.7	-39.7	22.7	0.00e+00	0	33	0	683671552	50	6216
2026-01-18 12:14:51.21	84.43	13.49	-38.7	-39.7	22.7	0.00e+00	79	33	0	685768704	50	6221
2026-01-18 12:14:52.22	84.64	13.48	-38.7	-39.6	22.8	0.00e+00	0	33	0	687865856	50	6171
2026-01-18 12:14:53.23	84.84	13.46	-38.5	-39.5	23.0	0.00e+00	0	33	0	689963008	50	6060
2026-01-18 12:14:54.23	85.04	13.45	-38.6	-39.6	22.8	0.00e+00	57	33	0	691011584	50	6142
2026-01-18 12:14:55.24	85.24	13.43	-38.4	-39.4	23.0	0.00e+00	0	33	0	693108736	50	5997
2026-01-18 12:14:56.25	85.44	13.42	-38.2	-39.1	23.3	0.00e+00	82	33	0	695205888	50	5826
2026-01-18 12:14:57.26	85.64	13.40	-38.2	-39.1	23.2	0.00e+00	0	33	0	697303040	50	5824
2026-01-18 12:14:58.27	85.84	13.39	-38.2	-39.1	23.2	0.00e+00	83	33	0	699400192	50	5807
2026-01-18 12:14:59.27	86.04	13.37	-38.4	-39.3	23.1	0.00e+00	0	33	0	700448768	50	5922
2026-01-18 12:15:00.28	86.24	13.35	-38.3	-39.2	23.1	0.00e+00	0	33	0	702545920	50	5885
2026-01-18 12:15:01.29	86.44	13.34	-38.3	-39.2	23.1	0.00e+00	0	33	0	704643072	50	5863
2026-01-18 12:15:02.29	86.63	13.32	-38.0	-38.9	23.4	0.00e+00	0	33	0	706740224	50	5691
2026-01-18 12:15:03.30	86.83	13.30	-38.0	-38.9	23.4	0.00e+00	0	33	0	708837376	50	5688
2026-01-18 12:15:04.31	87.03	13.28	-38.0	-38.9	23.4	0.00e+00	0	33	0	709885952	50	5657
2026-01-18 12:15:05.32	87.23	13.26	-37.9	-38.8	23.6	0.00e+00	87	33	0	711983104	50	5579
2026-01-18 12:15:06.33	87.43	13.25	-37.9	-38.8	23.6	0.00e+00	0	33	0	714080256	50	5576
2026-01-18 12:15:07.34	87.63	13.23	-38.0	-39.0	23.3	0.00e+00	0	33	0	716177408	50	5718
2026-01-18 12:15:08.35	87.83	13.21	-38.0	-38.9	23.4	0.00e+00	0	33	0	718274560	50	5695
2026-01-18 12:15:09.36	88.02	13.19	-38.0	-39.0	23.3	0.00e+00	0	33	0	719323136	50	5739
2026-01-18 12:15:10.37	88.22	13.17	-38.2	-39.2	23.2	0.00e+00	25	33	0	721420288	50	5833
2026-01-18 12:15:11.37	88.42	13.15	-38.3	-39.4	23.1	0.00e+00	0	33	0	723517440	50	5970
2026-01-18 12:15:12.38	88.61	13.13	-38.4	-39.4	23.0	0.00e+00	81	33	0	725614592	50	6029
2026-01-18 12:15:13.39	88.81	13.11	-38.6	-39.6	22.8	0.00e+00	0	33	0	727711744	50	6128
2026-01-18 12:15:14.40	89.01	13.09	-38.5	-39.5	22.9	0.00e+00	0	33	0	728760320	50	6091
2026-01-18 12:15:15.41	89.20	13.06	-38.8	-39.8	22.7	0.00e+00	0	33	0	730857472	50	6252
2026-01-18 12:15:16.42	89.40	13.04	-38.8	-39.7	22.8	0.00e+00	0	33	0	732954624	50	6228
2026-01-18 12:15:17.43	89.60	13.02	-38.7	-39.7	22.8	0.00e+00	52	33	0	735051776	50	6188
2026-01-18 12:15:18.44	89.79	13.00	-38.7	-39.7	22.8	0.00e+00	0	33	0	737148928	50	6187
2026-01-18 12:15:19.45	89.99	12.98	-38.3	-39.2	23.0	0.00e+00	75	33	0	739246080	50	5880
2026-01-18 12:15:20.46	90.18	12.95	-38.3	-39.2	23.1	0.00e+00	0	33	0	740294656	50	5873
2026-01-18 12:15:21.46	90.37	12.93	-38.0	-38.9	23.3	0.00e+00	46	33	0	742391808	50	5676
2026-01-18 12:15:22.47	90.57	12.91	-38.1	-39.0	23.2	0.00e+00	0	33	0	744488960	50	5755
2026-01-18 12:15:23.48	90.76	12.88	-38.1	-39.0	23.4	0.00e+00	0	33	0	746586112	50	5713
2026-01-18 12:15:24.49	90.96	12.86	-38.2	-39.1	23.3	0.00e+00	0	33	0	748683264	50	5785
2026-01-18 12:15:25.50	91.15	12.83	-38.2	-39.1	23.3	0.00e+00	0	34	0	749731840	50	5777
2026-01-18 12:15:26.51	91.34	12.81	-38.1	-39.0	23.3	0.00e+00	70	33	0	751828992	50	5721
2026-01-18 12:15:27.52	91.54	12.79	-38.0	-38.9	23.5	0.00e+00	0	33	0	753926144	50	5672
2026-01-18 12:15:28.53	91.73	12.76	-37.6	-38.5	23.7	0.00e+00	21	33	0	756023296	48	6085
2026-01-18 12:15:29.54	91.92	12.74	-37.5	-38.3	23.9	0.00e+00	0	33	0	758120448	48	5955
2026-01-18 12:15:30.55	92.11	12.71	-37.4	-38.3	23.9	0.00e+00	0	33	0	759169024	48	5899
2026-01-18 12:15:31.55	92.30	12.68	-37.5	-38.4	23.8	0.00e+00	0	33	0	761266176	48	5996
2026-01-18 12:15:32.57	92.49	12.66	-37.6	-38.5	23.6	0.00e+00	0	33	0	763363328	48	6074
2026-01-18 12:15:33.58	92.68	12.63	-37.6	-38.5	23.7	0.00e+00	71	33	0	765460480	48	6067
2026-01-18 12:15:34.59	92.88	12.61	-37.8	-38.7	23.6	0.00e+00	0	33	0	767557632	48	6187
2026-01-18 12:15:35.60	93.07	12.58	-37.6	-38.5	23.7	0.00e+00	82	33	0	768606208	48	6061
2026-01-18 12:15:36.61	93.26	12.55	-37.9	-38.8	23.5	0.00e+00	0	33	0	770703360	48	6259
2026-01-18 12:15:37.62	93.44	12.52	-38.2	-39.2	23.2	0.00e+00	0	33	0	772800512	48	6540
2026-01-18 12:15:38.62	93.63	12.50	-38.6	-39.5	23.0	0.00e+00	0	33	0	774897664	48	6824
2026-01-18 12:15:39.63	93.82	12.47	-38.2	-39.1	23.1	0.00e+00	0	33	0	776994816	50	5808
2026-01-18 12:15:40.64	94.01	12.44	-38.4	-39.3	23.1	0.00e+00	72	33	0	778043392	50	5952
2026-01-18 12:15:41.65	94.20	12.41	-38.4	-39.3	23.1	0.00e+00	0	33	0	780140544	50	5957
2026-01-18 12:15:42.66	94.39	12.38	-38.3	-39.2	23.1	0.00e+00	92	33	0	782237696	50	5879
2026-01-18 12:15:43.67	94.57	12.36	-38.3	-39.2	23.2	0.00e+00	0	33	0	784334848	50	5860
2026-01-18 12:15:44.68	94.76	12.33	-38.3	-39.2	23.2	0.00e+00	0	33	0	786432000	50	5888
2026-01-18 12:15:45.68	94.94	12.30	-38.1	-39.0	23.3	0.00e+00	0	33	0	787480576	50	5707
2026-01-18 12:15:46.70	95.13	12.27	-38.4	-39.3	23.1	0.00e+00	0	33	0	789577728	50	5957
2026-01-18 12:15:47.70	95.32	12.24	-38.1	-39.1	23.2	0.00e+00	0	33	0	791674880	50	5763
2026-01-18 12:15:48.71	95.50	12.21	-38.3	-39.2	23.1	0.00e+00	0	33	0	793772032	50	5855
2026-01-18 12:15:49.72	95.69	12.18	-38.4	-39.3	22.9	0.00e+00	65	33	0	795869184	50	5961
2026-01-18 12:15:50.73	95.87	12.15	-38.4	-39.4	23.0	0.00e+00	0	33	0	796917760	50	5979
2026-01-18 12:15:51.73	96.06	12.12	-38.5	-39.5	22.9	0.00e+00	0	34	0	799014912	50	6048
2026-01-18 12:15:52.74	96.24	12.09	-38.4	-39.4	23.0	0.00e+00	0	33	0	801112064	50	5970
2026-01-18 12:15:53.75	96.42	12.05	-38.3	-39.3	23.2	0.00e+00	0	33	0	803209216	50	5904
2026-01-18 12:15:54.76	96.61	12.02	-38.4	-39.3	23.1	0.00e+00	0	33	0	805306368	50	5926
2026-01-18 12:15:55.77	96.79	11.99	-38.3	-39.2	23.1	0.00e+00	0	33	0	806354944	50	5886
2026-01-18 12:15:56.78	96.97	11.96	-38.5	-39.5	22.9	0.00e+00	70	33	0	808452096	50	6066
2026-01-18 12:15:57.79	97.15	11.93	-38.7	-39.7	22.7	0.00e+00	0	33	0	810549248	50	6201
2026-01-18 12:15:58.79	97.33	11.90	-38.9	-39.9	22.6	0.00e+00	0	33	0	812646400	50	6366
2026-01-18 12:15:59.81	97.52	11.86	-39.0	-40.0	22.6	0.00e+00	0	33	0	814743552	50	6440
2026-01-18 12:16:00.81	97.70	11.83	-39.1	-40.2	22.3	0.00e+00	0	33	0	815792128	50	6562
2026-01-18 12:16:01.82	97.88	11.80	-39.2	-40.3	22.3	0.00e+00	9	33	0	817889280	50	6626
2026-01-18 12:16:02.82	98.06	11.77	-39.3	-40.4	22.1	0.00e+00	0	33	0	819986432	50	6730
2026-01-18 12:16:03.83	98.24	11.73	-39.5	-40.6	21.8	0.00e+00	90	33	0	822083584	50	6926
2026-01-18 12:16:04.84	98.42	11.70	-39.3	-40.4	21.9	0.00e+00	6	33	0	824180736	50	6724
2026-01-18 12:16:05.85	98.60	11.67	-39.2	-40.3	22.3	0.00e+00	92	33	0	825229312	50	6664
2026-01-18 12:16:06.86	98.77	11.63	-39.1	-40.1	22.3	0.00e+00	0	33	0	827326464	50	6536
2026-01-18 12:16:07.87	98.95	11.60	-39.2	-40.3	22.1	0.00e+00	0	33	0	829423616	50	6642
2026-01-18 12:16:08.88	99.13	11.56	-39.3	-40.3	22.1	0.00e+00	0	33	0	831520768	50	6681
2026-01-18 12:16:09.89	99.31	11.53	-39.4	-40.5	22.1	0.00e+00	0	33	0	833617920	50	6772
2026-01-18 12:16:10.90	99.49	11.49	-39.8	-40.9	21.8	0.00e+00	63	33	0	835715072	52	6355
2026-01-18 12:16:11.90	99.66	11.46	-39.9	-41.0	21.6	0.00e+00	0	33	0	836763648	52	6449
2026-01-18 12:16:12.91	99.84	11.42	-40.3	-41.5	21.2	0.00e+00	92	34	0	838860800	52	6820
2026-01-18 12:16:13.92	100.01	11.39	-40.7	-41.9	21.0	0.00e+00	0	33	0	840957952	52	7121
2026-01-18 12:16:14.93	100.19	11.35	-40.5	-41.7	21.0	0.00e+00	0	33	0	843055104	54	6228
2026-01-18 12:16:15.94	100.36	11.32	-40.4	-41.6	21.0	0.00e+00	0	33	0	845152256	54	6158
2026-01-18 12:16:16.95	100.54	11.28	-40.4	-41.6	21.0	0.00e+00	0	33	0	846200832	54	6170
2026-01-18 12:16:17.96	100.71	11.25	-40.4	-41.6	21.0	0.00e+00	14	33	0	848297984	54	6145
2026-01-18 12:16:18.97	100.89	11.21	-40.2	-41.4	21.2	0.00e+00	0	33	0	850395136	54	6005
2026-01-18 12:16:19.97	101.06	11.17	-40.3	-41.4	21.2	0.00e+00	92	33	0	852492288	54	6021
2026-01-18 12:16:20.98	101.23	11.14	-40.5	-41.7	20.8	0.00e+00	0	34	0	854589440	54	6196
2026-01-18 12:16:21.99	101.40	11.10	-40.9	-42.1	20.4	0.00e+00	0	33	0	855638016	54	6521
2026-01-18 12:16:23.00	101.58	11.06	-41.1	-42.4	20.5	0.00e+00	0	33	0	857735168	54	6716
2026-01-18 12:16:24.01	101.75	11.03	-40.7	-42.0	20.8	0.00e+00	0	33	0	859832320	54	6402
2026-01-18 12:16:25.02	101.92	10.99	-40.4	-41.6	20.9	0.00e+00	70	33	0	861929472	54	6125
2026-01-18 12:16:26.03	102.09	10.95	-40.1	-41.3	21.3	0.00e+00	0	33	0	864026624	54	5946
2026-01-18 12:16:27.04	102.26	10.91	-39.9	-41.0	21.6	0.00e+00	67	33	0	865075200	54	5755
2026-01-18 12:16:28.05	102.43	10.88	-39.9	-41.1	21.4	0.00e+00	0	33	0	867172352	52	6480
2026-01-18 12:16:29.06	102.60	10.84	-39.5	-40.6	21.8	0.00e+00	2	33	0	869269504	52	6153
2026-01-18 12:16:30.06	102.77	10.80	-39.7	-40.8	21.8	0.00e+00	0	33	0	871366656	52	6262
2026-01-18 12:16:31.07	102.94	10.76	-39.9	-41.0	21.5	0.00e+00	0	33	0	873463808	52	6457
2026-01-18 12:16:32.08	103.11	10.72	-40.1	-41.2	21.4	0.00e+00	57	33	0	874512384	52	6615
2026-01-18 12:16:33.09	103.27	10.69	-40.5	-41.7	21.1	0.00e+00	0	33	0	876609536	52	6973
2026-01-18 12:16:34.10	103.44	10.65	-40.6	-41.9	20.9	0.00e+00	69	33	0	878706688	52	7114
2026-01-18 12:16:35.11	103.61	10.61	-40.7	-42.0	20.7	0.00e+00	0	33	0	880803840	54	6449
2026-01-18 12:16:36.12	103.77	10.57	-40.6	-42.0	20.8	0.00e+00	92	33	0	882900992	54	6419
2026-01-18 12:16:37.13	103.94	10.53	-40.7	-42.2	20.6	7.00e-07	0	33	0	883949568	54	6550
2026-01-18 12:16:38.13	104.11	10.49	-40.7	-42.2	20.4	0.00e+00	0	33	0	886046720	54	6608
2026-01-18 12:16:39.14	104.27	10.45	-40.7	-42.3	20.5	0.00e+00	0	33	0	888143872	54	6657
2026-01-18 12:16:40.15	104.44	10.41	-40.9	-42.5	20.3	0.00e+00	0	33	0	890241024	54	6796
2026-01-18 12:16:41.16	104.60	10.37	-40.7	-42.1	20.6	0.00e+00	43	33	0	892338176	54	6507
2026-01-18 12:16:42.17	104.76	10.33	-40.8	-42.2	20.5	0.00e+00	0	33	0	893386752	54	6563
2026-01-18 12:16:43.18	104.93	10.29	-40.7	-42.0	20.7	0.00e+00	65	33	0	895483904	54	6459
2026-01-18 12:16:44.18	105.09	10.25	-40.4	-41.7	21.0	0.00e+00	0	33	0	897581056	54	6245
2026-01-18 12:16:45.19	105.25	10.21	-40.6	-41.9	20.8	0.00e+00	0	33	0	899678208	54	6363
2026-01-18 12:16:46.20	105.42	10.17	-40.6	-41.9	20.9	0.00e+00	0	33	0	901775360	54	6324
2026-01-18 12:16:47.21	105.58	10.13	-40.7	-41.9	20.8	0.00e+00	0	33	0	902823936	54	6380
2026-01-18 12:16:48.22	105.74	10.09	-40.5	-41.7	20.9	0.00e+00	0	33	0	904921088	54	6228
2026-01-18 12:16:49.23	105.90	10.05	-40.5	-41.8	20.8	0.00e+00	0	33	0	907018240	54	6264
2026-01-18 12:16:50.24	106.06	10.01	-40.7	-41.9	20.6	0.00e+00	92	33	0	909115392	54	6370
2026-01-18 12:16:51.24	106.22	9.97	-40.6	-41.8	20.8	0.00e+00	0	33	0	911212544	54	6279
2026-01-18 12:16:52.25	106.38	9.93	-40.7	-42.0	20.5	0.00e+00	0	34	0	912261120	54	6448
2026-01-18 12:16:53.26	106.54	9.89	-40.5	-41.8	20.7	0.00e+00	0	33	0	914358272	54	6281
2026-01-18 12:16:54.27	106.70	9.84	-40.5	-41.8	20.8	0.00e+00	0	33	0	916455424	54	6253
2026-01-18 12:16:55.28	106.86	9.80	-40.3	-41.5	20.9	0.00e+00	0	33	0	918552576	54	6072
2026-01-18 12:16:56.29	107.01	9.76	-40.2	-41.3	21.2	0.00e+00	0	33	0	920649728	54	5952
2026-01-18 12:16:57.30	107.17	9.72	-40.2	-41.4	21.0	0.00e+00	91	33	0	921698304	54	6021
2026-01-18 12:16:58.31	107.33	9.68	-40.1	-41.2	21.4	0.00e+00	0	33	0	923795456	54	5883
2026-01-18 12:16:59.32	107.49	9.63	-40.2	-41.3	21.2	0.00e+00	0	33	0	925892608	54	5950
2026-01-18 12:17:00.33	107.64	9.59	-40.6	-41.8	20.9	0.00e+00	0	33	0	927989760	54	6314
2026-01-18 12:17:01.34	107.80	9.55	-40.0	-41.1	21.4	0.00e+00	0	33	0	930086912	54	5796
2026-01-18 12:17:02.34	107.95	9.51	-40.5	-41.7	20.8	0.00e+00	41	33	0	932184064	54	6209
2026-01-18 12:17:03.35	108.11	9.47	-40.4	-41.6	20.9	0.00e+00	0	33	0	933232640	54	6146
2026-01-18 12:17:04.36	108.26	9.42	-40.8	-42.2	20.4	0.00e+00	90	33	0	935329792	54	6550
2026-01-18 12:17:05.37	108.42	9.38	-41.0	-42.3	20.4	0.00e+00	0	33	0	937426944	54	6644
2026-01-18 12:17:06.38	108.57	9.34	-41.0	-42.3	20.3	0.00e+00	45	33	0	939524096	54	6684
2026-01-18 12:17:07.39	108.72	9.29	-41.1	-42.5	20.3	0.00e+00	0	33	0	941621248	54	6818
2026-01-18 12:17:08.40	108.88	9.25	-40.8	-42.3	20.5	0.00e+00	30	33	0	942669824	54	6633
2026-01-18 12:17:09.40	109.03	9.21	-40.8	-42.2	20.4	0.00e+00	9	33	0	944766976	54	6610
2026-01-18 12:17:10.41	109.18	9.17	-41.0	-42.3	20.5	0.00e+00	0	33	0	946864128	54	6648
2026-01-18 12:17:11.42	109.33	9.12	-40.5	-41.8	20.9	0.00e+00	64	33	0	948961280	54	6250
2026-01-18 12:17:12.43	109.48	9.08	-40.3	-41.6	21.0	0.00e+00	0	34	0	951058432	54	6123
2026-01-18 12:17:13.44	109.63	9.03	-40.1	-41.4	21.2	0.00e+00	92	33	0	952107008	54	6016
2026-01-18 12:17:14.44	109.78	8.99	-39.9	-41.1	21.3	0.00e+00	31	33	0	954204160	54	5805
2026-01-18 12:17:15.45	109.93	8.95	-40.2	-41.4	21.1	0.00e+00	0	33	0	956301312	54	5998
2026-01-18 12:17:16.46	110.08	8.90	-40.1	-41.3	21.2	0.00e+00	0	33	0	958398464	54	5912
2026-01-18 12:17:17.47	110.23	8.86	-40.0	-41.1	21.2	0.00e+00	30	33	0	960495616	54	5823
2026-01-18 12:17:18.48	110.38	8.82	-40.0	-41.2	21.3	0.00e+00	69	33	0	961544192	54	5864
2026-01-18 12:17:19.49	110.53	8.77	-39.9	-41.1	21.4	0.00e+00	0	33	0	963641344	52	6481
2026-01-18 12:17:20.50	110.67	8.73	-39.9	-41.1	21.3	0.00e+00	71	33	0	965738496	52	6477
2026-01-18 12:17:21.51	110.82	8.68	-39.9	-41.1	21.4	0.00e+00	0	33	0	967835648	52	6496
2026-01-18 12:17:22.52	110.97	8.64	-39.9	-41.1	21.3	0.00e+00	0	33	0	969932800	52	6485
2026-01-18 12:17:23.52	111.11	8.60	-40.0	-41.1	21.4	0.00e+00	0	33	0	970981376	52	6516
2026-01-18 12:17:24.53	111.26	8.55	-39.8	-40.9	21.4	0.00e+00	0	33	0	973078528	52	6369
2026-01-18 12:17:25.54	111.40	8.51	-39.9	-41.1	21.5	0.00e+00	70	33	0	975175680	52	6510
2026-01-18 12:17:26.55	111.55	8.46	-39.8	-40.9	21.4	0.00e+00	0	34	0	977272832	52	6377
2026-01-18 12:17:27.55	111.69	8.42	-40.1	-41.3	21.2	0.00e+00	92	33	0	979369984	52	6629
2026-01-18 12:17:28.56	111.84	8.37	-40.0	-41.2	21.3	0.00e+00	0	33	0	980418560	52	6549
2026-01-18 12:17:29.57	111.98	8.33	-40.1	-41.3	21.2	0.00e+00	92	33	0	982515712	52	6655
2026-01-18 12:17:30.58	112.12	8.28	-40.2	-41.4	21.2	0.00e+00	0	33	0	984612864	52	6705
2026-01-18 12:17:31.59	112.27	8.24	-39.7	-40.8	21.6	0.00e+00	0	34	0	986710016	52	6298
2026-01-18 12:17:32.60	112.41	8.19	-39.9	-41.0	21.4	0.00e+00	70	34	0	988807168	52	6446
2026-01-18 12:17:33.61	112.55	8.15	-39.8	-41.0	21.5	0.00e+00	0	33	0	989855744	52	6392
2026-01-18 12:17:34.62	112.69	8.10	-39.7	-40.9	21.6	0.00e+00	75	34	0	991952896	52	6326
2026-01-18 12:17:35.63	112.83	8.06	-39.6	-40.7	21.5	0.00e+00	0	34	0	994050048	52	6241
2026-01-18 12:17:36.64	112.98	8.01	-39.7	-40.8	21.5	0.00e+00	5	33	0	996147200	52	6298
2026-01-18 12:17:37.65	113.12	7.97	-39.6	-40.8	21.6	0.00e+00	0	33	0	998244352	52	6272
2026-01-18 12:17:38.65	113.25	7.92	-39.6	-40.8	21.5	0.00e+00	0	33	0	999292928	52	6267
2026-01-18 12:17:39.66	113.39	7.88	-39.6	-40.8	21.5	0.00e+00	0	33	0	1001390080	52	6259
2026-01-18 12:17:40.67	113.53	7.83	-39.8	-41.0	21.4	0.00e+00	0	33	0	1003487232	52	6396
2026-01-18 12:17:41.68	113.67	7.78	-39.8	-41.0	21.3	0.00e+00	43	33	0	1005584384	52	6405
2026-01-18 12:17:42.69	113.81	7.74	-40.0	-41.2	21.3	0.00e+00	0	33	0	1007681536	52	6575
2026-01-18 12:17:43.70	113.95	7.69	-40.1	-41.3	21.2	0.00e+00	90	33	0	1008730112	52	6620
2026-01-18 12:17:44.71	114.09	7.65	-40.0	-41.1	21.2	0.00e+00	0	33	0	1010827264	52	6524
2026-01-18 12:17:45.72	114.22	7.60	-40.1	-41.2	21.2	0.00e+00	0	33	0	1012924416	52	6598
2026-01-18 12:17:46.73	114.36	7.55	-40.2	-41.4	21.0	0.00e+00	0	33	0	1015021568	52	6722
2026-01-18 12:17:47.74	114.50	7.51	-39.9	-41.0	21.3	0.00e+00	0	33	0	1017118720	52	6456
2026-01-18 12:17:48.75	114.63	7.46	-40.1	-41.2	21.2	0.00e+00	62	33	0	1018167296	52	6601
2026-01-18 12:17:49.75	114.77	7.42	-40.2	-41.4	21.0	0.00e+00	0	33	0	1020264448	52	6766
2026-01-18 12:17:50.76	114.90	7.37	-39.9	-41.0	21.4	0.00e+00	91	34	0	1022361600	52	6439
2026-01-18 12:17:51.77	115.04	7.32	-39.9	-41.0	21.2	0.00e+00	0	33	0	1024458752	52	6448
2026-01-18 12:17:52.78	115.17	7.28	-40.1	-41.3	21.1	0.00e+00	0	33	0	1026555904	52	6649
2026-01-18 12:17:53.79	115.30	7.23	-40.1	-41.3	21.1	0.00e+00	0	33	0	1028653056	52	6647
2026-01-18 12:17:54.80	115.44	7.19	-40.1	-41.4	21.0	0.00e+00	0	34	0	1029701632	52	6709
2026-01-18 12:17:55.81	115.57	7.14	-40.3	-41.5	20.9	0.00e+00	2	34	0	1031798784	52	6827
2026-01-18 12:17:56.82	115.70	7.09	-40.2	-41.4	21.0	0.00e+00	0	33	0	1033895936	52	6733
2026-01-18 12:17:57.83	115.83	7.05	-40.1	-41.4	21.0	0.00e+00	76	33	0	1035993088	52	6708
2026-01-18 12:17:58.83	115.96	7.00	-40.1	-41.3	21.0	0.00e+00	0	33	0	1038090240	52	6647
2026-01-18 12:17:59.84	116.10	6.95	-40.1	-41.3	21.1	0.00e+00	0	33	0	1039138816	52	6651
2026-01-18 12:18:00.86	116.23	6.91	-40.1	-41.3	21.1	0.00e+00	0	34	0	1041235968	52	6629
2026-01-18 12:18:01.87	116.36	6.86	-39.9	-41.1	21.2	0.00e+00	0	34	0	1043333120	52	6503
2026-01-18 12:18:02.88	116.49	6.81	-40.1	-41.3	21.0	0.00e+00	0	34	0	1045430272	52	6625
2026-01-18 12:18:03.89	116.62	6.77	-40.0	-41.2	21.0	0.00e+00	0	34	0	1047527424	52	6571
2026-01-18 12:18:04.90	116.75	6.72	-40.2	-41.4	21.0	0.00e+00	82	34	0	1048576000	52	6719
2026-01-18 12:18:05.91	116.88	6.67	-40.4	-41.6	20.7	0.00e+00	0	34	0	1050673152	52	6892
2026-01-18 12:18:06.92	117.01	6.63	-40.4	-41.6	20.8	0.00e+00	0	34	0	1052770304	52	6906
2026-01-18 12:18:07.93	117.13	6.58	-40.2	-41.5	20.9	0.00e+00	0	34	0	1054867456	52	6809
2026-01-18 12:18:08.94	117.26	6.53	-40.3	-41.5	20.8	0.00e+00	0	34	0	1056964608	52	6840
2026-01-18 12:18:09.94	117.39	6.48	-40.5	-41.8	20.6	0.00e+00	0	34	0	1058013184	52	7071
2026-01-18 12:18:10.95	117.51	6.44	-40.5	-41.8	20.5	0.00e+00	0	34	0	1060110336	52	7076
2026-01-18 12:18:11.96	117.64	6.39	-40.4	-41.7	20.6	0.00e+00	92	34	0	1062207488	52	6940
2026-01-18 12:18:12.97	117.77	6.34	-40.4	-41.7	20.6	0.00e+00	0	33	0	1064304640	52	6953
2026-01-18 12:18:13.98	117.89	6.30	-40.5	-41.8	20.6	0.00e+00	21	33	0	1066401792	52	7033
2026-01-18 12:18:14.99	118.02	6.25	-40.2	-41.5	20.8	0.00e+00	0	34	0	1067450368	52	6820
2026-01-18 12:18:16.00	118.14	6.20	-40.3	-41.6	20.7	0.00e+00	0	33	0	1069547520	52	6918
2026-01-18 12:18:17.01	118.27	6.16	-40.3	-41.6	20.8	0.00e+00	0	34	0	1071644672	52	6867
2026-01-18 12:18:18.01	118.39	6.11	-40.3	-41.6	20.7	0.00e+00	0	33	0	1073741824	52	6852
2026-01-18 12:18:19.02	118.51	6.06	-40.4	-41.7	20.7	0.00e+00	23	33	0	1075838976	52	6948
2026-01-18 12:18:20.03	118.64	6.01	-40.4	-41.7	20.6	0.00e+00	0	33	0	1076887552	52	6937
2026-01-18 12:18:21.04	118.76	5.97	-40.5	-41.8	20.5	0.00e+00	92	34	0	1078984704	52	7034
2026-01-18 12:18:22.05	118.88	5.92	-40.6	-41.9	20.4	0.00e+00	0	33	0	1081081856	52	7153
2026-01-18 12:18:23.05	119.01	5.87	-40.4	-41.7	20.5	0.00e+00	0	33	0	1083179008	52	6957
2026-01-18 12:18:24.05	119.13	5.83	-40.5	-41.9	20.4	0.00e+00	0	33	0	1085276160	52	7104
2026-01-18 12:18:25.06	119.25	5.78	-40.7	-42.0	20.2	0.00e+00	0	34	0	1086324736	52	7227
2026-01-18 12:18:26.08	119.37	5.73	-40.5	-41.8	20.4	0.00e+00	65	34	0	1088421888	52	7088
2026-01-18 12:18:27.08	119.49	5.68	-40.4	-41.6	20.6	0.00e+00	0	33	0	1090519040	52	6920
2026-01-18 12:18:28.09	119.61	5.64	-40.6	-41.9	20.3	0.00e+00	79	33	0	1092616192	52	7161
2026-01-18 12:18:29.10	119.73	5.59	-40.3	-41.6	20.6	0.00e+00	0	34	0	1094713344	52	6906
2026-01-18 12:18:30.11	119.85	5.54	-40.2	-41.5	20.6	0.00e+00	0	33	0	1095761920	52	6823
2026-01-18 12:18:31.12	119.97	5.49	-40.4	-41.8	20.5	0.00e+00	0	33	0	1097859072	52	7084
2026-01-18 12:18:32.13	120.09	5.45	-40.4	-41.8	20.4	0.00e+00	0	33	0	1099956224	52	7053
2026-01-18 12:18:33.14	120.21	5.40	-40.5	-41.9	20.3	0.00e+00	65	34	0	1102053376	52	7150
2026-01-18 12:18:34.14	120.32	5.35	-40.7	-42.1	20.1	0.00e+00	0	33	0	1104150528	54	6516
2026-01-18 12:18:35.15	120.44	5.30	-40.8	-42.2	20.0	0.00e+00	76	33	0	1105199104	54	6605
2026-01-18 12:18:36.17	120.56	5.26	-41.0	-42.4	19.8	0.00e+00	0	34	0	1107296256	54	6764
2026-01-18 12:18:37.17	120.68	5.21	-40.9	-42.4	19.8	0.00e+00	26	34	0	1109393408	54	6720
2026-01-18 12:18:38.18	120.79	5.16	-40.9	-42.4	19.8	0.00e+00	0	33	0	1111490560	54	6717
2026-01-18 12:18:39.19	120.91	5.11	-41.2	-42.6	19.6	0.00e+00	0	33	0	1113587712	54	6916
2026-01-18 12:18:40.19	121.02	5.07	-41.2	-42.6	19.6	0.00e+00	0	34	0	1114636288	54	6881
2026-01-18 12:18:41.20	121.14	5.02	-41.3	-42.7	19.5	0.00e+00	0	34	0	1116733440	54	6983
2026-01-18 12:18:42.21	121.25	4.97	-41.1	-42.6	19.6	0.00e+00	65	34	0	1118830592	54	6849
2026-01-18 12:18:43.22	121.37	4.92	-41.2	-42.7	19.5	0.00e+00	0	34	0	1120927744	54	6928
2026-01-18 12:18:44.23	121.48	4.88	-41.1	-42.6	19.5	0.00e+00	78	34	0	1123024896	54	6881
2026-01-18 12:18:45.24	121.60	4.83	-41.2	-42.7	19.4	0.00e+00	0	33	0	1125122048	54	6974
2026-01-18 12:18:46.25	121.71	4.78	-41.2	-42.7	19.5	0.00e+00	0	34	0	1126170624	54	6936
2026-01-18 12:18:47.26	121.83	4.73	-41.7	-43.3	18.9	0.00e+00	0	34	0	1128267776	54	7485
2026-01-18 12:18:48.27	121.94	4.69	-41.5	-43.0	19.2	0.00e+00	0	34	0	1130364928	54	7228
2026-01-18 12:18:49.28	122.05	4.64	-41.6	-43.1	19.0	0.00e+00	54	34	0	1132462080	54	7329
2026-01-18 12:18:50.29	122.16	4.59	-41.8	-43.4	18.9	0.00e+00	0	34	0	1134559232	56	6712
2026-01-18 12:18:51.30	122.28	4.54	-42.0	-43.6	18.8	0.00e+00	92	33	0	1135607808	56	6914
2026-01-18 12:18:52.30	122.39	4.49	-41.9	-43.6	18.6	0.00e+00	0	33	0	1137704960	56	6905
2026-01-18 12:18:53.32	122.50	4.45	-42.2	-43.9	18.4	0.00e+00	0	33	0	1139802112	56	7107
2026-01-18 12:18:54.32	122.61	4.40	-42.0	-43.6	18.6	0.00e+00	0	33	0	1141899264	56	6920
2026-01-18 12:18:55.34	122.72	4.35	-42.0	-43.7	18.5	0.00e+00	0	34	0	1143996416	56	6993
2026-01-18 12:18:56.34	122.83	4.30	-42.1	-43.8	18.4	0.00e+00	68	34	0	1145044992	56	7065
2026-01-18 12:18:57.35	122.94	4.26	-41.8	-43.5	18.7	0.00e+00	0	34	0	1147142144	56	6833
2026-01-18 12:18:58.36	123.05	4.21	-41.4	-43.1	19.1	0.00e+00	92	33	0	1149239296	56	6465
2026-01-18 12:18:59.37	123.16	4.16	-41.3	-43.0	19.2	0.00e+00	0	34	0	1151336448	56	6397
2026-01-18 12:19:00.37	123.27	4.11	-41.2	-42.8	19.3	0.00e+00	0	34	0	1153433600	56	6288
2026-01-18 12:19:01.38	123.38	4.07	-41.2	-42.9	19.1	0.00e+00	31	34	0	1154482176	56	6321
2026-01-18 12:19:02.39	123.48	4.02	-41.3	-43.0	19.0	0.00e+00	0	34	0	1156579328	56	6413
2026-01-18 12:19:03.40	123.59	3.97	-41.4	-43.2	18.9	0.00e+00	61	33	0	1158676480	56	6548
2026-01-18 12:19:04.41	123.70	3.92	-41.4	-43.2	18.7	0.00e+00	0	34	0	1160773632	56	6560
2026-01-18 12:19:05.42	123.81	3.88	-41.6	-43.4	18.7	0.00e+00	87	34	0	1162870784	56	6719
2026-01-18 12:19:06.43	123.91	3.83	-41.9	-43.8	18.4	0.00e+00	0	33	0	1163919360	56	7024
2026-01-18 12:19:07.43	124.02	3.78	-42.2	-44.2	17.8	0.00e+00	0	34	0	1166016512	56	7416
2026-01-18 12:19:08.44	124.13	3.73	-42.6	-44.7	17.4	0.00e+00	30	34	0	1168113664	56	7849
2026-01-18 12:19:09.45	124.23	3.69	-42.7	-44.9	17.0	0.00e+00	0	34	0	1170210816	58	7121
2026-01-18 12:19:10.46	124.34	3.64	-43.0	-45.3	16.7	0.00e+00	0	34	0	1172307968	58	7481
2026-01-18 12:19:11.47	124.44	3.59	-43.2	-45.6	16.4	0.00e+00	0	34	0	1173356544	58	7767
2026-01-18 12:19:12.47	124.55	3.54	-43.2	-45.7	16.2	0.00e+00	92	34	0	1175453696	58	7850
2026-01-18 12:19:13.48	124.65	3.49	-43.2	-45.7	16.2	0.00e+00	0	34	0	1177550848	58	7825
2026-01-18 12:19:14.49	124.76	3.45	-43.4	-46.0	15.7	0.00e+00	92	34	0	1179648000	58	8124
2026-01-18 12:19:15.50	124.86	3.40	-42.9	-45.3	16.5	0.00e+00	0	33	0	1181745152	58	7429
2026-01-18 12:19:16.51	124.96	3.35	-42.9	-45.2	16.6	0.00e+00	0	34	0	1182793728	58	7378
2026-01-18 12:19:17.52	125.07	3.30	-42.8	-45.1	16.7	0.00e+00	0	33	0	1184890880	58	7312
2026-01-18 12:19:18.53	125.17	3.26	-42.8	-45.0	16.9	0.00e+00	0	33	0	1186988032	58	7183
2026-01-18 12:19:19.54	125.27	3.21	-42.8	-45.0	16.9	0.00e+00	66	34	0	1189085184	58	7223
2026-01-18 12:19:20.55	125.38	3.16	-42.6	-44.7	17.0	0.00e+00	0	34	0	1191182336	58	6998
2026-01-18 12:19:21.56	125.48	3.11	-42.7	-44.8	16.8	0.00e+00	92	34	0	1192230912	58	7058
2026-01-18 12:19:22.56	125.58	3.07	-42.7	-44.9	16.8	0.00e+00	0	34	0	1194328064	58	7093
2026-01-18 12:19:23.57	125.68	3.02	-43.0	-45.2	14.7	0.00e+00	0	34	0	1196425216	58	7419
2026-01-18 12:19:24.58	125.78	2.97	-48.0	-63.7	3.6	1.51e+00	0	34	104	1196425216	60	55243
2026-01-18 12:19:25.59	125.88	2.92	-48.8	-64.0	3.6	1.51e+00	0	34	104	1196425216	60	57492
