passes_logs/2026/01/18/R4.6S_Anadyr/R4.6S_Anadyr__20260118_162656_FENGYUN_3D_rec.log

#Pass ID: 20260118_162656_FENGYUN 3D
#Satellite: FENGYUN 3D
#Configuration: FENGYUN 3D
#almurnet v.1.7.20251203
#Start time: 2026-01-18 16:26:59

#Version: 2.2.20231116
#Station: R4.6S_Anadyr
#Location: 177.4865 lon 64.73178 lat
#TLE: 1 43010U 17072A   26017.61121112  .00000213  00000+0  12257-3 0  9991
#TLE: 2 43010  98.9934 349.4672 0002374 103.9362 256.2078 14.19696413423628

#Time	Az	El	Level	Level2	SNR	BER	BlckErr	Temp	State	Recorded	gain1	gain2
2026-01-18 16:26:59.84	20.42	0.18	-49.6	-60.3	3.3	8.41e-01	0	38	0	0	60	37345
2026-01-18 16:27:00.85	20.43	0.24	-49.6	-61.8	3.6	8.45e-01	0	38	104	0	60	44448
2026-01-18 16:27:01.86	20.45	0.31	-49.6	-61.8	3.6	8.46e-01	0	38	104	0	60	44229
2026-01-18 16:27:02.87	20.46	0.37	-49.6	-61.7	3.6	8.44e-01	0	38	104	0	60	44011
2026-01-18 16:27:03.88	20.48	0.43	-49.6	-61.8	3.6	8.46e-01	0	38	104	0	60	44619
2026-01-18 16:27:04.89	20.49	0.49	-49.6	-61.7	3.6	8.46e-01	0	38	104	0	60	44212
2026-01-18 16:27:05.90	20.51	0.55	-49.6	-61.8	3.6	8.45e-01	0	38	104	0	60	44637
2026-01-18 16:27:06.91	20.53	0.61	-49.6	-61.8	3.5	8.46e-01	0	38	104	0	60	44644
2026-01-18 16:27:07.92	20.54	0.67	-49.6	-61.8	3.6	8.46e-01	0	38	104	0	60	44375
2026-01-18 16:27:08.93	20.56	0.73	-49.6	-61.7	3.6	8.45e-01	0	38	104	0	60	43944
2026-01-18 16:27:09.94	20.57	0.79	-49.5	-61.6	3.6	8.45e-01	0	38	104	0	60	43685
2026-01-18 16:27:10.95	20.59	0.85	-49.5	-61.6	3.6	8.46e-01	0	38	104	0	60	43580
2026-01-18 16:27:11.96	20.61	0.91	-49.4	-61.6	3.6	8.45e-01	0	38	104	0	60	43331
2026-01-18 16:27:12.97	20.62	0.98	-49.3	-61.5	3.6	8.46e-01	0	38	104	0	60	43071
2026-01-18 16:27:13.98	20.64	1.04	-49.3	-61.4	3.6	8.46e-01	0	38	104	0	60	42578
2026-01-18 16:27:14.99	20.66	1.10	-49.2	-61.3	3.6	8.46e-01	0	38	104	0	60	42057
2026-01-18 16:27:16.00	20.67	1.16	-49.0	-61.1	3.6	8.46e-01	0	38	104	0	60	40997
2026-01-18 16:27:17.01	20.69	1.22	-48.9	-61.0	3.6	8.44e-01	0	38	104	0	60	40349
2026-01-18 16:27:18.02	20.71	1.29	-48.9	-61.0	3.6	8.46e-01	0	38	104	0	60	40469
2026-01-18 16:27:19.03	20.72	1.35	-48.7	-60.8	3.5	8.46e-01	0	38	104	0	60	39549
2026-01-18 16:27:20.04	20.74	1.41	-48.7	-60.7	3.6	8.46e-01	0	38	104	0	60	39276
2026-01-18 16:27:21.05	20.76	1.47	-48.4	-60.4	3.6	8.46e-01	0	38	104	0	60	37737
2026-01-18 16:27:22.06	20.77	1.54	-48.2	-60.0	3.6	8.45e-01	0	38	104	0	60	36291
2026-01-18 16:27:23.07	20.79	1.60	-48.2	-60.2	3.6	8.46e-01	0	39	104	0	60	37041
2026-01-18 16:27:24.08	20.81	1.66	-48.2	-60.3	3.6	8.45e-01	0	38	104	0	60	37235
2026-01-18 16:27:25.09	20.82	1.73	-48.2	-60.2	3.6	8.45e-01	0	38	104	0	60	36917
2026-01-18 16:27:26.10	20.84	1.79	-48.2	-60.1	3.6	8.46e-01	0	38	104	0	60	36563
2026-01-18 16:27:27.11	20.86	1.85	-48.1	-59.9	3.6	8.46e-01	0	38	104	0	60	35771
2026-01-18 16:27:28.12	20.87	1.92	-48.1	-59.7	3.6	8.44e-01	0	38	104	0	60	35062
2026-01-18 16:27:29.13	20.89	1.98	-48.1	-59.5	3.6	8.46e-01	0	38	104	0	60	34055
2026-01-18 16:27:30.14	20.91	2.05	-48.0	-59.1	3.6	8.45e-01	0	38	104	0	60	32501
2026-01-18 16:27:31.15	20.92	2.11	-48.0	-58.3	3.7	8.45e-01	0	38	104	0	60	29739
2026-01-18 16:27:32.16	20.94	2.17	-47.9	-57.4	3.9	8.44e-01	0	38	104	0	60	26740
2026-01-18 16:27:33.17	20.96	2.24	-47.7	-55.0	4.0	8.33e-01	0	39	0	0	60	20252
2026-01-18 16:27:34.19	20.98	2.30	-47.6	-54.2	4.4	8.21e-01	0	38	0	0	60	18593
2026-01-18 16:27:35.20	20.99	2.37	-47.5	-53.9	4.5	7.85e-01	0	39	0	0	60	17816
2026-01-18 16:27:36.21	21.01	2.43	-47.4	-53.4	4.8	7.79e-01	0	39	0	0	60	16920
2026-01-18 16:27:37.22	21.03	2.50	-47.5	-53.8	4.6	7.58e-01	0	39	0	0	60	17626
2026-01-18 16:27:38.23	21.05	2.56	-47.5	-54.0	4.4	7.85e-01	0	38	0	0	60	18076
2026-01-18 16:27:39.24	21.06	2.63	-47.5	-54.0	4.5	8.08e-01	0	39	0	0	60	18050
2026-01-18 16:27:40.25	21.08	2.69	-47.3	-52.8	5.3	7.55e-01	0	39	0	0	60	15864
2026-01-18 16:27:41.26	21.10	2.76	-46.5	-50.7	7.6	1.36e-01	0	39	0	5242880	60	12459
2026-01-18 16:27:42.27	21.12	2.82	-45.5	-48.7	10.3	1.54e-02	0	39	0	10485760	60	9838
2026-01-18 16:27:43.28	21.14	2.89	-44.3	-46.7	12.4	1.43e-04	0	39	0	16777216	60	7830
2026-01-18 16:27:44.29	21.15	2.96	-43.2	-45.1	14.2	4.50e-06	0	39	0	22020096	60	6507
2026-01-18 16:27:45.30	21.17	3.02	-41.5	-42.9	16.5	0.00e+00	0	39	0	27262976	56	6333
2026-01-18 16:27:46.31	21.19	3.09	-40.9	-42.2	17.1	0.00e+00	0	39	0	33554432	56	5886
2026-01-18 16:27:47.32	21.21	3.16	-40.2	-41.4	17.9	0.00e+00	0	39	0	38797312	54	5967
2026-01-18 16:27:48.33	21.23	3.22	-39.7	-40.8	18.4	0.00e+00	0	39	0	45088768	52	6307
2026-01-18 16:27:49.34	21.24	3.29	-39.8	-40.9	18.3	0.00e+00	0	39	0	50331648	52	6387
2026-01-18 16:27:50.35	21.26	3.36	-39.9	-41.0	18.2	0.00e+00	0	39	0	55574528	52	6461
2026-01-18 16:27:51.36	21.28	3.42	-40.6	-41.9	17.4	0.00e+00	0	39	0	61865984	52	7089
2026-01-18 16:27:52.37	21.30	3.49	-41.2	-42.6	16.5	0.00e+00	0	39	0	67108864	54	6914
2026-01-18 16:27:53.39	21.32	3.56	-42.4	-44.1	15.1	0.00e+00	0	39	0	73400320	56	7260
2026-01-18 16:27:54.40	21.34	3.63	-43.6	-45.6	13.4	1.10e-06	0	39	0	78643200	58	7768
2026-01-18 16:27:55.41	21.35	3.69	-41.1	-42.4	17.2	1.48e-04	0	39	0	83886080	58	5320
2026-01-18 16:27:56.41	21.37	3.76	-37.1	-37.9	21.3	0.00e+00	0	39	0	90177536	48	5676
2026-01-18 16:27:57.43	21.39	3.83	-40.7	-42.0	15.4	0.00e+00	0	39	0	95420416	52	7171
2026-01-18 16:27:58.43	21.41	3.90	-48.0	-58.4	4.3	8.46e-01	0	39	104	96468992	60	30021
2026-01-18 16:27:59.45	21.43	3.97	-37.8	-38.7	18.8	0.00e+00	0	39	104	96468992	48	6196
2026-01-18 16:28:00.45	21.45	4.04	-45.2	-48.4	12.5	5.66e-01	0	39	104	97517568	60	9455
2026-01-18 16:28:01.46	21.47	4.10	-37.7	-38.6	20.7	0.00e+00	0	39	0	99614720	48	6124
2026-01-18 16:28:02.47	21.49	4.17	-37.2	-38.1	21.3	0.00e+00	0	39	0	105906176	48	5780
2026-01-18 16:28:03.48	21.51	4.24	-37.1	-38.0	21.4	0.00e+00	0	39	0	111149056	48	5697
2026-01-18 16:28:04.49	21.53	4.31	-37.0	-37.8	21.5	0.00e+00	0	39	0	116391936	48	5616
2026-01-18 16:28:05.50	21.54	4.38	-36.8	-37.6	21.7	0.00e+00	0	39	0	122683392	48	5470
2026-01-18 16:28:06.51	21.56	4.45	-36.6	-37.4	21.9	0.00e+00	0	39	0	127926272	46	6030
2026-01-18 16:28:07.52	21.58	4.52	-36.7	-37.5	21.9	0.00e+00	0	39	0	134217728	46	6070
2026-01-18 16:28:08.53	21.60	4.59	-36.8	-37.6	21.8	0.00e+00	0	39	0	139460608	46	6132
2026-01-18 16:28:09.54	21.62	4.66	-36.7	-37.5	21.9	0.00e+00	0	39	0	145752064	46	6063
2026-01-18 16:28:10.55	21.64	4.73	-36.4	-37.2	22.1	0.00e+00	0	39	0	150994944	46	5876
2026-01-18 16:28:11.56	21.66	4.80	-36.6	-37.4	22.0	0.00e+00	0	39	0	157286400	46	6020
2026-01-18 16:28:12.57	21.68	4.87	-36.5	-37.3	21.9	0.00e+00	0	39	0	162529280	46	5938
2026-01-18 16:28:13.58	21.70	4.94	-36.6	-37.4	22.1	0.00e+00	0	39	0	167772160	46	6004
2026-01-18 16:28:14.59	21.72	5.02	-36.5	-37.3	22.1	0.00e+00	0	39	0	174063616	46	5940
2026-01-18 16:28:15.60	21.74	5.09	-36.5	-37.3	22.1	0.00e+00	0	39	0	179306496	46	5951
2026-01-18 16:28:16.61	21.76	5.16	-36.6	-37.4	22.1	0.00e+00	0	39	0	185597952	46	6001
2026-01-18 16:28:17.62	21.78	5.23	-36.4	-37.2	22.2	0.00e+00	0	39	0	190840832	46	5857
2026-01-18 16:28:18.63	21.80	5.30	-36.3	-37.1	22.4	0.00e+00	0	39	0	196083712	46	5782
2026-01-18 16:28:19.64	21.82	5.37	-36.2	-37.0	22.5	0.00e+00	0	39	0	202375168	46	5745
2026-01-18 16:28:20.65	21.84	5.45	-36.2	-37.0	22.5	0.00e+00	0	39	0	207618048	46	5712
2026-01-18 16:28:21.66	21.86	5.52	-36.3	-37.1	22.4	0.00e+00	0	39	0	213909504	46	5809
2026-01-18 16:28:22.67	21.88	5.59	-36.0	-36.8	22.7	0.00e+00	0	39	0	219152384	46	5601
2026-01-18 16:28:23.68	21.90	5.67	-36.1	-36.8	22.6	0.00e+00	0	39	0	224395264	46	5628
2026-01-18 16:28:24.69	21.92	5.74	-36.3	-37.0	22.5	0.00e+00	0	39	0	230686720	46	5747
2026-01-18 16:28:25.70	21.95	5.81	-36.0	-36.7	22.8	0.00e+00	0	39	0	235929600	46	5546
2026-01-18 16:28:26.71	21.97	5.89	-36.0	-36.7	22.7	0.00e+00	0	39	0	242221056	46	5564
2026-01-18 16:28:27.72	21.99	5.96	-35.9	-36.6	23.0	0.00e+00	0	39	0	247463936	46	5467
2026-01-18 16:28:28.73	22.01	6.03	-36.0	-36.7	22.8	0.00e+00	0	39	0	253755392	46	5557
2026-01-18 16:28:29.74	22.03	6.11	-35.8	-36.5	22.9	0.00e+00	0	39	0	258998272	44	6084
2026-01-18 16:28:30.75	22.05	6.18	-35.9	-36.6	22.9	0.00e+00	0	39	0	264241152	44	6151
2026-01-18 16:28:31.76	22.07	6.26	-35.7	-36.5	23.0	0.00e+00	0	39	0	270532608	44	6048
2026-01-18 16:28:32.77	22.09	6.33	-35.9	-36.6	23.0	0.00e+00	0	39	0	275775488	44	6145
2026-01-18 16:28:33.78	22.11	6.41	-35.7	-36.4	23.1	0.00e+00	0	39	0	282066944	44	6006
2026-01-18 16:28:34.79	22.14	6.48	-35.7	-36.4	23.1	0.00e+00	0	39	0	287309824	44	6010
2026-01-18 16:28:35.80	22.16	6.56	-35.7	-36.4	23.2	0.00e+00	0	39	0	292552704	44	6026
2026-01-18 16:28:36.81	22.18	6.63	-35.6	-36.3	23.2	0.00e+00	0	39	0	298844160	44	5929
2026-01-18 16:28:37.82	22.20	6.71	-35.5	-36.2	23.4	0.00e+00	0	39	0	304087040	44	5870
2026-01-18 16:28:38.83	22.22	6.78	-35.7	-36.4	23.1	0.00e+00	0	39	0	310378496	44	6010
2026-01-18 16:28:39.84	22.25	6.86	-35.7	-36.4	23.0	0.00e+00	0	39	0	315621376	44	6016
2026-01-18 16:28:40.86	22.27	6.94	-35.8	-36.5	23.2	0.00e+00	0	39	0	320864256	44	6096
2026-01-18 16:28:41.87	22.29	7.02	-35.6	-36.4	23.2	0.00e+00	0	39	0	327155712	44	5990
2026-01-18 16:28:42.88	22.31	7.09	-35.6	-36.3	23.3	0.00e+00	0	39	0	332398592	44	5921
2026-01-18 16:28:43.89	22.33	7.17	-35.7	-36.4	23.2	0.00e+00	0	39	0	338690048	44	5975
2026-01-18 16:28:44.90	22.36	7.25	-35.2	-35.9	23.5	0.00e+00	0	39	0	343932928	44	5692
2026-01-18 16:28:45.91	22.38	7.32	-35.3	-36.1	23.5	0.00e+00	0	39	0	350224384	44	5769
2026-01-18 16:28:46.92	22.40	7.40	-35.2	-35.9	23.6	0.00e+00	0	39	0	355467264	44	5663
2026-01-18 16:28:47.93	22.42	7.48	-35.2	-36.0	23.6	0.00e+00	0	39	0	361758720	44	5701
2026-01-18 16:28:48.94	22.45	7.56	-35.2	-35.9	23.7	0.00e+00	0	39	0	367001600	44	5668
2026-01-18 16:28:49.95	22.47	7.64	-35.1	-35.8	23.7	0.00e+00	0	39	0	372244480	44	5608
2026-01-18 16:28:50.96	22.49	7.72	-35.2	-36.0	23.5	0.00e+00	0	39	0	378535936	44	5697
2026-01-18 16:28:51.97	22.52	7.80	-35.3	-36.0	23.5	0.00e+00	0	39	0	383778816	44	5740
2026-01-18 16:28:52.98	22.54	7.88	-35.2	-36.0	23.7	0.00e+00	0	39	0	390070272	44	5717
2026-01-18 16:28:53.98	22.56	7.95	-35.2	-35.9	23.7	0.00e+00	0	39	0	395313152	44	5653
2026-01-18 16:28:55.00	22.59	8.04	-35.1	-35.8	23.8	0.00e+00	0	39	0	400556032	44	5594
2026-01-18 16:28:56.01	22.61	8.12	-35.1	-35.9	23.7	0.00e+00	0	39	0	406847488	44	5631
2026-01-18 16:28:57.02	22.63	8.20	-35.0	-35.7	23.8	0.00e+00	0	39	0	412090368	44	5525
2026-01-18 16:28:58.03	22.66	8.28	-34.9	-35.7	23.9	0.00e+00	0	39	0	418381824	44	5509
2026-01-18 16:28:59.04	22.68	8.36	-35.1	-35.8	23.8	0.00e+00	0	39	0	423624704	44	5588
2026-01-18 16:29:00.05	22.71	8.44	-35.0	-35.7	23.8	0.00e+00	0	39	0	428867584	44	5544
2026-01-18 16:29:01.06	22.73	8.52	-35.1	-35.8	23.8	0.00e+00	0	39	0	435159040	44	5598
2026-01-18 16:29:02.07	22.75	8.60	-35.1	-35.8	23.8	0.00e+00	0	39	0	440401920	44	5601
2026-01-18 16:29:03.08	22.78	8.68	-35.0	-35.8	23.8	0.00e+00	0	39	0	446693376	44	5570
2026-01-18 16:29:04.09	22.80	8.77	-35.0	-35.7	23.9	0.00e+00	0	39	0	451936256	44	5503
2026-01-18 16:29:05.10	22.83	8.85	-34.8	-35.5	24.1	0.00e+00	0	39	0	458227712	42	6058
2026-01-18 16:29:06.11	22.85	8.93	-34.8	-35.5	24.1	0.00e+00	0	39	0	463470592	42	6086
2026-01-18 16:29:07.12	22.88	9.01	-34.7	-35.4	24.1	0.00e+00	0	39	0	469762048	42	6029
2026-01-18 16:29:08.13	22.90	9.10	-34.7	-35.5	24.2	0.00e+00	0	39	0	475004928	42	6039
2026-01-18 16:29:09.14	22.93	9.18	-34.8	-35.4	24.2	0.00e+00	0	39	0	480247808	42	6032
2026-01-18 16:29:10.15	22.95	9.27	-34.8	-35.5	24.2	0.00e+00	0	39	0	486539264	42	6053
2026-01-18 16:29:11.17	22.98	9.35	-34.9	-35.6	24.0	0.00e+00	0	39	0	491782144	42	6140
2026-01-18 16:29:12.18	23.00	9.43	-34.6	-35.3	24.3	0.00e+00	0	39	0	498073600	42	5898
2026-01-18 16:29:13.19	23.03	9.52	-34.8	-35.5	24.2	0.00e+00	0	39	0	503316480	42	6037
2026-01-18 16:29:14.19	23.05	9.60	-34.6	-35.3	24.3	0.00e+00	0	39	0	508559360	42	5907
2026-01-18 16:29:15.20	23.08	9.69	-34.6	-35.3	24.3	0.00e+00	0	39	0	514850816	42	5920
2026-01-18 16:29:16.21	23.10	9.77	-34.6	-35.3	24.4	0.00e+00	0	39	0	520093696	42	5933
2026-01-18 16:29:17.22	23.13	9.86	-34.7	-35.3	24.3	0.00e+00	0	39	0	526385152	42	5962
2026-01-18 16:29:18.23	23.16	9.95	-34.6	-35.3	24.3	0.00e+00	0	39	0	531628032	42	5954
2026-01-18 16:29:19.24	23.18	10.03	-34.5	-35.2	24.4	0.00e+00	0	39	0	536870912	42	5884
2026-01-18 16:29:20.25	23.21	10.12	-34.5	-35.2	24.4	0.00e+00	0	39	0	543162368	42	5880
2026-01-18 16:29:21.26	23.24	10.21	-34.7	-35.4	24.2	0.00e+00	0	39	0	548405248	42	5994
2026-01-18 16:29:22.27	23.26	10.29	-34.5	-35.2	24.5	0.00e+00	0	39	0	554696704	42	5837
2026-01-18 16:29:23.28	23.29	10.38	-34.5	-35.1	24.5	0.00e+00	0	39	0	559939584	42	5823
2026-01-18 16:29:24.29	23.32	10.47	-34.5	-35.2	24.5	0.00e+00	0	39	0	566231040	42	5850
2026-01-18 16:29:25.30	23.34	10.56	-34.5	-35.2	24.4	0.00e+00	0	39	0	571473920	42	5884
2026-01-18 16:29:26.31	23.37	10.65	-34.6	-35.3	24.4	0.00e+00	0	39	0	577765376	42	5926
2026-01-18 16:29:27.32	23.40	10.74	-34.7	-35.3	24.3	0.00e+00	0	39	0	583008256	42	5959
2026-01-18 16:29:28.33	23.42	10.83	-34.6	-35.3	24.4	0.00e+00	0	39	0	588251136	42	5946
2026-01-18 16:29:29.34	23.45	10.92	-34.7	-35.4	24.3	0.00e+00	0	39	0	594542592	42	5977
2026-01-18 16:29:30.35	23.48	11.01	-34.6	-35.3	24.3	0.00e+00	0	39	0	599785472	42	5955
2026-01-18 16:29:31.36	23.51	11.10	-34.6	-35.3	24.3	0.00e+00	0	39	0	606076928	42	5927
2026-01-18 16:29:32.37	23.54	11.19	-34.6	-35.3	24.4	0.00e+00	0	39	0	611319808	42	5956
2026-01-18 16:29:33.38	23.56	11.28	-34.8	-35.4	24.3	0.00e+00	0	39	0	616562688	42	6030
2026-01-18 16:29:34.39	23.59	11.37	-34.9	-35.6	24.2	0.00e+00	0	39	0	622854144	42	6131
2026-01-18 16:29:35.40	23.62	11.46	-34.6	-35.3	24.4	0.00e+00	0	39	0	628097024	42	5956
2026-01-18 16:29:36.41	23.65	11.55	-34.8	-35.5	24.2	0.00e+00	0	39	0	634388480	42	6091
2026-01-18 16:29:37.42	23.68	11.64	-34.9	-35.6	24.2	0.00e+00	0	39	0	639631360	42	6135
2026-01-18 16:29:38.44	23.71	11.74	-34.9	-35.5	24.2	0.00e+00	0	39	0	644874240	42	6099
2026-01-18 16:29:39.44	23.74	11.83	-34.8	-35.5	24.2	0.00e+00	0	39	0	651165696	42	6082
2026-01-18 16:29:40.45	23.76	11.92	-34.7	-35.4	24.3	0.00e+00	0	39	0	656408576	42	6015
2026-01-18 16:29:41.46	23.79	12.02	-34.8	-35.6	24.1	0.00e+00	0	39	0	662700032	42	6117
2026-01-18 16:29:42.47	23.82	12.11	-34.8	-35.5	24.2	0.00e+00	0	39	0	667942912	42	6091
2026-01-18 16:29:43.48	23.85	12.21	-34.8	-35.5	24.3	0.00e+00	0	39	0	674234368	42	6085
2026-01-18 16:29:44.49	23.88	12.30	-34.8	-35.5	24.3	0.00e+00	0	39	0	679477248	42	6055
2026-01-18 16:29:45.50	23.91	12.39	-34.9	-35.6	24.3	0.00e+00	0	39	0	684720128	42	6139
2026-01-18 16:29:46.51	23.94	12.49	-34.9	-35.6	24.2	0.00e+00	0	39	0	691011584	42	6148
2026-01-18 16:29:47.52	23.97	12.59	-34.8	-35.5	24.3	0.00e+00	0	39	0	696254464	42	6078
2026-01-18 16:29:48.53	24.00	12.68	-34.7	-35.4	24.3	0.00e+00	0	39	0	702545920	42	6015
2026-01-18 16:29:49.54	24.03	12.78	-34.8	-35.5	24.3	0.00e+00	0	39	0	707788800	42	6039
2026-01-18 16:29:50.55	24.07	12.88	-35.0	-35.7	24.1	0.00e+00	0	39	0	713031680	42	6187
2026-01-18 16:29:51.56	24.10	12.97	-34.7	-35.4	24.3	0.00e+00	0	39	0	719323136	42	6022
2026-01-18 16:29:52.57	24.13	13.07	-34.6	-35.4	24.4	0.00e+00	0	39	0	724566016	42	5971
2026-01-18 16:29:53.58	24.16	13.17	-34.7	-35.4	24.4	0.00e+00	0	39	0	730857472	42	6003
2026-01-18 16:29:54.58	24.19	13.27	-34.6	-35.3	24.4	0.00e+00	0	39	0	736100352	42	5934
2026-01-18 16:29:55.59	24.22	13.37	-34.6	-35.3	24.5	0.00e+00	0	39	0	741343232	42	5912
2026-01-18 16:29:56.60	24.25	13.47	-34.7	-35.4	24.4	0.00e+00	0	39	0	747634688	42	6003
2026-01-18 16:29:57.61	24.29	13.57	-34.5	-35.2	24.6	0.00e+00	0	39	0	752877568	42	5879
2026-01-18 16:29:58.62	24.32	13.67	-34.5	-35.2	24.5	0.00e+00	0	39	0	759169024	42	5855
2026-01-18 16:29:59.63	24.35	13.77	-34.5	-35.3	24.5	0.00e+00	0	39	0	764411904	42	5901
2026-01-18 16:30:00.64	24.38	13.87	-34.5	-35.2	24.5	0.00e+00	0	39	0	770703360	42	5896
2026-01-18 16:30:01.65	24.42	13.97	-34.3	-35.1	24.7	0.00e+00	0	39	0	775946240	42	5784
2026-01-18 16:30:02.66	24.45	14.07	-34.4	-35.1	24.6	0.00e+00	0	39	0	782237696	42	5784
2026-01-18 16:30:03.67	24.48	14.17	-34.2	-34.9	24.9	0.00e+00	0	39	0	787480576	42	5660
2026-01-18 16:30:04.68	24.52	14.27	-34.4	-35.1	24.7	0.00e+00	0	39	0	792723456	42	5790
2026-01-18 16:30:05.69	24.55	14.38	-34.2	-34.9	24.9	0.00e+00	0	39	0	799014912	42	5690
2026-01-18 16:30:06.70	24.58	14.48	-34.3	-35.0	24.8	0.00e+00	0	39	0	804257792	42	5698
2026-01-18 16:30:07.71	24.62	14.59	-34.2	-34.9	24.9	0.00e+00	0	39	0	810549248	42	5676
2026-01-18 16:30:08.72	24.65	14.69	-33.9	-34.6	25.2	0.00e+00	0	39	0	815792128	42	5487
2026-01-18 16:30:09.73	24.69	14.79	-34.0	-34.7	25.1	0.00e+00	0	39	0	821035008	42	5553
2026-01-18 16:30:10.74	24.72	14.90	-33.9	-34.6	25.2	0.00e+00	0	39	0	827326464	42	5479
2026-01-18 16:30:11.75	24.76	15.01	-33.9	-34.6	25.1	0.00e+00	0	39	0	832569344	42	5455
2026-01-18 16:30:12.77	24.79	15.11	-33.9	-34.6	25.2	0.00e+00	0	39	0	838860800	42	5444
2026-01-18 16:30:13.77	24.83	15.22	-33.7	-34.4	25.3	0.00e+00	0	39	0	844103680	42	5361
2026-01-18 16:30:14.78	24.86	15.33	-33.6	-34.3	25.4	0.00e+00	0	39	0	849346560	40	5918
2026-01-18 16:30:15.79	24.90	15.43	-33.6	-34.3	25.4	0.00e+00	0	39	0	855638016	40	5941
2026-01-18 16:30:16.80	24.93	15.54	-33.5	-34.2	25.6	0.00e+00	0	39	0	860880896	40	5861
2026-01-18 16:30:17.82	24.97	15.65	-33.3	-34.0	25.6	0.00e+00	0	39	0	867172352	40	5697
2026-01-18 16:30:18.82	25.01	15.76	-33.4	-34.0	25.7	0.00e+00	0	39	0	872415232	40	5746
2026-01-18 16:30:19.84	25.04	15.87	-33.3	-33.9	25.7	0.00e+00	0	39	0	878706688	40	5676
2026-01-18 16:30:20.85	25.08	15.98	-33.2	-33.8	25.8	0.00e+00	0	39	0	883949568	40	5628
2026-01-18 16:30:21.86	25.12	16.09	-33.1	-33.7	25.9	0.00e+00	0	39	0	889192448	40	5552
2026-01-18 16:30:22.87	25.16	16.20	-33.1	-33.8	25.9	0.00e+00	0	39	0	895483904	40	5601
2026-01-18 16:30:23.88	25.19	16.31	-32.9	-33.6	26.0	0.00e+00	0	39	0	900726784	40	5463
2026-01-18 16:30:24.89	25.23	16.42	-32.9	-33.6	26.0	0.00e+00	0	39	0	907018240	40	5463
2026-01-18 16:30:25.90	25.27	16.54	-32.9	-33.5	26.1	0.00e+00	0	39	0	912261120	40	5416
2026-01-18 16:30:26.91	25.31	16.65	-32.9	-33.5	26.1	0.00e+00	0	39	0	918552576	40	5434
2026-01-18 16:30:27.92	25.35	16.76	-32.9	-33.6	26.2	0.00e+00	0	39	0	923795456	40	5445
2026-01-18 16:30:28.93	25.39	16.88	-32.8	-33.4	26.2	0.00e+00	0	39	0	929038336	40	5372
2026-01-18 16:30:29.94	25.42	16.99	-32.8	-33.5	26.1	0.00e+00	0	39	0	935329792	40	5387
2026-01-18 16:30:30.95	25.46	17.11	-32.8	-33.5	26.2	0.00e+00	0	39	0	940572672	40	5403
2026-01-18 16:30:31.96	25.50	17.22	-32.8	-33.5	26.2	0.00e+00	0	39	0	946864128	40	5380
2026-01-18 16:30:32.97	25.54	17.34	-32.9	-33.5	26.2	0.00e+00	0	39	0	952107008	40	5414
2026-01-18 16:30:33.98	25.58	17.46	-32.7	-33.3	26.4	0.00e+00	0	39	0	957349888	38	5947
2026-01-18 16:30:35.00	25.63	17.57	-32.8	-33.4	26.3	0.00e+00	0	39	0	963641344	38	6011
2026-01-18 16:30:36.00	25.67	17.69	-32.7	-33.3	26.4	0.00e+00	0	39	0	968884224	38	5910
2026-01-18 16:30:37.02	25.71	17.81	-32.7	-33.3	26.3	0.00e+00	0	39	0	975175680	38	5955
2026-01-18 16:30:38.03	25.75	17.93	-32.7	-33.3	26.3	0.00e+00	0	39	0	980418560	38	5962
2026-01-18 16:30:39.04	25.79	18.05	-32.5	-33.2	26.5	0.00e+00	0	39	0	986710016	38	5842
2026-01-18 16:30:40.05	25.83	18.17	-32.6	-33.3	26.4	0.00e+00	0	39	0	991952896	38	5936
2026-01-18 16:30:41.06	25.87	18.29	-32.7	-33.3	26.4	0.00e+00	0	39	0	998244352	38	5955
2026-01-18 16:30:42.06	25.92	18.41	-32.5	-33.1	26.5	0.00e+00	0	39	0	1003487232	38	5799
2026-01-18 16:30:43.07	25.96	18.53	-32.5	-33.2	26.4	0.00e+00	0	39	0	1008730112	38	5842
2026-01-18 16:30:44.09	26.00	18.65	-32.6	-33.2	26.5	0.00e+00	0	39	0	1015021568	38	5848
2026-01-18 16:30:45.10	26.05	18.78	-32.5	-33.1	26.5	0.00e+00	0	39	0	1020264448	38	5828
2026-01-18 16:30:46.11	26.09	18.90	-32.6	-33.2	26.5	0.00e+00	0	39	0	1025507328	38	5883
2026-01-18 16:30:47.12	26.14	19.03	-32.8	-33.4	26.3	0.00e+00	0	39	0	1031798784	38	5982
2026-01-18 16:30:48.13	26.18	19.15	-32.4	-33.1	26.7	0.00e+00	0	39	0	1037041664	38	5785
2026-01-18 16:30:49.14	26.22	19.28	-32.5	-33.1	26.6	0.00e+00	0	39	0	1043333120	38	5798
2026-01-18 16:30:50.15	26.27	19.40	-32.5	-33.1	26.6	0.00e+00	0	39	0	1048576000	38	5815
2026-01-18 16:30:51.16	26.32	19.53	-32.4	-33.1	26.6	0.00e+00	0	39	0	1053818880	38	5790
2026-01-18 16:30:52.17	26.36	19.66	-32.5	-33.2	26.5	0.00e+00	0	39	0	1060110336	38	5835
2026-01-18 16:30:53.17	26.41	19.78	-32.5	-33.1	26.6	0.00e+00	0	39	0	1065353216	38	5798
2026-01-18 16:30:54.18	26.45	19.91	-32.4	-33.1	26.5	0.00e+00	0	39	0	1071644672	38	5779
2026-01-18 16:30:55.19	26.50	20.04	-32.3	-33.0	26.7	0.00e+00	0	39	0	1076887552	38	5714
2026-01-18 16:30:56.20	26.55	20.17	-32.4	-33.1	26.6	0.00e+00	0	39	0	1083179008	38	5788
2026-01-18 16:30:57.21	26.60	20.30	-32.4	-33.0	26.7	0.00e+00	0	39	0	1088421888	38	5720
2026-01-18 16:30:58.22	26.64	20.43	-32.3	-33.0	26.7	0.00e+00	0	39	0	1094713344	38	5704
2026-01-18 16:30:59.23	26.69	20.56	-32.3	-32.9	26.7	0.00e+00	0	39	0	1099956224	38	5682
2026-01-18 16:31:00.24	26.74	20.70	-32.3	-33.0	26.8	0.00e+00	0	39	0	1105199104	38	5717
2026-01-18 16:31:01.25	26.79	20.83	-32.2	-32.8	26.8	0.00e+00	0	39	0	1111490560	38	5614
2026-01-18 16:31:02.26	26.84	20.96	-32.2	-32.8	26.8	0.00e+00	0	39	0	1116733440	38	5619
2026-01-18 16:31:03.27	26.89	21.10	-32.2	-32.9	26.8	0.00e+00	0	39	0	1123024896	38	5636
2026-01-18 16:31:04.28	26.94	21.24	-32.1	-32.8	26.9	0.00e+00	0	39	0	1128267776	38	5575
2026-01-18 16:31:05.29	26.99	21.37	-32.1	-32.7	27.0	0.00e+00	0	39	0	1133510656	38	5530
2026-01-18 16:31:06.30	27.04	21.51	-32.1	-32.7	26.9	0.00e+00	0	39	0	1139802112	38	5532
2026-01-18 16:31:07.31	27.09	21.65	-32.1	-32.7	26.8	0.00e+00	0	39	0	1145044992	38	5547
2026-01-18 16:31:08.32	27.15	21.78	-32.1	-32.8	27.0	0.00e+00	0	39	0	1151336448	38	5579
2026-01-18 16:31:09.33	27.20	21.92	-32.1	-32.7	26.9	0.00e+00	0	39	0	1156579328	38	5538
2026-01-18 16:31:10.34	27.25	22.06	-32.1	-32.7	27.0	0.00e+00	0	39	0	1161822208	38	5540
2026-01-18 16:31:11.35	27.30	22.20	-32.1	-32.8	26.9	0.00e+00	0	39	0	1168113664	38	5571
2026-01-18 16:31:12.36	27.36	22.35	-32.0	-32.6	27.0	0.00e+00	0	39	0	1173356544	38	5500
2026-01-18 16:31:13.38	27.41	22.49	-32.0	-32.7	26.9	0.00e+00	0	39	0	1179648000	38	5503
2026-01-18 16:31:14.39	27.47	22.63	-32.2	-32.9	26.9	0.00e+00	0	39	0	1184890880	38	5643
2026-01-18 16:31:15.40	27.52	22.78	-32.0	-32.7	27.0	0.00e+00	0	39	0	1191182336	38	5506
2026-01-18 16:31:16.41	27.58	22.92	-32.0	-32.7	27.0	0.00e+00	0	39	0	1196425216	38	5512
2026-01-18 16:31:17.42	27.63	23.07	-31.9	-32.5	27.1	0.00e+00	0	39	0	1202716672	38	5416
2026-01-18 16:31:18.42	27.69	23.21	-32.0	-32.6	27.0	0.00e+00	0	39	0	1207959552	38	5477
2026-01-18 16:31:19.44	27.75	23.36	-31.8	-32.4	27.2	0.00e+00	0	39	0	1213202432	38	5327
2026-01-18 16:31:20.45	27.81	23.51	-31.7	-32.4	27.3	0.00e+00	0	39	0	1219493888	36	5979
2026-01-18 16:31:21.46	27.86	23.65	-31.6	-32.2	27.3	0.00e+00	0	39	0	1224736768	36	5888
2026-01-18 16:31:22.47	27.92	23.80	-31.5	-32.2	27.4	0.00e+00	0	39	0	1231028224	36	5832
2026-01-18 16:31:23.48	27.98	23.95	-31.4	-32.0	27.5	0.00e+00	0	39	0	1236271104	36	5731
2026-01-18 16:31:24.49	28.04	24.10	-31.4	-32.0	27.5	0.00e+00	0	39	0	1241513984	36	5727
2026-01-18 16:31:25.50	28.10	24.26	-31.4	-32.0	27.5	0.00e+00	0	39	0	1247805440	36	5727
2026-01-18 16:31:26.51	28.16	24.41	-31.5	-32.1	27.4	0.00e+00	0	39	0	1253048320	36	5795
2026-01-18 16:31:27.52	28.22	24.56	-31.4	-32.0	27.4	0.00e+00	0	39	0	1259339776	36	5760
2026-01-18 16:31:28.53	28.28	24.72	-31.4	-32.0	27.5	0.00e+00	0	39	0	1264582656	36	5747
2026-01-18 16:31:29.54	28.35	24.87	-31.5	-32.1	27.4	0.00e+00	0	39	0	1269825536	36	5780
2026-01-18 16:31:30.55	28.41	25.03	-31.4	-31.9	27.6	0.00e+00	0	39	0	1276116992	36	5695
2026-01-18 16:31:31.55	28.47	25.19	-31.3	-32.0	27.5	0.00e+00	0	39	0	1281359872	36	5697
2026-01-18 16:31:32.56	28.54	25.34	-31.2	-31.8	27.6	0.00e+00	0	39	0	1287651328	36	5628
2026-01-18 16:31:33.58	28.60	25.50	-31.2	-31.8	27.7	0.00e+00	0	39	0	1292894208	36	5615
2026-01-18 16:31:34.59	28.67	25.66	-31.2	-31.8	27.7	0.00e+00	0	39	0	1299185664	36	5595
2026-01-18 16:31:35.60	28.73	25.82	-31.2	-31.8	27.7	0.00e+00	0	39	0	1304428544	36	5603
2026-01-18 16:31:36.61	28.80	25.99	-31.1	-31.7	27.7	0.00e+00	0	39	0	1310720000	36	5548
2026-01-18 16:31:37.62	28.87	26.15	-31.1	-31.7	27.8	0.00e+00	0	39	0	1315962880	36	5515
2026-01-18 16:31:38.63	28.94	26.31	-31.0	-31.6	27.8	0.00e+00	0	39	0	1321205760	36	5499
2026-01-18 16:31:39.64	29.00	26.48	-30.9	-31.5	27.9	0.00e+00	0	39	0	1327497216	36	5415
2026-01-18 16:31:40.65	29.07	26.64	-30.9	-31.5	27.9	0.00e+00	0	39	0	1332740096	36	5400
2026-01-18 16:31:41.66	29.14	26.81	-30.9	-31.5	27.9	0.00e+00	0	39	0	1339031552	36	5413
2026-01-18 16:31:42.67	29.21	26.98	-30.8	-31.4	28.0	0.00e+00	0	39	0	1344274432	36	5344
2026-01-18 16:31:43.68	29.29	27.15	-30.9	-31.4	28.0	0.00e+00	0	39	0	1349517312	36	5375
2026-01-18 16:31:44.69	29.36	27.32	-31.0	-31.6	27.9	0.00e+00	0	39	0	1355808768	36	5445
2026-01-18 16:31:45.70	29.43	27.49	-31.1	-31.7	27.8	0.00e+00	0	39	0	1361051648	36	5552
2026-01-18 16:31:46.71	29.50	27.66	-31.2	-31.8	27.7	0.00e+00	0	39	0	1367343104	36	5595
2026-01-18 16:31:47.72	29.58	27.83	-31.4	-32.0	27.6	0.00e+00	0	39	0	1372585984	36	5697
2026-01-18 16:31:48.73	29.65	28.01	-31.4	-32.0	27.6	0.00e+00	0	39	0	1377828864	36	5750
2026-01-18 16:31:49.74	29.73	28.18	-31.4	-32.0	27.5	0.00e+00	0	39	0	1384120320	36	5735
2026-01-18 16:31:50.75	29.81	28.36	-31.5	-32.1	27.4	0.00e+00	0	39	0	1389363200	36	5812
2026-01-18 16:31:51.76	29.88	28.53	-31.5	-32.1	27.3	0.00e+00	0	39	0	1395654656	36	5801
2026-01-18 16:31:52.77	29.96	28.71	-31.6	-32.2	27.4	0.00e+00	0	39	0	1400897536	36	5885
2026-01-18 16:31:53.78	30.04	28.89	-31.4	-32.0	27.6	0.00e+00	0	39	0	1407188992	36	5717
2026-01-18 16:31:54.79	30.12	29.07	-31.4	-32.0	27.6	0.00e+00	0	39	0	1412431872	36	5746
2026-01-18 16:31:55.80	30.20	29.25	-30.9	-31.5	27.9	0.00e+00	0	39	0	1417674752	36	5416
2026-01-18 16:31:56.81	30.28	29.43	-31.0	-31.6	27.9	0.00e+00	0	39	0	1423966208	36	5472
2026-01-18 16:31:57.82	30.36	29.62	-31.1	-31.7	27.9	0.00e+00	0	39	0	1429209088	36	5540
2026-01-18 16:31:58.83	30.45	29.80	-30.9	-31.5	27.9	0.00e+00	0	39	0	1435500544	36	5386
2026-01-18 16:31:59.84	30.53	29.99	-31.0	-31.6	27.9	0.00e+00	0	39	0	1440743424	36	5469
2026-01-18 16:32:00.85	30.62	30.18	-31.0	-31.6	27.9	0.00e+00	0	39	0	1445986304	36	5457
2026-01-18 16:32:01.86	30.70	30.36	-31.0	-31.6	27.9	0.00e+00	0	39	0	1452277760	36	5455
2026-01-18 16:32:02.87	30.79	30.55	-30.9	-31.5	27.9	0.00e+00	0	39	0	1457520640	36	5425
2026-01-18 16:32:03.88	30.88	30.74	-30.9	-31.5	28.0	0.00e+00	0	39	0	1463812096	36	5388
2026-01-18 16:32:04.88	30.97	30.93	-30.8	-31.4	28.0	0.00e+00	0	39	0	1469054976	34	5985
2026-01-18 16:32:05.89	31.06	31.13	-30.8	-31.4	28.0	0.00e+00	0	39	0	1474297856	34	5992
2026-01-18 16:32:06.90	31.15	31.32	-30.8	-31.4	28.0	0.00e+00	0	39	0	1480589312	34	6006
2026-01-18 16:32:07.91	31.24	31.52	-30.8	-31.4	28.0	0.00e+00	0	39	0	1485832192	34	5996
2026-01-18 16:32:08.92	31.33	31.71	-30.9	-31.5	28.0	0.00e+00	0	39	0	1492123648	34	6075
2026-01-18 16:32:09.93	31.43	31.91	-31.0	-31.6	27.9	0.00e+00	0	39	0	1497366528	34	6150
2026-01-18 16:32:10.94	31.52	32.11	-31.1	-31.7	27.8	0.00e+00	0	39	0	1503657984	34	6219
2026-01-18 16:32:11.95	31.62	32.31	-31.1	-31.7	27.8	0.00e+00	0	39	0	1508900864	34	6190
2026-01-18 16:32:12.96	31.72	32.51	-31.1	-31.7	27.8	0.00e+00	0	39	0	1515192320	34	6205
2026-01-18 16:32:13.98	31.82	32.72	-31.0	-31.6	27.9	0.00e+00	0	39	0	1520435200	34	6158
2026-01-18 16:32:14.99	31.92	32.92	-30.9	-31.5	28.0	0.00e+00	0	39	0	1525678080	34	6056
2026-01-18 16:32:16.00	32.02	33.13	-31.0	-31.6	27.9	0.00e+00	0	39	0	1531969536	34	6160
2026-01-18 16:32:17.01	32.12	33.34	-31.1	-31.7	27.8	0.00e+00	0	39	0	1537212416	34	6194
2026-01-18 16:32:18.02	32.23	33.54	-31.2	-31.8	27.8	0.00e+00	0	39	0	1543503872	34	6262
2026-01-18 16:32:19.03	32.33	33.75	-31.2	-31.8	27.8	0.00e+00	0	39	0	1548746752	34	6293
2026-01-18 16:32:20.04	32.44	33.96	-31.2	-31.8	27.8	0.00e+00	0	39	0	1553989632	34	6306
2026-01-18 16:32:21.05	32.54	34.18	-31.0	-31.6	27.9	0.00e+00	0	39	0	1560281088	34	6143
2026-01-18 16:32:22.06	32.65	34.39	-30.8	-31.5	28.0	0.00e+00	0	39	0	1565523968	34	6048
2026-01-18 16:32:23.07	32.76	34.61	-30.8	-31.4	28.1	0.00e+00	0	39	0	1571815424	34	5992
2026-01-18 16:32:24.08	32.88	34.82	-30.9	-31.5	28.0	0.00e+00	0	39	0	1577058304	34	6082
2026-01-18 16:32:25.09	32.99	35.04	-30.7	-31.4	28.1	0.00e+00	0	39	0	1582301184	34	5976
2026-01-18 16:32:26.10	33.10	35.26	-30.6	-31.2	28.2	0.00e+00	0	39	0	1588592640	34	5833
2026-01-18 16:32:27.11	33.22	35.48	-30.7	-31.3	28.2	0.00e+00	0	39	0	1593835520	34	5926
2026-01-18 16:32:28.12	33.34	35.70	-30.4	-31.1	28.2	0.00e+00	0	39	0	1600126976	34	5776
2026-01-18 16:32:29.13	33.46	35.93	-30.2	-30.8	28.5	0.00e+00	0	39	0	1605369856	34	5623
2026-01-18 16:32:30.14	33.58	36.15	-30.2	-30.8	28.4	0.00e+00	0	39	0	1611661312	34	5593
2026-01-18 16:32:31.15	33.70	36.38	-30.2	-30.8	28.5	0.00e+00	0	39	0	1616904192	34	5629
2026-01-18 16:32:32.16	33.83	36.61	-30.2	-30.8	28.5	0.00e+00	0	39	0	1623195648	34	5572
2026-01-18 16:32:33.17	33.95	36.83	-30.4	-31.0	28.4	0.00e+00	0	39	0	1628438528	34	5726
2026-01-18 16:32:34.18	34.08	37.07	-30.4	-31.0	28.4	0.00e+00	0	39	0	1633681408	34	5731
2026-01-18 16:32:35.18	34.21	37.30	-30.3	-30.9	28.3	0.00e+00	0	39	0	1639972864	34	5684
2026-01-18 16:32:36.19	34.34	37.53	-30.4	-31.0	28.4	0.00e+00	0	39	0	1645215744	34	5718
2026-01-18 16:32:37.20	34.47	37.76	-30.4	-31.0	28.3	0.00e+00	0	39	0	1650458624	34	5723
2026-01-18 16:32:38.21	34.61	38.00	-30.6	-31.1	28.3	0.00e+00	0	39	0	1656750080	34	5823
2026-01-18 16:32:39.22	34.74	38.24	-30.5	-31.1	28.3	0.00e+00	0	39	0	1661992960	34	5814
2026-01-18 16:32:40.23	34.88	38.48	-30.6	-31.2	28.3	0.00e+00	0	39	0	1668284416	34	5863
2026-01-18 16:32:41.24	35.02	38.72	-30.4	-31.0	28.3	0.00e+00	0	39	0	1673527296	34	5756
2026-01-18 16:32:42.25	35.17	38.96	-30.5	-31.1	28.3	0.00e+00	0	39	0	1678770176	34	5822
2026-01-18 16:32:43.26	35.31	39.21	-30.3	-30.9	28.5	0.00e+00	0	39	0	1685061632	34	5651
2026-01-18 16:32:44.28	35.46	39.46	-30.5	-31.1	28.3	0.00e+00	0	39	0	1690304512	34	5778
2026-01-18 16:32:45.29	35.61	39.70	-30.4	-31.0	28.3	0.00e+00	0	39	0	1696595968	34	5724
2026-01-18 16:32:46.29	35.76	39.95	-30.6	-31.2	28.2	0.00e+00	0	39	0	1701838848	34	5858
2026-01-18 16:32:47.30	35.91	40.20	-30.8	-31.4	28.2	0.00e+00	0	39	0	1708130304	34	5976
2026-01-18 16:32:48.32	36.07	40.46	-30.8	-31.5	28.0	0.00e+00	0	39	0	1713373184	34	6034
2026-01-18 16:32:49.33	36.23	40.71	-30.9	-31.5	28.0	0.00e+00	0	39	0	1719664640	34	6046
2026-01-18 16:32:50.34	36.39	40.97	-30.9	-31.5	28.0	0.00e+00	0	39	0	1724907520	34	6075
2026-01-18 16:32:51.35	36.55	41.22	-30.5	-31.1	28.4	0.00e+00	0	39	0	1730150400	34	5787
2026-01-18 16:32:52.36	36.72	41.48	-30.5	-31.1	28.3	0.00e+00	0	39	0	1736441856	34	5801
2026-01-18 16:32:53.37	36.89	41.74	-30.3	-30.9	28.5	0.00e+00	0	39	0	1741684736	34	5631
2026-01-18 16:32:54.38	37.06	42.00	-30.4	-31.0	28.4	0.00e+00	0	39	0	1747976192	34	5717
2026-01-18 16:32:55.39	37.23	42.27	-30.6	-31.1	28.3	0.00e+00	0	39	0	1753219072	34	5809
2026-01-18 16:32:56.40	37.41	42.53	-30.8	-31.4	28.1	0.00e+00	0	39	0	1758461952	34	5974
2026-01-18 16:32:57.41	37.59	42.80	-31.0	-31.6	27.9	0.00e+00	0	39	0	1764753408	34	6131
2026-01-18 16:32:58.42	37.77	43.07	-31.2	-31.8	27.8	0.00e+00	0	39	0	1769996288	34	6278
2026-01-18 16:32:59.43	37.96	43.34	-31.2	-31.9	27.7	0.00e+00	0	39	0	1776287744	34	6323
2026-01-18 16:33:00.44	38.15	43.61	-31.1	-31.8	27.8	0.00e+00	0	39	0	1781530624	34	6250
2026-01-18 16:33:01.45	38.34	43.88	-31.1	-31.7	27.9	0.00e+00	0	39	0	1786773504	34	6184
2026-01-18 16:33:02.46	38.54	44.16	-31.1	-31.7	27.9	0.00e+00	0	39	0	1793064960	34	6209
2026-01-18 16:33:03.47	38.74	44.43	-31.1	-31.7	27.9	0.00e+00	0	39	0	1798307840	34	6192
2026-01-18 16:33:04.48	38.94	44.71	-31.1	-31.8	27.8	0.00e+00	0	39	0	1804599296	34	6256
2026-01-18 16:33:05.49	39.14	44.99	-31.4	-32.1	27.7	0.00e+00	0	39	0	1809842176	34	6479
2026-01-18 16:33:06.50	39.35	45.27	-31.4	-32.1	27.6	0.00e+00	0	39	0	1816133632	34	6475
2026-01-18 16:33:07.51	39.56	45.55	-31.2	-31.8	27.8	0.00e+00	0	39	0	1821376512	34	6295
2026-01-18 16:33:08.52	39.78	45.84	-31.4	-32.0	27.8	0.00e+00	0	39	0	1827667968	34	6424
2026-01-18 16:33:09.52	40.00	46.12	-31.0	-31.6	27.9	0.00e+00	0	39	0	1832910848	34	6158
2026-01-18 16:33:10.53	40.22	46.41	-31.1	-31.7	27.9	0.00e+00	0	39	0	1838153728	34	6207
2026-01-18 16:33:11.54	40.45	46.70	-31.5	-32.1	27.5	0.00e+00	0	39	0	1844445184	34	6469
2026-01-18 16:33:12.55	40.69	46.99	-31.6	-32.2	27.5	0.00e+00	0	39	0	1849688064	34	6614
2026-01-18 16:33:13.56	40.92	47.28	-31.5	-32.1	27.6	0.00e+00	0	39	0	1855979520	34	6520
2026-01-18 16:33:14.57	41.16	47.57	-31.2	-31.8	27.8	0.00e+00	0	39	0	1861222400	34	6307
2026-01-18 16:33:15.58	41.41	47.87	-31.1	-31.7	27.8	0.00e+00	0	39	0	1866465280	34	6241
2026-01-18 16:33:16.59	41.66	48.16	-31.1	-31.7	28.0	0.00e+00	0	39	0	1872756736	34	6191
2026-01-18 16:33:17.61	41.92	48.47	-30.7	-31.3	28.1	0.00e+00	0	39	0	1877999616	34	5950
2026-01-18 16:33:18.62	42.18	48.76	-30.9	-31.5	28.1	0.00e+00	0	39	0	1884291072	34	6055
2026-01-18 16:33:19.63	42.44	49.07	-30.8	-31.4	28.1	0.00e+00	0	39	0	1889533952	34	5984
2026-01-18 16:33:20.64	42.71	49.37	-30.8	-31.4	28.1	0.00e+00	0	39	0	1894776832	34	5988
2026-01-18 16:33:21.64	42.99	49.67	-30.9	-31.5	27.9	0.00e+00	0	39	0	1901068288	34	6041
2026-01-18 16:33:22.65	43.27	49.97	-31.2	-31.8	27.8	0.00e+00	0	39	0	1906311168	34	6298
2026-01-18 16:33:23.67	43.56	50.28	-31.4	-32.0	27.6	0.00e+00	0	39	0	1912602624	34	6436
2026-01-18 16:33:24.68	43.85	50.59	-31.5	-32.2	27.6	0.00e+00	0	39	0	1917845504	34	6549
2026-01-18 16:33:25.68	44.15	50.90	-31.4	-32.0	27.6	0.00e+00	0	39	0	1924136960	34	6429
2026-01-18 16:33:26.70	44.46	51.21	-31.2	-31.8	27.7	0.00e+00	0	39	0	1929379840	34	6263
2026-01-18 16:33:27.71	44.77	51.52	-31.3	-32.0	27.7	0.00e+00	0	39	0	1934622720	34	6399
2026-01-18 16:33:28.72	45.08	51.83	-31.6	-32.2	27.5	0.00e+00	0	39	0	1940914176	34	6551
2026-01-18 16:33:29.73	45.41	52.15	-31.4	-32.0	27.7	0.00e+00	0	39	0	1946157056	34	6420
2026-01-18 16:33:30.73	45.74	52.46	-31.5	-32.1	27.6	0.00e+00	0	39	0	1952448512	34	6531
2026-01-18 16:33:31.75	46.08	52.78	-31.7	-32.3	27.4	0.00e+00	0	39	0	1957691392	34	6672
2026-01-18 16:33:32.76	46.42	53.09	-31.8	-32.4	27.3	0.00e+00	0	39	0	1962934272	36	5996
2026-01-18 16:33:33.77	46.78	53.41	-31.8	-32.4	27.3	0.00e+00	0	39	0	1969225728	36	6030
2026-01-18 16:33:34.78	47.14	53.73	-31.7	-32.4	27.4	0.00e+00	0	39	0	1974468608	36	5990
2026-01-18 16:33:35.79	47.51	54.05	-31.8	-32.5	27.3	0.00e+00	0	39	0	1980760064	36	6058
2026-01-18 16:33:36.80	47.88	54.37	-31.8	-32.4	27.4	0.00e+00	0	39	0	1986002944	36	5979
2026-01-18 16:33:37.81	48.27	54.69	-32.0	-32.6	27.2	0.00e+00	0	39	0	1992294400	36	6151
2026-01-18 16:33:38.82	48.66	55.01	-32.1	-32.7	27.1	0.00e+00	0	39	0	1997537280	36	6226
2026-01-18 16:33:39.83	49.07	55.34	-32.3	-32.9	26.9	0.00e+00	0	39	0	2002780160	36	6387
2026-01-18 16:33:40.84	49.48	55.66	-32.3	-33.0	26.9	0.00e+00	0	39	0	2009071616	36	6421
2026-01-18 16:33:41.85	49.90	55.98	-32.1	-32.7	27.1	0.00e+00	0	39	0	2014314496	36	6193
2026-01-18 16:33:42.86	50.33	56.31	-32.1	-32.7	27.0	0.00e+00	0	39	0	2020605952	36	6190
2026-01-18 16:33:43.87	50.77	56.63	-31.9	-32.5	27.1	0.00e+00	0	39	0	2025848832	36	6098
2026-01-18 16:33:44.88	51.23	56.96	-31.6	-32.3	27.4	0.00e+00	0	39	0	2032140288	36	5912
2026-01-18 16:33:45.89	51.69	57.28	-31.5	-32.1	27.5	0.00e+00	0	39	0	2037383168	36	5812
2026-01-18 16:33:46.90	52.16	57.61	-31.8	-32.4	27.3	0.00e+00	0	39	0	2042626048	36	6008
2026-01-18 16:33:47.91	52.65	57.93	-32.0	-32.6	27.2	0.00e+00	0	39	0	2048917504	36	6141
2026-01-18 16:33:48.92	53.15	58.26	-31.8	-32.4	27.3	0.00e+00	0	39	0	2054160384	36	6019
2026-01-18 16:33:49.93	53.65	58.58	-31.7	-32.3	27.5	0.00e+00	0	39	0	2060451840	36	5943
2026-01-18 16:33:50.94	54.18	58.90	-31.3	-32.0	27.6	0.00e+00	0	39	0	2065694720	36	5696
2026-01-18 16:33:51.95	54.71	59.23	-31.4	-32.0	27.5	0.00e+00	0	39	0	2070937600	36	5733
2026-01-18 16:33:52.96	55.26	59.55	-31.5	-32.1	27.6	0.00e+00	0	39	0	2077229056	36	5778
2026-01-18 16:33:53.97	55.82	59.87	-31.5	-32.1	27.6	0.00e+00	0	39	0	2082471936	36	5793
2026-01-18 16:33:54.98	56.40	60.20	-31.4	-32.1	27.7	0.00e+00	0	39	0	2088763392	36	5776
2026-01-18 16:33:55.99	56.99	60.52	-31.3	-32.0	27.8	0.00e+00	0	39	0	2094006272	36	5715
2026-01-18 16:33:57.00	57.59	60.84	-31.1	-31.7	27.8	0.00e+00	0	39	0	2099249152	36	5553
2026-01-18 16:33:58.01	58.21	61.15	-31.1	-31.7	27.8	0.00e+00	0	39	0	2105540608	36	5562
2026-01-18 16:33:59.02	58.85	61.47	-30.5	-31.1	28.2	0.00e+00	0	39	0	2110783488	34	5788
2026-01-18 16:34:00.03	59.50	61.79	-30.4	-31.0	28.4	0.00e+00	0	39	0	2117074944	34	5748
2026-01-18 16:34:01.04	60.17	62.10	-30.6	-31.2	28.3	0.00e+00	0	39	0	2122317824	34	5858
2026-01-18 16:34:02.05	60.86	62.41	-30.7	-31.3	28.1	0.00e+00	0	39	0	2128609280	34	5936
2026-01-18 16:34:03.06	61.56	62.72	-30.5	-31.1	28.3	0.00e+00	0	39	0	2133852160	34	5812
2026-01-18 16:34:04.07	62.29	63.03	-30.4	-31.1	28.4	0.00e+00	0	39	0	2140143616	34	5764
2026-01-18 16:34:05.08	63.03	63.33	-30.6	-31.2	28.2	0.00e+00	0	39	0	2145386496	34	5884
2026-01-18 16:34:06.09	63.79	63.63	-30.4	-31.0	28.4	0.00e+00	0	40	0	2150629376	34	5751
2026-01-18 16:34:07.10	64.57	63.93	-30.4	-31.0	28.3	0.00e+00	0	39	0	2156920832	34	5744
2026-01-18 16:34:08.11	65.37	64.23	-30.2	-30.8	28.5	0.00e+00	0	39	0	2162163712	34	5592
2026-01-18 16:34:09.12	66.19	64.52	-30.1	-30.7	28.6	0.00e+00	0	39	0	2168455168	34	5507
2026-01-18 16:34:10.13	67.03	64.81	-30.2	-30.8	28.4	0.00e+00	0	39	0	2173698048	34	5594
2026-01-18 16:34:11.14	67.90	65.10	-30.4	-31.0	28.4	0.00e+00	0	39	0	2178940928	34	5712
2026-01-18 16:34:12.15	68.78	65.38	-30.2	-30.8	28.5	0.00e+00	0	39	0	2185232384	34	5572
2026-01-18 16:34:13.16	69.69	65.65	-30.2	-30.8	28.4	0.00e+00	0	39	0	2190475264	34	5568
2026-01-18 16:34:14.17	70.62	65.93	-30.3	-30.9	28.5	0.00e+00	0	40	0	2196766720	34	5636
2026-01-18 16:34:15.18	71.58	66.19	-30.3	-30.9	28.5	0.00e+00	0	39	0	2202009600	34	5665
2026-01-18 16:34:16.19	72.55	66.45	-29.9	-30.5	28.7	0.00e+00	0	39	0	2207252480	34	5405
2026-01-18 16:34:17.20	73.56	66.71	-30.1	-30.6	28.6	0.00e+00	0	39	0	2213543936	34	5488
2026-01-18 16:34:18.21	74.58	66.96	-30.4	-31.0	28.3	0.00e+00	0	39	0	2218786816	34	5748
2026-01-18 16:34:19.22	75.63	67.20	-30.5	-31.1	28.2	0.00e+00	0	39	0	2225078272	34	5819
2026-01-18 16:34:20.23	76.71	67.44	-30.3	-30.9	28.5	0.00e+00	0	40	0	2230321152	34	5657
2026-01-18 16:34:21.24	77.80	67.67	-30.0	-30.6	28.7	0.00e+00	0	39	0	2236612608	34	5461
2026-01-18 16:34:22.25	78.93	67.90	-30.2	-30.8	28.5	0.00e+00	0	39	0	2241855488	34	5610
2026-01-18 16:34:23.26	80.08	68.11	-30.5	-31.2	28.3	0.00e+00	0	39	0	2248146944	34	5833
2026-01-18 16:34:24.27	81.25	68.32	-30.2	-30.8	28.5	0.00e+00	0	39	0	2253389824	34	5579
2026-01-18 16:34:25.28	82.45	68.53	-30.0	-30.6	28.7	0.00e+00	0	39	0	2258632704	34	5446
2026-01-18 16:34:26.28	83.66	68.72	-30.5	-31.1	28.2	0.00e+00	0	39	0	2264924160	34	5804
2026-01-18 16:34:27.29	84.90	68.90	-30.5	-31.1	28.4	0.00e+00	0	39	0	2270167040	34	5791
2026-01-18 16:34:28.30	86.17	69.08	-30.1	-30.7	28.5	0.00e+00	0	39	0	2275409920	34	5545
2026-01-18 16:34:29.31	87.46	69.24	-30.1	-30.6	28.7	0.00e+00	0	39	0	2281701376	34	5498
2026-01-18 16:34:30.32	88.77	69.40	-30.2	-30.8	28.5	0.00e+00	0	39	0	2286944256	34	5592
2026-01-18 16:34:31.33	90.10	69.54	-30.2	-30.9	28.5	0.00e+00	0	39	0	2293235712	34	5638
2026-01-18 16:34:32.34	91.45	69.68	-30.1	-30.7	28.5	0.00e+00	0	39	0	2298478592	34	5563
2026-01-18 16:34:33.35	92.82	69.81	-30.1	-30.6	28.5	0.00e+00	0	39	0	2303721472	34	5500
2026-01-18 16:34:34.36	94.21	69.92	-30.1	-30.7	28.6	0.00e+00	0	39	0	2310012928	34	5548
2026-01-18 16:34:35.37	95.62	70.03	-29.9	-30.5	28.8	0.00e+00	0	39	0	2315255808	34	5392
2026-01-18 16:34:36.38	97.04	70.12	-29.7	-30.3	28.8	0.00e+00	0	39	0	2321547264	32	5928
2026-01-18 16:34:37.39	98.47	70.20	-30.1	-30.7	28.6	0.00e+00	0	39	0	2326790144	32	6195
2026-01-18 16:34:38.40	99.91	70.27	-30.0	-30.7	28.6	0.00e+00	0	39	0	2333081600	32	6196
2026-01-18 16:34:39.41	101.37	70.33	-30.1	-30.7	28.6	0.00e+00	0	39	0	2338324480	32	6215
2026-01-18 16:34:40.42	102.83	70.38	-29.8	-30.4	28.7	0.00e+00	0	39	0	2344615936	32	6012
2026-01-18 16:34:41.43	104.30	70.41	-29.9	-30.5	28.8	0.00e+00	0	39	0	2349858816	32	6049
2026-01-18 16:34:42.44	105.78	70.43	-29.9	-30.5	28.7	0.00e+00	0	39	0	2355101696	32	6088
2026-01-18 16:34:43.45	107.25	70.44	-29.9	-30.4	28.7	0.00e+00	0	39	0	2361393152	32	6025
2026-01-18 16:34:44.46	108.73	70.44	-29.6	-30.2	28.9	0.00e+00	0	39	0	2366636032	32	5851
2026-01-18 16:34:45.47	110.21	70.43	-29.7	-30.3	28.9	0.00e+00	0	39	0	2372927488	32	5921
2026-01-18 16:34:46.48	111.68	70.40	-30.0	-30.6	28.5	0.00e+00	0	39	0	2378170368	32	6106
2026-01-18 16:34:47.49	113.15	70.36	-30.0	-30.7	28.6	0.00e+00	0	39	0	2383413248	32	6187
2026-01-18 16:34:48.50	114.61	70.31	-30.0	-30.6	28.6	0.00e+00	0	39	0	2389704704	32	6169
2026-01-18 16:34:49.51	116.06	70.25	-30.0	-30.5	28.4	0.00e+00	0	39	0	2394947584	32	6080
2026-01-18 16:34:50.51	117.49	70.18	-30.1	-30.7	28.3	0.00e+00	0	39	0	2401239040	32	6199
2026-01-18 16:34:51.52	118.92	70.10	-30.2	-30.8	28.5	0.00e+00	0	39	0	2406481920	32	6253
2026-01-18 16:34:52.53	120.34	70.00	-30.0	-30.6	28.6	0.00e+00	0	39	0	2411724800	32	6141
2026-01-18 16:34:53.54	121.74	69.89	-29.9	-30.5	28.7	0.00e+00	0	39	0	2418016256	32	6079
2026-01-18 16:34:54.55	123.13	69.78	-29.7	-30.3	28.8	0.00e+00	0	39	0	2423259136	32	5951
2026-01-18 16:34:55.57	124.51	69.65	-30.0	-30.5	28.6	0.00e+00	0	39	0	2429550592	32	6091
2026-01-18 16:34:56.58	125.85	69.51	-30.2	-30.8	28.5	0.00e+00	0	39	0	2434793472	32	6269
2026-01-18 16:34:57.58	127.17	69.36	-30.3	-30.9	28.5	0.00e+00	0	39	0	2441084928	32	6328
2026-01-18 16:34:58.59	128.48	69.20	-30.7	-31.3	28.1	0.00e+00	0	39	0	2446327808	32	6678
2026-01-18 16:34:59.60	129.76	69.03	-30.3	-30.9	28.4	0.00e+00	0	39	0	2451570688	32	6378
2026-01-18 16:35:00.61	131.02	68.85	-30.3	-30.8	28.5	0.00e+00	0	39	0	2457862144	32	6295
2026-01-18 16:35:01.62	132.26	68.67	-30.2	-30.8	28.5	0.00e+00	0	39	0	2463105024	32	6314
2026-01-18 16:35:02.63	133.48	68.47	-30.4	-31.0	28.4	0.00e+00	0	39	0	2469396480	32	6445
2026-01-18 16:35:03.64	134.67	68.27	-30.1	-30.7	28.5	0.00e+00	0	39	0	2474639360	32	6185
2026-01-18 16:35:04.65	135.84	68.06	-30.2	-30.7	28.6	0.00e+00	0	39	0	2479882240	32	6244
2026-01-18 16:35:05.66	136.98	67.84	-30.0	-30.6	28.7	0.00e+00	0	39	0	2486173696	32	6119
2026-01-18 16:35:06.67	138.10	67.61	-30.0	-30.5	28.7	0.00e+00	0	39	0	2491416576	32	6068
2026-01-18 16:35:07.68	139.19	67.38	-30.3	-30.9	28.4	0.00e+00	0	39	0	2497708032	32	6361
2026-01-18 16:35:08.69	140.26	67.14	-30.2	-30.9	28.5	0.00e+00	0	39	0	2502950912	32	6331
2026-01-18 16:35:09.70	141.30	66.89	-30.1	-30.6	28.6	0.00e+00	0	39	0	2508193792	32	6143
2026-01-18 16:35:10.71	142.32	66.64	-30.2	-30.7	28.5	0.00e+00	0	39	0	2514485248	32	6220
2026-01-18 16:35:11.72	143.32	66.38	-30.4	-30.9	28.4	0.00e+00	0	39	0	2519728128	32	6371
2026-01-18 16:35:12.73	144.29	66.12	-30.3	-31.0	28.5	0.00e+00	0	39	0	2526019584	32	6398
2026-01-18 16:35:13.74	145.24	65.85	-30.3	-30.8	28.5	0.00e+00	0	39	0	2531262464	32	6310
2026-01-18 16:35:14.75	146.17	65.57	-30.3	-31.0	28.4	0.00e+00	0	39	0	2537553920	32	6440
2026-01-18 16:35:15.76	147.07	65.30	-30.3	-31.0	28.5	0.00e+00	0	39	0	2542796800	32	6425
2026-01-18 16:35:16.77	147.95	65.01	-30.3	-30.9	28.4	0.00e+00	0	39	0	2549088256	32	6386
2026-01-18 16:35:17.78	148.81	64.73	-30.1	-30.7	28.6	0.00e+00	0	39	0	2554331136	32	6204
2026-01-18 16:35:18.79	149.65	64.44	-30.2	-30.7	28.6	0.00e+00	0	39	0	2559574016	32	6208
2026-01-18 16:35:19.80	150.47	64.14	-30.2	-30.9	28.5	0.00e+00	0	39	0	2565865472	32	6342
2026-01-18 16:35:20.81	151.26	63.84	-30.2	-30.9	28.4	0.00e+00	0	39	0	2571108352	32	6328
2026-01-18 16:35:21.82	152.04	63.54	-30.1	-30.6	28.6	0.00e+00	0	39	0	2577399808	32	6170
2026-01-18 16:35:22.83	152.79	63.24	-30.2	-30.8	28.5	0.00e+00	0	39	0	2582642688	32	6296
2026-01-18 16:35:23.84	153.53	62.94	-30.5	-31.1	28.4	0.00e+00	0	39	0	2587885568	32	6501
2026-01-18 16:35:24.85	154.25	62.63	-30.5	-31.2	28.2	0.00e+00	0	39	0	2594177024	32	6547
2026-01-18 16:35:25.86	154.95	62.32	-30.5	-31.2	28.2	0.00e+00	0	39	0	2599419904	32	6548
2026-01-18 16:35:26.87	155.63	62.00	-30.6	-31.2	28.2	0.00e+00	0	39	0	2605711360	34	5860
2026-01-18 16:35:27.88	156.30	61.69	-30.2	-30.7	28.5	0.00e+00	0	39	0	2610954240	34	5565
2026-01-18 16:35:28.89	156.95	61.37	-30.0	-30.5	28.7	0.00e+00	0	39	0	2616197120	34	5383
2026-01-18 16:35:29.90	157.58	61.05	-30.5	-31.0	28.4	0.00e+00	0	39	0	2622488576	34	5749
2026-01-18 16:35:30.91	158.20	60.73	-30.9	-31.6	28.0	0.00e+00	0	39	0	2627731456	34	6137
2026-01-18 16:35:31.92	158.80	60.41	-30.9	-31.5	27.9	0.00e+00	0	39	0	2634022912	34	6071
2026-01-18 16:35:32.93	159.39	60.09	-30.8	-31.4	28.0	0.00e+00	0	40	0	2639265792	34	5976
2026-01-18 16:35:33.94	159.96	59.77	-30.9	-31.5	28.0	0.00e+00	0	39	0	2645557248	34	6054
2026-01-18 16:35:34.95	160.52	59.45	-31.1	-31.7	27.8	0.00e+00	0	39	0	2650800128	34	6213
2026-01-18 16:35:35.96	161.06	59.12	-31.4	-32.1	27.6	0.00e+00	0	39	0	2657091584	34	6484
2026-01-18 16:35:36.97	161.59	58.80	-31.4	-32.0	27.6	0.00e+00	0	39	0	2662334464	34	6432
2026-01-18 16:35:37.98	162.11	58.47	-31.2	-31.9	27.8	0.00e+00	0	39	0	2667577344	34	6336
2026-01-18 16:35:38.99	162.62	58.15	-31.1	-31.8	27.8	0.00e+00	0	39	0	2673868800	34	6299
2026-01-18 16:35:40.00	163.11	57.82	-31.2	-31.8	27.7	0.00e+00	0	40	0	2679111680	34	6299
2026-01-18 16:35:41.01	163.60	57.49	-31.2	-31.9	27.8	0.00e+00	0	39	0	2684354560	34	6355
2026-01-18 16:35:42.02	164.07	57.17	-31.2	-31.8	27.7	0.00e+00	0	40	0	2690646016	34	6299
2026-01-18 16:35:43.03	164.53	56.84	-31.2	-31.8	27.7	0.00e+00	0	39	0	2695888896	34	6260
2026-01-18 16:35:44.04	164.98	56.52	-31.4	-31.9	27.6	0.00e+00	0	39	0	2702180352	34	6390
2026-01-18 16:35:45.05	165.42	56.19	-31.7	-32.3	27.3	0.00e+00	0	40	0	2707423232	34	6681
2026-01-18 16:35:46.06	165.85	55.87	-31.9	-32.6	27.2	0.00e+00	0	40	0	2712666112	36	6107
2026-01-18 16:35:47.07	166.27	55.54	-31.9	-32.5	27.2	0.00e+00	0	39	0	2718957568	36	6073
2026-01-18 16:35:48.08	166.68	55.22	-31.8	-32.3	27.4	0.00e+00	0	39	0	2724200448	36	5949
2026-01-18 16:35:49.09	167.08	54.90	-31.7	-32.3	27.5	0.00e+00	0	39	0	2730491904	36	5953
2026-01-18 16:35:50.10	167.47	54.57	-31.6	-32.3	27.4	0.00e+00	0	39	0	2735734784	36	5941
2026-01-18 16:35:51.10	167.85	54.25	-31.8	-32.4	27.2	0.00e+00	0	39	0	2742026240	36	5981
2026-01-18 16:35:52.11	168.22	53.93	-32.0	-32.6	27.2	0.00e+00	0	40	0	2747269120	36	6152
2026-01-18 16:35:53.12	168.59	53.61	-31.9	-32.6	27.2	0.00e+00	0	39	0	2753560576	36	6108
2026-01-18 16:35:54.13	168.95	53.29	-31.8	-32.4	27.2	0.00e+00	0	39	0	2758803456	36	5996
2026-01-18 16:35:55.14	169.30	52.97	-31.7	-32.4	27.3	0.00e+00	0	40	0	2764046336	36	6025
2026-01-18 16:35:56.15	169.65	52.66	-31.7	-32.3	27.3	0.00e+00	0	40	0	2770337792	36	5917
2026-01-18 16:35:57.16	169.98	52.34	-31.6	-32.1	27.4	0.00e+00	0	40	0	2775580672	36	5820
2026-01-18 16:35:58.17	170.31	52.02	-31.5	-32.2	27.4	0.00e+00	0	39	0	2781872128	36	5844
2026-01-18 16:35:59.18	170.63	51.71	-31.4	-31.9	27.6	0.00e+00	0	39	0	2787115008	36	5667
2026-01-18 16:36:00.19	170.95	51.40	-31.4	-32.0	27.4	0.00e+00	0	39	0	2792357888	36	5708
2026-01-18 16:36:01.20	171.26	51.08	-31.4	-32.0	27.4	0.00e+00	0	40	0	2798649344	36	5727
2026-01-18 16:36:02.21	171.56	50.77	-31.4	-31.9	27.4	0.00e+00	0	39	0	2803892224	36	5688
2026-01-18 16:36:03.22	171.86	50.46	-31.3	-31.9	27.5	0.00e+00	0	39	0	2810183680	36	5641
2026-01-18 16:36:04.23	172.15	50.16	-31.3	-32.0	27.7	0.00e+00	0	39	0	2815426560	36	5716
2026-01-18 16:36:05.24	172.44	49.85	-30.8	-31.3	28.1	0.00e+00	0	40	0	2820669440	36	5295
2026-01-18 16:36:06.24	172.71	49.55	-30.6	-31.1	28.1	0.00e+00	0	39	0	2826960896	34	5804
2026-01-18 16:36:07.25	172.99	49.24	-30.4	-31.1	28.2	0.00e+00	0	40	0	2832203776	34	5782
2026-01-18 16:36:08.26	173.26	48.94	-30.7	-31.2	28.2	0.00e+00	0	40	0	2838495232	34	5866
2026-01-18 16:36:09.27	173.52	48.64	-30.8	-31.5	28.2	0.00e+00	0	39	0	2843738112	34	6034
2026-01-18 16:36:10.28	173.78	48.34	-30.9	-31.6	27.9	0.00e+00	0	39	0	2850029568	34	6116
2026-01-18 16:36:11.29	174.04	48.04	-31.0	-31.6	27.8	0.00e+00	0	39	0	2855272448	34	6167
2026-01-18 16:36:12.30	174.29	47.74	-31.2	-31.8	27.7	0.00e+00	0	40	0	2860515328	34	6293
2026-01-18 16:36:13.31	174.53	47.45	-31.2	-31.9	27.6	0.00e+00	0	39	0	2866806784	34	6361
2026-01-18 16:36:14.32	174.77	47.15	-31.3	-32.1	27.5	0.00e+00	0	39	0	2872049664	34	6466
2026-01-18 16:36:15.31	175.00	46.86	-31.4	-31.9	27.6	0.00e+00	0	39	0	2878341120	34	6372
2026-01-18 16:36:16.32	175.23	46.57	-31.2	-31.9	27.7	0.00e+00	0	40	0	2883584000	34	6370
2026-01-18 16:36:17.33	175.46	46.28	-31.3	-32.0	27.8	0.00e+00	0	40	0	2888826880	34	6405
2026-01-18 16:36:18.34	175.69	46.00	-30.9	-31.4	28.0	0.00e+00	0	39	0	2895118336	34	6003
2026-01-18 16:36:19.35	175.90	45.71	-30.9	-31.5	28.0	0.00e+00	0	40	0	2900361216	34	6095
2026-01-18 16:36:20.36	176.12	45.42	-30.9	-31.5	28.0	0.00e+00	0	39	0	2906652672	34	6055
2026-01-18 16:36:21.37	176.33	45.14	-31.0	-31.5	27.9	0.00e+00	0	39	0	2911895552	34	6075
2026-01-18 16:36:22.38	176.54	44.86	-31.1	-31.6	27.9	0.00e+00	0	39	0	2918187008	34	6151
2026-01-18 16:36:23.40	176.75	44.58	-30.9	-31.5	27.9	0.00e+00	0	40	0	2923429888	34	6086
2026-01-18 16:36:24.41	176.95	44.30	-30.7	-31.2	28.1	0.00e+00	0	39	0	2928672768	34	5872
2026-01-18 16:36:25.42	177.15	44.02	-30.7	-31.4	28.2	0.00e+00	0	39	0	2934964224	34	5980
2026-01-18 16:36:26.43	177.34	43.75	-30.4	-31.1	28.3	0.00e+00	0	39	0	2940207104	34	5793
2026-01-18 16:36:27.44	177.53	43.47	-30.4	-30.9	28.4	0.00e+00	0	39	0	2946498560	34	5652
2026-01-18 16:36:28.45	177.72	43.20	-30.4	-31.1	28.3	0.00e+00	0	39	0	2951741440	34	5772
2026-01-18 16:36:29.46	177.91	42.93	-30.6	-31.2	28.2	0.00e+00	0	39	0	2956984320	34	5896
2026-01-18 16:36:30.47	178.09	42.66	-30.7	-31.2	28.1	0.00e+00	0	39	0	2963275776	34	5879
2026-01-18 16:36:31.48	178.27	42.39	-30.5	-31.1	28.3	0.00e+00	0	40	0	2968518656	34	5768
2026-01-18 16:36:32.49	178.44	42.13	-30.4	-31.1	28.2	0.00e+00	0	39	0	2974810112	34	5807
2026-01-18 16:36:33.50	178.62	41.86	-30.5	-31.2	28.2	0.00e+00	0	40	0	2980052992	34	5867
2026-01-18 16:36:34.51	178.79	41.60	-30.4	-31.1	28.2	0.00e+00	0	40	0	2986344448	34	5803
2026-01-18 16:36:35.52	178.95	41.34	-30.4	-31.1	28.2	0.00e+00	0	39	0	2991587328	34	5780
2026-01-18 16:36:36.52	179.12	41.08	-30.7	-31.2	28.2	0.00e+00	0	39	0	2996830208	34	5879
2026-01-18 16:36:37.54	179.28	40.82	-30.6	-31.1	28.0	0.00e+00	0	40	0	3003121664	34	5814
2026-01-18 16:36:38.55	179.44	40.57	-30.4	-31.0	28.3	0.00e+00	0	40	0	3008364544	34	5698
2026-01-18 16:36:39.56	179.60	40.31	-30.2	-30.8	28.4	0.00e+00	0	40	0	3014656000	34	5578
2026-01-18 16:36:40.57	179.76	40.06	-30.2	-30.7	28.5	0.00e+00	0	40	0	3019898880	34	5532
2026-01-18 16:36:41.58	179.91	39.81	-30.1	-30.6	28.5	0.00e+00	0	40	0	3025141760	34	5498
2026-01-18 16:36:42.59	180.06	39.56	-30.1	-30.6	28.5	0.00e+00	0	39	0	3031433216	34	5498
2026-01-18 16:36:43.59	180.21	39.31	-30.2	-30.7	28.5	0.00e+00	0	39	0	3036676096	34	5526
2026-01-18 16:36:44.61	180.36	39.07	-30.0	-30.5	28.5	0.00e+00	0	39	0	3042967552	34	5433
2026-01-18 16:36:45.61	180.50	38.82	-30.1	-30.8	28.4	0.00e+00	0	39	0	3048210432	34	5594
2026-01-18 16:36:46.62	180.64	38.58	-30.0	-30.6	28.5	0.00e+00	0	40	0	3053453312	34	5444
2026-01-18 16:36:47.63	180.78	38.34	-30.2	-30.8	28.4	0.00e+00	0	40	0	3059744768	34	5622
2026-01-18 16:36:48.64	180.92	38.10	-30.3	-30.9	28.4	0.00e+00	0	39	0	3064987648	34	5695
2026-01-18 16:36:49.65	181.06	37.86	-30.3	-31.0	28.3	0.00e+00	0	39	0	3071279104	34	5753
2026-01-18 16:36:50.66	181.19	37.62	-30.5	-31.0	28.2	0.00e+00	0	39	0	3076521984	34	5749
2026-01-18 16:36:51.67	181.32	37.39	-30.6	-31.2	28.1	0.00e+00	0	39	0	3082813440	34	5833
2026-01-18 16:36:52.68	181.45	37.15	-30.6	-31.3	28.1	0.00e+00	0	40	0	3088056320	34	5912
2026-01-18 16:36:53.69	181.58	36.92	-30.5	-31.2	28.2	0.00e+00	0	40	0	3094347776	34	5855
2026-01-18 16:36:54.70	181.71	36.69	-30.4	-30.9	28.3	0.00e+00	0	39	0	3099590656	34	5666
2026-01-18 16:36:55.71	181.83	36.46	-30.2	-30.7	28.4	0.00e+00	0	40	0	3104833536	34	5564
2026-01-18 16:36:56.72	181.96	36.23	-30.2	-30.8	28.4	0.00e+00	0	39	0	3111124992	34	5626
2026-01-18 16:36:57.73	182.08	36.00	-30.3	-30.9	28.3	0.00e+00	0	39	0	3116367872	34	5694
2026-01-18 16:36:58.74	182.20	35.78	-30.4	-31.0	28.3	0.00e+00	0	39	0	3122659328	34	5744
2026-01-18 16:36:59.74	182.32	35.55	-30.2	-30.7	28.4	0.00e+00	0	39	0	3127902208	34	5542
2026-01-18 16:37:00.75	182.44	35.33	-30.3	-30.9	28.4	0.00e+00	0	40	0	3133145088	34	5632
2026-01-18 16:37:01.76	182.55	35.11	-30.4	-30.9	28.3	0.00e+00	0	39	0	3139436544	34	5695
2026-01-18 16:37:02.78	182.67	34.89	-30.5	-31.0	28.2	0.00e+00	0	39	0	3144679424	34	5719
2026-01-18 16:37:03.79	182.78	34.67	-30.4	-31.0	28.2	0.00e+00	0	39	0	3150970880	34	5716
2026-01-18 16:37:04.80	182.89	34.45	-30.5	-31.1	28.2	0.00e+00	0	39	0	3156213760	34	5787
2026-01-18 16:37:05.81	183.00	34.24	-30.4	-31.0	28.2	0.00e+00	0	40	0	3161456640	34	5701
2026-01-18 16:37:06.82	183.11	34.02	-30.6	-31.1	28.2	0.00e+00	0	40	0	3167748096	34	5788
2026-01-18 16:37:07.83	183.22	33.81	-30.5	-31.2	28.2	0.00e+00	0	40	0	3172990976	34	5848
2026-01-18 16:37:08.84	183.32	33.60	-30.6	-31.3	28.1	0.00e+00	0	39	0	3179282432	34	5918
2026-01-18 16:37:09.85	183.43	33.39	-30.4	-31.1	28.3	0.00e+00	0	39	0	3184525312	34	5791
2026-01-18 16:37:10.86	183.53	33.18	-30.3	-31.0	28.3	0.00e+00	0	39	0	3190816768	34	5732
2026-01-18 16:37:11.87	183.63	32.97	-30.5	-31.0	28.2	0.00e+00	0	39	0	3196059648	34	5742
2026-01-18 16:37:12.88	183.73	32.77	-30.4	-30.9	28.2	0.00e+00	0	39	0	3201302528	34	5682
2026-01-18 16:37:13.89	183.83	32.56	-30.5	-31.0	28.1	0.00e+00	0	40	0	3207593984	34	5760
2026-01-18 16:37:14.90	183.93	32.36	-30.7	-31.2	28.1	0.00e+00	0	40	0	3212836864	34	5864
2026-01-18 16:37:15.91	184.03	32.16	-30.7	-31.4	28.0	0.00e+00	0	40	0	3219128320	34	6000
2026-01-18 16:37:16.92	184.12	31.96	-30.8	-31.5	27.8	0.00e+00	0	40	0	3224371200	34	6092
2026-01-18 16:37:17.94	184.22	31.76	-30.9	-31.6	27.9	0.00e+00	0	40	0	3230662656	34	6129
2026-01-18 16:37:18.95	184.31	31.56	-30.9	-31.6	27.8	0.00e+00	0	40	0	3235905536	34	6170
2026-01-18 16:37:19.96	184.41	31.36	-30.9	-31.6	27.9	0.00e+00	0	40	0	3241148416	34	6156
2026-01-18 16:37:20.96	184.50	31.17	-30.9	-31.6	27.8	0.00e+00	0	40	0	3247439872	34	6152
2026-01-18 16:37:21.98	184.59	30.97	-30.9	-31.5	27.9	0.00e+00	0	40	0	3252682752	34	6040
2026-01-18 16:37:22.98	184.68	30.78	-30.7	-31.3	28.0	0.00e+00	0	40	0	3258974208	34	5932
2026-01-18 16:37:23.99	184.76	30.59	-30.8	-31.4	27.8	0.00e+00	0	40	0	3264217088	34	5977
2026-01-18 16:37:25.01	184.85	30.39	-30.8	-31.5	28.0	0.00e+00	0	39	0	3269459968	34	6056
2026-01-18 16:37:26.02	184.94	30.20	-30.8	-31.5	27.9	0.00e+00	0	39	0	3275751424	34	6080
2026-01-18 16:37:27.03	185.02	30.01	-30.8	-31.5	27.9	0.00e+00	0	39	0	3280994304	34	6036
2026-01-18 16:37:28.04	185.11	29.83	-30.8	-31.3	28.0	0.00e+00	0	39	0	3287285760	34	5926
2026-01-18 16:37:29.05	185.19	29.64	-30.5	-31.1	28.2	0.00e+00	0	40	0	3292528640	34	5772
2026-01-18 16:37:30.06	185.28	29.46	-30.6	-31.1	28.1	0.00e+00	0	40	0	3298820096	34	5823
2026-01-18 16:37:31.06	185.36	29.27	-30.7	-31.4	27.9	0.00e+00	0	40	0	3304062976	34	5993
2026-01-18 16:37:32.07	185.44	29.09	-30.7	-31.3	28.1	0.00e+00	0	39	0	3309305856	34	5952
2026-01-18 16:37:33.09	185.52	28.91	-30.6	-31.1	28.1	0.00e+00	0	40	0	3315597312	34	5814
2026-01-18 16:37:34.10	185.60	28.73	-30.6	-31.2	28.0	0.00e+00	0	40	0	3320840192	34	5830
2026-01-18 16:37:35.10	185.68	28.55	-30.6	-31.3	28.0	0.00e+00	0	40	0	3327131648	34	5940
2026-01-18 16:37:36.11	185.75	28.37	-30.7	-31.3	28.0	0.00e+00	0	40	0	3332374528	34	5898
2026-01-18 16:37:37.13	185.83	28.19	-30.8	-31.3	27.9	0.00e+00	0	40	0	3337617408	34	5920
2026-01-18 16:37:38.14	185.91	28.01	-30.6	-31.3	28.1	0.00e+00	0	39	0	3343908864	34	5903
2026-01-18 16:37:39.15	185.98	27.84	-30.8	-31.4	28.0	0.00e+00	0	39	0	3349151744	34	6028
2026-01-18 16:37:40.16	186.06	27.67	-30.8	-31.3	27.9	0.00e+00	0	39	0	3355443200	34	5938
2026-01-18 16:37:41.17	186.13	27.49	-30.8	-31.4	27.9	0.00e+00	0	39	0	3360686080	34	5974
2026-01-18 16:37:42.18	186.20	27.32	-30.6	-31.2	28.0	0.00e+00	0	40	0	3365928960	34	5833
2026-01-18 16:37:43.19	186.28	27.15	-30.6	-31.2	28.1	0.00e+00	0	39	0	3372220416	34	5844
2026-01-18 16:37:44.20	186.35	26.98	-30.7	-31.3	27.9	0.00e+00	0	39	0	3377463296	34	5915
2026-01-18 16:37:45.21	186.42	26.81	-30.8	-31.3	28.0	0.00e+00	0	40	0	3383754752	34	5923
2026-01-18 16:37:46.22	186.49	26.64	-30.8	-31.4	28.0	0.00e+00	0	40	0	3388997632	34	5970
2026-01-18 16:37:47.22	186.56	26.48	-30.9	-31.4	27.8	0.00e+00	0	40	0	3395289088	34	6005
2026-01-18 16:37:48.23	186.63	26.31	-31.0	-31.6	27.8	0.00e+00	0	40	0	3400531968	34	6129
2026-01-18 16:37:49.24	186.69	26.15	-31.0	-31.6	27.7	0.00e+00	0	40	0	3406823424	34	6117
2026-01-18 16:37:50.26	186.76	25.98	-31.2	-31.7	27.6	0.00e+00	0	40	0	3412066304	34	6213
2026-01-18 16:37:51.27	186.83	25.82	-31.2	-31.7	27.6	0.00e+00	0	40	0	3417309184	34	6215
2026-01-18 16:37:52.28	186.89	25.66	-31.2	-31.7	27.6	0.00e+00	0	40	0	3423600640	34	6231
2026-01-18 16:37:53.29	186.96	25.49	-31.3	-31.8	27.6	0.00e+00	0	40	0	3428843520	34	6295
2026-01-18 16:37:54.30	187.02	25.33	-31.2	-31.8	27.6	0.00e+00	0	40	0	3435134976	34	6267
2026-01-18 16:37:55.31	187.09	25.17	-31.3	-31.8	27.6	0.00e+00	0	39	0	3440377856	34	6316
2026-01-18 16:37:56.32	187.15	25.02	-31.3	-31.8	27.5	0.00e+00	0	39	0	3445620736	34	6295
2026-01-18 16:37:57.33	187.21	24.86	-31.4	-31.9	27.4	0.00e+00	0	39	0	3451912192	34	6377
2026-01-18 16:37:58.33	187.28	24.70	-31.3	-31.9	27.5	0.00e+00	0	39	0	3457155072	34	6320
2026-01-18 16:37:59.34	187.34	24.55	-31.4	-31.9	27.5	0.00e+00	0	40	0	3463446528	34	6372
2026-01-18 16:38:00.35	187.40	24.39	-31.4	-32.0	27.5	0.00e+00	0	39	0	3468689408	34	6391
2026-01-18 16:38:01.36	187.46	24.24	-31.3	-31.9	27.5	0.00e+00	0	39	0	3473932288	34	6319
2026-01-18 16:38:02.37	187.52	24.09	-31.4	-31.9	27.4	0.00e+00	0	40	0	3480223744	34	6383
2026-01-18 16:38:03.38	187.58	23.93	-31.3	-31.8	27.4	0.00e+00	0	40	0	3485466624	34	6316
2026-01-18 16:38:04.39	187.64	23.78	-31.3	-31.9	27.4	0.00e+00	0	39	0	3491758080	34	6326
2026-01-18 16:38:05.40	187.70	23.63	-31.4	-32.0	27.4	0.00e+00	0	39	0	3497000960	34	6399
2026-01-18 16:38:06.41	187.76	23.48	-31.4	-32.0	27.4	0.00e+00	0	40	0	3503292416	34	6405
2026-01-18 16:38:07.42	187.81	23.33	-31.5	-32.0	27.3	0.00e+00	0	40	0	3508535296	34	6444
2026-01-18 16:38:08.43	187.87	23.19	-31.4	-32.0	27.4	0.00e+00	0	39	0	3513778176	34	6392
2026-01-18 16:38:09.44	187.93	23.04	-31.6	-32.1	27.3	0.00e+00	0	40	0	3520069632	34	6528
2026-01-18 16:38:10.45	187.98	22.89	-31.6	-32.1	27.2	0.00e+00	0	40	0	3525312512	34	6511
2026-01-18 16:38:11.46	188.04	22.75	-31.5	-32.2	27.3	0.00e+00	0	39	0	3531603968	34	6584
2026-01-18 16:38:12.47	188.09	22.60	-31.5	-32.2	27.3	0.00e+00	0	40	0	3536846848	34	6590
2026-01-18 16:38:13.48	188.15	22.46	-31.6	-32.3	27.2	0.00e+00	0	40	0	3543138304	34	6660
2026-01-18 16:38:14.50	188.20	22.31	-31.7	-32.3	27.1	0.00e+00	0	40	0	3548381184	34	6616
2026-01-18 16:38:15.51	188.26	22.17	-31.7	-32.2	27.1	0.00e+00	0	39	0	3553624064	34	6596
2026-01-18 16:38:16.52	188.31	22.03	-31.6	-32.2	27.2	0.00e+00	0	39	0	3559915520	36	5836
2026-01-18 16:38:17.53	188.36	21.89	-31.6	-32.1	27.2	0.00e+00	0	40	0	3565158400	36	5824
2026-01-18 16:38:18.54	188.41	21.75	-31.6	-32.2	27.3	0.00e+00	0	40	0	3571449856	36	5836
2026-01-18 16:38:19.55	188.47	21.61	-31.6	-32.2	27.2	0.00e+00	0	40	0	3576692736	36	5853
2026-01-18 16:38:20.56	188.52	21.47	-31.8	-32.3	27.1	0.00e+00	0	40	0	3581935616	36	5931
2026-01-18 16:38:21.57	188.57	21.33	-31.7	-32.3	27.2	0.00e+00	0	40	0	3588227072	36	5912
2026-01-18 16:38:22.58	188.62	21.20	-31.8	-32.4	27.1	0.00e+00	0	40	0	3593469952	36	5978
2026-01-18 16:38:23.59	188.67	21.06	-31.8	-32.4	27.1	0.00e+00	0	40	0	3599761408	36	5970
2026-01-18 16:38:24.60	188.72	20.92	-31.9	-32.4	27.0	0.00e+00	0	39	0	3605004288	36	6015
2026-01-18 16:38:25.61	188.77	20.79	-31.8	-32.4	27.1	0.00e+00	0	40	0	3611295744	36	5979
2026-01-18 16:38:26.62	188.82	20.65	-31.8	-32.4	27.1	0.00e+00	0	40	0	3616538624	36	5972
2026-01-18 16:38:27.63	188.87	20.52	-31.9	-32.6	27.0	0.00e+00	0	39	0	3621781504	36	6120
2026-01-18 16:38:28.64	188.91	20.39	-31.8	-32.5	27.1	0.00e+00	0	39	0	3628072960	36	6084
2026-01-18 16:38:29.65	188.96	20.26	-32.0	-32.6	27.0	0.00e+00	0	39	0	3633315840	36	6116
2026-01-18 16:38:30.66	189.01	20.12	-32.0	-32.6	26.9	0.00e+00	0	39	0	3639607296	36	6129
2026-01-18 16:38:31.67	189.06	19.99	-32.0	-32.6	27.0	0.00e+00	0	39	0	3644850176	36	6135
2026-01-18 16:38:32.68	189.10	19.86	-32.1	-32.7	26.8	0.00e+00	0	40	0	3650093056	36	6204
2026-01-18 16:38:33.69	189.15	19.73	-32.0	-32.6	26.9	0.00e+00	0	40	0	3656384512	36	6123
2026-01-18 16:38:34.70	189.20	19.61	-32.0	-32.6	26.9	0.00e+00	0	39	0	3661627392	36	6105
