passes_logs/2026/01/18/R4.6S_Anadyr/R4.6S_Anadyr__20260118_011314_NOAA_21_JPSS-2_rec.log

#Pass ID: 20260118_011314_NOAA 21 (JPSS-2)
#Satellite: NOAA 21 (JPSS-2)
#Configuration: NOAA-21
#almurnet v.1.7.20251203
#Start time: 2026-01-18 01:13:15

#Version: 2.2.20231116
#Station: R4.6S_Anadyr
#Location: 177.4865 lon 64.73178 lat
#TLE: 1 54234U 22150A   26017.62066529  .00000042  00000+0  40984-4 0  9994
#TLE: 2 54234  98.7502 318.4887 0000613 271.5460  88.5645 14.19535234165189

#Time	Az	El	Level	Level2	SNR	BER	BlckErr	Temp	State	Recorded	gain1	gain2
2026-01-18 01:13:15.53	181.66	0.04	-49.2	-67.2	3.5	3.02e+01	0	30	0	0	60	88322
2026-01-18 01:13:16.54	181.70	0.10	-49.5	-62.4	3.5	1.52e+00	0	31	104	0	60	46128
2026-01-18 01:13:17.55	181.73	0.15	-49.4	-62.2	3.5	1.52e+00	0	31	104	0	60	45306
2026-01-18 01:13:18.56	181.77	0.21	-49.2	-62.1	3.5	1.52e+00	0	31	104	0	60	44697
2026-01-18 01:13:19.56	181.80	0.27	-50.0	-62.9	3.5	1.51e+00	0	31	104	0	60	49126
2026-01-18 01:13:20.57	181.83	0.33	-49.6	-62.4	3.5	1.52e+00	0	31	104	0	60	46449
2026-01-18 01:13:21.58	181.87	0.39	-50.1	-63.1	3.5	1.52e+00	0	31	104	0	60	49865
2026-01-18 01:13:22.59	181.90	0.45	-49.7	-62.6	3.5	1.51e+00	0	31	104	0	60	47455
2026-01-18 01:13:23.60	181.94	0.51	-49.5	-62.4	3.5	1.52e+00	0	31	104	0	60	46435
2026-01-18 01:13:24.61	181.97	0.57	-49.8	-62.7	3.5	1.52e+00	0	31	104	0	60	47901
2026-01-18 01:13:25.62	182.01	0.63	-49.2	-62.1	3.5	1.52e+00	0	32	104	0	60	44556
2026-01-18 01:13:26.63	182.04	0.69	-49.4	-62.3	3.5	1.52e+00	0	32	104	0	60	45841
2026-01-18 01:13:27.64	182.08	0.75	-49.8	-62.7	3.5	1.52e+00	0	32	104	0	60	47763
2026-01-18 01:13:28.64	182.11	0.81	-50.1	-63.1	3.5	1.52e+00	0	32	104	0	60	50077
2026-01-18 01:13:29.65	182.15	0.87	-49.8	-62.8	3.5	1.52e+00	0	32	104	0	60	48214
2026-01-18 01:13:30.66	182.18	0.93	-49.6	-62.5	3.5	1.52e+00	0	32	104	0	60	46957
2026-01-18 01:13:31.67	182.22	0.99	-49.9	-62.9	3.5	1.52e+00	0	32	104	0	60	48763
2026-01-18 01:13:32.68	182.25	1.05	-49.5	-62.4	3.5	1.52e+00	0	32	104	0	60	46362
2026-01-18 01:13:33.69	182.29	1.11	-49.8	-62.6	3.5	1.52e+00	0	32	104	0	60	47504
2026-01-18 01:13:34.70	182.32	1.17	-49.6	-62.5	3.5	1.52e+00	0	32	104	0	60	46703
2026-01-18 01:13:35.71	182.36	1.23	-49.9	-62.8	3.5	1.52e+00	0	32	104	0	60	48237
2026-01-18 01:13:36.72	182.40	1.29	-49.5	-62.3	3.5	1.52e+00	0	32	104	0	60	45995
2026-01-18 01:13:37.73	182.43	1.35	-50.0	-62.9	3.5	1.52e+00	0	32	104	0	60	49154
2026-01-18 01:13:38.74	182.47	1.41	-49.7	-62.6	3.5	1.52e+00	0	32	104	0	60	47246
2026-01-18 01:13:39.76	182.50	1.48	-49.7	-62.6	3.5	1.52e+00	0	32	104	0	60	47225
2026-01-18 01:13:40.77	182.54	1.54	-49.4	-62.3	3.5	1.52e+00	0	32	104	0	60	45499
2026-01-18 01:13:41.77	182.58	1.60	-49.7	-62.6	3.5	1.52e+00	0	32	104	0	60	47282
2026-01-18 01:13:42.78	182.61	1.66	-49.9	-62.8	3.5	1.51e+00	0	32	104	0	60	48650
2026-01-18 01:13:43.79	182.65	1.72	-49.9	-62.7	3.5	1.52e+00	0	32	104	0	60	48135
2026-01-18 01:13:44.81	182.69	1.79	-49.8	-62.7	3.5	1.52e+00	0	32	104	0	60	48008
2026-01-18 01:13:45.82	182.73	1.85	-49.1	-62.0	3.5	1.52e+00	0	32	104	0	60	44362
2026-01-18 01:13:46.83	182.76	1.91	-49.2	-62.2	3.5	1.52e+00	0	32	104	0	60	45114
2026-01-18 01:13:47.84	182.80	1.97	-49.2	-62.1	3.5	1.52e+00	0	32	104	0	60	44525
2026-01-18 01:13:48.84	182.84	2.03	-49.6	-62.5	3.5	1.52e+00	0	32	104	0	60	46647
2026-01-18 01:13:49.85	182.88	2.10	-49.5	-62.4	3.5	1.52e+00	0	32	104	0	60	46289
2026-01-18 01:13:50.86	182.92	2.16	-49.4	-62.4	3.5	1.52e+00	0	32	104	0	60	46054
2026-01-18 01:13:51.87	182.95	2.22	-49.3	-62.2	3.5	1.51e+00	0	32	104	0	60	45305
2026-01-18 01:13:52.88	182.99	2.29	-49.6	-62.5	3.5	1.52e+00	0	32	104	0	60	46677
2026-01-18 01:13:53.89	183.03	2.35	-49.5	-62.3	3.5	1.52e+00	0	32	104	0	60	45825
2026-01-18 01:13:54.90	183.07	2.41	-49.5	-62.4	3.5	1.52e+00	0	32	104	0	60	46133
2026-01-18 01:13:55.91	183.11	2.48	-49.6	-62.5	3.5	1.51e+00	0	32	104	0	60	46559
2026-01-18 01:13:56.92	183.15	2.54	-49.6	-62.5	3.5	1.51e+00	0	32	104	0	60	46798
2026-01-18 01:13:57.93	183.19	2.60	-49.5	-62.4	3.5	1.52e+00	0	32	104	0	60	46398
2026-01-18 01:13:58.94	183.23	2.67	-49.4	-62.2	3.5	1.52e+00	0	32	104	0	60	45462
2026-01-18 01:13:59.95	183.27	2.73	-49.6	-62.5	3.5	1.52e+00	0	32	104	0	60	46620
2026-01-18 01:14:00.96	183.31	2.79	-49.7	-62.5	3.5	1.52e+00	0	32	104	0	60	46859
2026-01-18 01:14:01.97	183.35	2.86	-49.4	-62.2	3.5	1.52e+00	0	32	104	0	60	45439
2026-01-18 01:14:02.98	183.39	2.92	-49.7	-62.6	3.5	1.52e+00	0	32	104	0	60	47456
2026-01-18 01:14:03.99	183.43	2.99	-49.2	-62.1	3.5	1.52e+00	0	32	104	0	60	44905
2026-01-18 01:14:05.00	183.47	3.05	-49.8	-62.7	3.5	1.52e+00	0	32	104	0	60	47835
2026-01-18 01:14:06.01	183.51	3.12	-50.3	-63.2	3.5	1.52e+00	0	32	104	0	60	50553
2026-01-18 01:14:07.02	183.55	3.18	-49.8	-62.7	3.5	1.52e+00	0	32	104	0	60	47718
2026-01-18 01:14:08.03	183.59	3.25	-49.4	-62.3	3.5	1.52e+00	0	32	104	0	60	45516
2026-01-18 01:14:09.04	183.63	3.31	-49.3	-62.2	3.5	1.52e+00	0	32	104	0	60	45160
2026-01-18 01:14:10.05	183.67	3.38	-49.6	-62.5	3.5	1.52e+00	0	32	104	0	60	47062
2026-01-18 01:14:11.06	183.71	3.44	-50.1	-63.0	3.5	1.52e+00	0	32	104	0	60	49752
2026-01-18 01:14:12.07	183.75	3.51	-49.9	-62.8	3.5	1.52e+00	0	32	104	0	60	48590
2026-01-18 01:14:13.08	183.79	3.57	-49.5	-62.5	3.5	1.52e+00	0	32	104	0	60	46667
2026-01-18 01:14:14.09	183.84	3.64	-49.6	-62.5	3.5	1.52e+00	0	32	104	0	60	46686
2026-01-18 01:14:15.10	183.88	3.71	-49.5	-62.4	3.5	1.52e+00	0	32	104	0	60	46305
2026-01-18 01:14:16.11	183.92	3.77	-49.3	-62.2	3.5	1.52e+00	0	32	104	0	60	45266
2026-01-18 01:14:17.12	183.96	3.84	-49.4	-62.3	3.5	1.52e+00	0	32	104	0	60	45696
2026-01-18 01:14:18.13	184.00	3.91	-49.4	-62.3	3.5	1.51e+00	0	32	104	0	60	45524
2026-01-18 01:14:19.14	184.05	3.97	-49.6	-62.5	3.5	1.52e+00	0	32	104	0	60	46565
2026-01-18 01:14:20.15	184.09	4.04	-49.4	-62.3	3.5	1.51e+00	0	32	104	0	60	45606
2026-01-18 01:14:21.16	184.13	4.11	-49.5	-62.4	3.5	1.52e+00	0	32	104	0	60	46304
2026-01-18 01:14:22.17	184.18	4.17	-49.4	-62.3	3.5	1.52e+00	0	32	104	0	60	45994
2026-01-18 01:14:23.18	184.22	4.24	-49.5	-62.4	3.5	1.52e+00	0	32	104	0	60	46153
2026-01-18 01:14:24.19	184.26	4.31	-49.6	-62.5	3.5	1.52e+00	0	32	104	0	60	46987
2026-01-18 01:14:25.20	184.31	4.38	-49.4	-62.2	3.5	1.52e+00	0	32	104	0	60	45451
2026-01-18 01:14:26.21	184.35	4.44	-49.5	-62.4	3.5	1.52e+00	0	32	104	0	60	46069
2026-01-18 01:14:27.22	184.39	4.51	-49.7	-62.6	3.5	1.52e+00	0	32	104	0	60	47512
2026-01-18 01:14:28.23	184.44	4.58	-49.6	-62.5	3.5	1.52e+00	0	32	104	0	60	46772
2026-01-18 01:14:29.24	184.48	4.65	-49.9	-62.8	3.5	1.52e+00	0	32	104	0	60	48377
2026-01-18 01:14:30.25	184.53	4.72	-49.5	-62.4	3.5	1.52e+00	0	32	104	0	60	46043
2026-01-18 01:14:31.26	184.57	4.78	-49.6	-62.5	3.5	1.52e+00	0	32	104	0	60	46998
2026-01-18 01:14:32.27	184.62	4.85	-49.9	-62.8	3.5	1.52e+00	0	32	104	0	60	48707
2026-01-18 01:14:33.27	184.66	4.92	-49.6	-62.5	3.5	1.52e+00	0	32	104	0	60	46851
2026-01-18 01:14:34.28	184.71	4.99	-49.6	-62.5	3.5	1.52e+00	0	32	104	0	60	47074
2026-01-18 01:14:35.29	184.75	5.06	-50.2	-63.1	3.5	1.51e+00	0	32	104	0	60	50438
2026-01-18 01:14:36.30	184.80	5.13	-49.5	-62.4	3.5	1.52e+00	0	32	104	0	60	46214
2026-01-18 01:14:37.31	184.85	5.20	-49.8	-62.8	3.5	1.52e+00	0	32	104	0	60	48283
2026-01-18 01:14:38.32	184.89	5.27	-49.4	-62.2	3.5	1.52e+00	0	32	104	0	60	45248
2026-01-18 01:14:39.33	184.94	5.34	-49.4	-62.4	3.5	1.52e+00	0	32	104	0	60	46044
2026-01-18 01:14:40.34	184.99	5.41	-49.5	-62.4	3.5	1.52e+00	0	32	104	0	60	46124
2026-01-18 01:14:41.35	185.03	5.48	-49.5	-62.4	3.5	1.52e+00	0	32	104	0	60	46318
2026-01-18 01:14:42.36	185.08	5.55	-49.6	-62.5	3.5	1.52e+00	0	32	104	0	60	46582
2026-01-18 01:14:43.37	185.13	5.62	-49.3	-62.2	3.5	1.52e+00	0	32	104	0	60	45053
2026-01-18 01:14:44.38	185.17	5.69	-49.5	-62.4	3.5	1.52e+00	0	32	104	0	60	46427
2026-01-18 01:14:45.39	185.22	5.76	-49.5	-62.3	3.5	1.52e+00	0	32	104	0	60	45982
2026-01-18 01:14:46.40	185.27	5.83	-49.6	-62.5	3.5	1.52e+00	0	32	104	0	60	46603
2026-01-18 01:14:47.41	185.32	5.90	-49.5	-62.3	3.5	1.52e+00	0	32	104	0	60	45963
2026-01-18 01:14:48.42	185.37	5.97	-49.5	-62.4	3.5	1.52e+00	0	32	104	0	60	46273
2026-01-18 01:14:49.42	185.42	6.05	-49.7	-62.6	3.5	1.51e+00	0	32	104	0	60	47313
2026-01-18 01:14:50.43	185.46	6.12	-49.7	-62.6	3.5	1.52e+00	0	32	104	0	60	47331
2026-01-18 01:14:51.44	185.51	6.19	-49.9	-62.7	3.5	1.51e+00	0	33	104	0	60	48061
2026-01-18 01:14:52.45	185.56	6.26	-49.7	-62.6	3.5	1.52e+00	0	32	104	0	60	47564
2026-01-18 01:14:53.46	185.61	6.33	-49.6	-62.5	3.5	1.52e+00	0	32	104	0	60	46741
2026-01-18 01:14:54.47	185.66	6.41	-49.8	-62.6	3.5	1.52e+00	0	32	104	0	60	47608
2026-01-18 01:14:55.48	185.71	6.48	-49.7	-62.6	3.5	1.52e+00	0	32	104	0	60	47493
2026-01-18 01:14:56.49	185.76	6.55	-49.5	-62.4	3.5	1.52e+00	0	32	104	0	60	46336
2026-01-18 01:14:57.50	185.81	6.63	-49.5	-62.4	3.5	1.52e+00	0	32	104	0	60	46404
2026-01-18 01:14:58.51	185.86	6.70	-49.7	-62.6	3.5	1.52e+00	0	32	104	0	60	47190
2026-01-18 01:14:59.52	185.91	6.77	-49.4	-62.3	3.5	1.52e+00	0	32	104	0	60	45767
2026-01-18 01:15:00.53	185.97	6.85	-49.3	-62.2	3.5	1.52e+00	0	32	104	0	60	45387
2026-01-18 01:15:01.54	186.02	6.92	-49.4	-62.2	3.5	1.52e+00	0	33	104	0	60	45380
2026-01-18 01:15:02.55	186.07	6.99	-49.4	-62.3	3.5	1.52e+00	0	32	104	0	60	45789
2026-01-18 01:15:03.56	186.12	7.07	-49.3	-62.2	3.5	1.52e+00	0	33	104	0	60	45034
2026-01-18 01:15:04.56	186.17	7.14	-49.3	-62.2	3.5	1.52e+00	0	32	104	0	60	45132
2026-01-18 01:15:05.57	186.22	7.22	-49.2	-62.1	3.5	1.52e+00	0	33	104	0	60	44576
2026-01-18 01:15:06.58	186.28	7.29	-49.2	-62.1	3.5	1.52e+00	0	32	104	0	60	44870
2026-01-18 01:15:07.59	186.33	7.37	-49.2	-62.0	3.5	1.52e+00	0	32	104	0	60	44416
2026-01-18 01:15:08.60	186.38	7.44	-49.2	-62.1	3.5	1.52e+00	0	32	104	0	60	44850
2026-01-18 01:15:09.61	186.44	7.52	-49.4	-62.2	3.5	1.51e+00	0	33	104	0	60	45298
2026-01-18 01:15:10.62	186.49	7.59	-49.7	-62.6	3.5	1.52e+00	0	33	104	0	60	47361
2026-01-18 01:15:11.63	186.54	7.67	-49.4	-62.4	3.5	1.52e+00	0	32	104	0	60	46025
2026-01-18 01:15:12.64	186.60	7.75	-49.6	-62.5	3.5	1.52e+00	0	33	104	0	60	46579
2026-01-18 01:15:13.65	186.65	7.82	-49.9	-62.8	3.5	1.52e+00	0	32	104	0	60	48336
2026-01-18 01:15:14.66	186.71	7.90	-49.5	-62.4	3.5	1.52e+00	0	32	104	0	60	46134
2026-01-18 01:15:15.67	186.76	7.98	-50.0	-62.9	3.5	1.52e+00	0	32	104	0	60	48810
2026-01-18 01:15:16.68	186.82	8.05	-49.7	-62.7	3.5	1.52e+00	0	33	104	0	60	47645
2026-01-18 01:15:17.69	186.87	8.13	-49.8	-62.7	3.5	1.52e+00	0	32	104	0	60	47736
2026-01-18 01:15:18.70	186.93	8.21	-49.5	-62.3	3.5	1.52e+00	0	33	104	0	60	45882
2026-01-18 01:15:19.71	186.99	8.28	-49.7	-62.6	3.5	1.52e+00	0	33	104	0	60	47277
2026-01-18 01:15:20.72	187.04	8.36	-49.8	-62.7	3.5	1.52e+00	0	33	104	0	60	47819
2026-01-18 01:15:21.73	187.10	8.44	-49.5	-62.3	3.5	1.52e+00	0	33	104	0	60	45801
2026-01-18 01:15:22.74	187.16	8.52	-49.4	-62.3	3.5	1.52e+00	0	33	104	0	60	45672
2026-01-18 01:15:23.75	187.21	8.60	-49.6	-62.5	3.5	1.52e+00	0	33	104	0	60	46869
2026-01-18 01:15:24.76	187.27	8.68	-49.4	-62.3	3.5	1.51e+00	0	33	104	0	60	45605
2026-01-18 01:15:25.77	187.33	8.75	-49.6	-62.5	3.5	1.52e+00	0	33	104	0	60	46619
2026-01-18 01:15:26.78	187.39	8.83	-49.5	-62.4	3.5	1.52e+00	0	33	104	0	60	46028
2026-01-18 01:15:27.79	187.44	8.91	-49.3	-62.2	3.5	1.52e+00	0	32	104	0	60	45382
2026-01-18 01:15:28.80	187.50	8.99	-49.4	-62.3	3.5	1.52e+00	0	33	104	0	60	45515
2026-01-18 01:15:29.81	187.56	9.07	-49.1	-62.0	3.5	1.52e+00	0	32	104	0	60	44116
2026-01-18 01:15:30.82	187.62	9.15	-49.1	-62.0	3.5	1.52e+00	0	32	104	0	60	44204
2026-01-18 01:15:31.83	187.68	9.23	-49.3	-62.2	3.5	1.51e+00	0	32	104	0	60	45408
2026-01-18 01:15:32.84	187.74	9.31	-49.3	-62.2	3.5	1.52e+00	0	33	104	0	60	45141
2026-01-18 01:15:33.85	187.80	9.39	-49.3	-62.2	3.5	1.52e+00	0	33	104	0	60	45128
2026-01-18 01:15:34.86	187.86	9.48	-49.6	-62.5	3.5	1.52e+00	0	33	104	0	60	46554
2026-01-18 01:15:35.87	187.92	9.56	-49.5	-62.4	3.5	1.51e+00	0	33	104	0	60	46347
2026-01-18 01:15:36.88	187.98	9.64	-49.6	-62.5	3.5	1.52e+00	0	33	104	0	60	47031
2026-01-18 01:15:37.89	188.05	9.72	-49.7	-62.6	3.5	1.52e+00	0	33	104	0	60	47482
2026-01-18 01:15:38.90	188.11	9.80	-49.5	-62.4	3.5	1.52e+00	0	33	104	0	60	46012
2026-01-18 01:15:39.91	188.17	9.88	-49.4	-62.2	3.5	1.52e+00	0	33	104	0	60	45468
2026-01-18 01:15:40.92	188.23	9.97	-49.4	-62.3	3.5	1.52e+00	0	33	104	0	60	45541
2026-01-18 01:15:41.93	188.29	10.05	-49.3	-62.2	3.5	1.52e+00	0	33	104	0	60	45257
2026-01-18 01:15:42.94	188.36	10.13	-49.5	-62.4	3.5	1.52e+00	0	33	104	0	60	46063
2026-01-18 01:15:43.95	188.42	10.22	-49.2	-62.1	3.5	1.52e+00	0	33	104	0	60	44487
2026-01-18 01:15:44.96	188.49	10.30	-49.1	-61.9	3.5	1.52e+00	0	33	104	0	60	43803
2026-01-18 01:15:45.97	188.55	10.38	-49.1	-62.0	3.5	1.52e+00	0	33	104	0	60	44277
2026-01-18 01:15:46.98	188.61	10.47	-49.1	-62.0	3.5	1.52e+00	0	33	104	0	60	44135
2026-01-18 01:15:47.99	188.68	10.55	-49.1	-62.0	3.5	1.52e+00	0	33	104	0	60	44127
2026-01-18 01:15:49.00	188.74	10.64	-49.2	-62.0	3.5	1.52e+00	0	33	104	0	60	44398
2026-01-18 01:15:50.01	188.81	10.72	-49.2	-62.1	3.5	1.52e+00	0	33	104	0	60	44852
2026-01-18 01:15:51.02	188.88	10.81	-49.3	-62.2	3.5	1.52e+00	0	33	104	0	60	45056
2026-01-18 01:15:52.03	188.94	10.89	-49.2	-62.1	3.5	1.52e+00	0	33	104	0	60	44803
2026-01-18 01:15:53.04	189.01	10.98	-49.3	-62.2	3.5	1.52e+00	0	33	104	0	60	45287
2026-01-18 01:15:54.05	189.08	11.06	-49.3	-62.2	3.5	1.52e+00	0	33	104	0	60	45010
2026-01-18 01:15:55.06	189.14	11.15	-49.6	-62.5	3.5	1.52e+00	0	33	104	0	60	46726
2026-01-18 01:15:56.07	189.21	11.23	-49.6	-62.5	3.5	1.52e+00	0	33	104	0	60	46899
2026-01-18 01:15:57.08	189.28	11.32	-49.5	-62.5	3.5	1.52e+00	0	33	104	0	60	46590
2026-01-18 01:15:58.09	189.35	11.41	-49.7	-62.6	3.5	1.52e+00	0	33	104	0	60	47211
2026-01-18 01:15:59.09	189.42	11.49	-49.4	-62.3	3.5	1.52e+00	0	33	104	0	60	45776
2026-01-18 01:16:00.10	189.49	11.58	-49.6	-62.5	3.5	1.52e+00	0	33	104	0	60	46835
2026-01-18 01:16:01.11	189.56	11.67	-49.7	-62.6	3.5	1.51e+00	0	33	104	0	60	47165
2026-01-18 01:16:02.12	189.63	11.76	-49.6	-62.5	3.5	1.52e+00	0	33	104	0	60	46584
2026-01-18 01:16:03.13	189.70	11.85	-50.2	-63.1	3.5	1.52e+00	0	33	104	0	60	49949
2026-01-18 01:16:04.14	189.77	11.93	-50.0	-62.9	3.5	1.52e+00	0	33	104	0	60	48748
2026-01-18 01:16:05.15	189.84	12.02	-49.7	-62.6	3.5	1.52e+00	0	33	104	0	60	47226
2026-01-18 01:16:06.16	189.91	12.11	-49.7	-62.6	3.5	1.52e+00	0	33	104	0	60	47456
2026-01-18 01:16:07.17	189.98	12.20	-49.8	-62.7	3.5	1.52e+00	0	33	104	0	60	47823
2026-01-18 01:16:08.18	190.05	12.29	-49.5	-62.4	3.5	1.52e+00	0	33	104	0	60	46052
2026-01-18 01:16:09.18	190.13	12.38	-49.4	-62.3	3.5	1.52e+00	0	33	104	0	60	45929
2026-01-18 01:16:10.19	190.20	12.47	-49.6	-62.5	3.5	1.52e+00	0	33	104	0	60	46852
2026-01-18 01:16:11.20	190.27	12.56	-49.4	-62.3	3.5	1.52e+00	0	33	104	0	60	45515
2026-01-18 01:16:12.21	190.35	12.65	-49.7	-62.6	3.5	1.52e+00	0	33	104	0	60	47163
2026-01-18 01:16:13.22	190.42	12.74	-49.8	-62.7	3.5	1.52e+00	0	33	104	0	60	47652
2026-01-18 01:16:14.23	190.50	12.84	-49.9	-62.7	3.5	1.51e+00	0	33	104	0	60	47874
2026-01-18 01:16:15.24	190.57	12.93	-49.6	-62.4	3.5	1.52e+00	0	33	104	0	60	46506
2026-01-18 01:16:16.25	190.65	13.02	-49.5	-62.4	3.5	1.52e+00	0	33	104	0	60	46184
2026-01-18 01:16:17.26	190.73	13.11	-49.6	-62.5	3.5	1.52e+00	0	33	104	0	60	46620
2026-01-18 01:16:18.26	190.80	13.20	-49.9	-62.8	3.5	1.52e+00	0	33	104	0	60	48236
2026-01-18 01:16:19.28	190.88	13.30	-49.5	-62.4	3.5	1.51e+00	0	33	104	0	60	46516
2026-01-18 01:16:20.29	190.96	13.39	-49.7	-62.6	3.5	1.52e+00	0	33	104	0	60	47505
2026-01-18 01:16:21.29	191.04	13.48	-49.9	-62.8	3.5	1.52e+00	0	33	104	0	60	48490
2026-01-18 01:16:22.30	191.11	13.58	-49.5	-62.4	3.5	1.51e+00	0	33	104	0	60	46095
2026-01-18 01:16:23.31	191.19	13.67	-49.4	-62.3	3.5	1.52e+00	0	33	104	0	60	45860
2026-01-18 01:16:24.32	191.27	13.77	-49.7	-62.6	3.5	1.52e+00	0	33	104	0	60	47518
2026-01-18 01:16:25.33	191.35	13.86	-49.4	-62.3	3.5	1.51e+00	0	33	104	0	60	45745
2026-01-18 01:16:26.34	191.43	13.96	-49.4	-62.3	3.5	1.52e+00	0	33	104	0	60	45588
2026-01-18 01:16:27.35	191.52	14.05	-49.8	-62.7	3.5	1.51e+00	0	33	104	0	60	48008
2026-01-18 01:16:28.37	191.60	14.15	-49.8	-62.7	3.5	1.51e+00	0	33	104	0	60	47796
2026-01-18 01:16:29.38	191.68	14.25	-49.6	-62.4	3.5	1.52e+00	0	33	104	0	60	46312
2026-01-18 01:16:30.38	191.76	14.34	-49.7	-62.6	3.5	1.52e+00	0	33	104	0	60	47294
2026-01-18 01:16:31.39	191.85	14.44	-49.6	-62.5	3.5	1.52e+00	0	33	104	0	60	46975
2026-01-18 01:16:32.40	191.93	14.54	-49.6	-62.5	3.5	1.52e+00	0	33	104	0	60	46642
2026-01-18 01:16:33.41	192.01	14.63	-49.4	-62.3	3.5	1.52e+00	0	33	104	0	60	45787
2026-01-18 01:16:34.42	192.10	14.73	-49.5	-62.4	3.5	1.52e+00	0	33	104	0	60	46360
2026-01-18 01:16:35.43	192.18	14.83	-49.6	-62.5	3.5	1.51e+00	0	33	104	0	60	46906
2026-01-18 01:16:36.44	192.27	14.93	-49.5	-62.4	3.5	1.52e+00	0	33	104	0	60	46337
2026-01-18 01:16:37.45	192.36	15.03	-49.8	-62.6	3.5	1.52e+00	0	33	104	0	60	47473
2026-01-18 01:16:38.46	192.44	15.13	-49.7	-62.6	3.5	1.51e+00	0	33	104	0	60	47116
2026-01-18 01:16:39.47	192.53	15.23	-50.2	-63.1	3.5	1.52e+00	0	33	104	0	60	50330
2026-01-18 01:16:40.48	192.62	15.33	-49.6	-62.5	3.5	1.52e+00	0	33	104	0	60	46808
2026-01-18 01:16:41.49	192.71	15.43	-49.8	-62.7	3.5	1.52e+00	0	33	104	0	60	47934
2026-01-18 01:16:42.50	192.80	15.53	-50.0	-62.9	3.5	1.52e+00	0	33	104	0	60	48746
2026-01-18 01:16:43.51	192.89	15.63	-49.9	-62.8	3.5	1.52e+00	0	33	104	0	60	48417
2026-01-18 01:16:44.52	192.98	15.73	-49.6	-62.5	3.5	1.52e+00	0	33	104	0	60	46551
2026-01-18 01:16:45.53	193.07	15.83	-49.3	-62.2	3.5	1.51e+00	0	33	104	0	60	45314
2026-01-18 01:16:46.54	193.16	15.93	-49.8	-62.6	3.5	1.52e+00	0	33	104	0	60	47344
2026-01-18 01:16:47.55	193.25	16.04	-49.7	-62.5	3.5	1.52e+00	0	33	104	0	60	47044
2026-01-18 01:16:48.56	193.34	16.14	-49.3	-62.2	3.5	1.52e+00	0	33	104	0	60	45346
2026-01-18 01:16:49.57	193.44	16.24	-50.0	-62.9	3.5	1.52e+00	0	33	104	0	60	49039
2026-01-18 01:16:50.58	193.53	16.34	-50.1	-63.0	3.5	1.52e+00	0	33	104	0	60	49554
2026-01-18 01:16:51.59	193.63	16.45	-49.6	-62.4	3.5	1.52e+00	0	33	104	0	60	46366
2026-01-18 01:16:52.60	193.72	16.55	-49.6	-62.5	3.5	1.52e+00	0	33	104	0	60	46810
2026-01-18 01:16:53.61	193.82	16.66	-49.6	-62.5	3.5	1.52e+00	0	33	104	0	60	46612
2026-01-18 01:16:54.62	193.91	16.76	-49.4	-62.3	3.5	1.52e+00	0	33	104	0	60	45920
2026-01-18 01:16:55.63	194.01	16.87	-49.9	-62.7	3.5	1.52e+00	0	33	104	0	60	48155
2026-01-18 01:16:56.64	194.11	16.97	-49.4	-62.3	3.5	1.52e+00	0	33	104	0	60	45713
2026-01-18 01:16:57.65	194.21	17.08	-49.4	-62.4	3.5	1.52e+00	0	33	104	0	60	46087
2026-01-18 01:16:58.66	194.31	17.19	-49.5	-62.3	3.5	1.52e+00	0	33	104	0	60	45945
2026-01-18 01:16:59.67	194.41	17.29	-49.4	-62.3	3.5	1.52e+00	0	33	104	0	60	45931
2026-01-18 01:17:00.68	194.51	17.40	-49.1	-62.0	3.5	1.52e+00	0	33	104	0	60	44387
2026-01-18 01:17:01.69	194.61	17.51	-49.2	-62.1	3.5	1.52e+00	0	33	104	0	60	44448
2026-01-18 01:17:02.70	194.71	17.62	-49.3	-62.2	3.5	1.52e+00	0	33	104	0	60	45313
2026-01-18 01:17:03.71	194.81	17.73	-49.2	-62.1	3.5	1.52e+00	0	33	104	0	60	44707
2026-01-18 01:17:04.72	194.92	17.83	-49.4	-62.3	3.5	1.51e+00	0	33	104	0	60	45483
2026-01-18 01:17:05.73	195.02	17.94	-49.5	-62.4	3.5	1.52e+00	0	33	104	0	60	46031
2026-01-18 01:17:06.74	195.12	18.05	-49.6	-62.5	3.5	1.52e+00	0	33	104	0	60	46738
2026-01-18 01:17:07.75	195.23	18.16	-49.4	-62.2	3.5	1.52e+00	0	33	104	0	60	45252
2026-01-18 01:17:08.76	195.34	18.27	-49.5	-62.4	3.5	1.52e+00	0	33	104	0	60	46020
2026-01-18 01:17:09.77	195.44	18.38	-49.5	-62.4	3.5	1.52e+00	0	33	104	0	60	46022
2026-01-18 01:17:10.77	195.55	18.49	-50.0	-62.8	3.5	1.52e+00	0	33	104	0	60	48648
2026-01-18 01:17:11.78	195.66	18.61	-49.4	-62.3	3.5	1.52e+00	0	33	104	0	60	45898
2026-01-18 01:17:12.79	195.77	18.72	-49.5	-62.4	3.5	1.52e+00	0	33	104	0	60	46078
2026-01-18 01:17:13.80	195.88	18.83	-49.6	-62.4	3.5	1.52e+00	0	33	104	0	60	46525
2026-01-18 01:17:14.81	195.99	18.94	-49.4	-62.3	3.5	1.52e+00	0	33	104	0	60	45765
2026-01-18 01:17:15.82	196.10	19.06	-49.7	-62.6	3.5	1.52e+00	0	33	104	0	60	47407
2026-01-18 01:17:16.83	196.21	19.17	-49.9	-62.8	3.5	1.52e+00	0	33	104	0	60	48644
2026-01-18 01:17:17.84	196.33	19.29	-50.0	-62.9	3.5	1.52e+00	0	33	104	0	60	48898
2026-01-18 01:17:18.85	196.44	19.40	-49.7	-62.6	3.5	1.52e+00	0	33	104	0	60	47411
2026-01-18 01:17:19.86	196.55	19.52	-49.8	-62.7	3.5	1.52e+00	0	33	104	0	60	47715
2026-01-18 01:17:20.87	196.67	19.63	-50.0	-62.8	3.5	1.52e+00	0	33	104	0	60	48703
2026-01-18 01:17:21.88	196.79	19.75	-50.1	-62.9	3.5	1.52e+00	0	33	104	0	60	49169
2026-01-18 01:17:22.89	196.90	19.86	-49.8	-62.7	3.5	1.52e+00	0	33	104	0	60	48000
2026-01-18 01:17:23.90	197.02	19.98	-50.1	-63.0	3.5	1.52e+00	0	33	104	0	60	49524
2026-01-18 01:17:24.91	197.14	20.10	-49.7	-62.6	3.5	1.51e+00	0	33	104	0	60	47300
2026-01-18 01:17:25.92	197.26	20.21	-49.5	-62.4	3.5	1.52e+00	0	33	104	0	60	46535
2026-01-18 01:17:26.93	197.38	20.33	-49.9	-62.8	3.5	1.52e+00	0	33	104	0	60	48391
2026-01-18 01:17:27.94	197.50	20.45	-50.0	-62.9	3.5	1.52e+00	0	33	104	0	60	48785
2026-01-18 01:17:28.95	197.63	20.57	-49.6	-62.4	3.5	1.52e+00	0	33	104	0	60	46448
2026-01-18 01:17:29.95	197.75	20.69	-49.9	-62.8	3.5	1.51e+00	0	33	104	0	60	48508
2026-01-18 01:17:30.96	197.87	20.81	-49.7	-62.6	3.5	1.52e+00	0	33	104	0	60	47589
2026-01-18 01:17:31.97	198.00	20.93	-49.3	-62.2	3.5	1.52e+00	0	33	104	0	60	45023
2026-01-18 01:17:32.98	198.13	21.05	-49.3	-62.2	3.5	1.52e+00	0	33	104	0	60	45315
2026-01-18 01:17:33.99	198.25	21.17	-49.2	-62.1	3.5	1.52e+00	0	33	104	0	60	44794
2026-01-18 01:17:35.00	198.38	21.29	-49.1	-62.0	3.5	1.51e+00	0	33	104	0	60	44230
2026-01-18 01:17:36.01	198.51	21.41	-49.3	-62.2	3.5	1.52e+00	0	33	104	0	60	45071
2026-01-18 01:17:37.02	198.64	21.54	-49.4	-62.3	3.5	1.52e+00	0	33	104	0	60	45800
2026-01-18 01:17:38.04	198.77	21.66	-49.3	-62.2	3.5	1.52e+00	0	33	104	0	60	45231
2026-01-18 01:17:39.04	198.90	21.78	-49.5	-62.4	3.6	1.51e+00	0	33	104	0	60	46343
2026-01-18 01:17:40.05	199.04	21.91	-49.4	-62.3	3.5	1.52e+00	0	33	104	0	60	46000
2026-01-18 01:17:41.06	199.17	22.03	-49.5	-62.4	3.5	1.52e+00	0	33	104	0	60	46378
2026-01-18 01:17:42.07	199.31	22.16	-49.4	-62.3	3.5	1.52e+00	0	33	104	0	60	45753
2026-01-18 01:17:43.08	199.44	22.28	-49.9	-62.9	3.5	1.52e+00	0	33	104	0	60	48832
2026-01-18 01:17:44.09	199.58	22.41	-49.8	-62.7	3.5	1.52e+00	0	33	104	0	60	48112
2026-01-18 01:17:45.10	199.72	22.53	-50.0	-63.0	3.5	1.52e+00	0	33	104	0	60	49429
2026-01-18 01:17:46.11	199.86	22.66	-49.4	-62.3	3.5	1.52e+00	0	33	104	0	60	45586
2026-01-18 01:17:47.12	200.00	22.79	-49.8	-62.7	3.5	1.52e+00	0	33	104	0	60	47869
2026-01-18 01:17:48.13	200.14	22.91	-49.4	-62.3	3.5	1.52e+00	0	33	104	0	60	45830
2026-01-18 01:17:49.14	200.29	23.04	-49.3	-62.2	3.5	1.52e+00	0	33	104	0	60	45121
2026-01-18 01:17:50.15	200.43	23.17	-49.5	-62.4	3.5	1.52e+00	0	33	104	0	60	46273
2026-01-18 01:17:51.16	200.58	23.30	-49.4	-62.3	3.6	1.52e+00	0	33	104	0	60	45826
2026-01-18 01:17:52.17	200.72	23.43	-49.3	-62.2	3.5	1.52e+00	0	33	104	0	60	45327
2026-01-18 01:17:53.18	200.87	23.56	-49.5	-62.4	3.5	1.52e+00	0	33	104	0	60	46371
2026-01-18 01:17:54.19	201.02	23.69	-49.5	-62.4	3.5	1.52e+00	0	33	104	0	60	46308
2026-01-18 01:17:55.20	201.17	23.82	-49.6	-62.5	3.5	1.52e+00	0	33	104	0	60	46737
2026-01-18 01:17:56.21	201.32	23.95	-49.4	-62.3	3.5	1.52e+00	0	33	104	0	60	45771
2026-01-18 01:17:57.23	201.47	24.08	-49.7	-62.6	3.5	1.52e+00	0	33	104	0	60	47336
2026-01-18 01:17:58.24	201.63	24.21	-49.7	-62.7	3.5	1.52e+00	0	33	104	0	60	47644
2026-01-18 01:17:59.25	201.78	24.35	-49.4	-62.2	3.5	1.52e+00	0	33	104	0	60	45441
2026-01-18 01:18:00.26	201.94	24.48	-49.5	-62.4	3.5	1.51e+00	0	33	104	0	60	46042
2026-01-18 01:18:01.27	202.10	24.61	-49.6	-62.4	3.5	1.52e+00	0	33	104	0	60	46488
2026-01-18 01:18:02.28	202.26	24.75	-49.5	-62.4	3.5	1.52e+00	0	33	104	0	60	46307
2026-01-18 01:18:03.29	202.42	24.88	-49.6	-62.5	3.5	1.52e+00	0	33	104	0	60	46649
2026-01-18 01:18:04.30	202.58	25.02	-49.7	-62.6	3.5	1.52e+00	0	33	104	0	60	47315
2026-01-18 01:18:05.31	202.74	25.15	-49.3	-62.2	3.5	1.52e+00	0	33	104	0	60	45027
2026-01-18 01:18:06.32	202.91	25.29	-49.5	-62.4	3.5	1.52e+00	0	33	104	0	60	46033
2026-01-18 01:18:07.33	203.07	25.42	-49.2	-62.1	3.5	1.51e+00	0	33	104	0	60	44563
2026-01-18 01:18:08.34	203.24	25.56	-49.4	-62.3	3.5	1.52e+00	0	33	104	0	60	45964
2026-01-18 01:18:09.35	203.41	25.70	-49.5	-62.4	3.5	1.51e+00	0	33	104	0	60	46009
2026-01-18 01:18:10.36	203.58	25.83	-49.3	-62.2	3.5	1.52e+00	0	33	104	0	60	45303
2026-01-18 01:18:11.37	203.75	25.97	-49.8	-62.7	3.5	1.51e+00	0	33	104	0	60	47793
2026-01-18 01:18:12.37	203.92	26.11	-49.6	-62.5	3.5	1.52e+00	0	33	104	0	60	46892
2026-01-18 01:18:13.39	204.09	26.25	-49.5	-62.5	3.5	1.52e+00	0	33	104	0	60	46554
2026-01-18 01:18:14.40	204.27	26.39	-49.4	-62.3	3.5	1.52e+00	0	33	104	0	60	45823
2026-01-18 01:18:15.41	204.45	26.53	-49.4	-62.3	3.5	1.52e+00	0	33	104	0	60	45787
2026-01-18 01:18:16.42	204.63	26.67	-49.6	-62.5	3.5	1.51e+00	0	33	104	0	60	47023
2026-01-18 01:18:17.43	204.81	26.81	-49.4	-62.3	3.5	1.52e+00	0	33	104	0	60	45593
2026-01-18 01:18:18.44	204.99	26.95	-49.5	-62.4	3.5	1.52e+00	0	33	104	0	60	46154
2026-01-18 01:18:19.45	205.17	27.09	-49.6	-62.5	3.5	1.52e+00	0	33	104	0	60	46641
2026-01-18 01:18:20.46	205.36	27.23	-49.4	-62.3	3.5	1.52e+00	0	33	104	0	60	45832
2026-01-18 01:18:21.47	205.54	27.38	-49.8	-62.7	3.5	1.52e+00	0	33	104	0	60	47879
2026-01-18 01:18:22.48	205.73	27.52	-49.5	-62.4	3.5	1.52e+00	0	33	104	0	60	46138
2026-01-18 01:18:23.49	205.92	27.66	-49.4	-62.3	3.5	1.52e+00	0	33	104	0	60	45754
2026-01-18 01:18:24.49	206.11	27.80	-49.4	-62.4	3.5	1.52e+00	0	33	104	0	60	46005
2026-01-18 01:18:25.50	206.31	27.95	-49.5	-62.4	3.5	1.52e+00	0	33	104	0	60	46162
2026-01-18 01:18:26.51	206.50	28.09	-49.5	-62.4	3.5	1.52e+00	0	33	104	0	60	46075
2026-01-18 01:18:27.52	206.70	28.24	-49.6	-62.5	3.5	1.51e+00	0	33	104	0	60	46830
2026-01-18 01:18:28.53	206.90	28.38	-49.7	-62.6	3.5	1.52e+00	0	33	104	0	60	47554
2026-01-18 01:18:29.54	207.10	28.53	-49.6	-62.5	3.5	1.52e+00	0	33	104	0	60	46934
2026-01-18 01:18:30.55	207.30	28.67	-49.4	-62.3	3.5	1.52e+00	0	33	104	0	60	45956
2026-01-18 01:18:31.56	207.50	28.82	-49.5	-62.4	3.5	1.52e+00	0	33	104	0	60	46489
2026-01-18 01:18:32.57	207.71	28.97	-49.5	-62.4	3.5	1.52e+00	0	33	104	0	60	46298
2026-01-18 01:18:33.58	207.91	29.11	-49.8	-62.7	3.5	1.52e+00	0	33	104	0	60	48098
2026-01-18 01:18:34.59	208.12	29.26	-49.6	-62.6	3.5	1.51e+00	0	33	104	0	60	47097
2026-01-18 01:18:35.60	208.33	29.41	-49.6	-62.6	3.5	1.52e+00	0	33	104	0	60	47159
2026-01-18 01:18:36.61	208.55	29.56	-49.5	-62.4	3.5	1.52e+00	0	33	104	0	60	46278
2026-01-18 01:18:37.62	208.76	29.71	-49.3	-62.2	3.5	1.52e+00	0	33	104	0	60	45314
2026-01-18 01:18:38.63	208.98	29.86	-49.4	-62.3	3.5	1.52e+00	0	33	104	0	60	45638
2026-01-18 01:18:39.64	209.20	30.00	-49.5	-62.4	3.5	1.52e+00	0	33	104	0	60	46209
2026-01-18 01:18:40.65	209.42	30.15	-49.3	-62.2	3.5	1.52e+00	0	33	104	0	60	45409
2026-01-18 01:18:41.66	209.64	30.30	-49.4	-62.3	3.5	1.52e+00	0	33	104	0	60	45795
2026-01-18 01:18:42.67	209.87	30.45	-49.4	-62.3	3.5	1.52e+00	0	33	104	0	60	45756
2026-01-18 01:18:43.68	210.09	30.60	-49.4	-62.2	3.5	1.52e+00	0	33	104	0	60	45459
2026-01-18 01:18:44.69	210.32	30.76	-49.5	-62.4	3.5	1.52e+00	0	33	104	0	60	46027
2026-01-18 01:18:45.70	210.55	30.91	-49.7	-62.6	3.5	1.52e+00	0	33	104	0	60	47460
2026-01-18 01:18:46.71	210.79	31.06	-50.0	-62.9	3.5	1.52e+00	0	33	104	0	60	49022
2026-01-18 01:18:47.72	211.02	31.21	-49.7	-62.6	3.5	1.52e+00	0	33	104	0	60	47186
2026-01-18 01:18:48.73	211.26	31.36	-49.4	-62.3	3.5	1.52e+00	0	33	104	0	60	45941
2026-01-18 01:18:49.74	211.50	31.51	-49.4	-62.3	3.5	1.52e+00	0	33	104	0	60	45749
2026-01-18 01:18:50.75	211.74	31.67	-49.5	-62.4	3.5	1.52e+00	0	33	104	0	60	46450
2026-01-18 01:18:51.76	211.99	31.82	-49.6	-62.6	3.5	1.52e+00	0	33	104	0	60	47242
2026-01-18 01:18:52.77	212.23	31.97	-49.4	-62.2	3.5	1.52e+00	0	33	104	0	60	45462
2026-01-18 01:18:53.78	212.48	32.12	-49.4	-62.3	3.5	1.51e+00	0	33	104	0	60	45907
2026-01-18 01:18:54.79	212.73	32.28	-49.5	-62.4	3.5	1.52e+00	0	33	104	0	60	46228
2026-01-18 01:18:55.81	212.99	32.43	-49.6	-62.5	3.5	1.51e+00	0	33	104	0	60	46765
2026-01-18 01:18:56.82	213.25	32.59	-49.4	-62.4	3.5	1.51e+00	0	33	104	0	60	46055
2026-01-18 01:18:57.82	213.50	32.74	-49.6	-62.5	3.5	1.52e+00	0	33	104	0	60	46663
2026-01-18 01:18:58.83	213.76	32.89	-49.6	-62.5	3.5	1.52e+00	0	33	104	0	60	46677
2026-01-18 01:18:59.85	214.03	33.05	-49.3	-62.2	3.5	1.52e+00	0	33	104	0	60	45387
2026-01-18 01:19:00.85	214.29	33.20	-50.1	-62.9	3.5	1.52e+00	0	33	104	0	60	49194
2026-01-18 01:19:01.86	214.56	33.36	-49.8	-62.8	3.5	1.52e+00	0	33	104	0	60	48306
2026-01-18 01:19:02.88	214.83	33.51	-49.4	-62.3	3.5	1.52e+00	0	33	104	0	60	45841
2026-01-18 01:19:03.88	215.10	33.66	-50.2	-63.2	3.5	1.52e+00	0	33	104	0	60	50476
2026-01-18 01:19:04.89	215.38	33.82	-49.7	-62.6	3.5	1.52e+00	0	33	104	0	60	47235
2026-01-18 01:19:05.90	215.66	33.97	-49.5	-62.4	3.5	1.52e+00	0	33	104	0	60	46294
2026-01-18 01:19:06.91	215.94	34.13	-49.5	-62.4	3.5	1.52e+00	0	33	104	0	60	46014
2026-01-18 01:19:07.93	216.22	34.28	-49.3	-62.2	3.5	1.51e+00	0	33	104	0	60	45223
2026-01-18 01:19:08.93	216.51	34.44	-49.3	-62.2	3.5	1.51e+00	0	33	104	0	60	45247
2026-01-18 01:19:09.94	216.79	34.59	-49.9	-62.8	3.5	1.52e+00	0	33	104	0	60	48443
2026-01-18 01:19:10.95	217.09	34.75	-49.5	-62.4	3.5	1.52e+00	0	33	104	0	60	46419
2026-01-18 01:19:11.96	217.38	34.90	-49.5	-62.3	3.5	1.52e+00	0	33	104	0	60	45985
2026-01-18 01:19:12.97	217.68	35.06	-49.3	-62.2	3.5	1.51e+00	0	33	104	0	60	45327
2026-01-18 01:19:13.98	217.98	35.21	-49.9	-62.8	3.5	1.52e+00	0	33	104	0	60	48386
2026-01-18 01:19:14.99	218.28	35.36	-49.7	-62.7	3.5	1.52e+00	0	33	104	0	60	48028
2026-01-18 01:19:16.00	218.58	35.52	-49.9	-62.8	3.5	1.52e+00	0	33	104	0	60	48247
2026-01-18 01:19:17.01	218.89	35.67	-49.5	-62.4	3.5	1.52e+00	0	33	104	0	60	46400
2026-01-18 01:19:18.02	219.20	35.83	-49.5	-62.4	3.5	1.52e+00	0	33	104	0	60	46279
2026-01-18 01:19:19.03	219.52	35.98	-49.5	-62.4	3.4	1.51e+00	0	33	104	0	60	46480
2026-01-18 01:19:20.04	219.83	36.13	-50.3	-63.2	3.5	1.52e+00	0	33	104	0	60	50716
2026-01-18 01:19:21.05	220.15	36.29	-49.8	-62.7	3.5	1.52e+00	0	33	104	0	60	47940
2026-01-18 01:19:22.06	220.48	36.44	-50.2	-63.1	3.5	1.52e+00	0	33	104	0	60	49884
2026-01-18 01:19:23.06	220.80	36.59	-49.9	-62.7	3.5	1.52e+00	0	33	104	0	60	48152
2026-01-18 01:19:24.07	221.13	36.74	-49.6	-62.5	3.5	1.52e+00	0	33	104	0	60	47025
2026-01-18 01:19:25.08	221.46	36.89	-49.6	-62.5	3.5	1.52e+00	0	33	104	0	60	46655
2026-01-18 01:19:26.09	221.79	37.05	-49.7	-62.6	3.5	1.52e+00	0	33	104	0	60	47588
2026-01-18 01:19:27.10	222.13	37.20	-49.3	-62.2	3.5	1.52e+00	0	33	104	0	60	45434
2026-01-18 01:19:28.11	222.47	37.35	-49.6	-62.5	3.5	1.52e+00	0	33	104	0	60	46918
2026-01-18 01:19:29.12	222.81	37.50	-49.5	-62.3	3.5	1.52e+00	0	33	104	0	60	45813
2026-01-18 01:19:30.13	223.16	37.65	-49.8	-62.8	3.5	1.52e+00	0	33	104	0	60	48237
2026-01-18 01:19:31.14	223.51	37.80	-49.3	-62.2	3.5	1.51e+00	0	33	104	0	60	45053
2026-01-18 01:19:32.15	223.87	37.95	-49.6	-62.5	3.5	1.52e+00	0	33	104	0	60	46900
2026-01-18 01:19:33.16	224.22	38.10	-49.6	-62.5	3.5	1.52e+00	0	33	104	0	60	46838
2026-01-18 01:19:34.17	224.58	38.24	-49.5	-62.3	3.5	1.52e+00	0	33	104	0	60	45880
2026-01-18 01:19:35.18	224.94	38.39	-49.6	-62.4	3.5	1.52e+00	0	33	104	0	60	46409
2026-01-18 01:19:36.18	225.31	38.54	-49.5	-62.4	3.5	1.52e+00	0	33	104	0	60	46340
2026-01-18 01:19:37.20	225.68	38.68	-49.5	-62.4	3.5	1.52e+00	0	33	104	0	60	46467
2026-01-18 01:19:38.20	226.05	38.83	-49.4	-62.3	3.5	1.51e+00	0	33	104	0	60	45977
2026-01-18 01:19:39.21	226.43	38.97	-49.2	-62.1	3.5	1.52e+00	0	33	104	0	60	44526
2026-01-18 01:19:40.22	226.80	39.11	-49.3	-62.2	3.5	1.52e+00	0	33	104	0	60	45087
2026-01-18 01:19:41.23	227.19	39.26	-49.1	-62.0	3.5	1.52e+00	0	33	104	0	60	44238
2026-01-18 01:19:42.24	227.57	39.40	-49.1	-62.0	3.5	1.52e+00	0	33	104	0	60	44180
2026-01-18 01:19:43.25	227.96	39.54	-49.2	-62.1	3.5	1.52e+00	0	33	104	0	60	44728
2026-01-18 01:19:44.26	228.35	39.68	-49.3	-62.1	3.5	1.52e+00	0	33	104	0	60	44931
2026-01-18 01:19:45.27	228.75	39.82	-49.5	-62.4	3.5	1.52e+00	0	33	104	0	60	46386
2026-01-18 01:19:46.28	229.15	39.96	-49.5	-62.4	3.5	1.52e+00	0	33	104	0	60	46245
2026-01-18 01:19:47.29	229.55	40.10	-49.5	-62.4	3.5	1.52e+00	0	33	104	0	60	46403
2026-01-18 01:19:48.30	229.96	40.23	-49.5	-62.4	3.5	1.52e+00	0	33	104	0	60	46450
2026-01-18 01:19:49.30	230.36	40.37	-49.6	-62.5	3.5	1.52e+00	0	33	104	0	60	47044
2026-01-18 01:19:50.32	230.78	40.50	-49.6	-62.6	3.5	1.52e+00	0	33	104	0	60	47083
2026-01-18 01:19:51.33	231.20	40.63	-49.9	-62.8	3.5	1.52e+00	0	33	104	0	60	48716
2026-01-18 01:19:52.34	231.61	40.77	-49.3	-62.2	3.5	1.52e+00	0	33	104	0	60	45219
2026-01-18 01:19:53.35	232.04	40.90	-49.9	-62.7	3.5	1.52e+00	0	33	104	0	60	48101
2026-01-18 01:19:54.36	232.46	41.03	-49.7	-62.6	3.5	1.51e+00	0	33	104	0	60	47237
2026-01-18 01:19:55.36	232.89	41.15	-49.4	-62.3	3.5	1.52e+00	0	33	104	0	60	45634
2026-01-18 01:19:56.36	233.32	41.28	-49.5	-62.5	3.5	1.52e+00	0	33	104	0	60	46596
2026-01-18 01:19:57.37	233.75	41.40	-49.8	-62.7	3.5	1.52e+00	0	33	104	0	60	47963
2026-01-18 01:19:58.38	234.19	41.53	-49.6	-62.5	3.5	1.52e+00	0	33	104	0	60	46833
2026-01-18 01:19:59.39	234.64	41.65	-49.5	-62.5	3.5	1.52e+00	0	33	104	0	60	46638
2026-01-18 01:20:00.40	235.08	41.77	-49.6	-62.5	3.5	1.52e+00	0	33	104	0	60	46896
2026-01-18 01:20:01.41	235.53	41.89	-49.5	-62.4	3.5	1.51e+00	0	33	104	0	60	46298
2026-01-18 01:20:02.42	235.98	42.01	-49.5	-62.4	3.6	1.52e+00	0	33	104	0	60	46353
2026-01-18 01:20:03.43	236.44	42.12	-49.8	-62.7	3.5	1.52e+00	0	33	104	0	60	48044
2026-01-18 01:20:04.44	236.90	42.24	-49.3	-62.3	3.5	1.51e+00	0	33	104	0	60	45492
2026-01-18 01:20:05.46	237.36	42.35	-49.8	-62.7	3.5	1.52e+00	0	33	104	0	60	47930
2026-01-18 01:20:06.46	237.82	42.46	-49.7	-62.6	3.5	1.52e+00	0	33	104	0	60	47273
2026-01-18 01:20:07.47	238.29	42.57	-49.4	-62.3	3.5	1.52e+00	0	33	104	0	60	45821
2026-01-18 01:20:08.48	238.77	42.68	-49.4	-62.3	3.5	1.52e+00	0	33	104	0	60	45731
2026-01-18 01:20:09.50	239.24	42.79	-49.5	-62.4	3.5	1.52e+00	0	33	104	0	60	46420
2026-01-18 01:20:10.50	239.72	42.89	-49.5	-62.4	3.5	1.52e+00	0	33	104	0	60	46257
2026-01-18 01:20:11.52	240.20	42.99	-49.7	-62.6	3.5	1.52e+00	0	33	104	0	60	47551
2026-01-18 01:20:12.53	240.69	43.09	-49.8	-62.7	3.5	1.52e+00	0	33	104	0	60	47869
2026-01-18 01:20:13.54	241.17	43.19	-49.3	-62.2	3.5	1.52e+00	0	33	104	0	60	45338
2026-01-18 01:20:14.54	241.66	43.29	-49.5	-62.4	3.5	1.52e+00	0	33	104	0	60	46102
2026-01-18 01:20:15.55	242.15	43.38	-49.2	-62.1	3.5	1.52e+00	0	33	104	0	60	44900
2026-01-18 01:20:16.56	242.65	43.47	-49.8	-62.7	3.5	1.51e+00	0	33	104	0	60	47910
2026-01-18 01:20:17.58	243.15	43.56	-49.3	-62.2	3.5	1.51e+00	0	33	104	0	60	44986
2026-01-18 01:20:18.58	243.65	43.65	-50.0	-62.9	3.5	1.52e+00	0	33	104	0	60	48869
2026-01-18 01:20:19.59	244.15	43.74	-50.0	-63.0	3.5	1.52e+00	0	33	104	0	60	49364
2026-01-18 01:20:20.60	244.66	43.82	-49.6	-62.5	3.5	1.52e+00	0	33	104	0	60	46790
2026-01-18 01:20:21.61	245.16	43.90	-49.4	-62.3	3.5	1.52e+00	0	33	104	0	60	45696
2026-01-18 01:20:22.62	245.68	43.98	-49.4	-62.2	3.5	1.52e+00	0	33	104	0	60	45355
2026-01-18 01:20:23.63	246.19	44.06	-49.4	-62.3	3.5	1.52e+00	0	33	104	0	60	45505
2026-01-18 01:20:24.63	246.70	44.13	-49.3	-62.3	3.5	1.52e+00	0	33	104	0	60	45567
2026-01-18 01:20:25.65	247.22	44.20	-49.7	-62.6	3.5	1.52e+00	0	33	104	0	60	47587
2026-01-18 01:20:26.66	247.74	44.27	-49.4	-62.4	3.5	1.52e+00	0	33	104	0	60	46225
2026-01-18 01:20:27.67	248.27	44.34	-50.2	-63.1	3.5	1.52e+00	0	33	104	0	60	49909
2026-01-18 01:20:28.68	248.79	44.40	-49.6	-62.5	3.5	1.52e+00	0	33	104	0	60	46760
2026-01-18 01:20:29.69	249.32	44.46	-49.9	-62.8	3.5	1.52e+00	0	33	104	0	60	48432
2026-01-18 01:20:30.70	249.85	44.52	-49.4	-62.3	3.5	1.51e+00	0	33	104	0	60	45941
2026-01-18 01:20:31.71	250.38	44.58	-49.2	-62.1	3.5	1.52e+00	0	33	104	0	60	44806
2026-01-18 01:20:32.72	250.91	44.63	-49.5	-62.4	3.5	1.52e+00	0	33	104	0	60	46186
2026-01-18 01:20:33.73	251.45	44.68	-49.7	-62.6	3.5	1.52e+00	0	33	104	0	60	47466
2026-01-18 01:20:34.74	251.98	44.73	-49.4	-62.3	3.5	1.52e+00	0	33	104	0	60	45774
2026-01-18 01:20:35.75	252.52	44.78	-50.1	-63.0	3.5	1.52e+00	0	33	104	0	60	49526
2026-01-18 01:20:36.76	253.06	44.82	-49.6	-62.6	3.5	1.52e+00	0	33	104	0	60	47271
2026-01-18 01:20:37.77	253.60	44.86	-49.2	-62.0	3.5	1.52e+00	0	33	104	0	60	44369
2026-01-18 01:20:38.78	254.14	44.90	-49.2	-62.0	3.5	1.51e+00	0	33	104	0	60	44270
2026-01-18 01:20:39.79	254.68	44.93	-49.1	-62.0	3.5	1.52e+00	0	33	104	0	60	44246
2026-01-18 01:20:40.80	255.23	44.97	-49.4	-62.2	3.5	1.52e+00	0	33	104	0	60	45427
2026-01-18 01:20:41.81	255.77	45.00	-49.2	-62.1	3.5	1.52e+00	0	33	104	0	60	44919
2026-01-18 01:20:42.81	256.32	45.02	-49.4	-62.3	3.5	1.52e+00	0	33	104	0	60	45802
2026-01-18 01:20:43.82	256.86	45.05	-49.2	-62.2	3.5	1.52e+00	0	33	104	0	60	44999
2026-01-18 01:20:44.83	257.41	45.07	-49.2	-62.1	3.5	1.52e+00	0	33	104	0	60	44701
2026-01-18 01:20:45.84	257.96	45.09	-49.4	-62.3	3.5	1.52e+00	0	33	104	0	60	45762
2026-01-18 01:20:46.85	258.51	45.10	-49.2	-62.1	3.5	1.52e+00	0	33	104	0	60	44764
2026-01-18 01:20:47.86	259.06	45.12	-49.3	-62.2	3.5	1.52e+00	0	33	104	0	60	45281
2026-01-18 01:20:48.87	259.61	45.12	-49.4	-62.3	3.5	1.52e+00	0	33	104	0	60	45658
2026-01-18 01:20:49.88	260.16	45.13	-49.6	-62.5	3.5	1.52e+00	0	33	104	0	60	46771
2026-01-18 01:20:50.89	260.71	45.14	-49.6	-62.5	3.5	1.52e+00	0	33	104	0	60	46586
2026-01-18 01:20:51.90	261.26	45.14	-49.5	-62.4	3.5	1.52e+00	0	33	104	0	60	46394
2026-01-18 01:20:52.91	261.81	45.14	-50.0	-62.9	3.5	1.52e+00	0	33	104	0	60	48937
2026-01-18 01:20:53.92	262.36	45.13	-49.6	-62.5	3.5	1.52e+00	0	33	104	0	60	46618
2026-01-18 01:20:54.93	262.91	45.12	-49.5	-62.5	3.5	1.52e+00	0	33	104	0	60	46688
2026-01-18 01:20:55.94	263.46	45.11	-49.4	-62.3	3.5	1.51e+00	0	33	104	0	60	45929
2026-01-18 01:20:56.95	264.01	45.10	-49.9	-62.9	3.5	1.51e+00	0	33	104	0	60	48767
2026-01-18 01:20:57.96	264.56	45.08	-49.7	-62.6	3.5	1.52e+00	0	33	104	0	60	47436
2026-01-18 01:20:58.97	265.10	45.07	-50.1	-63.0	3.5	1.52e+00	0	33	104	0	60	49425
2026-01-18 01:20:59.97	265.65	45.04	-50.0	-62.8	3.5	1.51e+00	0	33	104	0	60	48648
2026-01-18 01:21:00.98	266.19	45.02	-49.7	-62.6	3.5	1.51e+00	0	33	104	0	60	47451
2026-01-18 01:21:01.99	266.74	44.99	-49.3	-62.2	3.5	1.52e+00	0	33	104	0	60	45109
2026-01-18 01:21:03.00	267.28	44.96	-49.5	-62.4	3.5	1.52e+00	0	33	104	0	60	46077
2026-01-18 01:21:04.01	267.83	44.93	-49.6	-62.5	3.5	1.52e+00	0	33	104	0	60	46568
2026-01-18 01:21:05.02	268.37	44.90	-49.9	-62.8	3.5	1.52e+00	0	33	104	0	60	48306
2026-01-18 01:21:06.03	268.91	44.86	-49.3	-62.2	3.5	1.52e+00	0	33	104	0	60	45015
2026-01-18 01:21:07.04	269.45	44.82	-49.3	-62.2	3.5	1.52e+00	0	33	104	0	60	45081
2026-01-18 01:21:08.05	269.99	44.77	-49.7	-62.6	3.5	1.52e+00	0	33	104	0	60	47075
2026-01-18 01:21:09.06	270.53	44.73	-50.0	-62.8	3.5	1.52e+00	0	33	104	0	60	48482
2026-01-18 01:21:10.07	271.06	44.68	-49.5	-62.4	3.5	1.51e+00	0	33	104	0	60	46309
2026-01-18 01:21:11.08	271.60	44.63	-49.7	-62.6	3.5	1.52e+00	0	33	104	0	60	47411
2026-01-18 01:21:12.09	272.13	44.57	-49.8	-62.7	3.5	1.52e+00	0	33	104	0	60	47732
2026-01-18 01:21:13.10	272.66	44.52	-49.4	-62.3	3.5	1.52e+00	0	33	104	0	60	45783
2026-01-18 01:21:14.11	273.19	44.46	-49.3	-62.2	3.5	1.52e+00	0	33	104	0	60	45306
2026-01-18 01:21:15.12	273.71	44.39	-49.4	-62.2	3.5	1.51e+00	0	33	104	0	60	45345
2026-01-18 01:21:16.13	274.24	44.33	-49.6	-62.5	3.5	1.52e+00	0	33	104	0	60	46586
2026-01-18 01:21:17.14	274.76	44.26	-49.4	-62.3	3.5	1.52e+00	0	33	104	0	60	45941
2026-01-18 01:21:18.15	275.28	44.19	-49.5	-62.4	3.5	1.52e+00	0	33	104	0	60	46475
2026-01-18 01:21:19.16	275.80	44.12	-49.6	-62.6	3.5	1.51e+00	0	33	104	0	60	47230
2026-01-18 01:21:20.17	276.31	44.05	-49.6	-62.5	3.5	1.51e+00	0	33	104	0	60	46929
2026-01-18 01:21:21.18	276.82	43.97	-49.8	-62.6	3.5	1.52e+00	0	33	104	0	60	47576
2026-01-18 01:21:22.19	277.33	43.89	-49.3	-62.2	3.5	1.52e+00	0	33	104	0	60	45144
2026-01-18 01:21:23.20	277.84	43.81	-49.5	-62.4	3.5	1.52e+00	0	33	104	0	60	46338
2026-01-18 01:21:24.21	278.35	43.73	-49.3	-62.2	3.5	1.51e+00	0	33	104	0	60	45111
2026-01-18 01:21:25.22	278.85	43.64	-49.1	-62.0	3.5	1.52e+00	0	33	104	0	60	44359
2026-01-18 01:21:26.24	279.35	43.55	-49.0	-62.0	3.5	1.52e+00	0	33	104	0	60	44107
2026-01-18 01:21:27.25	279.85	43.46	-49.2	-62.0	3.5	1.52e+00	0	33	104	0	60	44413
2026-01-18 01:21:28.26	280.34	43.37	-49.2	-62.2	3.5	1.52e+00	0	33	104	0	60	45018
2026-01-18 01:21:29.27	280.84	43.28	-49.4	-62.3	3.5	1.52e+00	0	33	104	0	60	45755
2026-01-18 01:21:30.28	281.32	43.18	-49.3	-62.2	3.5	1.52e+00	0	33	104	0	60	45370
2026-01-18 01:21:31.28	281.80	43.08	-49.3	-62.2	3.5	1.52e+00	0	33	104	0	60	45029
2026-01-18 01:21:32.29	282.29	42.98	-49.4	-62.3	3.5	1.51e+00	0	33	104	0	60	45995
2026-01-18 01:21:33.30	282.77	42.88	-49.6	-62.5	3.5	1.52e+00	0	33	104	0	60	46764
2026-01-18 01:21:34.31	283.24	42.78	-49.6	-62.5	3.5	1.52e+00	0	33	104	0	60	46764
2026-01-18 01:21:35.32	283.72	42.67	-49.7	-62.6	3.5	1.51e+00	0	33	104	0	60	47244
2026-01-18 01:21:36.33	284.19	42.56	-50.4	-63.3	3.5	1.52e+00	0	33	104	0	60	51394
2026-01-18 01:21:37.34	284.65	42.46	-49.5	-62.4	3.5	1.52e+00	0	33	104	0	60	46069
2026-01-18 01:21:38.35	285.12	42.34	-49.1	-62.0	3.5	1.52e+00	0	33	104	0	60	44101
2026-01-18 01:21:39.36	285.58	42.23	-49.2	-62.1	3.5	1.52e+00	0	33	104	0	60	44774
2026-01-18 01:21:40.37	286.04	42.12	-49.1	-62.0	3.5	1.52e+00	0	33	104	0	60	44062
2026-01-18 01:21:41.38	286.49	42.00	-49.0	-61.9	3.5	1.52e+00	0	33	104	0	60	43900
2026-01-18 01:21:42.39	286.94	41.88	-49.2	-62.0	3.5	1.52e+00	0	33	104	0	60	44280
2026-01-18 01:21:43.40	287.39	41.76	-49.2	-62.1	3.5	1.52e+00	0	33	104	0	60	44465
2026-01-18 01:21:44.41	287.83	41.64	-49.6	-62.5	3.5	1.52e+00	0	33	104	0	60	46950
2026-01-18 01:21:45.42	288.28	41.52	-49.8	-62.6	3.5	1.52e+00	0	33	104	0	60	47545
2026-01-18 01:21:46.43	288.71	41.40	-49.4	-62.3	3.5	1.52e+00	0	33	104	0	60	45505
2026-01-18 01:21:47.44	289.15	41.27	-50.0	-62.9	3.5	1.52e+00	0	33	104	0	60	49275
2026-01-18 01:21:48.45	289.58	41.15	-50.1	-63.0	3.5	1.51e+00	0	33	104	0	60	49321
2026-01-18 01:21:49.46	290.01	41.02	-49.3	-62.3	3.5	1.52e+00	0	33	104	0	60	45673
2026-01-18 01:21:50.47	290.43	40.89	-50.3	-63.2	3.5	1.51e+00	0	33	104	0	60	50691
2026-01-18 01:21:51.48	290.85	40.76	-49.9	-62.8	3.5	1.52e+00	0	33	104	0	60	48620
2026-01-18 01:21:52.49	291.27	40.63	-49.5	-62.4	3.5	1.52e+00	0	33	104	0	60	46453
2026-01-18 01:21:53.50	291.69	40.50	-49.6	-62.5	3.5	1.52e+00	0	33	104	0	60	46808
2026-01-18 01:21:54.51	292.10	40.36	-49.8	-62.7	3.5	1.52e+00	0	33	104	0	60	47718
2026-01-18 01:21:55.52	292.51	40.23	-49.3	-62.2	3.5	1.52e+00	0	33	104	0	60	45247
2026-01-18 01:21:56.53	292.91	40.09	-49.8	-62.6	3.5	1.52e+00	0	33	104	0	60	47594
2026-01-18 01:21:57.54	293.31	39.95	-49.6	-62.5	3.5	1.52e+00	0	33	104	0	60	46613
2026-01-18 01:21:58.55	293.71	39.82	-49.3	-62.3	3.5	1.52e+00	0	33	104	0	60	45541
2026-01-18 01:21:59.55	294.10	39.68	-49.2	-62.1	3.5	1.52e+00	0	33	104	0	60	44834
2026-01-18 01:22:00.56	294.49	39.54	-49.1	-62.0	3.5	1.52e+00	0	33	104	0	60	44232
2026-01-18 01:22:01.57	294.88	39.40	-49.1	-62.0	3.5	1.52e+00	0	33	104	0	60	44335
2026-01-18 01:22:02.58	295.26	39.26	-49.1	-62.0	3.5	1.52e+00	0	33	104	0	60	43958
2026-01-18 01:22:03.59	295.64	39.11	-49.2	-62.1	3.5	1.52e+00	0	33	104	0	60	44450
2026-01-18 01:22:04.60	296.02	38.97	-49.2	-62.1	3.5	1.52e+00	0	33	104	0	60	44863
2026-01-18 01:22:05.61	296.40	38.83	-49.2	-62.1	3.5	1.51e+00	0	33	104	0	60	44743
2026-01-18 01:22:06.62	296.77	38.68	-49.2	-62.2	3.5	1.51e+00	0	33	104	0	60	44976
2026-01-18 01:22:07.63	297.14	38.54	-49.3	-62.2	3.5	1.52e+00	0	33	104	0	60	45246
2026-01-18 01:22:08.64	297.50	38.39	-49.4	-62.3	3.5	1.52e+00	0	33	104	0	60	45975
2026-01-18 01:22:09.65	297.86	38.25	-49.6	-62.5	3.5	1.52e+00	0	33	104	0	60	46656
2026-01-18 01:22:10.65	298.22	38.10	-49.4	-62.3	3.5	1.52e+00	0	33	104	0	60	45957
2026-01-18 01:22:11.66	298.57	37.95	-49.8	-62.7	3.5	1.52e+00	0	33	104	0	60	48096
2026-01-18 01:22:12.67	298.92	37.80	-49.8	-62.6	3.5	1.52e+00	0	33	104	0	60	47590
2026-01-18 01:22:13.68	299.27	37.66	-49.6	-62.5	3.5	1.52e+00	0	33	104	0	60	46904
2026-01-18 01:22:14.69	299.62	37.51	-50.0	-62.9	3.5	1.52e+00	0	33	104	0	60	49290
2026-01-18 01:22:15.70	299.96	37.36	-49.5	-62.3	3.5	1.51e+00	0	33	104	0	60	45983
2026-01-18 01:22:16.71	300.30	37.21	-49.7	-62.6	3.5	1.52e+00	0	33	104	0	60	47517
2026-01-18 01:22:17.72	300.64	37.06	-49.6	-62.5	3.5	1.51e+00	0	33	104	0	60	46807
2026-01-18 01:22:18.73	300.97	36.91	-49.7	-62.6	3.5	1.52e+00	0	33	104	0	60	47207
2026-01-18 01:22:19.74	301.30	36.75	-49.9	-62.8	3.5	1.51e+00	0	33	104	0	60	48245
2026-01-18 01:22:20.75	301.63	36.60	-49.7	-62.6	3.5	1.52e+00	0	33	104	0	60	47398
2026-01-18 01:22:21.76	301.95	36.45	-49.9	-62.7	3.5	1.51e+00	0	33	104	0	60	48106
2026-01-18 01:22:22.77	302.27	36.30	-49.6	-62.5	3.5	1.52e+00	0	33	104	0	60	46651
2026-01-18 01:22:23.78	302.59	36.15	-49.5	-62.4	3.5	1.52e+00	0	33	104	0	60	46505
2026-01-18 01:22:24.79	302.91	35.99	-49.6	-62.5	3.5	1.52e+00	0	33	104	0	60	46966
2026-01-18 01:22:25.80	303.22	35.84	-49.3	-62.2	3.5	1.52e+00	0	33	104	0	60	45173
2026-01-18 01:22:26.81	303.53	35.69	-49.5	-62.4	3.5	1.52e+00	0	33	104	0	60	46294
2026-01-18 01:22:27.82	303.84	35.53	-50.4	-63.2	3.5	1.52e+00	0	33	104	0	60	51014
2026-01-18 01:22:28.83	304.14	35.38	-49.8	-62.7	3.5	1.52e+00	0	33	104	0	60	47866
2026-01-18 01:22:29.84	304.44	35.23	-49.7	-62.6	3.5	1.51e+00	0	33	104	0	60	47331
2026-01-18 01:22:30.85	304.74	35.07	-50.0	-62.9	3.5	1.52e+00	0	33	104	0	60	48785
2026-01-18 01:22:31.86	305.04	34.92	-49.7	-62.7	3.5	1.52e+00	0	33	104	0	60	47670
2026-01-18 01:22:32.87	305.33	34.77	-49.8	-62.7	3.5	1.52e+00	0	33	104	0	60	47746
2026-01-18 01:22:33.88	305.62	34.61	-49.8	-62.7	3.5	1.52e+00	0	33	104	0	60	48090
2026-01-18 01:22:34.89	305.91	34.46	-49.7	-62.6	3.5	1.52e+00	0	33	104	0	60	47132
2026-01-18 01:22:35.90	306.19	34.31	-49.7	-62.6	3.5	1.52e+00	0	33	104	0	60	47374
2026-01-18 01:22:36.91	306.48	34.15	-50.2	-63.1	3.5	1.52e+00	0	33	104	0	60	49891
2026-01-18 01:22:37.92	306.76	34.00	-50.7	-63.6	3.5	1.51e+00	0	33	104	0	60	52920
2026-01-18 01:22:38.92	307.03	33.85	-49.8	-62.7	3.5	1.52e+00	0	33	104	0	60	47773
2026-01-18 01:22:39.93	307.30	33.69	-49.7	-62.6	3.5	1.52e+00	0	33	104	0	60	47329
2026-01-18 01:22:40.94	307.58	33.54	-50.0	-62.9	3.5	1.52e+00	0	33	104	0	60	49089
2026-01-18 01:22:41.95	307.85	33.38	-49.8	-62.8	3.5	1.52e+00	0	33	104	0	60	48392
2026-01-18 01:22:42.96	308.11	33.23	-49.7	-62.6	3.5	1.52e+00	0	33	104	0	60	47217
2026-01-18 01:22:43.97	308.38	33.08	-49.5	-62.3	3.5	1.52e+00	0	33	104	0	60	45809
2026-01-18 01:22:44.98	308.64	32.92	-49.3	-62.2	3.5	1.52e+00	0	33	104	0	60	45249
2026-01-18 01:22:45.99	308.90	32.77	-49.4	-62.2	3.5	1.52e+00	0	33	104	0	60	45474
2026-01-18 01:22:47.00	309.16	32.62	-49.5	-62.3	3.5	1.52e+00	0	33	104	0	60	46001
2026-01-18 01:22:48.01	309.41	32.47	-49.5	-62.4	3.5	1.52e+00	0	33	104	0	60	46273
2026-01-18 01:22:49.02	309.67	32.31	-49.5	-62.4	3.5	1.52e+00	0	33	104	0	60	46406
2026-01-18 01:22:50.03	309.92	32.16	-49.8	-62.7	3.5	1.52e+00	0	33	104	0	60	48168
2026-01-18 01:22:51.04	310.16	32.01	-49.6	-62.5	3.5	1.52e+00	0	33	104	0	60	46812
2026-01-18 01:22:52.05	310.41	31.86	-49.5	-62.5	3.5	1.52e+00	0	33	104	0	60	46656
2026-01-18 01:22:53.06	310.65	31.70	-49.6	-62.5	3.5	1.52e+00	0	33	104	0	60	46787
2026-01-18 01:22:54.07	310.89	31.55	-49.5	-62.4	3.5	1.52e+00	0	33	104	0	60	46218
2026-01-18 01:22:55.08	311.13	31.40	-49.4	-62.3	3.5	1.52e+00	0	33	104	0	60	45884
2026-01-18 01:22:56.09	311.37	31.25	-49.5	-62.5	3.5	1.52e+00	0	33	104	0	60	46604
2026-01-18 01:22:57.10	311.60	31.10	-49.4	-62.3	3.5	1.52e+00	0	33	104	0	60	45914
2026-01-18 01:22:58.11	311.84	30.95	-49.6	-62.6	3.5	1.52e+00	0	33	104	0	60	47120
2026-01-18 01:22:59.12	312.07	30.80	-49.5	-62.4	3.5	1.52e+00	0	33	104	0	60	46397
2026-01-18 01:23:00.13	312.30	30.65	-49.9	-62.8	3.5	1.52e+00	0	33	104	0	60	48445
2026-01-18 01:23:01.14	312.52	30.50	-49.6	-62.5	3.5	1.52e+00	0	33	104	0	60	46871
2026-01-18 01:23:02.15	312.75	30.35	-49.7	-62.7	3.5	1.51e+00	0	33	104	0	60	47833
2026-01-18 01:23:03.16	312.97	30.20	-49.9	-62.8	3.5	1.52e+00	0	33	104	0	60	48399
2026-01-18 01:23:04.17	313.19	30.05	-49.1	-62.0	3.5	1.52e+00	0	33	104	0	60	44389
2026-01-18 01:23:05.18	313.41	29.90	-49.3	-62.3	3.5	1.52e+00	0	33	104	0	60	45735
2026-01-18 01:23:06.19	313.62	29.76	-50.0	-62.9	3.5	1.52e+00	0	33	104	0	60	49107
2026-01-18 01:23:07.20	313.84	29.61	-49.7	-62.6	3.5	1.52e+00	0	33	104	0	60	47322
2026-01-18 01:23:08.21	314.05	29.46	-49.6	-62.5	3.5	1.52e+00	0	33	104	0	60	46998
2026-01-18 01:23:09.22	314.26	29.31	-49.5	-62.4	3.5	1.51e+00	0	33	104	0	60	46298
2026-01-18 01:23:10.23	314.47	29.17	-49.6	-62.5	3.5	1.52e+00	0	33	104	0	60	46671
2026-01-18 01:23:11.24	314.68	29.02	-49.8	-62.7	3.5	1.52e+00	0	33	104	0	60	48131
2026-01-18 01:23:12.25	314.88	28.88	-49.6	-62.6	3.5	1.52e+00	0	33	104	0	60	47122
2026-01-18 01:23:13.26	315.09	28.73	-50.1	-63.0	3.5	1.52e+00	0	33	104	0	60	49624
2026-01-18 01:23:14.27	315.29	28.59	-49.5	-62.4	3.5	1.52e+00	0	33	104	0	60	46133
2026-01-18 01:23:15.27	315.49	28.44	-49.7	-62.6	3.5	1.52e+00	0	33	104	0	60	47263
2026-01-18 01:23:16.28	315.68	28.30	-50.0	-62.9	3.5	1.52e+00	0	33	104	0	60	48790
2026-01-18 01:23:17.29	315.88	28.15	-49.3	-62.3	3.5	1.52e+00	0	33	104	0	60	45609
2026-01-18 01:23:18.30	316.07	28.01	-49.7	-62.7	3.5	1.52e+00	0	33	104	0	60	47645
2026-01-18 01:23:19.31	316.27	27.87	-49.7	-62.6	3.5	1.52e+00	0	33	104	0	60	47106
2026-01-18 01:23:20.32	316.46	27.72	-49.5	-62.4	3.5	1.51e+00	0	33	104	0	60	46392
2026-01-18 01:23:21.33	316.65	27.58	-49.2	-62.1	3.5	1.52e+00	0	33	104	0	60	44771
2026-01-18 01:23:22.34	316.84	27.44	-49.2	-62.1	3.5	1.52e+00	0	33	104	0	60	44656
2026-01-18 01:23:23.35	317.02	27.30	-49.1	-62.0	3.5	1.52e+00	0	33	104	0	60	44190
2026-01-18 01:23:24.36	317.21	27.16	-49.2	-62.1	3.5	1.52e+00	0	33	104	0	60	44647
2026-01-18 01:23:25.37	317.39	27.02	-49.6	-62.6	3.5	1.52e+00	0	33	104	0	60	47235
2026-01-18 01:23:26.38	317.57	26.88	-49.9	-62.8	3.5	1.52e+00	0	33	104	0	60	48430
2026-01-18 01:23:27.39	317.75	26.74	-50.4	-63.3	3.5	1.52e+00	0	33	104	0	60	51437
2026-01-18 01:23:28.40	317.93	26.60	-49.6	-62.6	3.5	1.52e+00	0	33	104	0	60	47103
2026-01-18 01:23:29.41	318.11	26.46	-49.8	-62.7	3.5	1.52e+00	0	33	104	0	60	47928
2026-01-18 01:23:30.41	318.28	26.32	-49.3	-62.3	3.5	1.52e+00	0	33	104	0	60	45560
2026-01-18 01:23:31.42	318.45	26.18	-49.5	-62.4	3.5	1.51e+00	0	33	104	0	60	46290
2026-01-18 01:23:32.43	318.63	26.05	-49.4	-62.4	3.5	1.52e+00	0	33	104	0	60	46129
2026-01-18 01:23:33.44	318.80	25.91	-49.7	-62.6	3.5	1.52e+00	0	33	104	0	60	47307
2026-01-18 01:23:34.45	318.97	25.77	-49.4	-62.4	3.5	1.52e+00	0	33	104	0	60	46200
2026-01-18 01:23:35.46	319.14	25.64	-49.4	-62.3	3.5	1.52e+00	0	33	104	0	60	45914
2026-01-18 01:23:36.47	319.30	25.50	-49.7	-62.6	3.5	1.52e+00	0	33	104	0	60	47277
2026-01-18 01:23:37.48	319.47	25.37	-49.7	-62.6	3.5	1.52e+00	0	33	104	0	60	47274
2026-01-18 01:23:38.50	319.63	25.23	-49.4	-62.2	3.5	1.52e+00	0	33	104	0	60	45473
2026-01-18 01:23:39.50	319.80	25.10	-49.9	-62.7	3.5	1.52e+00	0	33	104	0	60	48072
2026-01-18 01:23:40.51	319.96	24.96	-49.6	-62.5	3.5	1.52e+00	0	33	104	0	60	46821
2026-01-18 01:23:41.53	320.12	24.83	-49.4	-62.3	3.5	1.52e+00	0	33	104	0	60	45539
2026-01-18 01:23:42.54	320.28	24.69	-49.5	-62.3	3.5	1.52e+00	0	33	104	0	60	45847
2026-01-18 01:23:43.55	320.43	24.56	-49.8	-62.7	3.5	1.52e+00	0	33	104	0	60	47985
2026-01-18 01:23:44.56	320.59	24.43	-49.4	-62.3	3.5	1.52e+00	0	33	104	0	60	45563
2026-01-18 01:23:45.57	320.75	24.30	-49.3	-62.2	3.5	1.51e+00	0	33	104	0	60	45021
2026-01-18 01:23:46.58	320.90	24.17	-49.9	-62.8	3.5	1.52e+00	0	33	104	0	60	48303
2026-01-18 01:23:47.59	321.05	24.04	-49.3	-62.2	3.5	1.52e+00	0	33	104	0	60	45394
2026-01-18 01:23:48.59	321.20	23.91	-49.4	-62.3	3.5	1.52e+00	0	33	104	0	60	45953
2026-01-18 01:23:49.60	321.35	23.78	-49.5	-62.4	3.5	1.51e+00	0	33	104	0	60	46061
2026-01-18 01:23:50.61	321.50	23.65	-49.6	-62.4	3.5	1.52e+00	0	33	104	0	60	46516
2026-01-18 01:23:51.62	321.65	23.52	-49.5	-62.4	3.5	1.52e+00	0	33	104	0	60	46296
2026-01-18 01:23:52.63	321.79	23.39	-49.4	-62.4	3.5	1.52e+00	0	33	104	0	60	46088
2026-01-18 01:23:53.64	321.94	23.26	-49.5	-62.4	3.5	1.51e+00	0	33	104	0	60	46442
2026-01-18 01:23:54.65	322.08	23.13	-49.4	-62.4	3.5	1.52e+00	0	33	104	0	60	46029
2026-01-18 01:23:55.66	322.23	23.01	-49.8	-62.7	3.5	1.51e+00	0	33	104	0	60	47922
2026-01-18 01:23:56.68	322.37	22.88	-49.4	-62.3	3.5	1.52e+00	0	33	104	0	60	45815
2026-01-18 01:23:57.69	322.51	22.75	-49.5	-62.5	3.5	1.51e+00	0	33	104	0	60	46563
2026-01-18 01:23:58.70	322.65	22.63	-49.4	-62.3	3.5	1.52e+00	0	33	104	0	60	45748
2026-01-18 01:23:59.71	322.79	22.50	-49.6	-62.5	3.5	1.51e+00	0	33	104	0	60	46696
2026-01-18 01:24:00.72	322.93	22.38	-49.4	-62.3	3.5	1.52e+00	0	33	104	0	60	45504
2026-01-18 01:24:01.73	323.06	22.25	-49.6	-62.5	3.5	1.52e+00	0	33	104	0	60	46782
2026-01-18 01:24:02.74	323.20	22.13	-49.2	-62.1	3.5	1.52e+00	0	33	104	0	60	44843
2026-01-18 01:24:03.75	323.33	22.00	-49.6	-62.5	3.5	1.52e+00	0	33	104	0	60	46747
2026-01-18 01:24:04.76	323.47	21.88	-49.6	-62.5	3.5	1.52e+00	0	33	104	0	60	46868
2026-01-18 01:24:05.77	323.60	21.76	-49.6	-62.5	3.5	1.52e+00	0	33	104	0	60	46860
2026-01-18 01:24:06.78	323.73	21.64	-49.7	-62.6	3.5	1.52e+00	0	33	104	0	60	47497
2026-01-18 01:24:07.79	323.86	21.52	-49.4	-62.3	3.5	1.52e+00	0	33	104	0	60	45849
2026-01-18 01:24:08.80	323.99	21.39	-49.3	-62.2	3.5	1.51e+00	0	33	104	0	60	45389
2026-01-18 01:24:09.81	324.12	21.27	-49.3	-62.2	3.5	1.52e+00	0	33	104	0	60	45309
2026-01-18 01:24:10.82	324.25	21.15	-49.4	-62.4	3.5	1.52e+00	0	33	104	0	60	46088
2026-01-18 01:24:11.83	324.37	21.03	-49.3	-62.3	3.5	1.52e+00	0	33	104	0	60	45514
2026-01-18 01:24:12.84	324.50	20.91	-49.6	-62.5	3.5	1.52e+00	0	33	104	0	60	46565
2026-01-18 01:24:13.85	324.62	20.79	-49.9	-62.8	3.5	1.52e+00	0	33	104	0	60	48718
2026-01-18 01:24:14.85	324.74	20.68	-49.6	-62.6	3.5	1.52e+00	0	33	104	0	60	47171
2026-01-18 01:24:15.87	324.87	20.56	-49.8	-62.7	3.5	1.52e+00	0	33	104	0	60	47748
2026-01-18 01:24:16.88	324.99	20.44	-49.5	-62.4	3.5	1.52e+00	0	33	104	0	60	46474
2026-01-18 01:24:17.88	325.11	20.32	-49.6	-62.5	3.5	1.52e+00	0	33	104	0	60	47030
2026-01-18 01:24:18.89	325.23	20.21	-49.5	-62.4	3.5	1.51e+00	0	33	104	0	60	46182
2026-01-18 01:24:19.90	325.35	20.09	-49.3	-62.3	3.5	1.52e+00	0	33	104	0	60	45514
2026-01-18 01:24:20.91	325.47	19.97	-49.5	-62.4	3.5	1.52e+00	0	33	104	0	60	46187
2026-01-18 01:24:21.92	325.59	19.86	-49.6	-62.5	3.5	1.52e+00	0	33	104	0	60	46600
2026-01-18 01:24:22.93	325.70	19.74	-49.4	-62.3	3.5	1.52e+00	0	33	104	0	60	45587
2026-01-18 01:24:23.94	325.82	19.63	-49.4	-62.3	3.5	1.52e+00	0	33	104	0	60	45803
2026-01-18 01:24:24.95	325.93	19.51	-49.4	-62.3	3.5	1.51e+00	0	33	104	0	60	45689
2026-01-18 01:24:25.96	326.05	19.40	-49.5	-62.4	3.5	1.52e+00	0	33	104	0	60	46324
2026-01-18 01:24:26.97	326.16	19.29	-49.5	-62.3	3.5	1.52e+00	0	33	104	0	60	45958
2026-01-18 01:24:27.98	326.27	19.17	-49.2	-62.1	3.5	1.52e+00	0	33	104	0	60	44921
2026-01-18 01:24:28.99	326.38	19.06	-49.2	-62.1	3.5	1.52e+00	0	33	104	0	60	44731
2026-01-18 01:24:30.00	326.50	18.95	-49.2	-62.1	3.5	1.52e+00	0	33	104	0	60	44935
2026-01-18 01:24:31.01	326.61	18.84	-49.2	-62.1	3.5	1.52e+00	0	33	104	0	60	44647
2026-01-18 01:24:32.02	326.72	18.72	-49.2	-62.1	3.5	1.52e+00	0	33	104	0	60	44569
2026-01-18 01:24:33.03	326.82	18.61	-49.3	-62.2	3.5	1.52e+00	0	33	104	0	60	45065
2026-01-18 01:24:34.04	326.93	18.50	-49.4	-62.3	3.5	1.52e+00	0	33	104	0	60	45899
2026-01-18 01:24:35.05	327.04	18.39	-49.6	-62.5	3.5	1.52e+00	0	33	104	0	60	46762
2026-01-18 01:24:36.06	327.15	18.28	-49.5	-62.4	3.5	1.52e+00	0	33	104	0	60	46152
2026-01-18 01:24:37.07	327.25	18.17	-49.7	-62.6	3.5	1.52e+00	0	33	104	0	60	47346
2026-01-18 01:24:38.08	327.36	18.06	-49.8	-62.7	3.5	1.52e+00	0	33	104	0	60	47692
2026-01-18 01:24:39.09	327.46	17.95	-49.7	-62.5	3.6	1.52e+00	0	33	104	0	60	47073
2026-01-18 01:24:40.10	327.56	17.85	-49.4	-62.3	3.5	1.52e+00	0	33	104	0	60	45996
2026-01-18 01:24:41.11	327.67	17.74	-49.5	-62.4	3.5	1.52e+00	0	33	104	0	60	46311
2026-01-18 01:24:42.12	327.77	17.63	-49.7	-62.6	3.5	1.52e+00	0	33	104	0	60	47142
2026-01-18 01:24:43.13	327.87	17.52	-49.6	-62.5	3.5	1.52e+00	0	33	104	0	60	46767
2026-01-18 01:24:44.14	327.97	17.42	-49.6	-62.6	3.5	1.52e+00	0	33	104	0	60	47364
2026-01-18 01:24:45.15	328.07	17.31	-49.7	-62.6	3.5	1.52e+00	0	33	104	0	60	47350
2026-01-18 01:24:46.16	328.17	17.20	-49.5	-62.4	3.5	1.52e+00	0	33	104	0	60	46063
2026-01-18 01:24:47.17	328.27	17.10	-49.5	-62.3	3.5	1.52e+00	0	33	104	0	60	45802
2026-01-18 01:24:48.18	328.37	16.99	-49.6	-62.5	3.5	1.52e+00	0	33	104	0	60	46656
2026-01-18 01:24:49.19	328.47	16.89	-49.5	-62.4	3.5	1.52e+00	0	33	104	0	60	46260
2026-01-18 01:24:50.19	328.56	16.79	-49.3	-62.3	3.5	1.51e+00	0	33	104	0	60	45517
2026-01-18 01:24:51.20	328.66	16.68	-49.7	-62.6	3.5	1.52e+00	0	33	104	0	60	47364
2026-01-18 01:24:52.21	328.75	16.58	-49.5	-62.4	3.5	1.52e+00	0	33	104	0	60	46441
2026-01-18 01:24:53.22	328.85	16.47	-49.3	-62.2	3.5	1.51e+00	0	33	104	0	60	45374
2026-01-18 01:24:54.23	328.94	16.37	-49.3	-62.2	3.5	1.52e+00	0	33	104	0	60	45394
2026-01-18 01:24:55.24	329.04	16.27	-49.5	-62.4	3.5	1.52e+00	0	33	104	0	60	46352
2026-01-18 01:24:56.25	329.13	16.17	-49.8	-62.7	3.5	1.52e+00	0	33	104	0	60	47866
2026-01-18 01:24:57.26	329.22	16.06	-49.4	-62.3	3.5	1.52e+00	0	33	104	0	60	45584
2026-01-18 01:24:58.27	329.31	15.96	-49.7	-62.6	3.5	1.52e+00	0	33	104	0	60	47607
2026-01-18 01:24:59.28	329.40	15.86	-49.3	-62.1	3.5	1.52e+00	0	33	104	0	60	44839
2026-01-18 01:25:00.29	329.50	15.76	-49.7	-62.5	3.5	1.52e+00	0	33	104	0	60	46994
2026-01-18 01:25:01.30	329.59	15.66	-49.9	-62.8	3.5	1.52e+00	0	33	104	0	60	48633
2026-01-18 01:25:02.31	329.68	15.56	-49.8	-62.6	3.5	1.52e+00	0	33	104	0	60	47532
2026-01-18 01:25:03.32	329.76	15.46	-49.4	-62.3	3.5	1.52e+00	0	33	104	0	60	45765
2026-01-18 01:25:04.33	329.85	15.36	-49.7	-62.5	3.5	1.52e+00	0	33	104	0	60	47046
2026-01-18 01:25:05.34	329.94	15.26	-49.4	-62.3	3.5	1.52e+00	0	33	104	0	60	45773
2026-01-18 01:25:06.35	330.03	15.16	-49.4	-62.3	3.5	1.52e+00	0	33	104	0	60	45574
2026-01-18 01:25:07.36	330.11	15.06	-49.4	-62.3	3.5	1.52e+00	0	33	104	0	60	45570
2026-01-18 01:25:08.37	330.20	14.97	-49.6	-62.4	3.5	1.52e+00	0	33	104	0	60	46496
2026-01-18 01:25:09.38	330.29	14.87	-49.6	-62.5	3.5	1.52e+00	0	33	104	0	60	46896
2026-01-18 01:25:10.39	330.37	14.77	-49.3	-62.2	3.5	1.52e+00	0	33	104	0	60	45056
2026-01-18 01:25:11.40	330.46	14.67	-49.5	-62.4	3.5	1.52e+00	0	33	104	0	60	46103
2026-01-18 01:25:12.41	330.54	14.58	-50.0	-62.9	3.5	1.51e+00	0	33	104	0	60	48999
2026-01-18 01:25:13.42	330.62	14.48	-49.8	-62.6	3.5	1.52e+00	0	33	104	0	60	47490
2026-01-18 01:25:14.43	330.71	14.39	-49.7	-62.6	3.5	1.52e+00	0	33	104	0	60	47173
2026-01-18 01:25:15.43	330.79	14.29	-49.7	-62.6	3.5	1.52e+00	0	33	104	0	60	47542
2026-01-18 01:25:16.44	330.87	14.19	-49.6	-62.5	3.5	1.52e+00	0	33	104	0	60	47059
2026-01-18 01:25:17.45	330.95	14.10	-49.3	-62.2	3.5	1.52e+00	0	33	104	0	60	45377
2026-01-18 01:25:18.46	331.03	14.01	-49.2	-62.1	3.5	1.52e+00	0	33	104	0	60	44571
2026-01-18 01:25:19.47	331.12	13.91	-49.3	-62.2	3.5	1.52e+00	0	33	104	0	60	45223
2026-01-18 01:25:20.48	331.20	13.82	-49.6	-62.5	3.5	1.51e+00	0	33	104	0	60	46945
2026-01-18 01:25:21.50	331.28	13.72	-49.2	-62.1	3.5	1.52e+00	0	33	104	0	60	44602
2026-01-18 01:25:22.50	331.35	13.63	-49.2	-62.2	3.5	1.52e+00	0	33	104	0	60	45097
2026-01-18 01:25:23.51	331.43	13.54	-49.2	-62.1	3.5	1.52e+00	0	33	104	0	60	44916
2026-01-18 01:25:24.53	331.51	13.44	-49.4	-62.3	3.5	1.52e+00	0	33	104	0	60	45896
2026-01-18 01:25:25.54	331.59	13.35	-49.3	-62.1	3.5	1.52e+00	0	33	104	0	60	44948
2026-01-18 01:25:26.55	331.67	13.26	-49.4	-62.3	3.5	1.52e+00	0	33	104	0	60	45762
2026-01-18 01:25:27.56	331.74	13.17	-49.3	-62.2	3.5	1.52e+00	0	33	104	0	60	45160
2026-01-18 01:25:28.57	331.82	13.07	-49.5	-62.4	3.5	1.52e+00	0	33	104	0	60	46224
2026-01-18 01:25:29.58	331.90	12.98	-49.4	-62.3	3.5	1.52e+00	0	33	104	0	60	45810
2026-01-18 01:25:30.59	331.97	12.89	-49.6	-62.5	3.5	1.51e+00	0	33	104	0	60	46883
2026-01-18 01:25:31.60	332.05	12.80	-49.5	-62.3	3.5	1.52e+00	0	33	104	0	60	46003
2026-01-18 01:25:32.61	332.12	12.71	-49.7	-62.6	3.5	1.52e+00	0	33	104	0	60	47361
2026-01-18 01:25:33.62	332.20	12.62	-49.6	-62.5	3.5	1.52e+00	0	33	104	0	60	46723
2026-01-18 01:25:34.62	332.27	12.53	-49.6	-62.5	3.5	1.52e+00	0	33	104	0	60	46933
2026-01-18 01:25:35.63	332.34	12.44	-49.6	-62.5	3.5	1.52e+00	0	33	104	0	60	47033
2026-01-18 01:25:36.64	332.42	12.35	-49.4	-62.3	3.5	1.52e+00	0	33	104	0	60	45628
2026-01-18 01:25:37.65	332.49	12.26	-49.6	-62.5	3.5	1.52e+00	0	33	104	0	60	46568
