passes_logs/2026/01/18/R4.6S_Anadyr/R4.6S_Anadyr__20260118_000217_SUOMI_NPP_rec.log

#Pass ID: 20260118_000217_SUOMI NPP
#Satellite: SUOMI NPP
#Configuration: NPP
#almurnet v.1.7.20251203
#Start time: 2026-01-18 00:02:21

#Version: 2.2.20231116
#Station: R4.6S_Anadyr
#Location: 177.4865 lon 64.73178 lat
#TLE: 1 37849U 11061A   26017.57099531  .00000072  00000+0  54974-4 0  9996
#TLE: 2 37849  98.7814 319.5974 0002398  59.1749 300.9663 14.19525865737072

#Time	Az	El	Level	Level2	SNR	BER	BlckErr	Temp	State	Recorded	gain1	gain2
2026-01-18 00:02:21.13	149.93	0.24	-45.9	-47.4	5.7	0.00e+00	0	30	0	0	60	28724
2026-01-18 00:02:22.14	149.93	0.30	-49.0	-64.3	3.6	1.51e+00	0	31	104	0	60	59147
2026-01-18 00:02:23.15	149.92	0.36	-49.0	-64.2	3.6	1.51e+00	0	31	104	0	60	58792
2026-01-18 00:02:24.16	149.92	0.42	-49.0	-64.3	3.5	1.51e+00	0	31	104	0	60	59124
2026-01-18 00:02:25.17	149.92	0.49	-49.0	-64.3	3.6	1.51e+00	0	31	104	0	60	59158
2026-01-18 00:02:26.18	149.91	0.55	-49.0	-64.2	3.6	1.51e+00	0	31	104	0	60	58662
2026-01-18 00:02:27.19	149.91	0.61	-48.9	-64.2	3.6	1.51e+00	0	31	104	0	60	58296
2026-01-18 00:02:28.20	149.90	0.67	-48.9	-64.2	3.6	1.51e+00	0	31	104	0	60	58472
2026-01-18 00:02:29.21	149.90	0.73	-48.9	-64.2	3.6	1.51e+00	0	31	104	0	60	58292
2026-01-18 00:02:30.22	149.90	0.80	-49.0	-64.2	3.6	1.51e+00	0	31	104	0	60	58582
2026-01-18 00:02:31.23	149.89	0.86	-49.0	-64.2	3.6	1.51e+00	0	31	104	0	60	58776
2026-01-18 00:02:32.24	149.89	0.92	-49.0	-64.3	3.6	1.51e+00	0	31	104	0	60	59071
2026-01-18 00:02:33.25	149.88	0.98	-48.9	-64.2	3.6	1.51e+00	0	31	104	0	60	58727
2026-01-18 00:02:34.26	149.88	1.05	-48.9	-64.2	3.6	1.51e+00	0	32	104	0	60	58435
2026-01-18 00:02:35.27	149.88	1.11	-49.0	-64.3	3.6	1.51e+00	0	32	104	0	60	58979
2026-01-18 00:02:36.28	149.87	1.17	-49.1	-64.3	3.6	1.51e+00	0	32	104	0	60	59476
2026-01-18 00:02:37.29	149.87	1.24	-48.9	-64.2	3.6	1.51e+00	0	32	104	0	60	58373
2026-01-18 00:02:38.30	149.86	1.30	-48.9	-64.2	3.6	1.51e+00	0	32	104	0	60	58765
2026-01-18 00:02:39.31	149.86	1.36	-48.9	-64.2	3.6	1.51e+00	0	32	104	0	60	58492
2026-01-18 00:02:40.32	149.85	1.43	-48.9	-64.1	3.5	1.51e+00	0	32	104	0	60	58109
2026-01-18 00:02:41.33	149.85	1.49	-48.9	-64.2	3.6	1.51e+00	0	32	104	0	60	58459
2026-01-18 00:02:42.34	149.85	1.55	-48.9	-64.1	3.6	1.51e+00	0	32	104	0	60	58023
2026-01-18 00:02:43.35	149.84	1.62	-48.9	-64.1	3.6	1.51e+00	0	32	104	0	60	58168
2026-01-18 00:02:44.37	149.84	1.68	-49.0	-64.3	3.6	1.51e+00	0	32	104	0	60	59166
2026-01-18 00:02:45.38	149.83	1.75	-49.1	-64.4	3.6	1.51e+00	0	32	104	0	60	59922
2026-01-18 00:02:46.39	149.83	1.81	-49.1	-64.3	3.6	1.51e+00	0	32	104	0	60	59545
2026-01-18 00:02:47.40	149.82	1.87	-48.9	-64.2	3.6	1.51e+00	0	32	104	0	60	58395
2026-01-18 00:02:48.41	149.82	1.94	-49.0	-64.3	3.6	1.51e+00	0	32	104	0	60	58975
2026-01-18 00:02:49.42	149.81	2.00	-49.2	-64.4	3.6	1.51e+00	0	32	104	0	60	60104
2026-01-18 00:02:50.43	149.81	2.07	-49.0	-64.3	3.6	1.51e+00	0	32	104	0	60	58978
2026-01-18 00:02:51.43	149.80	2.13	-49.0	-64.3	3.6	1.51e+00	0	32	104	0	60	59362
2026-01-18 00:02:52.44	149.80	2.20	-49.1	-64.3	3.6	1.51e+00	0	32	104	0	60	59531
2026-01-18 00:02:53.45	149.80	2.26	-49.1	-64.3	3.6	1.51e+00	0	32	104	0	60	59044
2026-01-18 00:02:54.46	149.79	2.33	-49.1	-64.3	3.6	1.51e+00	0	32	104	0	60	59417
2026-01-18 00:02:55.47	149.79	2.40	-49.1	-64.4	3.6	1.51e+00	0	32	104	0	60	59650
2026-01-18 00:02:56.48	149.78	2.46	-49.1	-64.3	3.6	1.51e+00	0	32	104	0	60	59392
2026-01-18 00:02:57.49	149.78	2.53	-49.1	-64.3	3.6	1.51e+00	0	32	104	0	60	59402
2026-01-18 00:02:58.50	149.77	2.59	-49.1	-64.4	3.6	1.51e+00	0	32	104	0	60	59830
2026-01-18 00:02:59.51	149.77	2.66	-49.1	-64.3	3.6	1.51e+00	0	32	104	0	60	59407
2026-01-18 00:03:00.52	149.76	2.73	-49.2	-64.4	3.6	1.51e+00	0	32	104	0	60	59997
2026-01-18 00:03:01.53	149.76	2.79	-49.1	-64.3	3.6	1.51e+00	0	32	104	0	60	59323
2026-01-18 00:03:02.54	149.75	2.86	-49.1	-64.4	3.6	1.51e+00	0	32	104	0	60	59785
2026-01-18 00:03:03.55	149.75	2.93	-49.1	-64.3	3.6	1.51e+00	0	32	104	0	60	59577
2026-01-18 00:03:04.56	149.74	2.99	-49.1	-64.4	3.6	1.51e+00	0	32	104	0	60	59657
2026-01-18 00:03:05.57	149.74	3.06	-49.1	-64.4	3.6	1.51e+00	0	32	104	0	60	59700
2026-01-18 00:03:06.58	149.73	3.13	-48.9	-64.2	3.6	1.51e+00	0	32	104	0	60	58409
2026-01-18 00:03:07.59	149.73	3.20	-49.0	-64.2	3.6	1.51e+00	0	32	104	0	60	58768
2026-01-18 00:03:08.60	149.72	3.26	-48.9	-64.1	3.6	1.51e+00	0	32	104	0	60	57851
2026-01-18 00:03:09.61	149.71	3.33	-48.9	-64.1	3.6	1.51e+00	0	32	104	0	60	58055
2026-01-18 00:03:10.62	149.71	3.40	-48.9	-64.1	3.6	1.51e+00	0	32	104	0	60	57877
2026-01-18 00:03:11.63	149.70	3.47	-48.8	-64.1	3.6	1.51e+00	0	32	104	0	60	57762
2026-01-18 00:03:12.64	149.70	3.54	-48.8	-64.0	3.6	1.51e+00	0	32	104	0	60	57595
2026-01-18 00:03:13.65	149.69	3.61	-48.9	-64.1	3.6	1.51e+00	0	32	104	0	60	58093
2026-01-18 00:03:14.66	149.69	3.68	-48.9	-64.2	3.6	1.51e+00	0	32	104	0	60	58335
2026-01-18 00:03:15.67	149.68	3.74	-49.0	-64.2	3.6	1.51e+00	0	32	104	0	60	58561
2026-01-18 00:03:16.68	149.68	3.81	-49.0	-64.2	3.6	1.51e+00	0	32	104	0	60	58829
2026-01-18 00:03:17.69	149.67	3.88	-49.0	-64.3	3.6	1.51e+00	0	32	104	0	60	58989
2026-01-18 00:03:18.71	149.66	3.95	-49.0	-64.2	3.6	1.51e+00	0	32	104	0	60	58658
2026-01-18 00:03:19.71	149.66	4.02	-49.0	-64.2	3.6	1.51e+00	0	32	104	0	60	58951
2026-01-18 00:03:20.72	149.65	4.09	-49.0	-64.2	3.6	1.51e+00	0	32	104	0	60	58591
2026-01-18 00:03:21.73	149.65	4.16	-49.1	-64.4	3.5	1.51e+00	0	32	104	0	60	59721
2026-01-18 00:03:22.74	149.64	4.23	-49.2	-64.4	3.6	1.51e+00	0	32	104	0	60	60118
2026-01-18 00:03:23.75	149.64	4.30	-49.3	-64.5	3.6	1.51e+00	0	32	104	0	60	60609
2026-01-18 00:03:24.76	149.63	4.37	-49.0	-64.3	3.6	1.51e+00	0	32	104	0	60	59112
2026-01-18 00:03:25.77	149.62	4.44	-49.1	-64.4	3.6	1.51e+00	0	32	104	0	60	59816
2026-01-18 00:03:26.78	149.62	4.51	-49.0	-64.2	3.6	1.51e+00	0	32	104	0	60	58522
2026-01-18 00:03:27.79	149.61	4.59	-49.1	-64.4	3.6	1.51e+00	0	32	104	0	60	59846
2026-01-18 00:03:28.80	149.61	4.66	-49.0	-64.2	3.6	1.51e+00	0	32	104	0	60	58739
2026-01-18 00:03:29.81	149.60	4.73	-49.0	-64.2	3.6	1.51e+00	0	32	104	0	60	58764
2026-01-18 00:03:30.82	149.59	4.80	-49.0	-64.2	3.6	1.51e+00	0	32	104	0	60	58838
2026-01-18 00:03:31.82	149.59	4.87	-49.1	-64.3	3.6	1.51e+00	0	32	104	0	60	59604
2026-01-18 00:03:32.83	149.58	4.94	-49.1	-64.4	3.6	1.51e+00	0	32	104	0	60	59734
2026-01-18 00:03:33.84	149.57	5.02	-49.2	-64.5	3.6	1.51e+00	0	32	104	0	60	60338
2026-01-18 00:03:34.85	149.57	5.09	-49.1	-64.3	3.6	1.51e+00	0	32	104	0	60	59551
2026-01-18 00:03:35.86	149.56	5.16	-49.0	-64.3	3.6	1.51e+00	0	32	104	0	60	58961
2026-01-18 00:03:36.87	149.56	5.23	-49.1	-64.3	3.6	1.51e+00	0	32	104	0	60	59202
2026-01-18 00:03:37.88	149.55	5.31	-49.1	-64.3	3.6	1.51e+00	0	32	104	0	60	59523
2026-01-18 00:03:38.89	149.54	5.38	-49.2	-64.4	3.6	1.51e+00	0	32	104	0	60	59846
2026-01-18 00:03:39.90	149.54	5.45	-49.2	-64.5	3.6	1.51e+00	0	32	104	0	60	60407
2026-01-18 00:03:40.91	149.53	5.53	-49.1	-64.3	3.6	1.51e+00	0	32	104	0	60	59362
2026-01-18 00:03:41.92	149.52	5.60	-49.1	-64.3	3.6	1.51e+00	0	32	104	0	60	59324
2026-01-18 00:03:42.93	149.52	5.68	-49.3	-64.5	3.6	1.51e+00	0	32	104	0	60	60669
2026-01-18 00:03:43.94	149.51	5.75	-49.2	-64.5	3.6	1.51e+00	0	32	104	0	60	60384
2026-01-18 00:03:44.95	149.50	5.83	-49.0	-64.2	3.6	1.51e+00	0	32	104	0	60	58902
2026-01-18 00:03:45.96	149.50	5.90	-49.0	-64.2	3.6	1.51e+00	0	32	104	0	60	58617
2026-01-18 00:03:46.97	149.49	5.98	-49.0	-64.3	3.6	1.51e+00	0	32	104	0	60	58967
2026-01-18 00:03:47.98	149.48	6.05	-49.0	-64.3	3.6	1.51e+00	0	32	104	0	60	59400
2026-01-18 00:03:48.99	149.47	6.13	-49.0	-64.3	3.6	1.51e+00	0	32	104	0	60	59229
2026-01-18 00:03:50.00	149.47	6.20	-49.0	-64.3	3.6	1.51e+00	0	32	104	0	60	59088
2026-01-18 00:03:51.01	149.46	6.28	-49.1	-64.3	3.6	1.51e+00	0	32	104	0	60	59445
2026-01-18 00:03:52.02	149.45	6.35	-49.0	-64.3	3.6	1.51e+00	0	32	104	0	60	59300
2026-01-18 00:03:53.03	149.45	6.43	-49.0	-64.3	3.6	1.51e+00	0	32	104	0	60	59192
2026-01-18 00:03:54.04	149.44	6.51	-49.0	-64.2	3.6	1.51e+00	0	32	104	0	60	58636
2026-01-18 00:03:55.05	149.43	6.58	-49.0	-64.2	3.6	1.51e+00	0	32	104	0	60	58908
2026-01-18 00:03:56.06	149.42	6.66	-49.0	-64.3	3.6	1.51e+00	0	32	104	0	60	59060
2026-01-18 00:03:57.07	149.42	6.74	-49.0	-64.2	3.6	1.51e+00	0	32	104	0	60	58946
2026-01-18 00:03:58.08	149.41	6.81	-49.0	-64.2	3.6	1.51e+00	0	32	104	0	60	58711
2026-01-18 00:03:59.09	149.40	6.89	-49.1	-64.4	3.6	1.51e+00	0	32	104	0	60	59910
2026-01-18 00:04:00.10	149.39	6.97	-49.0	-64.3	3.6	1.51e+00	0	32	104	0	60	58998
2026-01-18 00:04:01.10	149.38	7.05	-49.0	-64.2	3.6	1.51e+00	0	32	104	0	60	58909
2026-01-18 00:04:02.11	149.38	7.13	-48.9	-64.2	3.6	1.51e+00	0	32	104	0	60	58377
2026-01-18 00:04:03.12	149.37	7.20	-48.9	-64.2	3.6	1.51e+00	0	32	104	0	60	58662
2026-01-18 00:04:04.13	149.36	7.28	-49.0	-64.2	3.6	1.51e+00	0	32	104	0	60	58884
2026-01-18 00:04:05.14	149.35	7.36	-49.0	-64.3	3.6	1.51e+00	0	32	104	0	60	59534
2026-01-18 00:04:06.15	149.35	7.44	-49.0	-64.2	3.6	1.51e+00	0	32	104	0	60	58802
2026-01-18 00:04:07.16	149.34	7.52	-49.0	-64.3	3.6	1.51e+00	0	32	104	0	60	59041
2026-01-18 00:04:08.17	149.33	7.60	-48.9	-64.2	3.6	1.51e+00	0	32	104	0	60	58395
2026-01-18 00:04:09.18	149.32	7.68	-48.9	-64.1	3.6	1.51e+00	0	32	104	0	60	58244
2026-01-18 00:04:10.19	149.31	7.76	-49.1	-64.4	3.6	1.51e+00	0	32	104	0	60	59819
2026-01-18 00:04:11.19	149.30	7.84	-49.0	-64.3	3.6	1.51e+00	0	32	104	0	60	59096
2026-01-18 00:04:12.20	149.30	7.92	-49.0	-64.3	3.6	1.51e+00	0	32	104	0	60	58988
2026-01-18 00:04:13.22	149.29	8.01	-48.9	-64.1	3.6	1.51e+00	0	32	104	0	60	58252
2026-01-18 00:04:14.23	149.28	8.09	-48.9	-64.1	3.6	1.51e+00	0	32	104	0	60	58016
2026-01-18 00:04:15.24	149.27	8.17	-49.0	-64.2	3.6	1.51e+00	0	32	104	0	60	58569
2026-01-18 00:04:16.25	149.26	8.25	-49.0	-64.3	3.6	1.51e+00	0	32	104	0	60	59050
2026-01-18 00:04:17.26	149.25	8.33	-48.9	-64.1	3.6	1.51e+00	0	32	104	0	60	58132
2026-01-18 00:04:18.27	149.24	8.41	-48.9	-64.1	3.6	1.51e+00	0	32	104	0	60	58135
2026-01-18 00:04:19.27	149.24	8.50	-48.9	-64.2	3.6	1.51e+00	0	32	104	0	60	58349
2026-01-18 00:04:20.28	149.23	8.58	-49.0	-64.3	3.6	1.51e+00	0	32	104	0	60	59034
2026-01-18 00:04:21.29	149.22	8.66	-49.1	-64.3	3.6	1.51e+00	0	32	104	0	60	59258
2026-01-18 00:04:22.30	149.21	8.75	-49.0	-64.2	3.6	1.51e+00	0	32	104	0	60	58891
2026-01-18 00:04:23.31	149.20	8.83	-49.0	-64.2	3.6	1.51e+00	0	32	104	0	60	58671
2026-01-18 00:04:24.32	149.19	8.91	-49.0	-64.2	3.6	1.51e+00	0	32	104	0	60	58763
2026-01-18 00:04:25.33	149.18	9.00	-49.0	-64.3	3.6	1.51e+00	0	32	104	0	60	59131
2026-01-18 00:04:26.34	149.17	9.08	-49.0	-64.2	3.6	1.51e+00	0	32	104	0	60	58679
2026-01-18 00:04:27.35	149.16	9.17	-49.0	-64.2	3.6	1.51e+00	0	32	104	0	60	58931
2026-01-18 00:04:28.36	149.15	9.25	-49.0	-64.3	3.6	1.51e+00	0	32	104	0	60	59164
2026-01-18 00:04:29.36	149.14	9.34	-49.0	-64.3	3.6	1.51e+00	0	32	104	0	60	59058
2026-01-18 00:04:30.38	149.13	9.43	-49.0	-64.2	3.6	1.51e+00	0	32	104	0	60	58818
2026-01-18 00:04:31.39	149.12	9.51	-49.0	-64.2	3.6	1.51e+00	0	32	104	0	60	58694
2026-01-18 00:04:32.40	149.11	9.60	-49.0	-64.3	3.6	1.51e+00	0	32	104	0	60	59054
2026-01-18 00:04:33.41	149.10	9.69	-49.2	-64.4	3.6	1.51e+00	0	32	104	0	60	60142
2026-01-18 00:04:34.42	149.09	9.77	-49.0	-64.3	3.6	1.51e+00	0	32	104	0	60	58986
2026-01-18 00:04:35.43	149.08	9.86	-49.0	-64.3	3.6	1.51e+00	0	32	104	0	60	59357
2026-01-18 00:04:36.44	149.07	9.95	-49.2	-64.5	3.6	1.51e+00	0	32	104	0	60	60518
2026-01-18 00:04:37.45	149.06	10.04	-49.0	-64.3	3.6	1.51e+00	0	32	104	0	60	59041
2026-01-18 00:04:38.46	149.05	10.12	-49.2	-64.4	3.6	1.51e+00	0	32	104	0	60	60109
2026-01-18 00:04:39.46	149.04	10.21	-49.0	-64.2	3.6	1.51e+00	0	32	104	0	60	58707
2026-01-18 00:04:40.47	149.03	10.30	-49.0	-64.2	3.6	1.51e+00	0	32	104	0	60	58525
2026-01-18 00:04:41.48	149.02	10.39	-48.7	-64.3	3.6	1.51e+00	0	32	104	0	60	59058
2026-01-18 00:04:42.49	149.01	10.48	-49.1	-64.3	3.6	1.51e+00	0	32	104	0	60	59416
2026-01-18 00:04:43.50	149.00	10.57	-49.1	-64.4	3.6	1.51e+00	0	32	104	0	60	59686
2026-01-18 00:04:44.51	148.99	10.66	-49.1	-64.3	3.6	1.51e+00	0	32	104	0	60	59458
2026-01-18 00:04:45.52	148.98	10.75	-49.1	-64.4	3.6	1.51e+00	0	32	104	0	60	59698
2026-01-18 00:04:46.53	148.97	10.84	-49.3	-64.5	3.6	1.51e+00	0	32	104	0	60	60602
2026-01-18 00:04:47.54	148.96	10.93	-49.2	-64.4	3.6	1.51e+00	0	32	104	0	60	59917
2026-01-18 00:04:48.55	148.95	11.02	-49.1	-64.3	3.6	1.51e+00	0	32	104	0	60	59514
2026-01-18 00:04:49.56	148.93	11.12	-49.0	-64.2	3.5	1.51e+00	0	32	104	0	60	58426
2026-01-18 00:04:50.57	148.92	11.21	-48.9	-64.2	3.6	1.51e+00	0	32	104	0	60	58520
2026-01-18 00:04:51.58	148.91	11.30	-49.1	-64.3	3.6	1.51e+00	0	32	104	0	60	59324
2026-01-18 00:04:52.59	148.90	11.39	-49.1	-64.3	3.6	1.51e+00	0	32	104	0	60	59385
2026-01-18 00:04:53.60	148.89	11.49	-49.1	-64.3	3.6	1.51e+00	0	32	104	0	60	59373
2026-01-18 00:04:54.61	148.88	11.58	-49.1	-64.3	3.6	1.51e+00	0	32	104	0	60	59384
2026-01-18 00:04:55.62	148.86	11.67	-49.1	-64.3	3.6	1.51e+00	0	32	104	0	60	59615
2026-01-18 00:04:56.62	148.85	11.77	-49.1	-64.4	3.6	1.51e+00	0	32	104	0	60	60118
2026-01-18 00:04:57.63	148.84	11.86	-49.2	-64.4	3.6	1.51e+00	0	32	104	0	60	59804
2026-01-18 00:04:58.64	148.83	11.96	-49.0	-64.3	3.6	1.51e+00	0	32	104	0	60	59047
2026-01-18 00:04:59.66	148.82	12.05	-49.2	-64.5	3.6	1.51e+00	0	32	104	0	60	60400
2026-01-18 00:05:00.67	148.80	12.15	-49.0	-64.3	3.6	1.51e+00	0	32	104	0	60	59159
2026-01-18 00:05:01.68	148.79	12.25	-49.2	-64.5	3.6	1.51e+00	0	32	104	0	60	60542
2026-01-18 00:05:02.69	148.78	12.34	-49.2	-64.5	3.6	1.51e+00	0	32	104	0	60	60353
2026-01-18 00:05:03.70	148.77	12.44	-49.2	-64.4	3.6	1.51e+00	0	32	104	0	60	60088
2026-01-18 00:05:04.71	148.75	12.54	-49.0	-64.3	3.6	1.51e+00	0	32	104	0	60	59310
2026-01-18 00:05:05.72	148.74	12.64	-49.0	-64.2	3.6	1.51e+00	0	32	104	0	60	58741
2026-01-18 00:05:06.73	148.73	12.73	-49.0	-64.2	3.6	1.51e+00	0	32	104	0	60	58607
2026-01-18 00:05:07.74	148.72	12.83	-49.1	-64.4	3.6	1.51e+00	0	32	104	0	60	60002
2026-01-18 00:05:08.74	148.70	12.93	-49.1	-64.4	3.6	1.51e+00	0	32	104	0	60	59842
2026-01-18 00:05:09.76	148.69	13.03	-49.0	-64.3	3.6	1.51e+00	0	32	104	0	60	59234
2026-01-18 00:05:10.76	148.68	13.13	-49.0	-64.3	3.6	1.51e+00	0	32	104	0	60	59112
2026-01-18 00:05:11.77	148.66	13.23	-49.0	-64.1	3.6	1.51e+00	0	32	104	0	60	58234
2026-01-18 00:05:12.78	148.65	13.33	-49.1	-64.3	3.6	1.51e+00	0	32	104	0	60	59587
2026-01-18 00:05:13.79	148.64	13.43	-49.1	-64.4	3.6	1.51e+00	0	32	104	0	60	59715
2026-01-18 00:05:14.80	148.62	13.53	-49.0	-64.2	3.6	1.51e+00	0	32	104	0	60	58783
2026-01-18 00:05:15.81	148.61	13.63	-49.0	-64.2	3.6	1.51e+00	0	32	104	0	60	58914
2026-01-18 00:05:16.82	148.59	13.74	-48.9	-64.1	3.6	1.51e+00	0	32	104	0	60	58285
2026-01-18 00:05:17.83	148.58	13.84	-48.9	-64.2	3.6	1.51e+00	0	32	104	0	60	58529
2026-01-18 00:05:18.84	148.57	13.94	-49.0	-64.3	3.6	1.51e+00	0	32	104	0	60	59040
2026-01-18 00:05:19.85	148.55	14.05	-49.1	-64.3	3.6	1.51e+00	0	32	104	0	60	59127
2026-01-18 00:05:20.86	148.54	14.15	-49.0	-64.3	3.6	1.51e+00	0	32	104	0	60	59067
2026-01-18 00:05:21.87	148.52	14.25	-49.0	-64.2	3.6	1.51e+00	0	32	104	0	60	58754
2026-01-18 00:05:22.88	148.51	14.36	-49.0	-64.3	3.6	1.51e+00	0	32	104	0	60	59037
2026-01-18 00:05:23.89	148.49	14.47	-49.1	-64.4	3.6	1.51e+00	0	32	104	0	60	59677
2026-01-18 00:05:24.89	148.48	14.57	-49.2	-64.4	3.6	1.51e+00	0	32	104	0	60	60218
2026-01-18 00:05:25.90	148.46	14.68	-49.1	-64.3	3.6	1.51e+00	0	32	104	0	60	59377
2026-01-18 00:05:26.91	148.45	14.78	-49.1	-64.3	3.6	1.51e+00	0	32	104	0	60	59318
2026-01-18 00:05:27.92	148.43	14.89	-49.0	-64.2	3.6	1.51e+00	0	32	104	0	60	58582
2026-01-18 00:05:28.93	148.42	15.00	-48.9	-64.2	3.6	1.51e+00	0	32	104	0	60	58442
2026-01-18 00:05:29.94	148.40	15.11	-49.0	-64.3	3.6	1.51e+00	0	32	104	0	60	59318
2026-01-18 00:05:30.95	148.38	15.21	-48.9	-64.2	3.6	1.51e+00	0	32	104	0	60	58520
2026-01-18 00:05:31.96	148.37	15.32	-49.1	-64.4	3.6	1.51e+00	0	32	104	0	60	59873
2026-01-18 00:05:32.97	148.35	15.43	-49.0	-64.2	3.6	1.51e+00	0	32	104	0	60	58818
2026-01-18 00:05:33.98	148.34	15.54	-49.1	-64.4	3.6	1.51e+00	0	32	104	0	60	60012
2026-01-18 00:05:34.99	148.32	15.65	-49.4	-64.6	3.6	1.51e+00	0	32	104	0	60	61144
2026-01-18 00:05:36.00	148.30	15.77	-49.3	-64.5	3.6	1.51e+00	0	32	104	0	60	60779
2026-01-18 00:05:37.01	148.29	15.88	-49.3	-64.6	3.6	1.51e+00	0	32	104	0	60	61035
2026-01-18 00:05:38.02	148.27	15.99	-49.3	-64.5	3.6	1.51e+00	0	32	104	0	60	60660
2026-01-18 00:05:39.03	148.25	16.10	-49.2	-64.4	3.6	1.51e+00	0	32	104	0	60	60189
2026-01-18 00:05:40.03	148.24	16.21	-49.1	-64.4	3.6	1.51e+00	0	32	104	0	60	59905
2026-01-18 00:05:41.04	148.22	16.33	-49.0	-64.2	3.6	1.51e+00	0	32	104	0	60	58768
2026-01-18 00:05:42.05	148.20	16.44	-49.0	-64.3	3.6	1.51e+00	0	32	104	0	60	59169
2026-01-18 00:05:43.06	148.18	16.56	-49.1	-64.3	3.6	1.51e+00	0	32	104	0	60	59248
2026-01-18 00:05:44.07	148.17	16.67	-49.0	-64.2	3.6	1.51e+00	0	32	104	0	60	58711
2026-01-18 00:05:45.08	148.15	16.79	-49.0	-64.2	3.6	1.51e+00	0	32	104	0	60	58877
2026-01-18 00:05:46.09	148.13	16.90	-49.1	-64.3	3.5	1.51e+00	0	32	104	0	60	59273
2026-01-18 00:05:47.10	148.11	17.02	-49.1	-64.4	3.6	1.51e+00	0	32	104	0	60	59689
2026-01-18 00:05:48.11	148.09	17.14	-49.1	-64.3	3.6	1.51e+00	0	32	104	0	60	59492
2026-01-18 00:05:49.12	148.07	17.26	-49.1	-64.4	3.6	1.51e+00	0	32	104	0	60	59862
2026-01-18 00:05:50.12	148.06	17.37	-49.1	-64.3	3.6	1.51e+00	0	32	104	0	60	59510
2026-01-18 00:05:51.13	148.04	17.49	-49.0	-64.2	3.6	1.51e+00	0	32	104	0	60	58553
2026-01-18 00:05:52.14	148.02	17.61	-49.1	-64.4	3.6	1.51e+00	0	32	104	0	60	59806
2026-01-18 00:05:53.15	148.00	17.73	-49.1	-64.3	3.6	1.51e+00	0	32	104	0	60	59627
2026-01-18 00:05:54.15	147.98	17.85	-49.2	-64.4	3.6	1.51e+00	0	32	104	0	60	60189
2026-01-18 00:05:55.16	147.96	17.98	-49.0	-64.2	3.6	1.51e+00	0	32	104	0	60	58664
2026-01-18 00:05:56.17	147.94	18.10	-49.1	-64.4	3.6	1.51e+00	0	32	104	0	60	59683
2026-01-18 00:05:57.18	147.92	18.22	-49.1	-64.3	3.6	1.51e+00	0	32	104	0	60	59422
2026-01-18 00:05:58.19	147.90	18.34	-49.1	-64.3	3.6	1.51e+00	0	32	104	0	60	59415
2026-01-18 00:05:59.20	147.88	18.47	-49.1	-64.4	3.6	1.51e+00	0	32	104	0	60	60041
2026-01-18 00:06:00.21	147.86	18.59	-49.0	-64.2	3.6	1.51e+00	0	32	104	0	60	58676
2026-01-18 00:06:01.22	147.84	18.72	-48.9	-64.2	3.6	1.51e+00	0	32	104	0	60	58519
2026-01-18 00:06:02.23	147.82	18.84	-49.0	-64.2	3.6	1.51e+00	0	32	104	0	60	58323
2026-01-18 00:06:03.24	147.80	18.97	-49.0	-64.2	3.6	1.51e+00	0	32	104	0	60	58613
2026-01-18 00:06:04.24	147.77	19.10	-49.1	-64.3	3.6	1.51e+00	0	32	104	0	60	59259
2026-01-18 00:06:05.25	147.75	19.22	-49.0	-64.2	3.6	1.51e+00	0	32	104	0	60	58831
2026-01-18 00:06:06.26	147.73	19.35	-49.0	-64.3	3.6	1.51e+00	0	32	104	0	60	59142
2026-01-18 00:06:07.27	147.71	19.48	-49.0	-64.3	3.5	1.51e+00	0	32	104	0	60	59106
2026-01-18 00:06:08.28	147.69	19.61	-49.0	-64.2	3.6	1.51e+00	0	32	104	0	60	58564
2026-01-18 00:06:09.29	147.66	19.74	-49.1	-64.3	3.6	1.51e+00	0	32	104	0	60	59350
2026-01-18 00:06:10.30	147.64	19.87	-49.2	-64.3	3.6	1.51e+00	0	32	104	0	60	59611
2026-01-18 00:06:11.31	147.62	20.00	-49.1	-64.3	3.6	1.51e+00	0	32	104	0	60	59629
2026-01-18 00:06:12.32	147.60	20.14	-49.0	-64.3	3.6	1.51e+00	0	32	104	0	60	59082
2026-01-18 00:06:13.33	147.57	20.27	-49.0	-64.2	3.6	1.51e+00	0	32	104	0	60	58784
2026-01-18 00:06:14.34	147.55	20.40	-49.1	-64.3	3.6	1.51e+00	0	32	104	0	60	59302
2026-01-18 00:06:15.34	147.52	20.54	-49.1	-64.4	3.6	1.51e+00	0	32	104	0	60	59824
2026-01-18 00:06:16.35	147.50	20.67	-49.0	-64.2	3.6	1.51e+00	0	32	104	0	60	58456
2026-01-18 00:06:17.36	147.48	20.81	-49.0	-64.2	3.6	1.51e+00	0	32	104	0	60	58714
2026-01-18 00:06:18.37	147.45	20.95	-49.0	-64.2	3.6	1.51e+00	0	32	104	0	60	58495
2026-01-18 00:06:19.38	147.43	21.08	-49.1	-64.3	3.6	1.51e+00	0	32	104	0	60	59560
2026-01-18 00:06:20.39	147.40	21.22	-49.0	-64.2	3.6	1.51e+00	0	32	104	0	60	58504
2026-01-18 00:06:21.40	147.38	21.36	-49.0	-64.2	3.6	1.51e+00	0	32	104	0	60	58938
2026-01-18 00:06:22.41	147.35	21.50	-49.0	-64.2	3.6	1.51e+00	0	32	104	0	60	58891
2026-01-18 00:06:23.42	147.33	21.64	-49.1	-64.4	3.6	1.51e+00	0	32	104	0	60	59645
2026-01-18 00:06:24.43	147.30	21.78	-49.1	-64.4	3.6	1.51e+00	0	33	104	0	60	59922
2026-01-18 00:06:25.44	147.27	21.92	-49.1	-64.4	3.6	1.51e+00	0	32	104	0	60	59991
2026-01-18 00:06:26.45	147.25	22.07	-49.1	-64.4	3.6	1.51e+00	0	32	104	0	60	59652
2026-01-18 00:06:27.46	147.22	22.21	-49.2	-64.4	3.6	1.51e+00	0	32	104	0	60	60029
2026-01-18 00:06:28.47	147.19	22.36	-49.2	-64.4	3.6	1.51e+00	0	32	104	0	60	60183
2026-01-18 00:06:29.48	147.16	22.50	-49.4	-64.6	3.6	1.51e+00	0	32	104	0	60	61429
2026-01-18 00:06:30.49	147.14	22.65	-49.3	-64.6	3.6	1.51e+00	0	32	104	0	60	61391
2026-01-18 00:06:31.50	147.11	22.80	-49.2	-64.4	3.6	1.51e+00	0	32	104	0	60	59916
2026-01-18 00:06:32.51	147.08	22.94	-49.1	-64.3	3.6	1.51e+00	0	32	104	0	60	59174
2026-01-18 00:06:33.52	147.05	23.09	-49.1	-64.3	3.6	1.51e+00	0	32	104	0	60	59559
2026-01-18 00:06:34.53	147.02	23.24	-49.1	-64.3	3.6	1.51e+00	0	32	104	0	60	59482
2026-01-18 00:06:35.54	146.99	23.39	-49.2	-64.4	3.6	1.51e+00	0	32	104	0	60	59948
2026-01-18 00:06:36.55	146.96	23.54	-49.0	-64.2	3.6	1.51e+00	0	32	104	0	60	58852
2026-01-18 00:06:37.56	146.93	23.70	-49.2	-64.4	3.6	1.51e+00	0	32	104	0	60	60219
2026-01-18 00:06:38.57	146.90	23.85	-49.2	-64.5	3.6	1.51e+00	0	32	104	0	60	60523
2026-01-18 00:06:39.58	146.87	24.00	-49.1	-64.3	3.6	1.51e+00	0	32	104	0	60	59433
2026-01-18 00:06:40.59	146.84	24.16	-49.2	-64.4	3.6	1.51e+00	0	32	104	0	60	60234
2026-01-18 00:06:41.60	146.81	24.31	-49.2	-64.4	3.6	1.51e+00	0	32	104	0	60	60109
2026-01-18 00:06:42.61	146.78	24.47	-49.3	-64.6	3.6	1.51e+00	0	32	104	0	60	61135
2026-01-18 00:06:43.61	146.75	24.63	-49.2	-64.4	3.6	1.51e+00	0	32	104	0	60	60120
2026-01-18 00:06:44.62	146.72	24.78	-49.1	-64.3	3.6	1.51e+00	0	32	104	0	60	59403
2026-01-18 00:06:45.63	146.68	24.94	-49.3	-64.5	3.6	1.51e+00	0	32	104	0	60	60635
2026-01-18 00:06:46.64	146.65	25.10	-49.1	-64.3	3.6	1.51e+00	0	32	104	0	60	59419
2026-01-18 00:06:47.65	146.62	25.27	-49.3	-64.5	3.6	1.51e+00	0	32	104	0	60	60756
2026-01-18 00:06:48.66	146.58	25.43	-49.2	-64.4	3.6	1.51e+00	0	32	104	0	60	60325
2026-01-18 00:06:49.67	146.55	25.59	-49.2	-64.4	3.6	1.51e+00	0	32	104	0	60	59882
2026-01-18 00:06:50.68	146.51	25.76	-49.1	-64.4	3.6	1.51e+00	0	32	104	0	60	59810
2026-01-18 00:06:51.69	146.48	25.92	-49.2	-64.5	3.6	1.51e+00	0	32	104	0	60	60727
2026-01-18 00:06:52.70	146.44	26.09	-49.1	-64.3	3.6	1.51e+00	0	32	104	0	60	59599
2026-01-18 00:06:53.71	146.41	26.26	-49.1	-64.4	3.6	1.51e+00	0	32	104	0	60	59765
2026-01-18 00:06:54.72	146.37	26.42	-49.2	-64.4	3.6	1.51e+00	0	32	104	0	60	59925
2026-01-18 00:06:55.73	146.34	26.59	-49.2	-64.4	3.6	1.51e+00	0	32	104	0	60	59963
2026-01-18 00:06:56.74	146.30	26.76	-49.0	-64.3	3.5	1.51e+00	0	32	104	0	60	59120
2026-01-18 00:06:57.75	146.26	26.94	-49.1	-64.3	3.6	1.51e+00	0	32	104	0	60	59632
2026-01-18 00:06:58.76	146.22	27.11	-49.4	-64.7	3.6	1.51e+00	0	32	104	0	60	61777
2026-01-18 00:06:59.77	146.19	27.28	-49.2	-64.4	3.6	1.51e+00	0	32	104	0	60	59863
2026-01-18 00:07:00.78	146.15	27.46	-49.2	-64.4	3.6	1.51e+00	0	32	104	0	60	60166
2026-01-18 00:07:01.78	146.11	27.63	-49.2	-64.5	3.6	1.51e+00	0	32	104	0	60	60539
2026-01-18 00:07:02.79	146.07	27.81	-49.1	-64.3	3.6	1.51e+00	0	32	104	0	60	59494
2026-01-18 00:07:03.80	146.03	27.99	-49.1	-64.3	3.6	1.51e+00	0	32	104	0	60	59550
2026-01-18 00:07:04.81	145.99	28.17	-49.2	-64.4	3.6	1.51e+00	0	32	104	0	60	59734
2026-01-18 00:07:05.82	145.95	28.35	-49.0	-64.3	3.6	1.51e+00	0	32	104	0	60	58984
2026-01-18 00:07:06.83	145.90	28.53	-49.0	-64.2	3.6	1.51e+00	0	32	104	0	60	58901
2026-01-18 00:07:07.84	145.86	28.71	-49.0	-64.2	3.6	1.51e+00	0	32	104	0	60	58528
2026-01-18 00:07:08.85	145.82	28.90	-49.0	-64.3	3.6	1.51e+00	0	32	104	0	60	59176
2026-01-18 00:07:09.86	145.78	29.08	-49.0	-64.2	3.6	1.51e+00	0	32	104	0	60	58758
2026-01-18 00:07:10.87	145.73	29.27	-49.1	-64.3	3.6	1.51e+00	0	33	104	0	60	59547
2026-01-18 00:07:11.88	145.69	29.46	-49.0	-64.2	3.6	1.51e+00	0	32	104	0	60	58837
2026-01-18 00:07:12.89	145.64	29.64	-49.0	-64.3	3.6	1.51e+00	0	32	104	0	60	59005
2026-01-18 00:07:13.90	145.60	29.84	-49.3	-64.5	3.6	1.51e+00	0	32	104	0	60	60756
2026-01-18 00:07:14.91	145.55	30.03	-49.0	-64.2	3.6	1.51e+00	0	32	104	0	60	58784
2026-01-18 00:07:15.92	145.51	30.22	-49.0	-64.3	3.6	1.51e+00	0	33	104	0	60	59019
2026-01-18 00:07:16.93	145.46	30.41	-49.2	-64.3	3.6	1.51e+00	0	32	104	0	60	59635
2026-01-18 00:07:17.94	145.41	30.61	-49.1	-64.3	3.6	1.51e+00	0	32	104	0	60	59379
2026-01-18 00:07:18.95	145.36	30.81	-49.0	-64.3	3.6	1.51e+00	0	32	104	0	60	58987
2026-01-18 00:07:19.96	145.31	31.00	-49.2	-64.4	3.6	1.51e+00	0	32	104	0	60	59756
2026-01-18 00:07:20.97	145.26	31.20	-49.1	-64.4	3.6	1.51e+00	0	33	104	0	60	59722
2026-01-18 00:07:21.98	145.21	31.40	-49.2	-64.4	3.6	1.51e+00	0	33	104	0	60	60179
2026-01-18 00:07:22.99	145.16	31.60	-49.2	-64.4	3.6	1.51e+00	0	32	104	0	60	60147
2026-01-18 00:07:24.00	145.11	31.81	-49.1	-64.3	3.5	1.51e+00	0	32	104	0	60	59594
2026-01-18 00:07:25.02	145.06	32.01	-49.2	-64.4	3.6	1.51e+00	0	33	104	0	60	59770
2026-01-18 00:07:26.03	145.00	32.22	-49.0	-64.2	3.6	1.51e+00	0	32	104	0	60	58943
2026-01-18 00:07:27.03	144.95	32.43	-49.1	-64.4	3.6	1.51e+00	0	32	104	0	60	59811
2026-01-18 00:07:28.04	144.90	32.64	-49.1	-64.3	3.6	1.51e+00	0	32	104	0	60	59536
2026-01-18 00:07:29.05	144.84	32.85	-49.1	-64.4	3.6	1.51e+00	0	32	104	0	60	59817
2026-01-18 00:07:30.06	144.78	33.06	-49.2	-64.4	3.6	1.51e+00	0	32	104	0	60	60075
2026-01-18 00:07:31.07	144.73	33.27	-49.2	-64.4	3.6	1.51e+00	0	33	104	0	60	60046
2026-01-18 00:07:32.08	144.67	33.48	-49.1	-64.4	3.6	1.51e+00	0	32	104	0	60	59753
2026-01-18 00:07:33.09	144.61	33.70	-49.0	-64.2	3.6	1.51e+00	0	33	104	0	60	58809
2026-01-18 00:07:34.10	144.55	33.92	-49.1	-64.4	3.6	1.51e+00	0	32	104	0	60	59676
2026-01-18 00:07:35.11	144.49	34.14	-49.3	-64.5	3.6	1.51e+00	0	32	104	0	60	60518
2026-01-18 00:07:36.12	144.43	34.36	-49.2	-64.5	3.6	1.51e+00	0	32	104	0	60	60607
2026-01-18 00:07:37.13	144.37	34.58	-49.4	-64.6	3.6	1.51e+00	0	32	104	0	60	61482
2026-01-18 00:07:38.14	144.31	34.80	-49.1	-64.3	3.6	1.51e+00	0	33	104	0	60	59581
2026-01-18 00:07:39.15	144.24	35.03	-49.1	-64.4	3.6	1.51e+00	0	32	104	0	60	59985
2026-01-18 00:07:40.16	144.18	35.26	-49.1	-64.3	3.6	1.51e+00	0	33	104	0	60	59080
2026-01-18 00:07:41.17	144.11	35.49	-49.2	-64.4	3.6	1.51e+00	0	32	104	0	60	60096
2026-01-18 00:07:42.18	144.04	35.72	-49.2	-64.4	3.6	1.51e+00	0	32	104	0	60	60334
2026-01-18 00:07:43.19	143.98	35.95	-49.3	-64.5	3.6	1.51e+00	0	32	104	0	60	60799
2026-01-18 00:07:44.20	143.91	36.18	-49.4	-64.6	3.6	1.51e+00	0	32	104	0	60	61074
2026-01-18 00:07:45.21	143.84	36.42	-49.1	-64.3	3.6	1.51e+00	0	32	104	0	60	59442
2026-01-18 00:07:46.22	143.77	36.65	-49.0	-64.2	3.6	1.51e+00	0	32	104	0	60	58556
2026-01-18 00:07:47.22	143.70	36.89	-49.0	-64.2	3.6	1.51e+00	0	32	104	0	60	58645
2026-01-18 00:07:48.23	143.62	37.13	-49.4	-64.6	3.6	1.51e+00	0	32	104	0	60	61514
2026-01-18 00:07:49.24	143.55	37.37	-49.2	-64.5	3.6	1.51e+00	0	32	104	0	60	60499
2026-01-18 00:07:50.25	143.48	37.61	-49.1	-64.3	3.6	1.51e+00	0	32	104	0	60	59136
2026-01-18 00:07:51.26	143.40	37.86	-49.2	-64.5	3.6	1.51e+00	0	32	104	0	60	60592
2026-01-18 00:07:52.27	143.32	38.10	-49.1	-64.3	3.6	1.51e+00	0	32	104	0	60	59616
2026-01-18 00:07:53.28	143.24	38.35	-49.2	-64.4	3.6	1.51e+00	0	32	104	0	60	60072
2026-01-18 00:07:54.29	143.16	38.60	-49.1	-64.4	3.6	1.51e+00	0	32	104	0	60	59915
2026-01-18 00:07:55.30	143.08	38.86	-49.1	-64.3	3.6	1.51e+00	0	32	104	0	60	59302
2026-01-18 00:07:56.31	143.00	39.11	-49.2	-64.4	3.6	1.51e+00	0	32	104	0	60	60155
2026-01-18 00:07:57.32	142.91	39.37	-49.2	-64.3	3.6	1.51e+00	0	32	104	0	60	59625
2026-01-18 00:07:58.33	142.83	39.62	-49.0	-64.2	3.6	1.51e+00	0	32	104	0	60	58788
2026-01-18 00:07:59.34	142.74	39.88	-49.0	-64.3	3.6	1.51e+00	0	32	104	0	60	59111
2026-01-18 00:08:00.35	142.65	40.14	-49.0	-64.2	3.6	1.51e+00	0	32	104	0	60	58812
2026-01-18 00:08:01.35	142.56	40.40	-49.2	-64.5	3.6	1.51e+00	0	32	104	0	60	60709
2026-01-18 00:08:02.36	142.47	40.67	-49.1	-64.4	3.6	1.51e+00	0	32	104	0	60	59784
2026-01-18 00:08:03.36	142.38	40.93	-49.2	-64.4	3.6	1.51e+00	0	32	104	0	60	60168
2026-01-18 00:08:04.37	142.29	41.20	-49.2	-64.5	3.6	1.51e+00	0	32	104	0	60	60355
2026-01-18 00:08:05.39	142.19	41.48	-49.2	-64.5	3.6	1.51e+00	0	32	104	0	60	60386
2026-01-18 00:08:06.40	142.09	41.75	-49.2	-64.5	3.6	1.51e+00	0	32	104	0	60	60533
2026-01-18 00:08:07.41	141.99	42.02	-49.1	-64.3	3.6	1.51e+00	0	32	104	0	60	59411
2026-01-18 00:08:08.41	141.89	42.30	-49.0	-64.2	3.6	1.51e+00	0	33	104	0	60	58799
2026-01-18 00:08:09.42	141.79	42.58	-49.0	-64.2	3.6	1.51e+00	0	32	104	0	60	58783
2026-01-18 00:08:10.43	141.68	42.86	-49.2	-64.4	3.6	1.51e+00	0	32	104	0	60	60116
2026-01-18 00:08:11.44	141.58	43.14	-49.0	-64.3	3.6	1.51e+00	0	32	104	0	60	59052
2026-01-18 00:08:12.45	141.47	43.42	-49.0	-64.2	3.6	1.51e+00	0	32	104	0	60	58883
2026-01-18 00:08:13.46	141.36	43.71	-49.1	-64.4	3.6	1.51e+00	0	32	104	0	60	59687
2026-01-18 00:08:14.47	141.24	44.00	-49.2	-64.4	3.6	1.51e+00	0	32	104	0	60	60287
2026-01-18 00:08:15.48	141.13	44.29	-49.1	-64.4	3.6	1.51e+00	0	32	104	0	60	59854
2026-01-18 00:08:16.49	141.01	44.58	-49.0	-64.2	3.6	1.51e+00	0	32	104	0	60	58783
2026-01-18 00:08:17.50	140.89	44.87	-48.9	-64.2	3.6	1.51e+00	0	32	104	0	60	58800
2026-01-18 00:08:18.51	140.77	45.17	-49.1	-64.4	3.6	1.51e+00	0	32	104	0	60	59677
2026-01-18 00:08:19.51	140.65	45.47	-49.2	-64.4	3.6	1.51e+00	0	32	104	0	60	60204
2026-01-18 00:08:20.53	140.52	45.77	-49.2	-64.4	3.6	1.51e+00	0	32	104	0	60	59852
2026-01-18 00:08:21.54	140.39	46.07	-49.1	-64.4	3.6	1.51e+00	0	32	104	0	60	60142
2026-01-18 00:08:22.55	140.26	46.38	-49.4	-64.6	3.6	1.51e+00	0	32	104	0	60	61631
2026-01-18 00:08:23.56	140.12	46.68	-49.2	-64.4	3.6	1.51e+00	0	32	104	0	60	60205
2026-01-18 00:08:24.57	139.99	46.99	-49.0	-64.3	3.6	1.51e+00	0	32	104	0	60	59021
2026-01-18 00:08:25.58	139.85	47.30	-49.2	-64.5	3.6	1.51e+00	0	32	104	0	60	60518
2026-01-18 00:08:26.59	139.70	47.62	-49.4	-64.6	3.6	1.51e+00	0	32	104	0	60	61572
2026-01-18 00:08:27.60	139.56	47.93	-49.3	-64.5	3.6	1.51e+00	0	32	104	0	60	60983
2026-01-18 00:08:28.61	139.41	48.25	-49.1	-64.4	3.6	1.51e+00	0	32	104	0	60	59991
2026-01-18 00:08:29.62	139.26	48.57	-49.4	-64.7	3.6	1.51e+00	0	33	104	0	60	62117
2026-01-18 00:08:30.63	139.10	48.89	-49.3	-64.5	3.6	1.51e+00	0	33	104	0	60	60660
2026-01-18 00:08:31.64	138.94	49.22	-49.2	-64.5	3.6	1.51e+00	0	33	104	0	60	60364
2026-01-18 00:08:32.64	138.78	49.54	-49.1	-64.3	3.6	1.51e+00	0	32	104	0	60	59440
2026-01-18 00:08:33.65	138.62	49.87	-49.2	-64.5	3.6	1.51e+00	0	32	104	0	60	60406
2026-01-18 00:08:34.66	138.45	50.20	-49.1	-64.3	3.6	1.51e+00	0	33	104	0	60	59438
2026-01-18 00:08:35.67	138.28	50.53	-49.1	-64.3	3.6	1.51e+00	0	32	104	0	60	59616
2026-01-18 00:08:36.68	138.10	50.86	-49.0	-64.3	3.6	1.51e+00	0	33	104	0	60	59428
2026-01-18 00:08:37.69	137.92	51.20	-49.0	-64.3	3.6	1.51e+00	0	33	104	0	60	59435
2026-01-18 00:08:38.70	137.73	51.54	-48.9	-64.2	3.6	1.51e+00	0	32	104	0	60	58715
2026-01-18 00:08:39.71	137.54	51.88	-49.0	-64.3	3.6	1.51e+00	0	33	104	0	60	58968
2026-01-18 00:08:40.72	137.35	52.22	-49.2	-64.4	3.6	1.51e+00	0	32	104	0	60	60323
2026-01-18 00:08:41.72	137.15	52.56	-49.2	-64.4	3.6	1.51e+00	0	32	104	0	60	59918
2026-01-18 00:08:42.73	136.95	52.91	-49.1	-64.3	3.6	1.51e+00	0	32	104	0	60	59608
2026-01-18 00:08:43.74	136.74	53.26	-49.1	-64.4	3.6	1.51e+00	0	32	104	0	60	59650
2026-01-18 00:08:44.75	136.53	53.61	-49.2	-64.4	3.6	1.51e+00	0	33	104	0	60	60308
2026-01-18 00:08:45.76	136.31	53.96	-49.1	-64.3	3.6	1.51e+00	0	33	104	0	60	59343
2026-01-18 00:08:46.77	136.08	54.32	-49.3	-64.6	3.6	1.51e+00	0	32	104	0	60	61106
2026-01-18 00:08:47.78	135.85	54.67	-49.3	-64.6	3.6	1.51e+00	0	33	104	0	60	61091
2026-01-18 00:08:48.79	135.62	55.03	-49.4	-64.6	3.6	1.51e+00	0	32	104	0	60	61357
2026-01-18 00:08:49.80	135.37	55.39	-49.0	-64.2	3.6	1.51e+00	0	32	104	0	60	58776
2026-01-18 00:08:50.81	135.12	55.76	-49.2	-64.4	3.6	1.51e+00	0	32	104	0	60	60168
2026-01-18 00:08:51.81	134.87	56.12	-49.1	-64.3	3.6	1.51e+00	0	32	104	0	60	59459
2026-01-18 00:08:52.82	134.61	56.48	-49.2	-64.5	3.6	1.51e+00	0	33	104	0	60	60552
2026-01-18 00:08:53.84	134.34	56.85	-49.2	-64.4	3.6	1.51e+00	0	33	104	0	60	59970
2026-01-18 00:08:54.85	134.06	57.22	-49.3	-64.5	3.6	1.51e+00	0	32	104	0	60	60812
2026-01-18 00:08:55.86	133.78	57.60	-49.0	-64.2	3.6	1.51e+00	0	32	104	0	60	58642
2026-01-18 00:08:56.86	133.49	57.97	-49.2	-64.4	3.6	1.51e+00	0	32	104	0	60	60151
2026-01-18 00:08:57.87	133.19	58.34	-49.1	-64.3	3.6	1.51e+00	0	32	104	0	60	59488
2026-01-18 00:08:58.89	132.87	58.72	-49.2	-64.5	3.6	1.51e+00	0	32	104	0	60	60638
2026-01-18 00:08:59.90	132.56	59.10	-49.1	-64.3	3.6	1.51e+00	0	32	104	0	60	59317
2026-01-18 00:09:00.90	132.23	59.47	-49.1	-64.3	3.6	1.51e+00	0	32	104	0	60	59550
2026-01-18 00:09:01.91	131.89	59.86	-49.1	-64.3	3.6	1.51e+00	0	33	104	0	60	59585
2026-01-18 00:09:02.92	131.55	60.24	-49.2	-64.5	3.6	1.51e+00	0	32	104	0	60	60669
2026-01-18 00:09:03.94	131.18	60.63	-49.0	-64.2	3.6	1.51e+00	0	33	104	0	60	58759
2026-01-18 00:09:04.95	130.81	61.01	-49.0	-64.1	3.5	1.51e+00	0	33	104	0	60	58273
2026-01-18 00:09:05.95	130.44	61.39	-49.1	-64.3	3.6	1.51e+00	0	32	104	0	60	59268
2026-01-18 00:09:06.96	130.04	61.78	-49.0	-64.2	3.6	1.51e+00	0	32	104	0	60	58508
2026-01-18 00:09:07.97	129.64	62.17	-49.0	-64.3	3.6	1.51e+00	0	33	104	0	60	59049
2026-01-18 00:09:08.98	129.22	62.56	-49.1	-64.3	3.6	1.51e+00	0	33	104	0	60	59547
2026-01-18 00:09:09.99	128.78	62.95	-49.1	-64.4	3.6	1.51e+00	0	32	104	0	60	59805
2026-01-18 00:09:11.00	128.34	63.34	-49.0	-64.3	3.6	1.51e+00	0	33	104	0	60	59115
2026-01-18 00:09:12.01	127.87	63.73	-49.0	-64.3	3.6	1.51e+00	0	32	104	0	60	59147
2026-01-18 00:09:13.02	127.39	64.12	-49.1	-64.3	3.6	1.51e+00	0	33	104	0	60	59627
2026-01-18 00:09:14.03	126.90	64.51	-48.9	-64.1	3.6	1.51e+00	0	33	104	0	60	58056
2026-01-18 00:09:15.04	126.39	64.91	-49.0	-64.2	3.6	1.51e+00	0	33	104	0	60	58528
2026-01-18 00:09:16.05	125.85	65.30	-49.0	-64.2	3.6	1.51e+00	0	32	104	0	60	58792
2026-01-18 00:09:17.06	125.30	65.69	-49.0	-64.2	3.6	1.51e+00	0	32	104	0	60	58871
2026-01-18 00:09:18.07	124.73	66.08	-49.0	-64.3	3.6	1.51e+00	0	32	104	0	60	59000
2026-01-18 00:09:19.08	124.14	66.48	-49.1	-64.3	3.6	1.51e+00	0	32	104	0	60	59580
2026-01-18 00:09:20.09	123.53	66.87	-48.9	-64.1	3.6	1.51e+00	0	32	104	0	60	58248
2026-01-18 00:09:21.09	122.90	67.26	-48.9	-64.2	3.6	1.51e+00	0	33	104	0	60	58481
2026-01-18 00:09:22.10	122.24	67.65	-49.1	-64.4	3.6	1.51e+00	0	33	104	0	60	59748
2026-01-18 00:09:23.12	121.54	68.04	-49.1	-64.3	3.6	1.51e+00	0	33	104	0	60	59461
2026-01-18 00:09:24.13	120.83	68.43	-49.0	-64.3	3.6	1.51e+00	0	33	104	0	60	59248
2026-01-18 00:09:25.14	120.09	68.81	-49.1	-64.4	3.6	1.51e+00	0	33	104	0	60	59701
2026-01-18 00:09:26.15	119.31	69.20	-49.1	-64.3	3.6	1.51e+00	0	33	104	0	60	59289
2026-01-18 00:09:27.15	118.52	69.57	-49.0	-64.2	3.6	1.51e+00	0	33	104	0	60	58901
2026-01-18 00:09:28.17	117.67	69.96	-48.9	-64.1	3.6	1.51e+00	0	33	104	0	60	58176
2026-01-18 00:09:29.18	116.80	70.33	-48.9	-64.2	3.6	1.51e+00	0	33	104	0	60	58656
2026-01-18 00:09:30.19	115.89	70.71	-49.1	-64.3	3.6	1.51e+00	0	33	104	0	60	59402
2026-01-18 00:09:31.20	114.95	71.08	-49.1	-64.3	3.6	1.51e+00	0	32	104	0	60	59270
2026-01-18 00:09:32.20	113.97	71.44	-49.1	-64.4	3.6	1.51e+00	0	32	104	0	60	59797
2026-01-18 00:09:33.21	112.94	71.80	-49.1	-64.4	3.6	1.51e+00	0	33	104	0	60	59692
2026-01-18 00:09:34.22	111.87	72.16	-49.3	-64.5	3.6	1.51e+00	0	33	104	0	60	60705
2026-01-18 00:09:35.23	110.75	72.52	-49.2	-64.5	3.6	1.51e+00	0	32	104	0	60	60438
2026-01-18 00:09:36.24	109.59	72.86	-49.1	-64.3	3.6	1.51e+00	0	33	104	0	60	59519
2026-01-18 00:09:37.25	108.37	73.20	-49.0	-64.2	3.6	1.51e+00	0	33	104	0	60	58720
2026-01-18 00:09:38.26	107.10	73.54	-49.2	-64.5	3.6	1.51e+00	0	33	104	0	60	60433
2026-01-18 00:09:39.27	105.78	73.87	-49.2	-64.5	3.6	1.51e+00	0	32	104	0	60	60382
2026-01-18 00:09:40.28	104.40	74.19	-49.3	-64.5	3.6	1.51e+00	0	32	104	0	60	60622
2026-01-18 00:09:41.28	102.97	74.49	-49.3	-64.6	3.6	1.51e+00	0	33	104	0	60	61136
2026-01-18 00:09:42.29	101.47	74.80	-49.2	-64.5	3.6	1.51e+00	0	33	104	0	60	60822
2026-01-18 00:09:43.30	99.91	75.09	-49.1	-64.4	3.6	1.51e+00	0	32	104	0	60	59876
2026-01-18 00:09:44.31	98.28	75.37	-49.2	-64.4	3.6	1.51e+00	0	32	104	0	60	59980
2026-01-18 00:09:45.31	96.61	75.64	-49.1	-64.4	3.6	1.51e+00	0	33	104	0	60	59938
2026-01-18 00:09:46.32	94.85	75.90	-49.1	-64.3	3.6	1.51e+00	0	32	104	0	60	59138
2026-01-18 00:09:47.33	93.03	76.14	-49.0	-64.3	3.6	1.51e+00	0	33	104	0	60	59250
2026-01-18 00:09:48.34	91.14	76.38	-49.0	-64.3	3.6	1.51e+00	0	32	104	0	60	59243
2026-01-18 00:09:49.35	89.19	76.59	-49.0	-64.2	3.6	1.51e+00	0	32	104	0	60	58587
2026-01-18 00:09:50.36	87.17	76.80	-48.9	-64.1	3.6	1.51e+00	0	32	104	0	60	58282
2026-01-18 00:09:51.37	85.09	76.98	-49.0	-64.2	3.5	1.51e+00	0	33	104	0	60	58783
2026-01-18 00:09:52.38	82.95	77.15	-49.1	-64.3	3.6	1.51e+00	0	32	104	0	60	59521
2026-01-18 00:09:53.39	80.75	77.30	-49.1	-64.4	3.6	1.51e+00	0	33	104	0	60	59699
2026-01-18 00:09:54.40	78.50	77.44	-49.1	-64.4	3.6	1.51e+00	0	33	104	0	60	59867
2026-01-18 00:09:55.41	76.21	77.55	-49.2	-64.4	3.6	1.51e+00	0	33	104	0	60	60029
2026-01-18 00:09:56.42	73.88	77.64	-49.2	-64.4	3.6	1.51e+00	0	33	104	0	60	60107
2026-01-18 00:09:57.42	71.54	77.72	-49.4	-64.6	3.6	1.51e+00	0	33	104	0	60	61664
2026-01-18 00:09:58.43	69.15	77.77	-49.1	-64.4	3.6	1.51e+00	0	33	104	0	60	59899
2026-01-18 00:09:59.44	66.74	77.80	-49.0	-64.2	3.5	1.51e+00	0	33	104	0	60	58525
2026-01-18 00:10:00.45	64.33	77.81	-49.2	-64.4	3.6	1.51e+00	0	33	104	0	60	59990
2026-01-18 00:10:01.46	61.91	77.80	-49.4	-64.7	3.6	1.51e+00	0	33	104	0	60	61761
2026-01-18 00:10:02.47	59.51	77.77	-49.3	-64.6	3.6	1.51e+00	0	32	104	0	60	61092
2026-01-18 00:10:03.48	57.12	77.72	-49.4	-64.7	3.6	1.51e+00	0	33	104	0	60	61965
2026-01-18 00:10:04.49	54.75	77.65	-49.3	-64.6	3.6	1.51e+00	0	33	104	0	60	61150
2026-01-18 00:10:05.50	52.42	77.55	-49.3	-64.5	3.6	1.51e+00	0	33	104	0	60	60889
2026-01-18 00:10:06.51	50.13	77.44	-49.3	-64.5	3.6	1.51e+00	0	33	104	0	60	60476
2026-01-18 00:10:07.53	47.86	77.31	-49.2	-64.5	3.6	1.51e+00	0	33	104	0	60	60379
2026-01-18 00:10:08.54	45.66	77.15	-49.2	-64.4	3.6	1.51e+00	0	33	104	0	60	60255
2026-01-18 00:10:09.55	43.52	76.99	-49.2	-64.4	3.6	1.51e+00	0	33	104	0	60	60271
2026-01-18 00:10:10.56	41.44	76.80	-49.2	-64.5	3.6	1.51e+00	0	33	104	0	60	60693
2026-01-18 00:10:11.57	39.42	76.60	-49.3	-64.6	3.6	1.51e+00	0	32	104	0	60	61232
2026-01-18 00:10:12.58	37.47	76.38	-49.2	-64.4	3.6	1.51e+00	0	32	104	0	60	60192
2026-01-18 00:10:13.59	35.58	76.15	-49.1	-64.4	3.6	1.51e+00	0	33	104	0	60	59870
2026-01-18 00:10:14.60	33.75	75.90	-49.3	-64.6	3.6	1.51e+00	0	33	104	0	60	61228
2026-01-18 00:10:15.61	32.00	75.65	-49.2	-64.4	3.6	1.51e+00	0	33	104	0	60	60193
2026-01-18 00:10:16.62	30.31	75.38	-49.4	-64.6	3.6	1.51e+00	0	33	104	0	60	61113
2026-01-18 00:10:17.63	28.68	75.09	-49.2	-64.4	3.6	1.51e+00	0	33	104	0	60	60155
2026-01-18 00:10:18.64	27.12	74.80	-49.1	-64.4	3.6	1.51e+00	0	33	104	0	60	59803
2026-01-18 00:10:19.65	25.62	74.50	-49.4	-64.7	3.5	1.51e+00	0	32	104	0	60	61744
2026-01-18 00:10:20.66	24.18	74.19	-49.1	-64.3	3.6	1.51e+00	0	33	104	0	60	59405
2026-01-18 00:10:21.67	22.80	73.87	-49.4	-64.6	3.6	1.51e+00	0	32	104	0	60	61566
2026-01-18 00:10:22.68	21.48	73.54	-49.2	-64.4	3.6	1.51e+00	0	32	104	0	60	59774
2026-01-18 00:10:23.69	20.21	73.21	-49.1	-64.3	3.5	1.51e+00	0	33	104	0	60	59492
2026-01-18 00:10:24.70	18.99	72.87	-49.4	-64.6	3.6	1.51e+00	0	33	104	0	60	61340
2026-01-18 00:10:25.71	17.83	72.52	-49.3	-64.5	3.6	1.51e+00	0	33	104	0	60	60728
2026-01-18 00:10:26.72	16.71	72.17	-49.4	-64.6	3.6	1.51e+00	0	33	104	0	60	61545
2026-01-18 00:10:27.73	15.64	71.81	-49.2	-64.5	3.6	1.51e+00	0	33	104	0	60	60684
2026-01-18 00:10:28.74	14.61	71.45	-49.3	-64.5	3.6	1.51e+00	0	33	104	0	60	60761
2026-01-18 00:10:29.75	13.63	71.08	-49.2	-64.5	3.6	1.51e+00	0	33	104	0	60	60424
2026-01-18 00:10:30.76	12.68	70.71	-49.4	-64.7	3.6	1.51e+00	0	32	104	0	60	61756
2026-01-18 00:10:31.77	11.78	70.34	-49.0	-64.3	3.6	1.51e+00	0	33	104	0	60	59132
2026-01-18 00:10:32.78	10.91	69.96	-49.4	-64.7	3.6	1.51e+00	0	32	104	0	60	61787
2026-01-18 00:10:33.79	10.07	69.58	-49.4	-64.6	3.6	1.51e+00	0	33	104	0	60	61396
2026-01-18 00:10:34.79	9.28	69.21	-49.2	-64.4	3.6	1.51e+00	0	32	104	0	60	60028
2026-01-18 00:10:35.80	8.50	68.82	-49.3	-64.6	3.6	1.51e+00	0	32	104	0	60	61312
2026-01-18 00:10:36.81	7.76	68.44	-49.4	-64.6	3.6	1.51e+00	0	32	104	0	60	61578
2026-01-18 00:10:37.82	7.05	68.05	-49.1	-64.4	3.6	1.51e+00	0	32	104	0	60	59834
2026-01-18 00:10:38.83	6.36	67.66	-49.3	-64.6	3.6	1.51e+00	0	33	104	0	60	61289
2026-01-18 00:10:39.84	5.70	67.27	-49.2	-64.4	3.5	1.51e+00	0	33	104	0	60	60033
2026-01-18 00:10:40.85	5.06	66.88	-49.2	-64.4	3.6	1.51e+00	0	33	104	0	60	59934
2026-01-18 00:10:41.86	4.45	66.49	-49.0	-64.3	3.6	1.51e+00	0	33	104	0	60	59188
2026-01-18 00:10:42.87	3.86	66.10	-49.2	-64.5	3.6	1.51e+00	0	33	104	0	60	60389
2026-01-18 00:10:43.88	3.29	65.71	-49.1	-64.3	3.6	1.51e+00	0	33	104	0	60	59544
2026-01-18 00:10:44.89	2.74	65.32	-49.2	-64.4	3.6	1.51e+00	0	33	104	0	60	59793
2026-01-18 00:10:45.90	2.21	64.93	-49.3	-64.5	3.6	1.51e+00	0	33	104	0	60	60696
2026-01-18 00:10:46.91	1.70	64.53	-49.2	-64.4	3.6	1.51e+00	0	33	104	0	60	59772
2026-01-18 00:10:47.92	1.20	64.14	-49.2	-64.4	3.6	1.51e+00	0	33	104	0	60	60331
2026-01-18 00:10:48.93	0.72	63.75	-49.2	-64.4	3.6	1.51e+00	0	33	104	0	60	59934
2026-01-18 00:10:49.95	0.26	63.36	-49.3	-64.5	3.6	1.51e+00	0	32	104	0	60	60614
2026-01-18 00:10:50.95	359.81	62.97	-49.1	-64.3	3.6	1.51e+00	0	32	104	0	60	59502
2026-01-18 00:10:51.96	359.38	62.58	-49.1	-64.4	3.6	1.51e+00	0	32	104	0	60	59929
2026-01-18 00:10:52.98	358.96	62.19	-49.0	-64.2	3.6	1.51e+00	0	32	104	0	60	58948
2026-01-18 00:10:53.99	358.55	61.80	-49.0	-64.3	3.6	1.51e+00	0	33	104	0	60	59471
2026-01-18 00:10:54.99	358.16	61.42	-49.2	-64.4	3.6	1.51e+00	0	33	104	0	60	60329
2026-01-18 00:10:56.00	357.78	61.04	-49.3	-64.6	3.6	1.51e+00	0	32	104	0	60	61046
2026-01-18 00:10:57.01	357.41	60.65	-49.3	-64.5	3.6	1.51e+00	0	32	104	0	60	61007
2026-01-18 00:10:58.02	357.05	60.27	-49.3	-64.5	3.5	1.51e+00	0	33	104	0	60	60515
2026-01-18 00:10:59.03	356.71	59.89	-49.2	-64.4	3.6	1.51e+00	0	33	104	0	60	60217
2026-01-18 00:11:00.04	356.37	59.51	-49.5	-64.7	3.6	1.51e+00	0	33	104	0	60	62317
2026-01-18 00:11:01.05	356.04	59.13	-49.2	-64.4	3.6	1.51e+00	0	32	104	0	60	59883
2026-01-18 00:11:02.06	355.72	58.75	-49.1	-64.3	3.6	1.51e+00	0	33	104	0	60	59510
2026-01-18 00:11:03.07	355.41	58.38	-49.3	-64.5	3.6	1.51e+00	0	33	104	0	60	60848
2026-01-18 00:11:04.08	355.11	58.00	-49.1	-64.3	3.6	1.51e+00	0	32	104	0	60	59317
2026-01-18 00:11:05.09	354.82	57.63	-49.3	-64.5	3.6	1.51e+00	0	33	104	0	60	60944
2026-01-18 00:11:06.10	354.54	57.26	-49.2	-64.4	3.6	1.51e+00	0	33	104	0	60	60147
2026-01-18 00:11:07.11	354.26	56.89	-49.2	-64.5	3.5	1.51e+00	0	33	104	0	60	60434
2026-01-18 00:11:08.12	353.99	56.52	-49.1	-64.3	3.6	1.51e+00	0	33	104	0	60	59543
2026-01-18 00:11:09.13	353.73	56.16	-49.1	-64.3	3.6	1.51e+00	0	32	104	0	60	59472
2026-01-18 00:11:10.14	353.47	55.79	-49.4	-64.7	3.6	1.51e+00	0	33	104	0	60	62002
2026-01-18 00:11:11.15	353.23	55.43	-49.3	-64.5	3.6	1.51e+00	0	32	104	0	60	60405
2026-01-18 00:11:12.16	352.98	55.07	-49.5	-64.7	3.6	1.51e+00	0	32	104	0	60	61972
2026-01-18 00:11:13.17	352.75	54.72	-49.6	-64.8	3.6	1.51e+00	0	33	104	0	60	62710
2026-01-18 00:11:14.18	352.52	54.36	-49.4	-64.6	3.6	1.51e+00	0	33	104	0	60	61303
2026-01-18 00:11:15.19	352.29	54.01	-49.2	-64.5	3.6	1.51e+00	0	33	104	0	60	60441
2026-01-18 00:11:16.21	352.07	53.65	-49.3	-64.6	3.6	1.51e+00	0	33	104	0	60	61052
2026-01-18 00:11:17.21	351.86	53.30	-49.3	-64.6	3.6	1.51e+00	0	33	104	0	60	61123
2026-01-18 00:11:18.22	351.65	52.96	-49.1	-64.4	3.6	1.51e+00	0	33	104	0	60	59645
2026-01-18 00:11:19.23	351.45	52.61	-49.6	-64.8	3.6	1.51e+00	0	32	104	0	60	62850
2026-01-18 00:11:20.24	351.25	52.27	-49.4	-64.6	3.6	1.51e+00	0	32	104	0	60	61627
2026-01-18 00:11:21.25	351.06	51.93	-49.1	-64.4	3.6	1.51e+00	0	32	104	0	60	60039
2026-01-18 00:11:22.26	350.87	51.59	-49.2	-64.4	3.6	1.51e+00	0	32	104	0	60	59988
2026-01-18 00:11:23.27	350.68	51.25	-49.3	-64.5	3.6	1.51e+00	0	33	104	0	60	60976
2026-01-18 00:11:24.28	350.50	50.91	-49.3	-64.6	3.6	1.51e+00	0	32	104	0	60	61168
2026-01-18 00:11:25.29	350.33	50.58	-49.2	-64.4	3.6	1.51e+00	0	32	104	0	60	59979
2026-01-18 00:11:26.30	350.15	50.25	-49.2	-64.5	3.6	1.51e+00	0	32	104	0	60	60488
2026-01-18 00:11:27.31	349.99	49.92	-49.2	-64.4	3.6	1.51e+00	0	33	104	0	60	60212
2026-01-18 00:11:28.32	349.82	49.59	-49.0	-64.2	3.6	1.51e+00	0	33	104	0	60	58708
2026-01-18 00:11:29.33	349.66	49.27	-49.0	-64.3	3.6	1.51e+00	0	33	104	0	60	59040
2026-01-18 00:11:30.34	349.50	48.94	-49.1	-64.3	3.6	1.51e+00	0	32	104	0	60	59527
2026-01-18 00:11:31.35	349.35	48.62	-49.0	-64.3	3.6	1.51e+00	0	32	104	0	60	59130
2026-01-18 00:11:32.36	349.19	48.31	-49.1	-64.4	3.6	1.51e+00	0	33	104	0	60	59681
2026-01-18 00:11:33.37	349.04	47.99	-49.3	-64.5	3.6	1.51e+00	0	33	104	0	60	60906
2026-01-18 00:11:34.38	348.90	47.68	-49.4	-64.6	3.6	1.51e+00	0	33	104	0	60	61305
2026-01-18 00:11:35.39	348.76	47.36	-49.2	-64.4	3.6	1.51e+00	0	32	104	0	60	60007
2026-01-18 00:11:36.39	348.62	47.06	-49.3	-64.5	3.6	1.51e+00	0	33	104	0	60	61002
2026-01-18 00:11:37.40	348.48	46.75	-49.3	-64.6	3.6	1.51e+00	0	33	104	0	60	61435
2026-01-18 00:11:38.41	348.35	46.44	-49.3	-64.5	3.6	1.51e+00	0	33	104	0	60	60832
2026-01-18 00:11:39.42	348.22	46.14	-49.2	-64.5	3.6	1.51e+00	0	32	104	0	60	60374
2026-01-18 00:11:40.43	348.09	45.84	-49.2	-64.5	3.6	1.51e+00	0	32	104	0	60	60699
2026-01-18 00:11:41.44	347.96	45.54	-49.2	-64.5	3.6	1.51e+00	0	33	104	0	60	60547
2026-01-18 00:11:42.45	347.84	45.24	-49.1	-64.4	3.6	1.51e+00	0	33	104	0	60	59864
2026-01-18 00:11:43.46	347.72	44.94	-49.4	-64.6	3.5	1.51e+00	0	32	104	0	60	61296
2026-01-18 00:11:44.47	347.60	44.65	-49.2	-64.4	3.6	1.51e+00	0	32	104	0	60	60259
2026-01-18 00:11:45.48	347.48	44.36	-49.2	-64.5	3.6	1.51e+00	0	32	104	0	60	60335
2026-01-18 00:11:46.49	347.37	44.07	-49.3	-64.5	3.6	1.51e+00	0	33	104	0	60	60777
2026-01-18 00:11:47.50	347.25	43.78	-49.4	-64.6	3.6	1.51e+00	0	32	104	0	60	61440
2026-01-18 00:11:48.51	347.14	43.50	-49.3	-64.5	3.6	1.51e+00	0	32	104	0	60	60921
2026-01-18 00:11:49.52	347.03	43.21	-49.2	-64.4	3.6	1.51e+00	0	32	104	0	60	60055
2026-01-18 00:11:50.53	346.93	42.93	-49.1	-64.3	3.6	1.51e+00	0	32	104	0	60	59486
2026-01-18 00:11:51.54	346.82	42.65	-49.4	-64.7	3.6	1.51e+00	0	32	104	0	60	61927
2026-01-18 00:11:52.55	346.72	42.37	-49.2	-64.5	3.6	1.51e+00	0	32	104	0	60	60919
2026-01-18 00:11:53.56	346.62	42.10	-49.7	-64.9	3.6	1.51e+00	0	32	104	0	60	63793
2026-01-18 00:11:54.57	346.52	41.82	-49.3	-64.6	3.6	1.51e+00	0	33	104	0	60	61373
2026-01-18 00:11:55.58	346.42	41.55	-49.6	-64.8	3.6	1.51e+00	0	32	104	0	60	62800
2026-01-18 00:11:56.59	346.33	41.28	-49.6	-64.9	3.6	1.51e+00	0	32	104	0	60	63188
2026-01-18 00:11:57.59	346.23	41.02	-49.4	-64.6	3.6	1.51e+00	0	32	104	0	60	61474
2026-01-18 00:11:58.60	346.14	40.75	-49.1	-64.3	3.6	1.51e+00	0	32	104	0	60	59329
2026-01-18 00:11:59.62	346.05	40.48	-49.5	-64.7	3.6	1.51e+00	0	32	104	0	60	62018
2026-01-18 00:12:00.62	345.96	40.23	-49.3	-64.5	3.6	1.51e+00	0	33	104	0	60	60640
2026-01-18 00:12:01.63	345.87	39.96	-49.2	-64.4	3.6	1.51e+00	0	32	104	0	60	60280
2026-01-18 00:12:02.64	345.78	39.71	-49.2	-64.4	3.6	1.51e+00	0	32	104	0	60	60329
2026-01-18 00:12:03.66	345.70	39.45	-49.2	-64.5	3.6	1.51e+00	0	32	104	0	60	60442
2026-01-18 00:12:04.67	345.62	39.19	-49.6	-64.8	3.6	1.51e+00	0	32	104	0	60	62768
2026-01-18 00:12:05.67	345.53	38.94	-49.5	-64.7	3.6	1.51e+00	0	33	104	0	60	61829
2026-01-18 00:12:06.69	345.45	38.69	-49.4	-64.7	3.6	1.51e+00	0	32	104	0	60	61836
2026-01-18 00:12:07.70	345.37	38.44	-49.3	-64.5	3.6	1.51e+00	0	32	104	0	60	60493
2026-01-18 00:12:08.71	345.29	38.19	-49.2	-64.5	3.6	1.51e+00	0	33	104	0	60	60563
2026-01-18 00:12:09.72	345.22	37.94	-49.2	-64.5	3.6	1.51e+00	0	32	104	0	60	60372
2026-01-18 00:12:10.73	345.14	37.70	-49.2	-64.4	3.6	1.51e+00	0	32	104	0	60	59941
2026-01-18 00:12:11.74	345.07	37.46	-49.2	-64.4	3.6	1.51e+00	0	32	104	0	60	59985
2026-01-18 00:12:12.75	344.99	37.22	-49.4	-64.6	3.6	1.51e+00	0	32	104	0	60	61373
2026-01-18 00:12:13.76	344.92	36.98	-49.3	-64.5	3.6	1.51e+00	0	32	104	0	60	60698
2026-01-18 00:12:14.77	344.85	36.74	-49.5	-64.7	3.6	1.51e+00	0	32	104	0	60	61957
2026-01-18 00:12:15.78	344.78	36.50	-49.2	-64.4	3.6	1.51e+00	0	32	104	0	60	60215
2026-01-18 00:12:16.78	344.71	36.27	-49.2	-64.4	3.6	1.51e+00	0	32	104	0	60	60260
2026-01-18 00:12:17.79	344.64	36.04	-49.2	-64.5	3.6	1.51e+00	0	32	104	0	60	60377
2026-01-18 00:12:18.80	344.57	35.81	-49.3	-64.6	3.6	1.51e+00	0	32	104	0	60	61194
2026-01-18 00:12:19.81	344.51	35.58	-49.0	-64.2	3.6	1.51e+00	0	32	104	0	60	58635
2026-01-18 00:12:20.82	344.44	35.35	-49.3	-64.5	3.6	1.51e+00	0	32	104	0	60	60914
2026-01-18 00:12:21.83	344.38	35.13	-49.5	-64.7	3.6	1.51e+00	0	32	104	0	60	62329
2026-01-18 00:12:22.84	344.31	34.90	-49.3	-64.6	3.6	1.51e+00	0	32	104	0	60	61431
2026-01-18 00:12:23.85	344.25	34.68	-49.3	-64.5	3.6	1.51e+00	0	32	104	0	60	60888
2026-01-18 00:12:24.86	344.19	34.46	-49.0	-64.3	3.6	1.51e+00	0	32	104	0	60	59092
2026-01-18 00:12:25.87	344.13	34.24	-49.2	-64.4	3.6	1.51e+00	0	32	104	0	60	60029
2026-01-18 00:12:26.88	344.07	34.02	-49.2	-64.4	3.6	1.51e+00	0	32	104	0	60	60151
2026-01-18 00:12:27.89	344.01	33.80	-49.1	-64.3	3.6	1.51e+00	0	33	104	0	60	59420
2026-01-18 00:12:28.90	343.95	33.59	-49.1	-64.4	3.6	1.51e+00	0	33	104	0	60	59653
2026-01-18 00:12:29.91	343.90	33.37	-49.0	-64.2	3.6	1.51e+00	0	32	104	0	60	58604
2026-01-18 00:12:30.92	343.84	33.16	-49.2	-64.4	3.6	1.51e+00	0	32	104	0	60	60238
2026-01-18 00:12:31.93	343.78	32.95	-49.4	-64.6	3.6	1.51e+00	0	32	104	0	60	61552
2026-01-18 00:12:32.94	343.73	32.74	-49.3	-64.5	3.6	1.51e+00	0	32	104	0	60	60958
2026-01-18 00:12:33.95	343.67	32.53	-49.3	-64.5	3.6	1.51e+00	0	33	104	0	60	60541
2026-01-18 00:12:34.96	343.62	32.32	-49.2	-64.4	3.6	1.51e+00	0	33	104	0	60	60267
2026-01-18 00:12:35.96	343.57	32.12	-49.0	-64.3	3.6	1.51e+00	0	32	104	0	60	59039
2026-01-18 00:12:36.97	343.52	31.92	-49.3	-64.6	3.6	1.51e+00	0	32	104	0	60	61079
2026-01-18 00:12:37.98	343.46	31.71	-49.3	-64.5	3.6	1.51e+00	0	32	104	0	60	60595
2026-01-18 00:12:38.99	343.41	31.51	-49.2	-64.4	3.6	1.51e+00	0	32	104	0	60	59984
2026-01-18 00:12:40.00	343.36	31.31	-49.4	-64.6	3.6	1.51e+00	0	32	104	0	60	61497
2026-01-18 00:12:41.01	343.31	31.11	-49.2	-64.4	3.6	1.51e+00	0	32	104	0	60	60072
2026-01-18 00:12:42.02	343.27	30.92	-49.2	-64.4	3.6	1.51e+00	0	32	104	0	60	60254
2026-01-18 00:12:43.03	343.22	30.72	-49.2	-64.4	3.6	1.51e+00	0	32	104	0	60	60175
2026-01-18 00:12:44.03	343.17	30.53	-49.2	-64.5	3.6	1.51e+00	0	33	104	0	60	60490
2026-01-18 00:12:45.04	343.12	30.33	-49.4	-64.6	3.6	1.51e+00	0	32	104	0	60	61419
2026-01-18 00:12:46.05	343.08	30.14	-49.6	-64.8	3.5	1.51e+00	0	32	104	0	60	62952
2026-01-18 00:12:47.06	343.03	29.95	-49.2	-64.4	3.6	1.51e+00	0	32	104	0	60	60327
2026-01-18 00:12:48.07	342.99	29.76	-49.2	-64.5	3.6	1.51e+00	0	32	104	0	60	60435
2026-01-18 00:12:49.08	342.94	29.57	-49.1	-64.3	3.6	1.51e+00	0	33	104	0	60	59502
2026-01-18 00:12:50.09	342.90	29.39	-49.1	-64.3	3.6	1.51e+00	0	33	104	0	60	59360
2026-01-18 00:12:51.11	342.85	29.20	-49.4	-64.6	3.6	1.51e+00	0	32	104	0	60	61604
2026-01-18 00:12:52.11	342.81	29.01	-49.1	-64.4	3.6	1.51e+00	0	32	104	0	60	59983
2026-01-18 00:12:53.12	342.77	28.83	-49.3	-64.6	3.6	1.51e+00	0	32	104	0	60	61289
2026-01-18 00:12:54.14	342.73	28.65	-49.3	-64.6	3.6	1.51e+00	0	32	104	0	60	61103
2026-01-18 00:12:55.14	342.69	28.47	-49.3	-64.5	3.6	1.51e+00	0	32	104	0	60	60519
2026-01-18 00:12:56.15	342.65	28.29	-49.3	-64.5	3.6	1.51e+00	0	32	104	0	60	60696
2026-01-18 00:12:57.16	342.61	28.11	-49.2	-64.5	3.6	1.51e+00	0	32	104	0	60	60464
2026-01-18 00:12:58.18	342.57	27.93	-49.1	-64.4	3.6	1.51e+00	0	32	104	0	60	59804
2026-01-18 00:12:59.18	342.53	27.75	-49.0	-64.2	3.6	1.51e+00	0	33	104	0	60	58673
2026-01-18 00:13:00.20	342.49	27.58	-49.1	-64.4	3.6	1.51e+00	0	33	104	0	60	59691
2026-01-18 00:13:01.21	342.45	27.40	-49.1	-64.3	3.6	1.51e+00	0	33	104	0	60	59152
2026-01-18 00:13:02.22	342.41	27.23	-49.2	-64.4	3.6	1.51e+00	0	32	104	0	60	60301
2026-01-18 00:13:03.22	342.37	27.06	-49.1	-64.4	3.6	1.51e+00	0	32	104	0	60	59715
2026-01-18 00:13:04.24	342.34	26.89	-49.4	-64.6	3.6	1.51e+00	0	32	104	0	60	61410
2026-01-18 00:13:05.25	342.30	26.72	-49.3	-64.6	3.6	1.51e+00	0	32	104	0	60	61058
2026-01-18 00:13:06.26	342.26	26.55	-48.9	-64.1	3.6	1.51e+00	0	33	104	0	60	58221
2026-01-18 00:13:07.27	342.23	26.38	-48.9	-64.1	3.6	1.51e+00	0	32	104	0	60	58239
2026-01-18 00:13:08.27	342.19	26.21	-49.0	-64.2	3.6	1.51e+00	0	33	104	0	60	58552
2026-01-18 00:13:09.28	342.16	26.05	-49.2	-64.5	3.6	1.51e+00	0	32	104	0	60	60355
2026-01-18 00:13:10.29	342.12	25.88	-49.1	-64.3	3.6	1.51e+00	0	32	104	0	60	59376
2026-01-18 00:13:11.30	342.09	25.72	-49.0	-64.3	3.6	1.51e+00	0	32	104	0	60	59190
2026-01-18 00:13:12.31	342.06	25.55	-49.1	-64.4	3.6	1.51e+00	0	32	104	0	60	59967
2026-01-18 00:13:13.32	342.02	25.39	-49.1	-64.4	3.6	1.51e+00	0	32	104	0	60	59754
2026-01-18 00:13:14.33	341.99	25.23	-49.1	-64.4	3.6	1.51e+00	0	33	104	0	60	59827
2026-01-18 00:13:15.34	341.96	25.07	-49.4	-64.6	3.6	1.51e+00	0	33	104	0	60	61458
2026-01-18 00:13:16.35	341.93	24.91	-49.1	-64.4	3.6	1.51e+00	0	33	104	0	60	60175
2026-01-18 00:13:17.36	341.89	24.75	-49.3	-64.5	3.6	1.51e+00	0	33	104	0	60	60567
2026-01-18 00:13:18.37	341.86	24.60	-49.3	-64.5	3.6	1.51e+00	0	33	104	0	60	60954
2026-01-18 00:13:19.38	341.83	24.44	-49.4	-64.7	3.6	1.51e+00	0	33	104	0	60	61858
2026-01-18 00:13:20.39	341.80	24.29	-49.3	-64.5	3.6	1.51e+00	0	33	104	0	60	60700
2026-01-18 00:13:21.39	341.77	24.13	-49.3	-64.5	3.6	1.51e+00	0	32	104	0	60	60846
2026-01-18 00:13:22.40	341.74	23.98	-49.3	-64.5	3.6	1.51e+00	0	32	104	0	60	60948
2026-01-18 00:13:23.41	341.71	23.83	-49.2	-64.5	3.6	1.51e+00	0	33	104	0	60	60494
2026-01-18 00:13:24.43	341.68	23.67	-49.0	-64.2	3.6	1.51e+00	0	33	104	0	60	58742
2026-01-18 00:13:25.44	341.65	23.52	-49.1	-64.3	3.6	1.51e+00	0	33	104	0	60	59380
2026-01-18 00:13:26.45	341.62	23.37	-49.1	-64.3	3.6	1.51e+00	0	33	104	0	60	59463
2026-01-18 00:13:27.46	341.59	23.22	-49.2	-64.5	3.6	1.51e+00	0	33	104	0	60	60529
2026-01-18 00:13:28.47	341.57	23.07	-49.5	-64.7	3.6	1.51e+00	0	32	104	0	60	61813
2026-01-18 00:13:29.48	341.54	22.93	-49.3	-64.6	3.6	1.51e+00	0	32	104	0	60	61149
2026-01-18 00:13:30.49	341.51	22.78	-49.2	-64.5	3.6	1.51e+00	0	32	104	0	60	60364
2026-01-18 00:13:31.50	341.48	22.63	-49.4	-64.6	3.6	1.51e+00	0	32	104	0	60	61608
2026-01-18 00:13:32.51	341.46	22.49	-49.4	-64.6	3.6	1.51e+00	0	32	104	0	60	61445
2026-01-18 00:13:33.52	341.43	22.35	-49.1	-64.4	3.6	1.51e+00	0	33	104	0	60	59713
2026-01-18 00:13:34.53	341.40	22.20	-49.1	-64.3	3.6	1.51e+00	0	33	104	0	60	59601
2026-01-18 00:13:35.54	341.38	22.06	-49.1	-64.3	3.6	1.51e+00	0	32	104	0	60	59223
2026-01-18 00:13:36.55	341.35	21.92	-49.2	-64.5	3.6	1.51e+00	0	32	104	0	60	60438
2026-01-18 00:13:37.56	341.33	21.78	-49.1	-64.4	3.6	1.51e+00	0	33	104	0	60	59684
2026-01-18 00:13:38.57	341.30	21.64	-49.2	-64.4	3.6	1.51e+00	0	33	104	0	60	60024
2026-01-18 00:13:39.58	341.28	21.50	-49.2	-64.5	3.6	1.51e+00	0	32	104	0	60	60542
2026-01-18 00:13:40.59	341.25	21.36	-49.3	-64.5	3.6	1.51e+00	0	32	104	0	60	60999
2026-01-18 00:13:41.59	341.23	21.22	-49.3	-64.5	3.6	1.51e+00	0	32	104	0	60	60873
2026-01-18 00:13:42.60	341.20	21.08	-49.3	-64.5	3.6	1.51e+00	0	32	104	0	60	60760
2026-01-18 00:13:43.61	341.18	20.95	-49.3	-64.5	3.6	1.51e+00	0	32	104	0	60	61030
2026-01-18 00:13:44.62	341.15	20.81	-49.5	-64.8	3.6	1.51e+00	0	32	104	0	60	62773
2026-01-18 00:13:45.63	341.13	20.68	-49.3	-64.5	3.6	1.51e+00	0	32	104	0	60	60694
2026-01-18 00:13:46.64	341.11	20.54	-49.3	-64.5	3.6	1.51e+00	0	33	104	0	60	60731
2026-01-18 00:13:47.65	341.08	20.41	-49.3	-64.5	3.6	1.51e+00	0	32	104	0	60	60863
2026-01-18 00:13:48.66	341.06	20.28	-49.6	-64.8	3.6	1.51e+00	0	32	104	0	60	62782
2026-01-18 00:13:49.67	341.04	20.14	-49.2	-64.4	3.6	1.51e+00	0	33	104	0	60	60202
2026-01-18 00:13:50.68	341.02	20.01	-49.4	-64.6	3.6	1.51e+00	0	33	104	0	60	61736
2026-01-18 00:13:51.69	340.99	19.88	-49.3	-64.5	3.6	1.51e+00	0	33	104	0	60	60968
2026-01-18 00:13:52.70	340.97	19.75	-49.7	-64.9	3.6	1.51e+00	0	32	104	0	60	63386
2026-01-18 00:13:53.71	340.95	19.62	-49.2	-64.4	3.6	1.51e+00	0	32	104	0	60	60170
2026-01-18 00:13:54.72	340.93	19.49	-49.2	-64.5	3.6	1.51e+00	0	32	104	0	60	60405
2026-01-18 00:13:55.73	340.91	19.36	-49.3	-64.5	3.6	1.51e+00	0	32	104	0	60	60404
2026-01-18 00:13:56.74	340.89	19.24	-49.4	-64.6	3.5	1.51e+00	0	32	104	0	60	61704
2026-01-18 00:13:57.75	340.87	19.11	-49.2	-64.4	3.6	1.51e+00	0	32	104	0	60	60076
2026-01-18 00:13:58.75	340.85	18.99	-49.1	-64.3	3.6	1.51e+00	0	33	104	0	60	59437
2026-01-18 00:13:59.77	340.83	18.86	-49.2	-64.4	3.6	1.51e+00	0	32	104	0	60	60029
2026-01-18 00:14:00.78	340.81	18.73	-49.1	-64.4	3.6	1.51e+00	0	32	104	0	60	59822
2026-01-18 00:14:01.79	340.79	18.61	-49.3	-64.5	3.6	1.51e+00	0	33	104	0	60	60751
2026-01-18 00:14:02.79	340.77	18.49	-49.2	-64.5	3.6	1.51e+00	0	33	104	0	60	60562
2026-01-18 00:14:03.81	340.75	18.36	-49.2	-64.4	3.6	1.51e+00	0	32	104	0	60	60299
2026-01-18 00:14:04.82	340.73	18.24	-49.2	-64.4	3.6	1.51e+00	0	32	104	0	60	60276
2026-01-18 00:14:05.83	340.71	18.12	-49.5	-64.7	3.6	1.51e+00	0	33	104	0	60	62402
2026-01-18 00:14:06.84	340.69	18.00	-49.3	-64.5	3.6	1.51e+00	0	32	104	0	60	60844
2026-01-18 00:14:07.85	340.67	17.88	-49.2	-64.4	3.6	1.51e+00	0	32	104	0	60	59987
2026-01-18 00:14:08.86	340.65	17.76	-49.1	-64.3	3.6	1.51e+00	0	32	104	0	60	59336
2026-01-18 00:14:09.87	340.63	17.64	-49.4	-64.6	3.6	1.51e+00	0	32	104	0	60	61413
2026-01-18 00:14:10.88	340.61	17.52	-49.1	-64.4	3.6	1.51e+00	0	32	104	0	60	59851
2026-01-18 00:14:11.88	340.60	17.40	-49.4	-64.7	3.6	1.51e+00	0	32	104	0	60	61753
2026-01-18 00:14:12.89	340.58	17.28	-49.1	-64.4	3.6	1.51e+00	0	32	104	0	60	60072
2026-01-18 00:14:13.90	340.56	17.17	-49.2	-64.4	3.6	1.51e+00	0	33	104	0	60	60234
2026-01-18 00:14:14.91	340.54	17.05	-49.0	-64.3	3.6	1.51e+00	0	32	104	0	60	59059
2026-01-18 00:14:15.92	340.52	16.93	-49.3	-64.5	3.6	1.51e+00	0	32	104	0	60	60715
2026-01-18 00:14:16.93	340.51	16.82	-49.2	-64.4	3.6	1.51e+00	0	32	104	0	60	60123
2026-01-18 00:14:17.94	340.49	16.70	-49.1	-64.3	3.6	1.51e+00	0	33	104	0	60	59343
2026-01-18 00:14:18.95	340.47	16.59	-49.1	-64.4	3.6	1.51e+00	0	32	104	0	60	59715
2026-01-18 00:14:19.95	340.46	16.47	-49.1	-64.3	3.6	1.51e+00	0	33	104	0	60	59384
2026-01-18 00:14:20.96	340.44	16.36	-49.3	-64.6	3.6	1.51e+00	0	33	104	0	60	61118
2026-01-18 00:14:21.98	340.42	16.25	-49.4	-64.6	3.6	1.51e+00	0	32	104	0	60	61373
2026-01-18 00:14:22.98	340.41	16.14	-49.6	-64.8	3.6	1.51e+00	0	33	104	0	60	62669
2026-01-18 00:14:24.00	340.39	16.02	-49.2	-64.5	3.6	1.51e+00	0	32	104	0	60	60367
2026-01-18 00:14:25.01	340.37	15.91	-49.2	-64.4	3.6	1.51e+00	0	33	104	0	60	60288
2026-01-18 00:14:26.02	340.36	15.80	-49.3	-64.6	3.6	1.51e+00	0	32	104	0	60	61167
2026-01-18 00:14:27.03	340.34	15.69	-49.3	-64.5	3.6	1.51e+00	0	32	104	0	60	60885
2026-01-18 00:14:28.04	340.33	15.58	-49.3	-64.6	3.6	1.51e+00	0	33	104	0	60	61051
2026-01-18 00:14:29.05	340.31	15.47	-49.3	-64.5	3.6	1.51e+00	0	33	104	0	60	60907
2026-01-18 00:14:30.06	340.30	15.36	-49.3	-64.5	3.6	1.51e+00	0	32	104	0	60	60820
2026-01-18 00:14:31.07	340.28	15.25	-49.4	-64.7	3.6	1.51e+00	0	33	104	0	60	62170
2026-01-18 00:14:32.08	340.27	15.15	-49.4	-64.6	3.6	1.51e+00	0	32	104	0	60	61380
2026-01-18 00:14:33.09	340.25	15.04	-49.3	-64.6	3.6	1.51e+00	0	33	104	0	60	61101
2026-01-18 00:14:34.10	340.24	14.93	-49.4	-64.6	3.6	1.51e+00	0	33	104	0	60	61612
2026-01-18 00:14:35.11	340.22	14.82	-49.3	-64.6	3.6	1.51e+00	0	33	104	0	60	61449
2026-01-18 00:14:36.12	340.21	14.72	-49.2	-64.4	3.6	1.51e+00	0	33	104	0	60	60225
2026-01-18 00:14:37.13	340.19	14.61	-49.2	-64.5	3.6	1.51e+00	0	32	104	0	60	60407
2026-01-18 00:14:38.14	340.18	14.51	-49.1	-64.4	3.6	1.51e+00	0	33	104	0	60	59704
2026-01-18 00:14:39.15	340.16	14.40	-49.3	-64.5	3.6	1.51e+00	0	32	104	0	60	60908
2026-01-18 00:14:40.16	340.15	14.30	-49.3	-64.5	3.6	1.51e+00	0	32	104	0	60	60991
2026-01-18 00:14:41.17	340.14	14.20	-49.2	-64.4	3.6	1.51e+00	0	32	104	0	60	60152
2026-01-18 00:14:42.18	340.12	14.09	-49.4	-64.6	3.6	1.51e+00	0	32	104	0	60	61517
2026-01-18 00:14:43.19	340.11	13.99	-49.5	-64.8	3.6	1.51e+00	0	32	104	0	60	62556
2026-01-18 00:14:44.20	340.10	13.89	-49.3	-64.6	3.6	1.51e+00	0	33	104	0	60	61077
