passes_logs/2026/01/18/R4.6S_Anadyr/R4.6S_Anadyr__20260118_122821_NOAA_20_JPSS-1_rec.log

#Pass ID: 20260118_122821_NOAA 20 (JPSS-1)
#Satellite: NOAA 20 (JPSS-1)
#Configuration: NOAA 20
#almurnet v.1.7.20251203
#Start time: 2026-01-18 12:28:24

#Version: 2.2.20231116
#Station: R4.6S_Anadyr
#Location: 177.4865 lon 64.73178 lat
#TLE: 1 43013U 17073A   26017.58553584  .00000066  00000+0  52288-4 0  9998
#TLE: 2 43013  98.7639 318.4977 0001406  35.6039 324.5231 14.19536575423107

#Time	Az	El	Level	Level2	SNR	BER	BlckErr	Temp	State	Recorded	gain1	gain2
2026-01-18 12:28:24.10	19.13	0.15	-49.7	-63.4	3.3	1.54e+00	0	32	0	0	60	53699
2026-01-18 12:28:25.10	19.20	0.20	-49.7	-65.0	3.6	1.51e+00	0	32	104	0	60	63949
2026-01-18 12:28:26.11	19.27	0.25	-49.7	-65.0	3.6	1.51e+00	0	32	104	0	60	63991
2026-01-18 12:28:27.12	19.34	0.30	-49.8	-65.0	3.6	1.51e+00	0	32	104	0	60	64128
2026-01-18 12:28:28.12	19.42	0.35	-49.7	-65.0	3.6	1.51e+00	0	32	104	0	60	64335
2026-01-18 12:28:29.14	19.49	0.40	-49.8	-65.0	3.6	1.51e+00	0	32	104	0	60	64093
2026-01-18 12:28:30.15	19.56	0.45	-49.8	-65.0	3.6	1.51e+00	0	32	104	0	60	64520
2026-01-18 12:28:31.16	19.64	0.50	-49.8	-65.0	3.6	1.51e+00	0	32	104	0	60	64147
2026-01-18 12:28:32.16	19.71	0.55	-49.8	-65.0	3.6	1.51e+00	0	32	104	0	60	64141
2026-01-18 12:28:33.17	19.78	0.60	-49.8	-65.0	3.6	1.51e+00	0	32	104	0	60	64205
2026-01-18 12:28:34.18	19.86	0.65	-49.7	-65.0	3.6	1.51e+00	0	32	104	0	60	63969
2026-01-18 12:28:35.19	19.93	0.70	-49.7	-64.9	3.6	1.51e+00	0	32	104	0	60	63194
2026-01-18 12:28:36.20	20.01	0.75	-49.6	-64.8	3.6	1.51e+00	0	32	104	0	60	62703
2026-01-18 12:28:37.21	20.08	0.80	-49.5	-64.7	3.6	1.51e+00	0	32	104	0	60	62070
2026-01-18 12:28:38.22	20.16	0.86	-49.4	-64.6	3.6	1.51e+00	0	32	104	0	60	61567
2026-01-18 12:28:39.23	20.23	0.91	-49.3	-64.5	3.6	1.51e+00	0	32	104	0	60	60691
2026-01-18 12:28:40.24	20.31	0.96	-49.2	-64.4	3.6	1.51e+00	0	32	104	0	60	59762
2026-01-18 12:28:41.25	20.38	1.01	-49.1	-64.3	3.6	1.51e+00	0	32	104	0	60	59360
2026-01-18 12:28:42.26	20.46	1.06	-49.0	-64.2	3.6	1.51e+00	0	32	104	0	60	58349
2026-01-18 12:28:43.27	20.53	1.11	-48.8	-64.0	3.6	1.51e+00	0	33	104	0	60	57215
2026-01-18 12:28:44.28	20.61	1.16	-48.6	-63.8	3.6	1.51e+00	0	33	104	0	60	55740
2026-01-18 12:28:45.29	20.69	1.21	-48.3	-63.4	3.6	1.51e+00	0	33	104	0	60	53288
2026-01-18 12:28:46.30	20.77	1.26	-47.9	-63.1	3.6	1.51e+00	0	33	104	0	60	51677
2026-01-18 12:28:47.31	20.84	1.32	-47.9	-63.1	3.6	1.51e+00	0	33	104	0	60	51476
2026-01-18 12:28:48.32	20.92	1.37	-47.9	-63.1	3.6	1.51e+00	0	33	104	0	60	51600
2026-01-18 12:28:49.33	21.00	1.42	-47.9	-63.1	3.6	1.51e+00	0	33	104	0	60	51466
2026-01-18 12:28:50.33	21.07	1.47	-47.9	-63.1	3.6	1.51e+00	0	33	104	0	60	51621
2026-01-18 12:28:51.34	21.15	1.52	-47.9	-63.1	3.6	1.51e+00	0	33	104	0	60	51543
2026-01-18 12:28:52.35	21.23	1.57	-47.9	-63.1	3.6	1.51e+00	0	33	104	0	60	51391
2026-01-18 12:28:53.36	21.31	1.62	-47.9	-63.1	3.6	1.51e+00	0	33	104	0	60	51679
2026-01-18 12:28:54.37	21.39	1.68	-47.9	-63.0	3.6	1.51e+00	0	33	104	0	60	51191
2026-01-18 12:28:55.38	21.47	1.73	-47.9	-63.0	3.6	1.51e+00	0	33	104	0	60	51000
2026-01-18 12:28:56.39	21.55	1.78	-47.9	-63.0	3.6	1.51e+00	0	33	104	0	60	51071
2026-01-18 12:28:57.40	21.63	1.83	-47.9	-63.0	3.6	1.51e+00	0	33	104	0	60	51003
2026-01-18 12:28:58.41	21.71	1.88	-47.9	-63.1	3.6	1.51e+00	0	33	104	0	60	51710
2026-01-18 12:28:59.42	21.79	1.94	-47.9	-63.1	3.6	1.51e+00	0	33	104	0	60	51424
2026-01-18 12:29:00.43	21.87	1.99	-47.9	-63.0	3.6	1.51e+00	0	33	104	0	60	51207
2026-01-18 12:29:01.44	21.95	2.04	-47.9	-63.0	3.6	1.51e+00	0	33	104	0	60	51009
2026-01-18 12:29:02.45	22.03	2.09	-47.9	-63.0	3.6	1.51e+00	0	33	104	0	60	51330
2026-01-18 12:29:03.46	22.11	2.14	-47.9	-63.0	3.6	1.51e+00	0	33	104	0	60	51234
2026-01-18 12:29:04.47	22.19	2.20	-47.9	-62.7	3.6	1.51e+00	0	33	104	0	60	49235
2026-01-18 12:29:05.47	22.28	2.25	-47.9	-62.2	3.6	1.51e+00	0	33	104	0	60	46375
2026-01-18 12:29:06.48	22.36	2.30	-47.9	-62.0	3.6	1.51e+00	0	33	104	0	60	45628
2026-01-18 12:29:07.49	22.44	2.35	-47.9	-62.1	3.6	1.51e+00	0	33	104	0	60	45797
2026-01-18 12:29:08.50	22.52	2.41	-47.8	-61.7	3.6	1.51e+00	0	33	104	0	60	43845
2026-01-18 12:29:09.51	22.61	2.46	-47.7	-59.3	3.8	1.50e+00	0	33	104	0	60	33225
2026-01-18 12:29:10.52	22.69	2.51	-47.2	-54.4	7.1	4.23e-01	0	33	0	0	60	19047
2026-01-18 12:29:11.53	22.77	2.56	-46.2	-51.0	10.8	5.57e-02	2	33	0	2097152	60	12799
2026-01-18 12:29:12.54	22.86	2.62	-45.2	-48.7	13.4	2.66e-04	0	33	0	3145728	60	9816
2026-01-18 12:29:13.55	22.94	2.67	-44.5	-47.3	14.7	3.80e-06	91	33	0	5242880	60	8422
2026-01-18 12:29:14.56	23.03	2.72	-43.6	-46.0	16.3	0.00e+00	0	33	0	7340032	60	7188
2026-01-18 12:29:15.57	23.11	2.77	-43.3	-45.6	16.5	0.00e+00	91	33	0	9437184	60	6885
2026-01-18 12:29:16.58	23.20	2.83	-43.3	-45.5	16.5	0.00e+00	0	33	0	11534336	60	6820
2026-01-18 12:29:17.59	23.28	2.88	-44.1	-46.7	15.1	0.00e+00	45	33	0	13631488	60	7850
2026-01-18 12:29:18.60	23.37	2.93	-44.7	-47.8	14.3	7.00e-07	9	33	0	14680064	60	8884
2026-01-18 12:29:19.60	23.45	2.98	-46.1	-50.7	10.8	2.93e-04	39	33	0	16777216	60	12333
2026-01-18 12:29:20.61	23.54	3.04	-45.4	-48.9	13.1	1.32e-02	76	33	0	18874368	60	10023
2026-01-18 12:29:21.62	23.62	3.09	-43.7	-46.0	16.4	0.00e+00	43	33	0	20971520	60	7202
2026-01-18 12:29:22.63	23.71	3.14	-43.9	-46.4	13.9	0.00e+00	92	33	0	23068672	60	7559
2026-01-18 12:29:23.64	23.80	3.20	-47.8	-62.9	3.6	1.51e+00	0	33	104	23068672	60	50462
2026-01-18 12:29:24.64	23.88	3.25	-46.8	-53.3	13.3	1.50e+00	82	33	104	23068672	60	16649
2026-01-18 12:29:25.65	23.97	3.30	-46.0	-50.1	13.5	1.06e-03	35	33	0	24117248	60	11505
2026-01-18 12:29:26.66	24.06	3.36	-43.5	-45.7	16.7	0.00e+00	5	33	0	26214400	60	6957
2026-01-18 12:29:27.67	24.15	3.41	-43.4	-45.6	17.1	0.00e+00	90	33	0	28311552	60	6851
2026-01-18 12:29:28.68	24.24	3.46	-43.5	-45.6	16.8	0.00e+00	41	33	0	29360128	60	6919
2026-01-18 12:29:29.69	24.33	3.52	-43.8	-46.1	16.5	0.00e+00	92	33	0	31457280	60	7328
2026-01-18 12:29:30.70	24.42	3.57	-43.5	-45.6	17.0	0.00e+00	0	33	0	33554432	60	6918
2026-01-18 12:29:31.70	24.50	3.62	-43.5	-45.6	16.8	0.00e+00	92	33	0	35651584	60	6909
2026-01-18 12:29:32.71	24.59	3.68	-43.9	-46.3	16.7	0.00e+00	6	33	0	37748736	60	7452
2026-01-18 12:29:33.72	24.68	3.73	-43.6	-45.7	16.5	0.00e+00	17	33	0	38797312	60	6987
2026-01-18 12:29:34.73	24.77	3.79	-43.9	-46.1	16.9	0.00e+00	6	33	0	40894464	60	7336
2026-01-18 12:29:35.74	24.87	3.84	-43.6	-45.7	16.8	0.00e+00	6	33	0	42991616	60	6964
2026-01-18 12:29:36.75	24.96	3.89	-43.7	-46.0	16.5	0.00e+00	90	33	0	45088768	60	7179
2026-01-18 12:29:37.76	25.05	3.95	-43.6	-45.8	16.9	0.00e+00	0	33	0	47185920	60	7018
2026-01-18 12:29:38.77	25.14	4.00	-43.2	-45.2	17.3	0.00e+00	92	33	0	48234496	60	6563
2026-01-18 12:29:39.77	25.23	4.05	-42.9	-44.8	17.8	0.00e+00	0	33	0	50331648	60	6280
2026-01-18 12:29:40.78	25.32	4.11	-43.3	-45.3	17.6	0.00e+00	45	33	0	52428800	60	6664
2026-01-18 12:29:41.79	25.42	4.16	-42.9	-44.7	17.9	0.00e+00	40	33	0	54525952	60	6233
2026-01-18 12:29:42.80	25.51	4.22	-42.7	-44.5	18.0	0.00e+00	0	33	0	56623104	58	6848
2026-01-18 12:29:43.81	25.60	4.27	-42.9	-44.7	17.9	0.00e+00	64	33	0	57671680	58	6955
2026-01-18 12:29:44.82	25.70	4.33	-42.4	-44.1	18.5	0.00e+00	40	33	0	59768832	58	6484
2026-01-18 12:29:45.83	25.79	4.38	-42.4	-44.1	18.4	0.00e+00	92	33	0	61865984	58	6501
2026-01-18 12:29:46.84	25.88	4.43	-42.5	-44.3	18.3	0.00e+00	45	33	0	63963136	58	6628
2026-01-18 12:29:47.84	25.98	4.49	-42.3	-44.0	18.6	0.00e+00	46	33	0	66060288	58	6401
2026-01-18 12:29:48.85	26.07	4.54	-42.6	-44.3	18.4	0.00e+00	45	33	0	67108864	58	6670
2026-01-18 12:29:49.86	26.17	4.60	-42.5	-44.2	18.5	0.00e+00	6	33	0	69206016	58	6572
2026-01-18 12:29:50.87	26.26	4.65	-42.3	-44.0	18.6	0.00e+00	28	33	0	71303168	58	6405
2026-01-18 12:29:51.88	26.36	4.71	-42.6	-44.3	18.5	0.00e+00	51	33	0	73400320	58	6636
2026-01-18 12:29:52.89	26.46	4.76	-42.1	-43.8	18.9	0.00e+00	92	33	0	75497472	58	6249
2026-01-18 12:29:53.90	26.55	4.82	-42.1	-43.7	18.9	0.00e+00	7	33	0	76546048	58	6231
2026-01-18 12:29:54.91	26.65	4.87	-42.4	-44.0	18.6	0.00e+00	91	33	0	78643200	58	6442
2026-01-18 12:29:55.92	26.75	4.93	-42.3	-43.9	18.8	0.00e+00	7	33	0	80740352	58	6356
2026-01-18 12:29:56.92	26.84	4.98	-42.3	-43.9	18.8	0.00e+00	25	33	0	82837504	58	6341
2026-01-18 12:29:57.93	26.94	5.03	-42.3	-43.9	18.8	0.00e+00	0	33	0	84934656	58	6371
2026-01-18 12:29:58.94	27.04	5.09	-42.4	-44.0	18.7	0.00e+00	0	33	0	85983232	58	6442
2026-01-18 12:29:59.95	27.14	5.14	-42.0	-43.5	19.1	0.00e+00	91	33	0	88080384	58	6098
2026-01-18 12:30:00.96	27.24	5.20	-42.0	-43.5	19.1	0.00e+00	0	33	0	90177536	58	6085
2026-01-18 12:30:01.97	27.34	5.25	-42.0	-43.5	19.2	0.00e+00	92	33	0	92274688	58	6079
2026-01-18 12:30:02.98	27.44	5.31	-41.9	-43.4	19.4	0.00e+00	0	33	0	94371840	58	5969
2026-01-18 12:30:03.99	27.54	5.37	-42.0	-43.5	19.3	0.00e+00	46	33	0	95420416	58	6063
2026-01-18 12:30:05.00	27.64	5.42	-41.9	-43.3	19.3	0.00e+00	0	33	0	97517568	58	5962
2026-01-18 12:30:06.00	27.74	5.48	-41.8	-43.2	19.4	0.00e+00	47	33	0	99614720	58	5895
2026-01-18 12:30:07.01	27.84	5.53	-41.7	-43.2	19.5	0.00e+00	46	33	0	101711872	58	5875
2026-01-18 12:30:08.02	27.94	5.59	-42.0	-43.5	19.3	0.00e+00	40	33	0	103809024	56	6776
2026-01-18 12:30:09.03	28.04	5.64	-42.0	-43.5	19.3	0.00e+00	92	33	0	104857600	56	6799
2026-01-18 12:30:10.04	28.14	5.70	-42.0	-43.5	19.2	0.00e+00	47	33	0	106954752	56	6813
2026-01-18 12:30:11.05	28.25	5.75	-42.1	-43.6	19.1	0.00e+00	92	33	0	109051904	56	6898
2026-01-18 12:30:12.06	28.35	5.81	-41.9	-43.4	19.4	0.00e+00	44	33	0	111149056	56	6737
2026-01-18 12:30:13.06	28.45	5.86	-41.9	-43.4	19.3	0.00e+00	2	33	0	113246208	56	6748
2026-01-18 12:30:14.07	28.56	5.92	-41.9	-43.4	19.4	0.00e+00	60	33	0	115343360	56	6736
2026-01-18 12:30:15.08	28.66	5.97	-42.0	-43.5	19.4	0.00e+00	41	33	0	116391936	56	6805
2026-01-18 12:30:16.09	28.76	6.03	-41.8	-43.3	19.5	0.00e+00	91	33	0	118489088	56	6668
2026-01-18 12:30:17.10	28.87	6.09	-41.8	-43.3	19.6	0.00e+00	0	33	0	120586240	56	6632
2026-01-18 12:30:18.10	28.97	6.14	-41.7	-43.1	19.7	0.00e+00	91	33	0	122683392	56	6515
2026-01-18 12:30:19.11	29.08	6.20	-41.9	-43.3	19.7	0.00e+00	2	33	0	124780544	56	6662
2026-01-18 12:30:20.12	29.19	6.25	-41.8	-43.2	19.6	0.00e+00	2	33	0	125829120	56	6579
2026-01-18 12:30:21.13	29.29	6.31	-41.5	-42.8	20.0	0.00e+00	0	33	0	127926272	56	6296
2026-01-18 12:30:22.14	29.40	6.36	-41.5	-42.9	19.9	0.00e+00	0	33	0	130023424	56	6375
2026-01-18 12:30:23.14	29.51	6.42	-41.5	-42.8	20.0	0.00e+00	92	33	0	132120576	56	6292
2026-01-18 12:30:24.15	29.61	6.48	-41.4	-42.7	20.1	0.00e+00	0	33	0	134217728	56	6244
2026-01-18 12:30:25.16	29.72	6.53	-41.4	-42.8	20.1	0.00e+00	90	33	0	135266304	56	6279
2026-01-18 12:30:26.17	29.83	6.59	-41.6	-42.9	20.0	0.00e+00	0	33	0	137363456	56	6377
2026-01-18 12:30:27.18	29.94	6.64	-41.5	-42.9	20.0	0.00e+00	92	33	0	139460608	56	6372
2026-01-18 12:30:28.19	30.05	6.70	-41.3	-42.6	20.3	0.00e+00	0	33	0	141557760	56	6147
2026-01-18 12:30:29.20	30.16	6.76	-41.3	-42.7	20.3	0.00e+00	47	33	0	143654912	56	6183
2026-01-18 12:30:30.21	30.27	6.81	-41.3	-42.6	20.3	0.00e+00	46	33	0	144703488	56	6148
2026-01-18 12:30:31.22	30.38	6.87	-41.4	-42.7	20.2	0.00e+00	36	33	0	146800640	56	6207
2026-01-18 12:30:32.22	30.49	6.93	-41.4	-42.7	20.2	0.00e+00	92	33	0	148897792	56	6235
2026-01-18 12:30:33.23	30.60	6.98	-41.2	-42.5	20.4	0.00e+00	36	33	0	150994944	56	6039
2026-01-18 12:30:34.24	30.71	7.04	-40.9	-42.2	20.8	0.00e+00	92	33	0	153092096	56	5829
2026-01-18 12:30:35.25	30.82	7.09	-40.9	-42.2	20.8	0.00e+00	0	33	0	154140672	56	5851
2026-01-18 12:30:36.26	30.94	7.15	-40.9	-42.2	20.8	0.00e+00	35	33	0	156237824	56	5845
2026-01-18 12:30:37.27	31.05	7.21	-40.5	-41.7	21.1	0.00e+00	48	33	0	158334976	54	6203
2026-01-18 12:30:38.28	31.16	7.26	-40.6	-41.8	21.0	0.00e+00	0	33	0	160432128	54	6293
2026-01-18 12:30:39.29	31.28	7.32	-40.8	-42.0	20.8	0.00e+00	92	33	0	162529280	54	6447
2026-01-18 12:30:40.29	31.39	7.38	-40.5	-41.7	21.2	0.00e+00	0	33	0	163577856	54	6219
2026-01-18 12:30:41.29	31.50	7.43	-40.6	-41.8	21.0	0.00e+00	92	33	0	165675008	54	6282
2026-01-18 12:30:42.30	31.62	7.49	-40.7	-41.9	20.9	0.00e+00	0	33	0	167772160	54	6330
2026-01-18 12:30:43.31	31.73	7.55	-40.7	-41.9	20.9	0.00e+00	0	33	0	169869312	54	6348
2026-01-18 12:30:44.32	31.85	7.60	-40.7	-42.0	20.6	0.00e+00	2	33	0	171966464	54	6391
2026-01-18 12:30:45.33	31.96	7.66	-40.6	-41.8	20.3	0.00e+00	2	33	0	173015040	54	6296
2026-01-18 12:30:46.34	32.08	7.72	-40.6	-41.8	21.1	0.00e+00	92	33	0	175112192	54	6293
2026-01-18 12:30:47.35	32.20	7.77	-40.5	-41.7	21.1	0.00e+00	0	33	0	177209344	54	6176
2026-01-18 12:30:48.36	32.32	7.83	-40.5	-41.6	21.2	0.00e+00	92	33	0	179306496	54	6171
2026-01-18 12:30:49.37	32.43	7.89	-40.5	-41.7	21.1	0.00e+00	47	33	0	181403648	54	6219
2026-01-18 12:30:50.38	32.55	7.94	-40.7	-41.9	21.0	0.00e+00	92	33	0	182452224	54	6370
2026-01-18 12:30:51.38	32.67	8.00	-40.4	-41.6	21.3	0.00e+00	0	33	0	184549376	54	6120
2026-01-18 12:30:52.39	32.79	8.06	-40.4	-41.6	21.3	0.00e+00	48	33	0	186646528	54	6115
2026-01-18 12:30:53.40	32.91	8.12	-40.5	-41.6	21.3	0.00e+00	0	33	0	188743680	54	6149
2026-01-18 12:30:54.41	33.03	8.17	-40.4	-41.5	21.4	0.00e+00	47	33	0	190840832	54	6097
2026-01-18 12:30:55.42	33.15	8.23	-40.5	-41.7	21.3	0.00e+00	91	33	0	191889408	54	6179
2026-01-18 12:30:56.42	33.27	8.29	-40.7	-41.8	21.1	0.00e+00	38	33	0	193986560	54	6317
2026-01-18 12:30:57.43	33.39	8.34	-40.7	-41.9	21.1	0.00e+00	92	33	0	196083712	54	6331
2026-01-18 12:30:58.44	33.51	8.40	-40.7	-41.9	21.1	0.00e+00	0	33	0	198180864	54	6376
2026-01-18 12:30:59.45	33.64	8.46	-40.6	-41.7	21.2	0.00e+00	0	33	0	200278016	54	6241
2026-01-18 12:31:00.46	33.76	8.51	-40.7	-41.9	21.1	0.00e+00	35	33	0	202375168	54	6372
2026-01-18 12:31:01.47	33.88	8.57	-40.6	-41.7	21.2	0.00e+00	2	33	0	203423744	54	6229
2026-01-18 12:31:02.48	34.01	8.63	-40.7	-41.9	21.1	0.00e+00	92	33	0	205520896	54	6378
2026-01-18 12:31:03.48	34.13	8.69	-40.7	-41.8	21.1	0.00e+00	2	33	0	207618048	54	6306
2026-01-18 12:31:04.49	34.26	8.74	-40.6	-41.7	21.2	0.00e+00	92	33	0	209715200	54	6236
2026-01-18 12:31:05.50	34.38	8.80	-40.6	-41.8	21.3	0.00e+00	2	34	0	210763776	54	6257
2026-01-18 12:31:06.51	34.51	8.86	-40.6	-41.8	21.2	0.00e+00	0	33	0	212860928	54	6284
2026-01-18 12:31:07.52	34.63	8.91	-40.5	-41.6	21.3	0.00e+00	0	33	0	214958080	54	6167
2026-01-18 12:31:08.53	34.76	8.97	-40.4	-41.5	21.4	0.00e+00	0	33	0	217055232	54	6092
2026-01-18 12:31:09.54	34.89	9.03	-40.4	-41.5	21.5	0.00e+00	81	33	0	219152384	54	6067
2026-01-18 12:31:10.55	35.02	9.09	-40.4	-41.5	21.6	0.00e+00	0	33	0	220200960	54	6057
2026-01-18 12:31:11.56	35.14	9.14	-40.3	-41.4	21.6	0.00e+00	92	33	0	222298112	54	6027
2026-01-18 12:31:12.57	35.27	9.20	-40.3	-41.4	21.5	0.00e+00	0	34	0	224395264	54	6010
2026-01-18 12:31:13.57	35.40	9.26	-40.4	-41.5	21.5	0.00e+00	92	33	0	226492416	54	6074
2026-01-18 12:31:14.58	35.53	9.32	-40.5	-41.6	21.4	0.00e+00	0	34	0	228589568	54	6145
2026-01-18 12:31:15.59	35.66	9.37	-40.4	-41.5	21.5	0.00e+00	0	34	0	230686720	54	6058
2026-01-18 12:31:16.60	35.79	9.43	-40.4	-41.5	21.5	0.00e+00	0	34	0	231735296	54	6074
2026-01-18 12:31:17.61	35.92	9.49	-40.3	-41.4	21.6	0.00e+00	35	33	0	233832448	54	6000
2026-01-18 12:31:18.62	36.05	9.54	-40.3	-41.4	21.5	0.00e+00	91	34	0	235929600	54	6017
2026-01-18 12:31:19.63	36.19	9.60	-40.4	-41.5	21.5	0.00e+00	42	34	0	238026752	54	6078
2026-01-18 12:31:20.64	36.32	9.66	-40.5	-41.6	21.4	0.00e+00	91	34	0	240123904	54	6160
2026-01-18 12:31:21.64	36.45	9.72	-40.1	-41.2	21.7	0.00e+00	35	33	0	241172480	54	5870
2026-01-18 12:31:22.65	36.58	9.77	-40.2	-41.3	21.7	0.00e+00	0	34	0	243269632	54	5919
2026-01-18 12:31:23.66	36.72	9.83	-40.2	-41.3	21.7	0.00e+00	0	33	0	245366784	54	5912
2026-01-18 12:31:24.67	36.85	9.89	-40.1	-41.2	21.8	0.00e+00	33	33	0	247463936	54	5874
2026-01-18 12:31:25.68	36.99	9.95	-40.2	-41.3	21.8	0.00e+00	92	33	0	249561088	54	5904
2026-01-18 12:31:26.69	37.12	10.00	-40.3	-41.4	21.7	0.00e+00	6	34	0	250609664	54	6013
2026-01-18 12:31:27.70	37.26	10.06	-40.1	-41.2	21.8	0.00e+00	92	34	0	252706816	54	5852
2026-01-18 12:31:28.71	37.40	10.12	-40.2	-41.3	21.7	0.00e+00	0	33	0	254803968	54	5898
2026-01-18 12:31:29.72	37.53	10.18	-40.3	-41.5	21.7	0.00e+00	43	33	0	256901120	54	6036
2026-01-18 12:31:30.73	37.67	10.23	-40.5	-41.7	21.4	0.00e+00	0	33	0	258998272	54	6188
2026-01-18 12:31:31.74	37.81	10.29	-40.2	-41.4	21.7	0.00e+00	5	33	0	260046848	54	5965
2026-01-18 12:31:32.75	37.95	10.35	-40.3	-41.4	21.6	0.00e+00	2	33	0	262144000	54	6027
2026-01-18 12:31:33.76	38.09	10.40	-40.4	-41.5	21.6	0.00e+00	47	33	0	264241152	54	6097
2026-01-18 12:31:34.77	38.23	10.46	-40.3	-41.5	21.7	0.00e+00	92	33	0	266338304	54	6037
2026-01-18 12:31:35.78	38.37	10.52	-40.1	-41.2	21.9	0.00e+00	41	33	0	268435456	54	5840
2026-01-18 12:31:36.78	38.51	10.58	-40.1	-41.2	21.9	0.00e+00	92	33	0	269484032	54	5843
2026-01-18 12:31:37.79	38.65	10.63	-40.1	-41.1	22.0	0.00e+00	0	33	0	271581184	54	5820
2026-01-18 12:31:38.80	38.79	10.69	-40.1	-41.2	21.9	0.00e+00	0	34	0	273678336	54	5852
2026-01-18 12:31:39.81	38.94	10.75	-39.9	-40.9	22.1	0.00e+00	14	34	0	275775488	54	5694
2026-01-18 12:31:40.82	39.08	10.81	-39.9	-40.9	22.1	0.00e+00	48	34	0	277872640	54	5695
2026-01-18 12:31:41.82	39.22	10.86	-39.8	-40.9	22.2	0.00e+00	92	34	0	278921216	54	5637
2026-01-18 12:31:42.83	39.36	10.92	-39.8	-40.9	22.1	0.00e+00	45	33	0	281018368	54	5631
2026-01-18 12:31:43.84	39.51	10.98	-39.9	-41.0	22.0	0.00e+00	90	33	0	283115520	54	5735
2026-01-18 12:31:44.85	39.65	11.03	-39.9	-40.9	22.2	0.00e+00	43	34	0	285212672	54	5659
2026-01-18 12:31:45.86	39.80	11.09	-39.9	-41.0	22.1	0.00e+00	8	34	0	287309824	54	5707
2026-01-18 12:31:46.87	39.95	11.15	-39.9	-40.9	22.1	0.00e+00	1	34	0	288358400	54	5694
2026-01-18 12:31:47.88	40.09	11.20	-39.8	-40.8	22.3	0.00e+00	5	34	0	290455552	52	6284
2026-01-18 12:31:48.88	40.24	11.26	-39.8	-40.8	22.3	0.00e+00	91	34	0	292552704	52	6309
2026-01-18 12:31:49.89	40.39	11.32	-39.7	-40.8	22.4	0.00e+00	6	34	0	294649856	52	6249
2026-01-18 12:31:50.90	40.54	11.37	-39.6	-40.6	22.5	0.00e+00	92	34	0	296747008	52	6114
2026-01-18 12:31:51.92	40.69	11.43	-39.7	-40.7	22.3	0.00e+00	0	34	0	298844160	52	6234
2026-01-18 12:31:52.92	40.84	11.49	-39.5	-40.5	22.6	0.00e+00	65	34	0	299892736	52	6103
2026-01-18 12:31:53.93	40.99	11.55	-39.7	-40.7	22.5	0.00e+00	6	34	0	301989888	52	6182
2026-01-18 12:31:54.94	41.14	11.60	-39.2	-40.2	22.9	0.00e+00	0	34	0	304087040	52	5865
2026-01-18 12:31:55.95	41.29	11.66	-39.2	-40.1	22.9	0.00e+00	2	34	0	306184192	52	5815
2026-01-18 12:31:56.96	41.44	11.72	-39.2	-40.1	22.9	0.00e+00	41	34	0	308281344	52	5827
2026-01-18 12:31:57.97	41.59	11.77	-39.2	-40.1	22.9	0.00e+00	92	34	0	309329920	52	5814
2026-01-18 12:31:58.98	41.75	11.83	-39.2	-40.1	22.9	0.00e+00	0	34	0	311427072	52	5816
2026-01-18 12:31:59.99	41.90	11.89	-39.2	-40.2	22.9	0.00e+00	90	34	0	313524224	52	5850
2026-01-18 12:32:00.99	42.05	11.94	-39.1	-40.1	22.9	0.00e+00	0	34	0	315621376	52	5795
2026-01-18 12:32:02.00	42.21	12.00	-39.0	-40.0	23.0	0.00e+00	0	34	0	316669952	52	5727
2026-01-18 12:32:03.01	42.36	12.05	-38.9	-39.9	23.1	0.00e+00	0	34	0	318767104	52	5647
2026-01-18 12:32:04.02	42.52	12.11	-39.0	-40.0	23.0	0.00e+00	49	34	0	320864256	52	5716
2026-01-18 12:32:05.03	42.67	12.17	-39.0	-40.0	23.0	0.00e+00	90	34	0	322961408	52	5730
2026-01-18 12:32:06.04	42.83	12.22	-39.0	-39.9	23.1	0.00e+00	31	34	0	325058560	52	5683
2026-01-18 12:32:07.05	42.99	12.28	-39.1	-40.0	23.0	0.00e+00	90	34	0	327155712	52	5756
2026-01-18 12:32:08.05	43.15	12.33	-39.1	-40.0	23.0	0.00e+00	48	33	0	328204288	52	5734
2026-01-18 12:32:09.06	43.30	12.39	-39.1	-40.0	23.1	0.00e+00	87	34	0	330301440	52	5730
2026-01-18 12:32:10.07	43.46	12.45	-39.1	-40.1	23.0	0.00e+00	2	34	0	332398592	52	5790
2026-01-18 12:32:11.08	43.62	12.50	-39.1	-40.1	23.1	0.00e+00	32	34	0	334495744	52	5768
2026-01-18 12:32:12.08	43.78	12.56	-39.1	-40.1	23.0	0.00e+00	91	34	0	336592896	52	5773
2026-01-18 12:32:13.10	43.95	12.61	-39.1	-40.0	23.0	0.00e+00	32	34	0	337641472	52	5752
2026-01-18 12:32:14.11	44.11	12.67	-39.1	-40.1	23.0	0.00e+00	92	34	0	339738624	52	5781
2026-01-18 12:32:15.11	44.27	12.72	-39.2	-40.1	23.0	0.00e+00	2	34	0	341835776	52	5801
2026-01-18 12:32:16.12	44.43	12.78	-38.9	-39.8	23.3	0.00e+00	91	34	0	343932928	52	5621
2026-01-18 12:32:17.13	44.59	12.84	-38.8	-39.8	23.3	0.00e+00	0	34	0	346030080	52	5572
2026-01-18 12:32:18.13	44.76	12.89	-38.9	-39.8	23.2	0.00e+00	0	34	0	347078656	50	6307
2026-01-18 12:32:19.14	44.92	12.95	-38.9	-39.8	23.2	0.00e+00	0	34	0	349175808	50	6284
2026-01-18 12:32:20.15	45.09	13.00	-39.0	-39.9	23.2	0.00e+00	2	34	0	351272960	50	6369
2026-01-18 12:32:21.16	45.25	13.06	-39.0	-40.0	23.2	0.00e+00	92	34	0	353370112	50	6392
2026-01-18 12:32:22.17	45.42	13.11	-39.0	-39.9	23.1	0.00e+00	0	34	0	355467264	50	6374
2026-01-18 12:32:23.18	45.59	13.17	-39.1	-40.0	23.1	0.00e+00	91	34	0	356515840	50	6461
2026-01-18 12:32:24.19	45.75	13.22	-39.1	-40.0	23.0	0.00e+00	48	34	0	358612992	50	6443
2026-01-18 12:32:25.20	45.92	13.27	-39.0	-39.9	23.1	0.00e+00	48	34	0	360710144	50	6389
2026-01-18 12:32:26.20	46.09	13.33	-39.1	-40.0	23.0	0.00e+00	0	34	0	362807296	50	6459
2026-01-18 12:32:27.21	46.26	13.38	-39.0	-40.0	23.1	0.00e+00	3	34	0	364904448	50	6402
2026-01-18 12:32:28.22	46.43	13.44	-39.0	-39.9	23.1	0.00e+00	92	34	0	365953024	50	6362
2026-01-18 12:32:29.23	46.60	13.49	-39.0	-40.0	23.1	0.00e+00	49	34	0	368050176	50	6421
2026-01-18 12:32:30.24	46.77	13.55	-38.9	-39.8	23.3	0.00e+00	92	34	0	370147328	50	6280
2026-01-18 12:32:31.25	46.94	13.60	-38.9	-39.8	23.3	0.00e+00	33	34	0	372244480	50	6286
2026-01-18 12:32:32.26	47.12	13.65	-38.8	-39.8	23.3	0.00e+00	48	34	0	374341632	50	6253
2026-01-18 12:32:33.27	47.29	13.71	-38.9	-39.8	23.2	0.00e+00	2	34	0	375390208	50	6301
2026-01-18 12:32:34.28	47.46	13.76	-39.0	-39.9	23.2	0.00e+00	38	34	0	377487360	50	6379
2026-01-18 12:32:35.29	47.64	13.82	-39.1	-40.0	23.0	0.00e+00	13	34	0	379584512	50	6434
2026-01-18 12:32:36.29	47.81	13.87	-39.2	-40.1	23.0	0.00e+00	39	34	0	381681664	50	6516
2026-01-18 12:32:37.30	47.99	13.92	-39.2	-40.2	23.0	0.00e+00	92	34	0	383778816	50	6560
2026-01-18 12:32:38.31	48.16	13.97	-39.3	-40.3	22.9	0.00e+00	0	34	0	384827392	50	6624
2026-01-18 12:32:39.32	48.34	14.03	-39.2	-40.2	22.9	0.00e+00	28	34	0	386924544	50	6575
2026-01-18 12:32:40.33	48.52	14.08	-39.3	-40.2	23.0	0.00e+00	0	34	0	389021696	50	6602
2026-01-18 12:32:41.34	48.70	14.13	-39.3	-40.3	22.8	0.00e+00	0	34	0	391118848	50	6622
2026-01-18 12:32:42.34	48.87	14.19	-39.3	-40.2	22.9	0.00e+00	0	34	0	393216000	50	6610
2026-01-18 12:32:43.35	49.05	14.24	-39.4	-40.3	22.8	0.00e+00	0	34	0	394264576	50	6679
2026-01-18 12:32:44.36	49.23	14.29	-39.5	-40.5	22.6	0.00e+00	92	34	0	396361728	50	6833
2026-01-18 12:32:45.37	49.41	14.34	-39.5	-40.5	22.6	0.00e+00	49	34	0	398458880	50	6826
2026-01-18 12:32:46.38	49.59	14.39	-39.6	-40.6	22.5	0.00e+00	92	34	0	400556032	50	6919
2026-01-18 12:32:47.39	49.78	14.45	-39.6	-40.6	22.6	0.00e+00	50	34	0	402653184	50	6876
2026-01-18 12:32:48.39	49.96	14.50	-39.7	-40.8	22.5	0.00e+00	0	34	0	403701760	50	7009
2026-01-18 12:32:49.40	50.14	14.55	-39.8	-40.9	22.3	0.00e+00	42	34	0	405798912	52	6334
2026-01-18 12:32:50.41	50.32	14.60	-40.0	-41.1	22.2	0.00e+00	2	34	0	407896064	52	6473
2026-01-18 12:32:51.42	50.51	14.65	-40.0	-41.0	22.2	0.00e+00	81	34	0	409993216	52	6454
2026-01-18 12:32:52.43	50.69	14.70	-40.1	-41.2	22.1	0.00e+00	33	34	0	412090368	52	6549
2026-01-18 12:32:53.44	50.88	14.75	-40.2	-41.2	22.1	0.00e+00	92	34	0	413138944	52	6595
2026-01-18 12:32:54.44	51.06	14.80	-40.3	-41.3	21.9	0.00e+00	50	34	0	415236096	52	6676
2026-01-18 12:32:55.45	51.25	14.86	-40.2	-41.3	22.0	0.00e+00	31	34	0	417333248	52	6642
2026-01-18 12:32:56.46	51.44	14.91	-40.3	-41.4	21.8	0.00e+00	36	34	0	419430400	52	6754
2026-01-18 12:32:57.47	51.63	14.96	-40.3	-41.4	21.4	0.00e+00	31	34	0	421527552	52	6726
2026-01-18 12:32:58.47	51.81	15.01	-40.4	-41.5	21.8	0.00e+00	48	34	0	423624704	52	6783
2026-01-18 12:32:59.48	52.00	15.06	-40.6	-41.7	21.6	0.00e+00	2	34	0	424673280	52	6957
2026-01-18 12:33:00.49	52.19	15.11	-40.5	-41.7	21.7	0.00e+00	91	34	0	426770432	52	6929
2026-01-18 12:33:01.50	52.38	15.15	-40.5	-41.6	21.7	0.00e+00	31	34	0	428867584	52	6924
2026-01-18 12:33:02.51	52.57	15.20	-40.6	-41.8	21.5	0.00e+00	92	34	0	430964736	52	7009
2026-01-18 12:33:03.51	52.76	15.25	-40.6	-41.7	21.6	0.00e+00	0	34	0	433061888	54	6224
2026-01-18 12:33:04.52	52.96	15.30	-40.7	-41.9	21.5	0.00e+00	0	34	0	434110464	54	6322
2026-01-18 12:33:05.53	53.15	15.35	-40.7	-41.9	21.4	0.00e+00	0	34	0	436207616	54	6336
2026-01-18 12:33:06.54	53.34	15.40	-40.8	-42.0	21.4	0.00e+00	0	34	0	438304768	54	6420
2026-01-18 12:33:07.55	53.54	15.45	-40.7	-41.8	21.5	0.00e+00	91	34	0	440401920	54	6315
2026-01-18 12:33:08.56	53.73	15.50	-40.7	-41.9	21.5	0.00e+00	43	34	0	442499072	54	6326
2026-01-18 12:33:09.57	53.93	15.54	-40.9	-42.1	21.3	0.00e+00	92	34	0	443547648	54	6484
2026-01-18 12:33:10.57	54.12	15.59	-40.9	-42.0	21.3	0.00e+00	0	34	0	445644800	54	6448
2026-01-18 12:33:11.58	54.32	15.64	-40.9	-42.1	21.2	0.00e+00	48	34	0	447741952	54	6512
2026-01-18 12:33:12.59	54.51	15.69	-41.0	-42.2	21.1	0.00e+00	49	34	0	449839104	54	6572
2026-01-18 12:33:13.60	54.71	15.73	-41.0	-42.2	21.1	0.00e+00	47	34	0	451936256	54	6574
2026-01-18 12:33:14.61	54.91	15.78	-41.2	-42.4	20.9	0.00e+00	48	34	0	452984832	54	6721
2026-01-18 12:33:15.62	55.11	15.83	-41.2	-42.4	20.9	0.00e+00	0	34	0	455081984	54	6757
2026-01-18 12:33:16.62	55.31	15.87	-41.3	-42.6	20.8	0.00e+00	92	34	0	457179136	54	6850
2026-01-18 12:33:17.63	55.51	15.92	-41.3	-42.5	20.8	0.00e+00	32	34	0	459276288	54	6835
2026-01-18 12:33:18.64	55.71	15.96	-41.2	-42.4	21.0	0.00e+00	90	34	0	461373440	54	6750
2026-01-18 12:33:19.65	55.91	16.01	-41.1	-42.3	21.0	0.00e+00	35	34	0	462422016	54	6691
2026-01-18 12:33:20.66	56.11	16.05	-41.2	-42.4	21.0	0.00e+00	6	34	0	464519168	54	6695
2026-01-18 12:33:21.67	56.31	16.10	-41.1	-42.3	21.1	0.00e+00	85	34	0	466616320	54	6639
2026-01-18 12:33:22.68	56.52	16.14	-41.0	-42.1	21.2	0.00e+00	7	34	0	468713472	54	6538
2026-01-18 12:33:23.69	56.72	16.19	-41.1	-42.3	21.2	0.00e+00	92	34	0	470810624	54	6618
2026-01-18 12:33:24.70	56.93	16.23	-40.9	-42.1	21.3	0.00e+00	32	34	0	471859200	54	6473
2026-01-18 12:33:25.71	57.13	16.28	-40.9	-42.1	21.3	0.00e+00	92	34	0	473956352	54	6473
2026-01-18 12:33:26.72	57.34	16.32	-40.8	-42.0	21.4	0.00e+00	6	34	0	476053504	54	6404
2026-01-18 12:33:27.73	57.54	16.36	-40.7	-41.8	21.4	0.00e+00	6	34	0	478150656	54	6279
2026-01-18 12:33:28.74	57.75	16.41	-40.6	-41.7	21.6	0.00e+00	5	34	0	480247808	54	6245
2026-01-18 12:33:29.75	57.96	16.45	-40.6	-41.7	21.7	0.00e+00	0	34	0	481296384	54	6217
2026-01-18 12:33:30.76	58.16	16.49	-40.5	-41.5	21.7	0.00e+00	90	34	0	483393536	54	6098
2026-01-18 12:33:31.77	58.37	16.54	-40.4	-41.5	21.8	0.00e+00	0	34	0	485490688	54	6096
2026-01-18 12:33:32.78	58.58	16.58	-40.3	-41.4	21.9	0.00e+00	92	34	0	487587840	54	5987
2026-01-18 12:33:33.78	58.79	16.62	-40.4	-41.4	21.8	0.00e+00	44	34	0	489684992	54	6022
2026-01-18 12:33:34.79	59.00	16.66	-40.2	-41.2	22.1	0.00e+00	43	34	0	490733568	54	5883
2026-01-18 12:33:35.80	59.21	16.70	-40.0	-41.1	22.2	0.00e+00	42	34	0	492830720	54	5780
2026-01-18 12:33:36.81	59.42	16.74	-39.9	-41.0	22.3	0.00e+00	42	34	0	494927872	54	5698
2026-01-18 12:33:37.82	59.63	16.78	-39.9	-40.9	22.3	0.00e+00	91	34	0	497025024	54	5675
2026-01-18 12:33:38.83	59.85	16.82	-39.9	-40.9	22.3	0.00e+00	48	34	0	499122176	54	5662
2026-01-18 12:33:39.83	60.06	16.86	-39.9	-40.9	22.3	0.00e+00	92	34	0	500170752	54	5663
2026-01-18 12:33:40.84	60.27	16.90	-39.7	-40.7	22.1	0.00e+00	44	34	0	502267904	52	6224
2026-01-18 12:33:41.85	60.49	16.94	-39.7	-40.7	22.6	0.00e+00	90	34	0	504365056	52	6206
2026-01-18 12:33:42.86	60.70	16.98	-39.9	-40.9	22.4	0.00e+00	39	34	0	506462208	52	6353
2026-01-18 12:33:43.87	60.92	17.02	-39.7	-40.7	22.5	0.00e+00	38	34	0	508559360	52	6211
2026-01-18 12:33:44.88	61.13	17.06	-39.7	-40.7	22.5	0.00e+00	0	34	0	509607936	52	6191
2026-01-18 12:33:45.89	61.35	17.10	-39.4	-40.4	22.8	0.00e+00	0	34	0	511705088	52	6000
2026-01-18 12:33:46.90	61.56	17.14	-39.3	-40.3	22.9	0.00e+00	91	34	0	513802240	52	5932
2026-01-18 12:33:47.91	61.78	17.17	-39.5	-40.5	22.7	0.00e+00	38	34	0	515899392	52	6056
2026-01-18 12:33:48.92	62.00	17.21	-39.3	-40.3	22.9	0.00e+00	87	34	0	517996544	52	5913
2026-01-18 12:33:49.93	62.22	17.25	-39.4	-40.4	22.8	0.00e+00	0	34	0	520093696	52	5982
2026-01-18 12:33:50.93	62.43	17.28	-39.4	-40.4	22.8	0.00e+00	0	34	0	521142272	52	5998
2026-01-18 12:33:51.94	62.65	17.32	-39.5	-40.5	22.8	0.00e+00	6	34	0	523239424	52	6048
2026-01-18 12:33:52.95	62.87	17.35	-39.6	-40.6	22.7	0.00e+00	0	34	0	525336576	52	6133
2026-01-18 12:33:53.96	63.09	17.39	-39.6	-40.6	22.6	0.00e+00	34	34	0	527433728	52	6112
2026-01-18 12:33:54.96	63.31	17.42	-39.7	-40.7	22.6	0.00e+00	50	34	0	529530880	52	6217
2026-01-18 12:33:55.97	63.54	17.46	-39.7	-40.7	22.5	0.00e+00	92	34	0	530579456	52	6230
2026-01-18 12:33:56.98	63.76	17.49	-39.7	-40.7	22.4	0.00e+00	48	34	0	532676608	52	6224
2026-01-18 12:33:57.99	63.98	17.53	-39.7	-40.8	22.4	0.00e+00	60	34	0	534773760	52	6251
2026-01-18 12:33:59.00	64.20	17.56	-39.8	-40.8	22.4	0.00e+00	0	34	0	536870912	52	6284
2026-01-18 12:34:00.01	64.43	17.59	-39.8	-40.8	22.5	0.00e+00	50	34	0	538968064	52	6294
2026-01-18 12:34:01.02	64.65	17.63	-39.8	-40.8	22.5	0.00e+00	47	34	0	540016640	52	6293
2026-01-18 12:34:02.02	64.87	17.66	-39.8	-40.9	22.4	0.00e+00	48	34	0	542113792	52	6334
2026-01-18 12:34:03.03	65.10	17.69	-39.9	-41.0	22.3	0.00e+00	90	34	0	544210944	52	6439
2026-01-18 12:34:04.04	65.32	17.72	-39.9	-40.9	22.4	0.00e+00	44	34	0	546308096	52	6384
2026-01-18 12:34:05.04	65.55	17.75	-39.7	-40.8	22.5	0.00e+00	92	34	0	548405248	52	6263
2026-01-18 12:34:06.05	65.77	17.79	-39.6	-40.6	22.6	0.00e+00	36	34	0	549453824	52	6159
2026-01-18 12:34:07.07	66.00	17.82	-39.6	-40.6	22.2	0.00e+00	2	34	0	551550976	52	6125
2026-01-18 12:34:08.07	66.23	17.85	-39.6	-40.6	22.5	0.00e+00	0	34	0	553648128	52	6150
2026-01-18 12:34:09.08	66.45	17.88	-39.7	-40.7	22.5	0.00e+00	2	34	0	555745280	52	6187
2026-01-18 12:34:10.09	66.68	17.91	-39.8	-40.9	22.4	0.00e+00	92	34	0	557842432	52	6320
2026-01-18 12:34:11.09	66.91	17.93	-39.9	-40.9	22.4	0.00e+00	37	34	0	558891008	52	6384
2026-01-18 12:34:12.10	67.14	17.96	-40.0	-41.0	22.3	0.00e+00	90	34	0	560988160	52	6434
2026-01-18 12:34:13.11	67.37	17.99	-39.8	-40.8	22.4	0.00e+00	0	34	0	563085312	52	6276
2026-01-18 12:34:14.12	67.60	18.02	-39.9	-40.9	22.4	0.00e+00	0	34	0	565182464	52	6386
2026-01-18 12:34:15.13	67.83	18.05	-39.9	-41.0	22.4	0.00e+00	2	34	0	567279616	52	6400
2026-01-18 12:34:16.14	68.06	18.07	-39.9	-40.9	22.5	0.00e+00	0	34	0	568328192	52	6358
2026-01-18 12:34:17.15	68.29	18.10	-39.9	-40.9	22.4	0.00e+00	92	34	0	570425344	52	6360
2026-01-18 12:34:18.16	68.52	18.13	-39.8	-40.8	22.4	0.00e+00	0	34	0	572522496	52	6317
2026-01-18 12:34:19.17	68.75	18.15	-39.9	-40.9	22.5	0.00e+00	92	34	0	574619648	52	6338
2026-01-18 12:34:20.18	68.98	18.18	-39.7	-40.7	22.5	0.00e+00	0	34	0	576716800	52	6231
2026-01-18 12:34:21.18	69.21	18.20	-39.8	-40.8	22.4	0.00e+00	90	34	0	577765376	52	6295
2026-01-18 12:34:22.19	69.45	18.23	-39.8	-40.8	22.5	0.00e+00	43	34	0	579862528	52	6289
2026-01-18 12:34:23.20	69.68	18.25	-39.9	-40.9	22.4	0.00e+00	0	34	0	581959680	52	6349
2026-01-18 12:34:24.21	69.91	18.27	-39.7	-40.7	22.6	0.00e+00	0	34	0	584056832	52	6188
2026-01-18 12:34:25.21	70.14	18.30	-39.5	-40.5	22.8	0.00e+00	50	34	0	586153984	52	6060
2026-01-18 12:34:26.22	70.38	18.32	-39.5	-40.5	22.8	0.00e+00	92	34	0	587202560	52	6043
2026-01-18 12:34:27.23	70.61	18.34	-39.5	-40.5	22.8	0.00e+00	3	34	0	589299712	52	6061
2026-01-18 12:34:28.24	70.85	18.36	-39.6	-40.6	22.7	0.00e+00	90	34	0	591396864	52	6113
2026-01-18 12:34:29.24	71.08	18.38	-39.7	-40.7	22.6	0.00e+00	32	34	0	593494016	52	6220
2026-01-18 12:34:30.26	71.32	18.41	-39.9	-40.9	22.5	0.00e+00	31	34	0	595591168	52	6335
2026-01-18 12:34:31.26	71.55	18.43	-39.9	-41.0	22.2	0.00e+00	0	34	0	596639744	52	6401
2026-01-18 12:34:32.27	71.79	18.45	-39.9	-41.0	22.3	0.00e+00	32	34	0	598736896	52	6430
2026-01-18 12:34:33.28	72.03	18.46	-40.0	-41.1	22.3	0.00e+00	91	34	0	600834048	52	6472
2026-01-18 12:34:34.29	72.26	18.48	-40.0	-41.1	22.2	0.00e+00	38	34	0	602931200	52	6476
2026-01-18 12:34:35.30	72.50	18.50	-39.9	-41.0	22.3	0.00e+00	92	34	0	605028352	52	6458
2026-01-18 12:34:36.30	72.74	18.52	-40.0	-41.1	22.3	0.00e+00	0	34	0	606076928	52	6509
2026-01-18 12:34:37.31	72.97	18.54	-39.9	-41.0	22.3	0.00e+00	0	34	0	608174080	52	6457
2026-01-18 12:34:38.32	73.21	18.56	-39.9	-41.0	22.4	0.00e+00	0	34	0	610271232	52	6407
2026-01-18 12:34:39.33	73.45	18.57	-39.9	-41.1	22.3	0.00e+00	2	34	0	612368384	52	6477
2026-01-18 12:34:40.34	73.69	18.59	-40.0	-41.1	22.2	0.00e+00	0	34	0	614465536	52	6532
2026-01-18 12:34:41.35	73.93	18.60	-40.0	-41.2	22.2	0.00e+00	0	34	0	615514112	52	6548
2026-01-18 12:34:42.36	74.17	18.62	-40.1	-41.2	22.2	0.00e+00	92	34	0	617611264	52	6553
2026-01-18 12:34:43.36	74.40	18.63	-40.2	-41.3	22.0	0.00e+00	0	34	0	619708416	52	6634
2026-01-18 12:34:44.37	74.64	18.65	-40.3	-41.4	21.9	0.00e+00	51	34	0	621805568	52	6739
2026-01-18 12:34:45.38	74.88	18.66	-40.4	-41.5	21.8	0.00e+00	0	34	0	623902720	52	6800
2026-01-18 12:34:46.39	75.12	18.68	-40.4	-41.5	21.9	0.00e+00	52	34	0	624951296	52	6794
2026-01-18 12:34:47.40	75.36	18.69	-40.2	-41.3	22.0	0.00e+00	0	34	0	627048448	52	6674
2026-01-18 12:34:48.41	75.60	18.70	-40.2	-41.2	22.2	0.00e+00	52	34	0	629145600	52	6609
2026-01-18 12:34:49.42	75.84	18.71	-40.0	-41.1	22.3	0.00e+00	90	34	0	631242752	52	6496
2026-01-18 12:34:50.43	76.08	18.72	-39.9	-40.9	22.4	0.00e+00	0	34	0	633339904	52	6371
2026-01-18 12:34:51.44	76.32	18.74	-39.8	-40.9	22.5	0.00e+00	92	34	0	634388480	52	6323
2026-01-18 12:34:52.45	76.57	18.75	-39.8	-40.8	22.6	0.00e+00	51	34	0	636485632	52	6266
2026-01-18 12:34:53.46	76.81	18.76	-39.9	-41.0	22.4	0.00e+00	0	34	0	638582784	52	6395
2026-01-18 12:34:54.47	77.05	18.77	-40.1	-41.1	22.2	0.00e+00	0	34	0	640679936	52	6513
2026-01-18 12:34:55.48	77.29	18.78	-40.2	-41.3	22.0	0.00e+00	31	34	0	642777088	52	6662
2026-01-18 12:34:56.49	77.53	18.78	-40.4	-41.6	21.8	0.00e+00	90	34	0	644874240	52	6861
2026-01-18 12:34:57.50	77.77	18.79	-40.4	-41.5	21.8	0.00e+00	2	34	0	645922816	52	6840
2026-01-18 12:34:58.51	78.02	18.80	-40.5	-41.5	21.7	0.00e+00	92	34	0	648019968	52	6846
2026-01-18 12:34:59.51	78.25	18.81	-40.5	-41.6	21.8	0.00e+00	0	34	0	650117120	52	6867
2026-01-18 12:35:00.52	78.50	18.81	-40.4	-41.5	21.8	0.00e+00	30	34	0	652214272	52	6826
2026-01-18 12:35:01.53	78.74	18.82	-40.3	-41.4	22.0	0.00e+00	0	34	0	654311424	52	6724
2026-01-18 12:35:02.54	78.98	18.82	-40.4	-41.5	21.9	0.00e+00	0	34	0	655360000	52	6774
2026-01-18 12:35:03.55	79.22	18.83	-40.4	-41.5	21.8	0.00e+00	15	34	0	657457152	52	6838
2026-01-18 12:35:04.56	79.47	18.83	-40.4	-41.5	21.9	0.00e+00	43	34	0	659554304	52	6786
2026-01-18 12:35:05.57	79.71	18.84	-40.5	-41.6	21.7	0.00e+00	92	34	0	661651456	52	6851
2026-01-18 12:35:06.58	79.95	18.84	-40.7	-41.8	21.7	0.00e+00	0	34	0	663748608	52	7037
2026-01-18 12:35:07.58	80.19	18.85	-40.5	-41.6	21.8	0.00e+00	0	34	0	664797184	52	6893
2026-01-18 12:35:08.59	80.43	18.85	-40.4	-41.5	21.8	0.00e+00	42	34	0	666894336	52	6832
2026-01-18 12:35:09.60	80.68	18.85	-40.4	-41.5	21.9	0.00e+00	44	34	0	668991488	52	6787
2026-01-18 12:35:10.61	80.92	18.85	-40.4	-41.5	21.9	0.00e+00	0	34	0	671088640	52	6824
2026-01-18 12:35:11.62	81.16	18.85	-40.3	-41.4	21.9	0.00e+00	33	34	0	673185792	52	6748
2026-01-18 12:35:12.63	81.41	18.85	-40.1	-41.1	22.2	0.00e+00	92	34	0	674234368	52	6506
2026-01-18 12:35:13.63	81.65	18.85	-40.1	-41.2	22.1	0.00e+00	49	34	0	676331520	52	6586
2026-01-18 12:35:14.64	81.89	18.85	-40.1	-41.2	22.1	0.00e+00	90	34	0	678428672	52	6580
2026-01-18 12:35:15.65	82.13	18.85	-39.9	-41.1	22.2	0.00e+00	0	34	0	680525824	52	6466
2026-01-18 12:35:16.66	82.38	18.85	-39.8	-40.9	22.2	0.00e+00	49	34	0	682622976	52	6326
2026-01-18 12:35:17.66	82.62	18.85	-39.8	-40.9	22.1	0.00e+00	32	34	0	683671552	52	6346
2026-01-18 12:35:18.67	82.86	18.85	-39.9	-41.0	22.3	0.00e+00	33	34	0	685768704	52	6438
2026-01-18 12:35:19.68	83.10	18.84	-39.8	-40.9	22.4	0.00e+00	92	34	0	687865856	52	6374
2026-01-18 12:35:20.69	83.34	18.84	-39.9	-40.9	22.4	0.00e+00	5	34	0	689963008	52	6359
2026-01-18 12:35:21.70	83.59	18.84	-39.9	-40.9	22.4	0.00e+00	92	34	0	692060160	52	6361
2026-01-18 12:35:22.71	83.83	18.83	-39.8	-40.8	22.5	0.00e+00	5	34	0	693108736	52	6277
2026-01-18 12:35:23.71	84.07	18.83	-39.9	-40.9	22.5	0.00e+00	5	34	0	695205888	52	6356
2026-01-18 12:35:24.72	84.31	18.82	-40.0	-41.0	21.7	0.00e+00	0	34	0	697303040	52	6427
2026-01-18 12:35:25.73	84.55	18.82	-40.5	-41.7	22.2	0.00e+00	0	34	0	699400192	52	6928
2026-01-18 12:35:26.73	84.79	18.81	-40.1	-41.2	22.2	0.00e+00	0	34	0	701497344	52	6571
2026-01-18 12:35:27.74	85.04	18.80	-40.2	-41.3	22.2	0.00e+00	0	34	0	702545920	52	6654
2026-01-18 12:35:28.75	85.28	18.79	-40.4	-41.5	21.9	0.00e+00	92	34	0	704643072	52	6812
2026-01-18 12:35:29.76	85.52	18.79	-40.5	-41.6	21.7	0.00e+00	0	34	0	706740224	52	6918
2026-01-18 12:35:30.77	85.76	18.78	-40.4	-41.5	21.9	0.00e+00	36	34	0	708837376	52	6795
2026-01-18 12:35:31.78	86.00	18.77	-40.4	-41.5	21.9	0.00e+00	46	34	0	710934528	52	6803
2026-01-18 12:35:32.78	86.24	18.76	-40.4	-41.5	22.0	0.00e+00	43	34	0	711983104	52	6789
2026-01-18 12:35:33.79	86.49	18.75	-40.3	-41.4	22.0	0.00e+00	11	34	0	714080256	52	6704
2026-01-18 12:35:34.80	86.73	18.74	-40.0	-41.1	22.2	0.00e+00	0	34	0	716177408	52	6475
2026-01-18 12:35:35.81	86.97	18.73	-40.2	-41.2	22.1	0.00e+00	92	34	0	718274560	52	6588
2026-01-18 12:35:36.82	87.21	18.72	-39.8	-40.8	22.5	0.00e+00	43	34	0	720371712	52	6268
2026-01-18 12:35:37.83	87.45	18.71	-39.7	-40.6	22.6	0.00e+00	92	34	0	721420288	52	6167
2026-01-18 12:35:38.84	87.69	18.69	-39.5	-40.4	22.8	0.00e+00	42	34	0	723517440	52	6030
2026-01-18 12:35:39.84	87.93	18.68	-39.5	-40.5	22.6	0.00e+00	40	34	0	725614592	52	6062
2026-01-18 12:35:40.85	88.17	18.67	-39.5	-40.5	22.7	0.00e+00	42	34	0	727711744	52	6045
2026-01-18 12:35:41.86	88.41	18.65	-39.6	-40.6	22.7	0.00e+00	8	34	0	729808896	52	6156
2026-01-18 12:35:42.87	88.65	18.64	-39.7	-40.7	22.6	0.00e+00	12	34	0	730857472	52	6206
2026-01-18 12:35:43.88	88.89	18.63	-39.7	-40.8	22.6	0.00e+00	7	34	0	732954624	52	6252
2026-01-18 12:35:44.89	89.13	18.61	-39.7	-40.7	22.5	0.00e+00	92	34	0	735051776	52	6224
2026-01-18 12:35:45.90	89.37	18.60	-39.7	-40.7	22.6	0.00e+00	0	34	0	737148928	52	6207
2026-01-18 12:35:46.90	89.60	18.58	-39.7	-40.7	22.7	0.00e+00	6	34	0	739246080	52	6192
2026-01-18 12:35:47.91	89.84	18.56	-39.6	-40.6	22.8	0.00e+00	7	34	0	741343232	52	6106
2026-01-18 12:35:48.92	90.08	18.55	-39.3	-40.3	22.9	0.00e+00	7	34	0	742391808	52	5919
2026-01-18 12:35:49.93	90.32	18.53	-39.4	-40.3	23.0	0.00e+00	0	34	0	744488960	52	5947
2026-01-18 12:35:50.94	90.56	18.51	-39.3	-40.2	23.0	0.00e+00	7	34	0	746586112	52	5891
2026-01-18 12:35:51.94	90.79	18.49	-39.2	-40.1	23.1	0.00e+00	92	34	0	748683264	52	5810
2026-01-18 12:35:52.95	91.03	18.47	-39.0	-40.0	23.2	0.00e+00	0	34	0	749731840	52	5715
2026-01-18 12:35:53.96	91.27	18.45	-38.9	-39.8	23.3	0.00e+00	92	34	0	751828992	52	5615
2026-01-18 12:35:54.97	91.50	18.43	-39.1	-40.0	23.3	0.00e+00	0	34	0	753926144	52	5736
2026-01-18 12:35:55.97	91.74	18.41	-38.9	-39.8	23.3	0.00e+00	0	34	0	756023296	52	5607
2026-01-18 12:35:56.98	91.97	18.39	-38.7	-39.6	23.5	0.00e+00	0	34	0	758120448	50	6129
2026-01-18 12:35:57.99	92.21	18.37	-38.6	-39.5	23.7	0.00e+00	0	34	0	759169024	50	6082
2026-01-18 12:35:59.00	92.45	18.35	-38.7	-39.6	23.6	0.00e+00	92	34	0	761266176	50	6137
2026-01-18 12:36:00.01	92.68	18.33	-38.8	-39.7	23.4	0.00e+00	49	34	0	763363328	50	6244
2026-01-18 12:36:01.02	92.92	18.31	-39.0	-40.0	23.2	0.00e+00	92	34	0	765460480	50	6401
2026-01-18 12:36:02.03	93.15	18.28	-39.0	-40.0	23.2	0.00e+00	49	34	0	767557632	50	6405
2026-01-18 12:36:03.03	93.38	18.26	-39.2	-40.2	22.8	0.00e+00	44	34	0	769654784	50	6562
2026-01-18 12:36:04.04	93.62	18.24	-39.2	-40.2	22.9	0.00e+00	44	34	0	770703360	50	6596
2026-01-18 12:36:05.05	93.85	18.21	-39.3	-40.3	22.8	0.00e+00	44	34	0	772800512	50	6621
2026-01-18 12:36:06.06	94.08	18.19	-39.4	-40.3	22.8	0.00e+00	37	34	0	774897664	50	6690
2026-01-18 12:36:07.07	94.32	18.16	-39.2	-40.2	22.9	0.00e+00	39	34	0	776994816	50	6580
2026-01-18 12:36:08.08	94.55	18.14	-39.4	-40.4	22.9	0.00e+00	91	34	0	779091968	50	6729
2026-01-18 12:36:09.09	94.78	18.11	-39.2	-40.1	23.1	0.00e+00	0	34	0	780140544	50	6524
2026-01-18 12:36:10.10	95.01	18.08	-39.2	-40.1	23.1	0.00e+00	91	34	0	782237696	50	6538
2026-01-18 12:36:11.11	95.24	18.06	-38.8	-39.7	23.5	0.00e+00	2	34	0	784334848	50	6242
2026-01-18 12:36:12.12	95.47	18.03	-38.9	-39.9	23.3	0.00e+00	3	34	0	786432000	50	6321
2026-01-18 12:36:13.13	95.70	18.00	-38.6	-39.5	23.6	0.00e+00	2	34	0	788529152	50	6057
2026-01-18 12:36:14.13	95.93	17.97	-38.4	-39.3	23.8	0.00e+00	2	34	0	789577728	50	5961
2026-01-18 12:36:14.93	96.11	17.95	-38.1	-39.0	24.0	0.00e+00	92	34	0	791674880	50	5733
2026-01-18 12:36:16.07	96.37	17.92	-37.9	-38.8	24.2	0.00e+00	2	34	0	793772032	50	5602
2026-01-18 12:36:16.94	96.57	17.89	-37.7	-38.6	24.3	0.00e+00	92	34	0	795869184	48	6154
2026-01-18 12:36:18.09	96.83	17.86	-37.9	-38.8	24.2	0.00e+00	0	34	0	797966336	48	6269
2026-01-18 12:36:18.96	97.03	17.83	-37.9	-38.8	24.2	0.00e+00	0	34	0	799014912	48	6283
2026-01-18 12:36:20.11	97.29	17.80	-38.0	-38.9	24.2	0.00e+00	0	34	0	801112064	48	6331
2026-01-18 12:36:20.97	97.48	17.77	-38.1	-38.9	24.0	0.00e+00	0	34	0	803209216	48	6383
2026-01-18 12:36:22.13	97.74	17.74	-38.2	-39.1	23.9	0.00e+00	92	34	0	805306368	48	6512
2026-01-18 12:36:22.99	97.93	17.71	-38.3	-39.1	23.9	0.00e+00	34	34	0	807403520	48	6535
2026-01-18 12:36:24.15	98.19	17.67	-38.3	-39.2	23.8	0.00e+00	92	34	0	809500672	48	6589
2026-01-18 12:36:25.01	98.38	17.64	-38.3	-39.2	23.9	0.00e+00	34	34	0	810549248	48	6558
2026-01-18 12:36:26.16	98.64	17.61	-38.2	-39.0	23.9	0.00e+00	0	34	0	812646400	48	6461
2026-01-18 12:36:27.03	98.83	17.58	-38.2	-39.1	23.8	0.00e+00	0	34	0	814743552	48	6532
2026-01-18 12:36:28.18	99.09	17.54	-38.0	-38.8	24.2	0.00e+00	50	34	0	816840704	48	6312
2026-01-18 12:36:29.05	99.28	17.51	-38.1	-39.0	24.0	0.00e+00	37	34	0	817889280	48	6417
2026-01-18 12:36:30.20	99.53	17.47	-37.8	-38.6	24.4	0.00e+00	31	34	0	821035008	48	6167
2026-01-18 12:36:31.06	99.72	17.44	-37.7	-38.5	24.4	0.00e+00	92	34	0	822083584	48	6074
2026-01-18 12:36:32.22	99.98	17.40	-37.6	-38.5	24.5	0.00e+00	49	34	0	824180736	48	6051
2026-01-18 12:36:33.08	100.17	17.37	-37.7	-38.5	24.4	0.00e+00	92	34	0	826277888	48	6102
2026-01-18 12:36:34.24	100.42	17.33	-37.6	-38.4	24.5	0.00e+00	3	34	0	828375040	48	5993
2026-01-18 12:36:35.10	100.61	17.30	-37.6	-38.4	24.5	0.00e+00	0	34	0	829423616	48	6008
2026-01-18 12:36:36.25	100.86	17.26	-37.8	-38.7	24.2	0.00e+00	24	34	0	831520768	48	6190
2026-01-18 12:36:37.12	101.05	17.23	-37.8	-38.6	24.3	0.00e+00	0	34	0	833617920	48	6156
2026-01-18 12:36:38.27	101.30	17.19	-38.0	-38.8	24.1	0.00e+00	92	34	0	835715072	48	6295
2026-01-18 12:36:39.14	101.48	17.15	-38.0	-38.9	24.1	0.00e+00	2	34	0	836763648	48	6325
2026-01-18 12:36:40.29	101.73	17.11	-38.0	-38.9	24.1	0.00e+00	90	34	0	838860800	48	6342
2026-01-18 12:36:41.15	101.92	17.08	-38.0	-38.9	24.0	0.00e+00	0	34	0	840957952	48	6352
2026-01-18 12:36:42.30	102.16	17.03	-38.1	-38.9	24.0	0.00e+00	0	34	0	843055104	48	6363
2026-01-18 12:36:43.17	102.35	17.00	-38.1	-39.0	23.8	0.00e+00	0	34	0	845152256	48	6426
2026-01-18 12:36:44.32	102.59	16.96	-38.1	-39.0	23.8	0.00e+00	0	34	0	847249408	48	6426
2026-01-18 12:36:45.19	102.78	16.92	-38.2	-39.0	23.9	0.00e+00	50	34	0	848297984	48	6456
2026-01-18 12:36:46.34	103.02	16.88	-38.3	-39.2	23.8	0.00e+00	0	34	0	850395136	48	6554
2026-01-18 12:36:47.20	103.21	16.84	-38.2	-39.1	23.8	0.00e+00	92	34	0	852492288	48	6515
2026-01-18 12:36:48.35	103.45	16.80	-38.1	-38.9	23.9	0.00e+00	0	34	0	854589440	48	6386
2026-01-18 12:36:49.22	103.63	16.76	-38.1	-39.0	24.0	0.00e+00	92	34	0	855638016	48	6412
2026-01-18 12:36:50.37	103.87	16.71	-38.3	-39.2	23.8	0.00e+00	0	34	0	858783744	48	6552
2026-01-18 12:36:51.24	104.06	16.68	-38.4	-39.3	23.6	0.00e+00	0	34	0	859832320	48	6653
2026-01-18 12:36:52.39	104.30	16.63	-38.6	-39.6	23.4	0.00e+00	28	34	0	861929472	48	6883
2026-01-18 12:36:53.26	104.48	16.60	-38.9	-39.9	23.0	0.00e+00	32	34	0	864026624	50	6349
2026-01-18 12:36:54.41	104.72	16.55	-39.1	-40.1	23.0	0.00e+00	92	34	0	866123776	50	6507
2026-01-18 12:36:55.27	104.90	16.51	-39.2	-40.2	22.9	0.00e+00	2	34	0	867172352	50	6592
2026-01-18 12:36:56.42	105.13	16.46	-39.3	-40.3	22.8	0.00e+00	34	34	0	869269504	50	6665
2026-01-18 12:36:57.29	105.31	16.43	-39.4	-40.3	22.5	0.00e+00	35	34	0	871366656	50	6682
2026-01-18 12:36:58.44	105.55	16.38	-39.5	-40.5	22.6	0.00e+00	2	34	0	873463808	50	6784
2026-01-18 12:36:59.30	105.73	16.34	-39.6	-40.6	22.5	0.00e+00	2	34	0	875560960	50	6913
2026-01-18 12:37:00.46	105.96	16.29	-39.5	-40.6	22.4	0.00e+00	5	34	0	877658112	50	6859
2026-01-18 12:37:01.32	106.14	16.25	-39.6	-40.6	22.5	0.00e+00	92	34	0	878706688	50	6897
2026-01-18 12:37:02.47	106.37	16.20	-39.6	-40.6	22.4	0.00e+00	36	34	0	880803840	52	6150
2026-01-18 12:37:03.33	106.55	16.16	-39.7	-40.7	22.5	0.00e+00	92	34	0	882900992	52	6202
2026-01-18 12:37:04.48	106.78	16.11	-39.5	-40.4	22.7	0.00e+00	5	34	0	884998144	52	6031
2026-01-18 12:37:05.35	106.96	16.07	-39.4	-40.4	22.7	0.00e+00	41	34	0	886046720	52	6016
2026-01-18 12:37:06.50	107.19	16.02	-39.3	-40.3	22.9	0.00e+00	5	34	0	888143872	52	5932
2026-01-18 12:37:07.36	107.36	15.98	-39.4	-40.4	22.9	0.00e+00	0	34	0	890241024	52	5987
2026-01-18 12:37:08.52	107.59	15.93	-39.5	-40.6	22.8	0.00e+00	92	34	0	892338176	52	6128
2026-01-18 12:37:09.38	107.76	15.89	-39.7	-40.8	22.4	0.00e+00	0	34	0	894435328	52	6301
2026-01-18 12:37:10.53	107.99	15.84	-40.0	-41.1	22.3	0.00e+00	92	34	0	896532480	52	6479
2026-01-18 12:37:11.40	108.16	15.80	-40.2	-41.3	22.1	0.00e+00	36	34	0	897581056	52	6638
2026-01-18 12:37:12.55	108.39	15.74	-40.4	-41.6	21.7	0.00e+00	47	34	0	899678208	52	6875
2026-01-18 12:37:13.42	108.56	15.70	-40.6	-41.7	21.4	0.00e+00	46	34	0	901775360	52	7006
2026-01-18 12:37:14.57	108.79	15.65	-41.0	-42.2	21.1	0.00e+00	47	34	0	903872512	54	6556
2026-01-18 12:37:15.44	108.96	15.61	-40.7	-41.9	21.1	0.00e+00	0	34	0	904921088	54	6336
2026-01-18 12:37:16.59	109.18	15.55	-40.5	-41.6	21.4	0.00e+00	48	34	0	907018240	54	6134
2026-01-18 12:37:17.45	109.35	15.51	-40.4	-41.5	21.5	0.00e+00	92	34	0	909115392	54	6082
2026-01-18 12:37:18.61	109.57	15.46	-40.2	-41.3	22.0	0.00e+00	41	34	0	911212544	54	5914
2026-01-18 12:37:19.47	109.74	15.41	-39.8	-40.8	22.2	0.00e+00	92	34	0	913309696	54	5611
2026-01-18 12:37:20.63	109.96	15.36	-39.9	-40.9	22.2	0.00e+00	46	34	0	915406848	54	5655
2026-01-18 12:37:21.49	110.13	15.32	-40.0	-41.1	22.0	0.00e+00	6	34	0	916455424	54	5793
2026-01-18 12:37:22.64	110.35	15.26	-39.8	-40.8	22.3	0.00e+00	36	34	0	918552576	54	5597
2026-01-18 12:37:23.51	110.52	15.22	-39.8	-40.8	22.3	0.00e+00	0	34	0	920649728	52	6304
2026-01-18 12:37:24.66	110.73	15.16	-39.8	-40.9	22.3	0.00e+00	92	34	0	922746880	52	6330
2026-01-18 12:37:25.52	110.90	15.12	-39.8	-40.8	22.4	0.00e+00	0	34	0	923795456	52	6310
2026-01-18 12:37:26.68	111.12	15.06	-39.8	-40.9	22.3	0.00e+00	92	34	0	925892608	52	6343
2026-01-18 12:37:27.54	111.28	15.02	-40.0	-41.1	22.1	0.00e+00	0	34	0	927989760	52	6473
2026-01-18 12:37:28.69	111.49	14.96	-40.0	-41.0	22.1	0.00e+00	7	34	0	930086912	52	6457
2026-01-18 12:37:29.55	111.66	14.92	-39.9	-41.0	22.2	0.00e+00	0	34	0	932184064	52	6402
2026-01-18 12:37:30.70	111.87	14.86	-39.9	-41.0	22.1	0.00e+00	7	34	0	934281216	52	6411
2026-01-18 12:37:31.57	112.03	14.82	-39.6	-40.6	22.5	0.00e+00	0	34	0	935329792	52	6107
2026-01-18 12:37:32.72	112.25	14.76	-39.4	-40.3	22.8	0.00e+00	6	34	0	937426944	52	5960
2026-01-18 12:37:33.58	112.40	14.72	-39.4	-40.4	22.7	0.00e+00	92	34	0	939524096	52	5990
2026-01-18 12:37:34.74	112.62	14.66	-39.0	-40.0	22.9	0.00e+00	7	34	0	941621248	52	5728
2026-01-18 12:37:35.60	112.78	14.61	-39.1	-40.1	22.9	0.00e+00	92	34	0	942669824	52	5772
2026-01-18 12:37:36.75	112.99	14.55	-38.9	-39.8	23.1	0.00e+00	0	34	0	945815552	52	5622
2026-01-18 12:37:37.62	113.14	14.51	-38.9	-39.9	23.0	0.00e+00	6	34	0	946864128	52	5677
2026-01-18 12:37:38.77	113.35	14.45	-39.0	-40.0	22.9	0.00e+00	46	34	0	948961280	52	5751
2026-01-18 12:37:39.63	113.51	14.40	-39.0	-40.0	22.9	0.00e+00	40	34	0	951058432	52	5747
2026-01-18 12:37:40.78	113.72	14.35	-39.1	-40.2	22.9	0.00e+00	92	34	0	953155584	52	5834
2026-01-18 12:37:41.65	113.87	14.30	-39.2	-40.2	22.8	0.00e+00	38	34	0	954204160	52	5877
2026-01-18 12:37:42.80	114.08	14.24	-39.4	-40.4	22.6	0.00e+00	92	34	0	956301312	52	6006
2026-01-18 12:37:43.67	114.23	14.19	-39.7	-40.7	22.3	0.00e+00	7	34	0	958398464	52	6205
2026-01-18 12:37:44.82	114.44	14.13	-40.0	-41.1	22.0	0.00e+00	34	34	0	960495616	52	6498
2026-01-18 12:37:45.68	114.59	14.09	-40.2	-41.3	21.8	0.00e+00	0	34	0	961544192	52	6679
2026-01-18 12:37:46.83	114.79	14.03	-40.5	-41.6	21.5	0.00e+00	35	34	0	963641344	52	6902
2026-01-18 12:37:47.70	114.95	13.98	-40.5	-41.6	21.5	0.00e+00	90	34	0	965738496	52	6923
2026-01-18 12:37:48.85	115.15	13.92	-40.3	-41.5	21.6	0.00e+00	0	34	0	967835648	52	6785
2026-01-18 12:37:49.71	115.30	13.88	-40.3	-41.4	21.7	0.00e+00	90	34	0	969932800	52	6755
2026-01-18 12:37:50.86	115.50	13.81	-39.6	-40.7	22.4	0.00e+00	34	34	0	972029952	52	6213
2026-01-18 12:37:51.73	115.65	13.77	-39.5	-40.6	22.4	0.00e+00	65	34	0	973078528	52	6159
2026-01-18 12:37:52.88	115.85	13.71	-39.5	-40.6	22.7	0.00e+00	32	34	0	975175680	52	6109
2026-01-18 12:37:53.75	116.00	13.66	-39.0	-40.0	23.1	0.00e+00	0	34	0	977272832	52	5696
2026-01-18 12:37:54.90	116.20	13.60	-38.8	-39.8	23.2	0.00e+00	91	34	0	979369984	52	5599
2026-01-18 12:37:55.76	116.35	13.55	-38.9	-39.9	23.1	0.00e+00	45	34	0	980418560	52	5665
2026-01-18 12:37:56.92	116.54	13.49	-39.0	-40.0	23.0	0.00e+00	92	34	0	983564288	52	5734
2026-01-18 12:37:57.78	116.69	13.44	-39.1	-40.1	22.9	0.00e+00	46	34	0	984612864	52	5808
2026-01-18 12:37:58.93	116.88	13.38	-39.3	-40.4	22.7	0.00e+00	92	34	0	986710016	52	5971
2026-01-18 12:37:59.80	117.03	13.33	-39.4	-40.3	22.5	0.00e+00	41	34	0	988807168	52	5964
2026-01-18 12:38:00.95	117.22	13.27	-39.2	-40.2	22.9	0.00e+00	0	34	0	990904320	52	5833
2026-01-18 12:38:01.81	117.37	13.22	-39.2	-40.2	22.8	0.00e+00	35	34	0	991952896	52	5834
2026-01-18 12:38:02.97	117.56	13.16	-39.0	-40.0	23.0	0.00e+00	0	34	0	994050048	52	5731
2026-01-18 12:38:03.83	117.71	13.11	-38.9	-39.9	23.0	0.00e+00	90	34	0	996147200	52	5652
2026-01-18 12:38:04.98	117.90	13.05	-38.9	-39.9	23.1	0.00e+00	0	34	0	998244352	52	5647
2026-01-18 12:38:05.84	118.04	13.00	-39.1	-40.1	22.9	0.00e+00	92	34	0	1000341504	52	5765
2026-01-18 12:38:07.00	118.23	12.94	-39.3	-40.3	22.7	0.00e+00	41	34	0	1002438656	52	5920
2026-01-18 12:38:07.86	118.37	12.89	-39.3	-40.4	22.7	0.00e+00	89	34	0	1003487232	52	5965
2026-01-18 12:38:09.02	118.56	12.83	-39.4	-40.4	22.6	0.00e+00	52	34	0	1005584384	52	5989
2026-01-18 12:38:09.88	118.70	12.78	-39.4	-40.4	22.7	0.00e+00	41	34	0	1007681536	52	5996
2026-01-18 12:38:11.04	118.89	12.72	-39.4	-40.4	22.6	0.00e+00	92	34	0	1009778688	52	5998
2026-01-18 12:38:11.90	119.03	12.67	-39.3	-40.3	22.7	0.00e+00	3	34	0	1010827264	52	5955
2026-01-18 12:38:13.05	119.21	12.60	-38.9	-39.8	23.1	0.00e+00	92	34	0	1012924416	52	5612
2026-01-18 12:38:13.92	119.35	12.56	-39.0	-39.9	23.0	0.00e+00	0	34	0	1015021568	52	5687
2026-01-18 12:38:15.07	119.54	12.49	-38.7	-39.6	23.2	0.00e+00	0	34	0	1017118720	50	6173
2026-01-18 12:38:15.94	119.67	12.44	-38.6	-39.5	23.3	0.00e+00	0	34	0	1019215872	50	6088
2026-01-18 12:38:17.09	119.86	12.38	-38.7	-39.7	23.2	0.00e+00	37	34	0	1021313024	50	6203
2026-01-18 12:38:17.96	119.99	12.33	-38.8	-39.8	23.1	0.00e+00	0	34	0	1022361600	50	6276
2026-01-18 12:38:19.11	120.18	12.27	-39.0	-40.0	22.8	0.00e+00	0	34	0	1024458752	50	6444
2026-01-18 12:38:19.97	120.31	12.22	-39.2	-40.2	22.7	0.00e+00	92	34	0	1026555904	50	6555
2026-01-18 12:38:21.13	120.49	12.15	-39.3	-40.3	22.7	0.00e+00	0	34	0	1028653056	50	6667
2026-01-18 12:38:21.99	120.63	12.11	-39.3	-40.3	22.7	0.00e+00	91	34	0	1029701632	50	6662
2026-01-18 12:38:23.15	120.81	12.04	-39.2	-40.2	22.8	0.00e+00	47	34	0	1031798784	50	6574
2026-01-18 12:38:24.01	120.94	11.99	-39.3	-40.3	22.7	0.00e+00	37	34	0	1033895936	50	6665
2026-01-18 12:38:25.16	121.12	11.93	-38.9	-39.8	23.1	0.00e+00	0	34	0	1035993088	50	6313
2026-01-18 12:38:26.03	121.25	11.88	-38.8	-39.7	23.2	0.00e+00	37	34	0	1038090240	50	6225
2026-01-18 12:38:27.18	121.43	11.81	-38.8	-39.8	23.1	0.00e+00	90	34	0	1040187392	50	6272
2026-01-18 12:38:28.04	121.56	11.76	-38.9	-39.8	23.1	0.00e+00	0	34	0	1041235968	50	6304
2026-01-18 12:38:29.19	121.73	11.70	-39.0	-40.0	22.9	0.00e+00	92	34	0	1043333120	50	6432
2026-01-18 12:38:30.06	121.86	11.65	-39.2	-40.2	22.7	0.00e+00	34	34	0	1045430272	50	6578
2026-01-18 12:38:31.21	122.04	11.59	-39.5	-40.5	22.4	0.00e+00	47	34	0	1047527424	50	6827
2026-01-18 12:38:32.07	122.16	11.54	-39.6	-40.7	22.3	0.00e+00	0	34	0	1048576000	50	6950
2026-01-18 12:38:33.22	122.34	11.47	-39.8	-40.9	22.1	0.00e+00	42	34	0	1050673152	52	6320
2026-01-18 12:38:34.09	122.47	11.42	-39.8	-40.9	22.1	0.00e+00	42	34	0	1052770304	52	6345
2026-01-18 12:38:35.24	122.64	11.36	-39.6	-40.7	22.3	0.00e+00	0	34	0	1054867456	52	6200
2026-01-18 12:38:36.11	122.77	11.31	-39.6	-40.7	22.3	0.00e+00	90	34	0	1056964608	52	6202
2026-01-18 12:38:37.26	122.93	11.24	-39.5	-40.5	22.5	0.00e+00	0	34	0	1059061760	52	6085
2026-01-18 12:38:38.13	123.06	11.19	-39.5	-40.5	22.5	0.00e+00	92	34	0	1060110336	52	6051
2026-01-18 12:38:39.28	123.23	11.13	-39.3	-40.4	22.6	0.00e+00	2	34	0	1062207488	52	5969
2026-01-18 12:38:40.14	123.36	11.08	-39.3	-40.3	22.6	0.00e+00	41	34	0	1064304640	52	5920
2026-01-18 12:38:41.29	123.52	11.01	-39.4	-40.4	22.6	0.00e+00	76	34	0	1066401792	52	5991
2026-01-18 12:38:42.16	123.65	10.96	-39.6	-40.6	22.3	0.00e+00	0	34	0	1067450368	52	6147
2026-01-18 12:38:43.31	123.81	10.90	-39.6	-40.7	22.3	0.00e+00	92	34	0	1070596096	52	6192
2026-01-18 12:38:44.17	123.94	10.85	-39.7	-40.7	22.2	0.00e+00	46	34	0	1071644672	52	6213
2026-01-18 12:38:45.33	124.10	10.78	-39.8	-40.8	22.1	0.00e+00	90	34	0	1073741824	52	6311
2026-01-18 12:38:46.19	124.23	10.73	-39.8	-40.8	22.1	0.00e+00	37	34	0	1075838976	52	6293
2026-01-18 12:38:47.34	124.39	10.67	-39.7	-40.7	22.1	0.00e+00	0	34	0	1077936128	52	6240
2026-01-18 12:38:48.21	124.51	10.62	-39.8	-40.8	22.1	0.00e+00	36	34	0	1078984704	52	6292
2026-01-18 12:38:49.36	124.67	10.55	-39.6	-40.6	22.3	0.00e+00	42	34	0	1081081856	52	6150
2026-01-18 12:38:50.23	124.79	10.50	-39.5	-40.5	22.3	0.00e+00	0	34	0	1083179008	52	6099
2026-01-18 12:38:51.38	124.96	10.44	-39.4	-40.4	22.5	0.00e+00	0	34	0	1085276160	52	5997
2026-01-18 12:38:52.25	125.08	10.39	-39.4	-40.5	22.4	0.00e+00	90	34	0	1087373312	52	6042
2026-01-18 12:38:53.40	125.24	10.32	-39.6	-40.7	22.2	0.00e+00	46	34	0	1089470464	52	6200
2026-01-18 12:38:54.26	125.35	10.27	-39.7	-40.8	22.1	0.00e+00	92	34	0	1090519040	52	6277
2026-01-18 12:38:55.42	125.51	10.20	-39.9	-41.0	21.9	0.00e+00	44	34	0	1092616192	52	6419
2026-01-18 12:38:56.28	125.63	10.16	-40.1	-41.2	21.8	0.00e+00	36	34	0	1094713344	52	6545
2026-01-18 12:38:57.43	125.79	10.09	-40.2	-41.4	21.6	0.00e+00	43	34	0	1096810496	52	6704
2026-01-18 12:38:58.29	125.91	10.04	-40.2	-41.4	21.3	0.00e+00	0	34	0	1097859072	52	6701
2026-01-18 12:38:59.44	126.06	9.97	-40.4	-41.5	21.4	0.00e+00	92	34	0	1099956224	52	6837
2026-01-18 12:39:00.31	126.18	9.92	-40.2	-41.4	21.5	0.00e+00	2	34	0	1102053376	52	6711
2026-01-18 12:39:01.46	126.33	9.86	-40.4	-41.5	21.4	0.00e+00	91	34	0	1104150528	52	6820
2026-01-18 12:39:02.33	126.45	9.81	-40.1	-41.2	21.6	0.00e+00	0	34	0	1105199104	52	6598
2026-01-18 12:39:03.48	126.60	9.74	-40.0	-41.1	21.6	0.00e+00	6	34	0	1108344832	52	6532
2026-01-18 12:39:04.35	126.72	9.69	-40.2	-41.3	21.5	0.00e+00	0	34	0	1109393408	52	6669
2026-01-18 12:39:05.50	126.87	9.63	-40.0	-41.1	21.4	0.00e+00	0	34	0	1111490560	52	6490
2026-01-18 12:39:06.36	126.99	9.58	-40.0	-41.1	21.8	0.00e+00	92	34	0	1113587712	52	6489
2026-01-18 12:39:07.52	127.14	9.51	-40.2	-41.3	21.5	0.00e+00	6	34	0	1115684864	52	6660
2026-01-18 12:39:08.38	127.25	9.46	-40.2	-41.4	21.5	0.00e+00	92	34	0	1116733440	52	6707
2026-01-18 12:39:09.53	127.40	9.40	-40.4	-41.6	21.3	0.00e+00	0	34	0	1118830592	52	6855
2026-01-18 12:39:10.40	127.51	9.35	-40.4	-41.7	21.2	0.00e+00	46	34	0	1120927744	52	6948
2026-01-18 12:39:11.55	127.66	9.28	-40.5	-41.7	21.1	0.00e+00	0	34	0	1123024896	52	6986
2026-01-18 12:39:12.41	127.77	9.23	-40.5	-41.7	21.2	0.00e+00	44	34	0	1125122048	52	6972
2026-01-18 12:39:13.57	127.92	9.16	-40.6	-41.8	21.1	0.00e+00	92	34	0	1127219200	52	7023
2026-01-18 12:39:14.43	128.03	9.12	-40.5	-41.7	21.2	0.00e+00	0	34	0	1128267776	52	6957
2026-01-18 12:39:15.59	128.18	9.05	-40.5	-41.7	21.2	0.00e+00	92	34	0	1130364928	52	6955
2026-01-18 12:39:16.45	128.29	9.00	-40.4	-41.6	21.3	0.00e+00	5	34	0	1132462080	52	6872
2026-01-18 12:39:17.61	128.44	8.93	-40.4	-41.6	21.2	0.00e+00	41	34	0	1134559232	52	6903
2026-01-18 12:39:18.47	128.54	8.88	-40.5	-41.7	21.1	0.00e+00	38	34	0	1135607808	52	6981
2026-01-18 12:39:19.62	128.69	8.82	-40.7	-41.9	21.0	0.00e+00	43	34	0	1137704960	52	7121
2026-01-18 12:39:20.49	128.80	8.77	-40.7	-41.9	21.0	0.00e+00	0	34	0	1139802112	54	6340
2026-01-18 12:39:21.64	128.94	8.70	-40.7	-41.9	20.9	0.00e+00	0	34	0	1141899264	54	6366
2026-01-18 12:39:22.50	129.05	8.65	-40.8	-42.1	20.7	0.00e+00	92	34	0	1143996416	54	6480
2026-01-18 12:39:23.65	129.19	8.59	-41.0	-42.3	20.6	0.00e+00	8	34	0	1146093568	54	6660
2026-01-18 12:39:24.52	129.30	8.54	-40.9	-42.2	20.6	0.00e+00	92	34	0	1147142144	54	6597
2026-01-18 12:39:25.67	129.44	8.47	-41.1	-42.5	20.4	0.00e+00	7	34	0	1149239296	54	6772
2026-01-18 12:39:26.54	129.54	8.42	-41.1	-42.4	20.4	0.00e+00	0	34	0	1151336448	54	6733
2026-01-18 12:39:27.69	129.68	8.36	-41.0	-42.4	20.4	0.00e+00	0	34	0	1153433600	54	6702
2026-01-18 12:39:28.55	129.79	8.31	-41.1	-42.5	20.4	0.00e+00	0	34	0	1154482176	54	6788
2026-01-18 12:39:29.70	129.93	8.24	-40.9	-42.2	20.5	0.00e+00	92	34	0	1156579328	54	6564
2026-01-18 12:39:30.57	130.03	8.19	-40.9	-42.2	20.5	0.00e+00	0	34	0	1158676480	54	6578
2026-01-18 12:39:31.72	130.17	8.13	-40.9	-42.2	20.6	0.00e+00	92	34	0	1160773632	54	6587
2026-01-18 12:39:32.59	130.27	8.08	-40.6	-41.8	20.9	0.00e+00	36	34	0	1162870784	54	6298
2026-01-18 12:39:33.74	130.41	8.01	-40.5	-41.7	21.0	0.00e+00	0	34	0	1164967936	54	6242
2026-01-18 12:39:34.61	130.51	7.96	-40.6	-41.9	20.9	0.00e+00	51	34	0	1166016512	54	6331
2026-01-18 12:39:35.76	130.65	7.90	-40.5	-41.8	21.0	0.00e+00	37	34	0	1168113664	54	6247
2026-01-18 12:39:36.62	130.75	7.85	-40.7	-42.0	20.7	0.00e+00	30	34	0	1170210816	54	6403
2026-01-18 12:39:37.77	130.89	7.78	-40.6	-41.9	20.9	0.00e+00	37	34	0	1172307968	54	6330
2026-01-18 12:39:38.64	130.99	7.73	-40.6	-41.9	20.8	0.00e+00	92	34	0	1173356544	54	6355
2026-01-18 12:39:39.79	131.12	7.67	-40.8	-42.0	20.6	0.00e+00	45	34	0	1176502272	54	6460
2026-01-18 12:39:40.65	131.22	7.62	-40.8	-42.1	20.6	0.00e+00	92	34	0	1177550848	54	6485
2026-01-18 12:39:41.81	131.35	7.55	-40.7	-42.0	20.7	0.00e+00	39	34	0	1179648000	54	6396
2026-01-18 12:39:42.67	131.45	7.50	-40.7	-42.0	20.7	0.00e+00	44	34	0	1181745152	54	6426
2026-01-18 12:39:43.83	131.59	7.44	-40.7	-41.9	20.7	0.00e+00	0	34	0	1183842304	54	6386
2026-01-18 12:39:44.69	131.68	7.39	-40.6	-41.9	20.7	0.00e+00	6	34	0	1184890880	54	6381
2026-01-18 12:39:45.85	131.82	7.32	-40.6	-41.9	20.7	0.00e+00	92	34	0	1186988032	54	6378
2026-01-18 12:39:46.71	131.91	7.28	-40.9	-42.2	20.5	0.00e+00	6	34	0	1189085184	54	6595
2026-01-18 12:39:47.86	132.04	7.21	-40.9	-42.2	20.5	0.00e+00	89	34	0	1191182336	54	6587
2026-01-18 12:39:48.73	132.14	7.16	-40.9	-42.2	20.4	0.00e+00	7	34	0	1192230912	54	6605
2026-01-18 12:39:49.88	132.27	7.10	-41.0	-42.3	20.3	0.00e+00	38	34	0	1195376640	54	6669
2026-01-18 12:39:50.75	132.37	7.05	-41.2	-42.5	20.1	0.00e+00	0	34	0	1196425216	54	6799
2026-01-18 12:39:51.90	132.50	6.98	-41.4	-42.8	19.9	0.00e+00	0	34	0	1198522368	54	7080
2026-01-18 12:39:52.76	132.59	6.93	-41.4	-42.9	19.8	0.00e+00	48	34	0	1200619520	54	7096
2026-01-18 12:39:53.92	132.72	6.87	-41.6	-43.1	19.6	0.00e+00	0	34	0	1202716672	54	7261
2026-01-18 12:39:54.78	132.81	6.82	-41.5	-43.0	19.7	0.00e+00	92	34	0	1203765248	54	7187
2026-01-18 12:39:55.94	132.94	6.75	-41.8	-43.3	19.5	0.00e+00	0	34	0	1205862400	56	6657
2026-01-18 12:39:56.80	133.03	6.71	-41.7	-43.2	19.6	0.00e+00	91	34	0	1207959552	56	6543
2026-01-18 12:39:57.95	133.16	6.64	-41.8	-43.3	19.4	0.00e+00	0	34	0	1210056704	56	6645
2026-01-18 12:39:58.81	133.25	6.59	-41.7	-43.1	19.5	0.00e+00	42	34	0	1212153856	56	6524
