passes_logs/2026/01/18/R4.6S_Anadyr/R4.6S_Anadyr__20260118_004724_AQUA_rec.log

#Pass ID: 20260118_004724_AQUA
#Satellite: AQUA
#Configuration: AQUA
#almurnet v.1.7.20251203
#Start time: 2026-01-18 00:47:27

#Version: 2.2.20231116
#Station: R4.6S_Anadyr
#Location: 177.4865 lon 64.73178 lat
#TLE: 1 27424U 02022A   26017.62394888  .00000781  00000+0  16630-3 0  9993
#TLE: 2 27424  98.4086 344.0954 0002010  75.0132 339.4723 14.61825944261279

#Time	Az	El	Level	Level2	SNR	BER	BlckErr	Temp	State	Recorded	gain1	gain2
2026-01-18 00:47:27.51	126.40	0.21	-49.4	-66.1	3.3	3.02e+01	0	31	0	0	60	77329
2026-01-18 00:47:28.51	126.37	0.27	-50.0	-68.2	3.5	3.02e+01	0	31	104	0	60	99089
2026-01-18 00:47:29.52	126.33	0.33	-49.7	-67.8	3.5	3.02e+01	0	31	104	0	60	94621
2026-01-18 00:47:30.53	126.29	0.39	-49.5	-67.6	3.5	3.02e+01	0	31	104	0	60	92495
2026-01-18 00:47:31.54	126.26	0.45	-49.5	-67.6	3.5	3.02e+01	0	31	104	0	60	92165
2026-01-18 00:47:32.55	126.22	0.51	-49.3	-67.5	3.5	3.02e+01	0	31	104	0	60	91421
2026-01-18 00:47:33.56	126.18	0.57	-49.5	-67.6	3.5	3.02e+01	0	31	104	0	60	92223
2026-01-18 00:47:34.57	126.14	0.64	-49.4	-67.6	3.5	3.02e+01	0	31	104	0	60	91967
2026-01-18 00:47:35.57	126.11	0.70	-49.3	-67.4	3.5	3.02e+01	0	31	104	0	60	90249
2026-01-18 00:47:36.58	126.07	0.76	-49.1	-67.3	3.5	3.02e+01	0	31	104	0	60	88966
2026-01-18 00:47:37.59	126.03	0.82	-49.2	-67.4	3.5	3.02e+01	0	31	104	0	60	89761
2026-01-18 00:47:38.60	125.99	0.88	-49.2	-67.4	3.5	3.02e+01	0	31	104	0	60	90288
2026-01-18 00:47:39.61	125.95	0.94	-49.7	-67.8	3.5	3.02e+01	0	31	104	0	60	94777
2026-01-18 00:47:40.62	125.92	1.01	-49.5	-67.6	3.5	3.02e+01	0	31	104	0	60	92614
2026-01-18 00:47:41.63	125.88	1.07	-49.2	-67.4	3.5	3.02e+01	0	31	104	0	60	90335
2026-01-18 00:47:42.64	125.84	1.13	-49.5	-67.7	3.5	3.02e+01	0	31	104	0	60	93475
2026-01-18 00:47:43.65	125.80	1.20	-49.3	-67.5	3.5	3.02e+01	0	31	104	0	60	91325
2026-01-18 00:47:44.66	125.76	1.26	-49.6	-67.7	3.5	3.02e+01	0	31	104	0	60	93870
2026-01-18 00:47:45.67	125.72	1.32	-49.6	-67.7	3.5	3.02e+01	0	31	104	0	60	93728
2026-01-18 00:47:46.68	125.68	1.38	-49.6	-67.7	3.5	3.02e+01	0	31	104	0	60	93343
2026-01-18 00:47:47.69	125.64	1.45	-49.3	-67.4	3.5	3.02e+01	0	31	104	0	60	90448
2026-01-18 00:47:48.70	125.60	1.51	-49.0	-67.2	3.5	3.02e+01	0	31	104	0	60	88009
2026-01-18 00:47:49.71	125.56	1.58	-49.0	-67.2	3.5	3.02e+01	0	31	104	0	60	87837
2026-01-18 00:47:50.72	125.52	1.64	-49.0	-67.2	3.5	3.02e+01	0	31	104	0	60	88217
2026-01-18 00:47:51.73	125.48	1.70	-49.1	-67.2	3.5	3.02e+01	0	31	104	0	60	88531
2026-01-18 00:47:52.74	125.44	1.77	-49.1	-67.3	3.5	3.02e+01	0	31	104	0	60	89560
2026-01-18 00:47:53.75	125.39	1.83	-49.0	-67.1	3.5	3.02e+01	0	31	104	0	60	87579
2026-01-18 00:47:54.76	125.35	1.90	-49.4	-67.6	3.5	3.02e+01	0	32	104	0	60	91799
2026-01-18 00:47:55.76	125.31	1.96	-49.5	-67.7	3.5	3.02e+01	0	32	104	0	60	92885
2026-01-18 00:47:56.77	125.27	2.02	-49.7	-67.8	3.5	3.02e+01	0	32	104	0	60	94839
2026-01-18 00:47:57.79	125.23	2.09	-49.2	-67.4	3.5	3.02e+01	0	32	104	0	60	90293
2026-01-18 00:47:58.79	125.18	2.15	-49.3	-67.4	3.5	3.02e+01	0	32	104	0	60	90560
2026-01-18 00:47:59.80	125.14	2.22	-49.4	-67.5	3.5	3.02e+01	0	32	104	0	60	91087
2026-01-18 00:48:00.81	125.10	2.29	-49.7	-67.8	3.5	3.02e+01	0	32	104	0	60	94986
2026-01-18 00:48:01.82	125.06	2.35	-49.6	-67.7	3.5	3.02e+01	0	32	104	0	60	93321
2026-01-18 00:48:02.83	125.01	2.42	-49.8	-68.0	3.5	3.02e+01	0	32	104	0	60	96534
2026-01-18 00:48:03.84	124.97	2.48	-49.7	-67.9	3.5	3.02e+01	0	32	104	0	60	95036
2026-01-18 00:48:04.85	124.93	2.55	-49.6	-67.7	3.5	3.02e+01	0	32	104	0	60	93701
2026-01-18 00:48:05.86	124.88	2.61	-49.4	-67.5	3.5	3.02e+01	0	32	104	0	60	91772
2026-01-18 00:48:06.87	124.84	2.68	-49.5	-67.6	3.5	3.02e+01	0	32	104	0	60	92557
2026-01-18 00:48:07.88	124.79	2.75	-49.4	-67.6	3.5	3.02e+01	0	32	104	0	60	91848
2026-01-18 00:48:08.89	124.75	2.81	-49.4	-67.5	3.5	3.02e+01	0	32	104	0	60	91642
2026-01-18 00:48:09.90	124.70	2.88	-49.3	-67.4	3.5	3.02e+01	0	32	104	0	60	89746
2026-01-18 00:48:10.91	124.66	2.95	-49.4	-67.6	3.5	3.02e+01	0	32	104	0	60	92001
2026-01-18 00:48:11.92	124.61	3.01	-49.3	-67.4	3.5	3.02e+01	0	32	104	0	60	90594
2026-01-18 00:48:12.93	124.57	3.08	-49.3	-67.4	3.5	3.02e+01	0	32	104	0	60	89876
2026-01-18 00:48:13.93	124.52	3.15	-49.1	-67.3	3.5	3.02e+01	0	32	104	0	60	89191
2026-01-18 00:48:14.94	124.48	3.22	-49.2	-67.4	3.5	3.02e+01	0	32	104	0	60	90535
2026-01-18 00:48:15.95	124.43	3.28	-49.3	-67.5	3.5	3.02e+01	0	32	104	0	60	91087
2026-01-18 00:48:16.96	124.38	3.35	-49.1	-67.2	3.5	3.02e+01	0	32	104	0	60	88659
2026-01-18 00:48:17.98	124.34	3.42	-49.3	-67.5	3.5	3.02e+01	0	32	104	0	60	91247
2026-01-18 00:48:18.99	124.29	3.49	-49.2	-67.3	3.5	3.02e+01	0	32	104	0	60	89481
2026-01-18 00:48:20.00	124.24	3.56	-49.4	-67.6	3.5	3.02e+01	0	32	104	0	60	92342
2026-01-18 00:48:21.01	124.19	3.62	-49.3	-67.5	3.5	3.02e+01	0	32	104	0	60	91095
2026-01-18 00:48:22.01	124.15	3.69	-49.4	-67.5	3.5	3.02e+01	0	32	104	0	60	91251
2026-01-18 00:48:23.02	124.10	3.76	-49.2	-67.4	3.5	3.02e+01	0	32	104	0	60	89847
2026-01-18 00:48:24.03	124.05	3.83	-49.1	-67.3	3.5	3.02e+01	0	32	104	0	60	88826
2026-01-18 00:48:25.04	124.00	3.90	-49.3	-67.4	3.5	3.02e+01	0	32	104	0	60	90525
2026-01-18 00:48:26.06	123.95	3.97	-49.3	-67.5	3.5	3.02e+01	0	32	104	0	60	91099
2026-01-18 00:48:27.06	123.90	4.04	-49.2	-67.4	3.5	3.02e+01	0	32	104	0	60	89895
2026-01-18 00:48:28.07	123.85	4.11	-49.4	-67.6	3.5	3.02e+01	0	32	104	0	60	91937
2026-01-18 00:48:29.08	123.80	4.18	-49.4	-67.6	3.5	3.02e+01	0	32	104	0	60	92316
2026-01-18 00:48:30.09	123.75	4.25	-49.6	-67.7	3.5	3.02e+01	0	32	104	0	60	93376
2026-01-18 00:48:31.10	123.70	4.32	-49.3	-67.5	3.5	3.02e+01	0	32	104	0	60	91115
2026-01-18 00:48:32.11	123.65	4.39	-49.5	-67.7	3.5	3.02e+01	0	32	104	0	60	92967
2026-01-18 00:48:33.12	123.60	4.46	-49.6	-67.8	3.5	3.02e+01	0	32	104	0	60	94443
2026-01-18 00:48:34.13	123.55	4.53	-49.7	-67.8	3.5	3.02e+01	0	32	104	0	60	95003
2026-01-18 00:48:35.14	123.50	4.60	-49.7	-67.8	3.5	3.02e+01	0	32	104	0	60	94599
2026-01-18 00:48:36.15	123.45	4.67	-49.7	-67.9	3.5	3.02e+01	0	32	104	0	60	95206
2026-01-18 00:48:37.16	123.39	4.75	-49.4	-67.6	3.5	3.02e+01	0	32	104	0	60	92159
2026-01-18 00:48:38.17	123.34	4.82	-49.3	-67.4	3.5	3.02e+01	0	32	104	0	60	90683
2026-01-18 00:48:39.18	123.29	4.89	-49.1	-67.3	3.5	3.02e+01	0	32	104	0	60	89452
2026-01-18 00:48:40.19	123.24	4.96	-49.5	-67.7	3.5	3.02e+01	0	32	104	0	60	93227
2026-01-18 00:48:41.19	123.18	5.03	-49.4	-67.6	3.5	3.02e+01	0	32	104	0	60	92183
2026-01-18 00:48:42.20	123.13	5.10	-49.2	-67.3	3.5	3.02e+01	0	32	104	0	60	89663
2026-01-18 00:48:43.21	123.08	5.18	-49.2	-67.4	3.5	3.02e+01	0	32	104	0	60	89736
2026-01-18 00:48:44.22	123.02	5.25	-49.2	-67.4	3.5	3.02e+01	0	32	104	0	60	89781
2026-01-18 00:48:45.23	122.97	5.32	-49.3	-67.4	3.5	3.02e+01	0	32	104	0	60	90724
2026-01-18 00:48:46.24	122.91	5.40	-49.3	-67.4	3.5	3.02e+01	0	32	104	0	60	90561
2026-01-18 00:48:47.25	122.86	5.47	-49.1	-67.3	3.5	3.02e+01	0	32	104	0	60	89334
2026-01-18 00:48:48.26	122.80	5.54	-49.4	-67.6	3.5	3.02e+01	0	32	104	0	60	91816
2026-01-18 00:48:49.27	122.75	5.62	-49.5	-67.7	3.5	3.02e+01	0	32	104	0	60	92959
2026-01-18 00:48:50.28	122.69	5.69	-49.8	-68.0	3.5	3.02e+01	0	32	104	0	60	96999
2026-01-18 00:48:51.29	122.63	5.77	-49.6	-67.8	3.5	3.02e+01	0	32	104	0	60	94049
2026-01-18 00:48:52.30	122.58	5.84	-49.4	-67.6	3.5	3.02e+01	0	32	104	0	60	91997
2026-01-18 00:48:53.31	122.52	5.92	-49.6	-67.7	3.5	3.02e+01	0	32	104	0	60	93921
2026-01-18 00:48:54.32	122.46	5.99	-49.8	-67.9	3.5	3.02e+01	0	32	104	0	60	95785
2026-01-18 00:48:55.33	122.40	6.07	-49.2	-67.3	3.5	3.02e+01	0	32	104	0	60	89407
2026-01-18 00:48:56.34	122.35	6.14	-49.3	-67.4	3.5	3.02e+01	0	32	104	0	60	90255
2026-01-18 00:48:57.35	122.29	6.22	-49.5	-67.6	3.5	3.02e+01	0	32	104	0	60	92691
2026-01-18 00:48:58.36	122.23	6.29	-49.7	-67.8	3.5	3.02e+01	0	32	104	0	60	94487
2026-01-18 00:48:59.36	122.17	6.37	-49.8	-67.9	3.5	3.02e+01	0	32	104	0	60	95723
2026-01-18 00:49:00.37	122.11	6.44	-49.4	-67.5	3.5	3.02e+01	0	32	104	0	60	91454
2026-01-18 00:49:01.38	122.05	6.52	-49.5	-67.7	3.5	3.02e+01	0	32	104	0	60	92923
2026-01-18 00:49:02.39	121.99	6.60	-49.6	-67.7	3.5	3.02e+01	0	32	104	0	60	93654
2026-01-18 00:49:03.40	121.93	6.67	-49.7	-67.8	3.5	3.02e+01	0	32	104	0	60	94544
2026-01-18 00:49:04.41	121.87	6.75	-49.9	-68.0	3.5	3.02e+01	0	32	104	0	60	96228
2026-01-18 00:49:05.42	121.81	6.83	-49.4	-67.6	3.5	3.02e+01	0	32	104	0	60	91868
2026-01-18 00:49:06.43	121.75	6.91	-49.4	-67.5	3.5	3.02e+01	0	32	104	0	60	90851
2026-01-18 00:49:07.44	121.68	6.98	-49.2	-67.3	3.5	3.02e+01	0	32	104	0	60	89487
2026-01-18 00:49:08.45	121.62	7.06	-49.5	-67.6	3.5	3.02e+01	0	32	104	0	60	92495
2026-01-18 00:49:09.46	121.56	7.14	-49.3	-67.4	3.5	3.02e+01	0	32	104	0	60	90667
2026-01-18 00:49:10.47	121.50	7.22	-49.3	-67.4	3.5	3.02e+01	0	32	104	0	60	90131
2026-01-18 00:49:11.48	121.43	7.30	-49.7	-67.8	3.5	3.02e+01	0	32	104	0	60	94975
2026-01-18 00:49:12.49	121.37	7.38	-49.2	-67.4	3.5	3.02e+01	0	32	104	0	60	89721
2026-01-18 00:49:13.50	121.30	7.45	-49.5	-67.6	3.5	3.02e+01	0	32	104	0	60	92219
2026-01-18 00:49:14.51	121.24	7.53	-49.5	-67.7	3.5	3.02e+01	0	32	104	0	60	93080
2026-01-18 00:49:15.51	121.17	7.61	-49.3	-67.4	3.5	3.02e+01	0	32	104	0	60	90341
2026-01-18 00:49:16.52	121.11	7.69	-50.0	-68.1	3.5	3.02e+01	0	32	104	0	60	97653
2026-01-18 00:49:17.54	121.04	7.77	-49.4	-67.5	3.5	3.02e+01	0	32	104	0	60	91041
2026-01-18 00:49:18.55	120.98	7.85	-50.0	-68.2	3.5	3.02e+01	0	32	104	0	60	98616
2026-01-18 00:49:19.56	120.91	7.93	-50.0	-68.1	3.5	3.02e+01	0	32	104	0	60	98217
2026-01-18 00:49:20.57	120.84	8.02	-49.9	-68.0	3.5	3.02e+01	0	32	104	0	60	96851
2026-01-18 00:49:21.58	120.77	8.10	-49.2	-67.4	3.5	3.02e+01	0	32	104	0	60	89865
2026-01-18 00:49:22.59	120.71	8.18	-49.2	-67.4	3.5	3.02e+01	0	32	104	0	60	90558
2026-01-18 00:49:23.60	120.64	8.26	-49.5	-67.6	3.5	3.02e+01	0	32	104	0	60	92727
2026-01-18 00:49:24.61	120.57	8.34	-50.0	-68.2	3.5	3.02e+01	0	32	104	0	60	98498
2026-01-18 00:49:25.62	120.50	8.42	-49.6	-67.8	3.5	3.02e+01	0	32	104	0	60	94208
2026-01-18 00:49:26.63	120.43	8.51	-49.2	-67.3	3.5	3.02e+01	0	32	104	0	60	89581
2026-01-18 00:49:27.64	120.36	8.59	-49.2	-67.3	3.5	3.02e+01	0	32	104	0	60	89652
2026-01-18 00:49:28.65	120.29	8.67	-49.2	-67.4	3.5	3.02e+01	0	32	104	0	60	90139
2026-01-18 00:49:29.66	120.22	8.76	-49.4	-67.5	3.5	3.02e+01	0	32	104	0	60	91716
2026-01-18 00:49:30.67	120.14	8.84	-49.4	-67.5	3.5	3.02e+01	0	32	104	0	60	91627
2026-01-18 00:49:31.68	120.07	8.92	-49.3	-67.4	3.5	3.02e+01	0	32	104	0	60	90663
2026-01-18 00:49:32.69	120.00	9.01	-49.3	-67.4	3.5	3.02e+01	0	32	104	0	60	90149
2026-01-18 00:49:33.70	119.93	9.09	-49.5	-67.6	3.5	3.02e+01	0	32	104	0	60	92727
2026-01-18 00:49:34.71	119.85	9.18	-49.7	-67.8	3.5	3.02e+01	0	32	104	0	60	94219
2026-01-18 00:49:35.72	119.78	9.26	-49.6	-67.7	3.5	3.02e+01	0	32	104	0	60	93851
2026-01-18 00:49:36.73	119.70	9.35	-49.6	-67.7	3.5	3.02e+01	0	32	104	0	60	93221
2026-01-18 00:49:37.73	119.63	9.43	-49.8	-67.9	3.5	3.02e+01	0	32	104	0	60	96060
2026-01-18 00:49:38.74	119.55	9.52	-49.4	-67.5	3.5	3.02e+01	0	32	104	0	60	91700
2026-01-18 00:49:39.75	119.48	9.60	-49.4	-67.5	3.5	3.02e+01	0	32	104	0	60	91505
2026-01-18 00:49:40.76	119.40	9.69	-49.4	-67.5	3.5	3.02e+01	0	32	104	0	60	91751
2026-01-18 00:49:41.77	119.33	9.78	-49.9	-68.0	3.5	3.02e+01	0	32	104	0	60	96719
2026-01-18 00:49:42.78	119.25	9.86	-49.7	-67.8	3.5	3.02e+01	0	32	104	0	60	94713
2026-01-18 00:49:43.79	119.17	9.95	-49.8	-68.0	3.5	3.02e+01	0	32	104	0	60	96174
2026-01-18 00:49:44.80	119.09	10.04	-49.8	-67.9	3.5	3.02e+01	0	32	104	0	60	95928
2026-01-18 00:49:45.80	119.01	10.12	-49.3	-67.5	3.5	3.02e+01	0	32	104	0	60	91033
2026-01-18 00:49:46.81	118.93	10.21	-49.6	-67.7	3.5	3.02e+01	0	32	104	0	60	93675
2026-01-18 00:49:47.82	118.85	10.30	-49.7	-67.9	3.5	3.02e+01	0	32	104	0	60	95102
2026-01-18 00:49:48.83	118.77	10.39	-49.6	-67.7	3.5	3.02e+01	0	32	104	0	60	93059
2026-01-18 00:49:49.84	118.69	10.48	-49.7	-67.8	3.5	3.02e+01	0	32	104	0	60	94529
2026-01-18 00:49:50.85	118.61	10.57	-49.6	-67.7	3.5	3.02e+01	0	32	104	0	60	93710
2026-01-18 00:49:51.86	118.53	10.66	-50.0	-68.1	3.5	3.02e+01	0	32	104	0	60	98145
2026-01-18 00:49:52.87	118.44	10.75	-49.4	-67.6	3.5	3.02e+01	0	32	104	0	60	92012
2026-01-18 00:49:53.88	118.36	10.84	-50.5	-68.6	3.5	3.02e+01	0	32	104	0	60	103592
2026-01-18 00:49:54.89	118.28	10.93	-49.5	-67.6	3.5	3.02e+01	0	32	104	0	60	92429
2026-01-18 00:49:55.89	118.19	11.02	-49.4	-67.6	3.5	3.02e+01	0	32	104	0	60	91818
2026-01-18 00:49:56.91	118.11	11.11	-49.2	-67.4	3.4	3.02e+01	0	32	104	0	60	90215
2026-01-18 00:49:57.91	118.02	11.20	-49.7	-67.9	3.5	3.02e+01	0	32	104	0	60	95531
2026-01-18 00:49:58.93	117.93	11.29	-49.5	-67.6	3.5	3.02e+01	0	32	104	0	60	92501
2026-01-18 00:49:59.93	117.85	11.38	-49.8	-67.9	3.5	3.02e+01	0	32	104	0	60	95078
2026-01-18 00:50:00.94	117.76	11.48	-49.3	-67.4	3.5	3.02e+01	0	32	104	0	60	90629
2026-01-18 00:50:01.95	117.67	11.57	-49.7	-67.8	3.5	3.02e+01	0	32	104	0	60	94843
2026-01-18 00:50:02.96	117.58	11.66	-49.2	-67.4	3.5	3.02e+01	0	32	104	0	60	90225
2026-01-18 00:50:03.97	117.49	11.76	-49.3	-67.5	3.5	3.02e+01	0	32	104	0	60	91372
2026-01-18 00:50:04.98	117.40	11.85	-49.3	-67.4	3.5	3.02e+01	0	32	104	0	60	90476
2026-01-18 00:50:05.99	117.31	11.94	-49.3	-67.5	3.5	3.02e+01	0	32	104	0	60	90806
2026-01-18 00:50:07.00	117.22	12.04	-49.2	-67.4	3.5	3.02e+01	0	32	104	0	60	89764
2026-01-18 00:50:08.01	117.13	12.13	-49.5	-67.7	3.5	3.02e+01	0	32	104	0	60	93417
2026-01-18 00:50:09.02	117.03	12.23	-49.3	-67.4	3.5	3.02e+01	0	32	104	0	60	90518
2026-01-18 00:50:10.03	116.94	12.32	-49.2	-67.4	3.5	3.02e+01	0	32	104	0	60	90158
2026-01-18 00:50:11.04	116.85	12.42	-49.4	-67.6	3.5	3.02e+01	0	32	104	0	60	91852
2026-01-18 00:50:12.05	116.75	12.51	-49.3	-67.5	3.5	3.02e+01	0	33	104	0	60	90837
2026-01-18 00:50:13.06	116.66	12.61	-49.9	-68.1	3.5	3.02e+01	0	32	104	0	60	97387
2026-01-18 00:50:14.07	116.56	12.71	-49.5	-67.7	3.5	3.02e+01	0	32	104	0	60	93188
2026-01-18 00:50:15.08	116.46	12.80	-49.2	-67.4	3.5	3.02e+01	0	32	104	0	60	90014
2026-01-18 00:50:16.09	116.37	12.90	-49.4	-67.5	3.5	3.02e+01	0	32	104	0	60	91023
2026-01-18 00:50:17.11	116.27	13.00	-49.4	-67.5	3.5	3.02e+01	0	32	104	0	60	91642
2026-01-18 00:50:18.11	116.17	13.10	-49.2	-67.3	3.5	3.02e+01	0	32	104	0	60	89604
2026-01-18 00:50:19.13	116.07	13.20	-49.8	-67.9	3.5	3.02e+01	0	32	104	0	60	95942
2026-01-18 00:50:20.14	115.97	13.30	-49.4	-67.6	3.5	3.02e+01	0	32	104	0	60	92158
2026-01-18 00:50:21.15	115.87	13.40	-49.3	-67.4	3.5	3.02e+01	0	32	104	0	60	90734
2026-01-18 00:50:22.16	115.76	13.50	-49.3	-67.5	3.5	3.02e+01	0	32	104	0	60	91220
2026-01-18 00:50:23.17	115.66	13.60	-49.4	-67.6	3.5	3.02e+01	0	32	104	0	60	91989
2026-01-18 00:50:24.18	115.56	13.70	-49.5	-67.7	3.5	3.02e+01	0	32	104	0	60	92871
2026-01-18 00:50:25.19	115.45	13.80	-49.6	-67.7	3.5	3.02e+01	0	33	104	0	60	93288
2026-01-18 00:50:26.20	115.35	13.90	-49.6	-67.8	3.5	3.02e+01	0	32	104	0	60	94436
2026-01-18 00:50:27.21	115.24	14.00	-49.2	-67.4	3.5	3.02e+01	0	32	104	0	60	89953
2026-01-18 00:50:28.22	115.14	14.10	-49.4	-67.5	3.5	3.02e+01	0	32	104	0	60	91090
2026-01-18 00:50:29.23	115.03	14.20	-49.5	-67.6	3.5	3.02e+01	0	32	104	0	60	92493
2026-01-18 00:50:30.23	114.92	14.31	-49.5	-67.8	3.5	3.02e+01	0	32	104	0	60	94565
2026-01-18 00:50:31.24	114.81	14.41	-49.9	-68.0	3.5	3.02e+01	0	32	104	0	60	96641
2026-01-18 00:50:32.25	114.70	14.51	-49.6	-67.7	3.5	3.02e+01	0	32	104	0	60	93778
2026-01-18 00:50:33.26	114.59	14.62	-49.3	-67.4	3.5	3.02e+01	0	32	104	0	60	90433
2026-01-18 00:50:34.27	114.48	14.72	-49.6	-67.7	3.5	3.02e+01	0	32	104	0	60	93302
2026-01-18 00:50:35.28	114.37	14.82	-49.8	-68.0	3.5	3.02e+01	0	32	104	0	60	96125
2026-01-18 00:50:36.29	114.25	14.93	-49.7	-67.8	3.5	3.02e+01	0	32	104	0	60	94443
2026-01-18 00:50:37.30	114.14	15.03	-49.6	-67.7	3.5	3.02e+01	0	32	104	0	60	93743
2026-01-18 00:50:38.31	114.02	15.14	-49.4	-67.6	3.5	3.02e+01	0	33	104	0	60	92174
2026-01-18 00:50:39.32	113.91	15.25	-49.7	-67.8	3.5	3.02e+01	0	32	104	0	60	94550
2026-01-18 00:50:40.33	113.79	15.35	-49.7	-67.8	3.5	3.02e+01	0	32	104	0	60	94571
2026-01-18 00:50:41.33	113.67	15.46	-49.3	-67.5	3.5	3.02e+01	0	32	104	0	60	90802
2026-01-18 00:50:42.34	113.56	15.57	-49.3	-67.4	3.5	3.02e+01	0	32	104	0	60	90458
2026-01-18 00:50:43.35	113.44	15.67	-49.6	-67.7	3.5	3.02e+01	0	32	104	0	60	93327
2026-01-18 00:50:44.36	113.31	15.78	-49.4	-67.6	3.5	3.02e+01	0	32	104	0	60	91836
2026-01-18 00:50:45.37	113.19	15.89	-49.1	-67.3	3.5	3.02e+01	0	32	104	0	60	89427
2026-01-18 00:50:46.38	113.07	16.00	-49.4	-67.5	3.5	3.02e+01	0	32	104	0	60	91469
2026-01-18 00:50:47.39	112.95	16.11	-49.4	-67.6	3.5	3.02e+01	0	32	104	0	60	91884
2026-01-18 00:50:48.40	112.82	16.22	-49.5	-67.7	3.5	3.02e+01	0	32	104	0	60	93276
2026-01-18 00:50:49.41	112.70	16.33	-49.5	-67.7	3.5	3.02e+01	0	32	104	0	60	93078
2026-01-18 00:50:50.42	112.57	16.44	-49.2	-67.4	3.5	3.02e+01	0	32	104	0	60	89984
2026-01-18 00:50:51.43	112.44	16.55	-49.5	-67.6	3.5	3.02e+01	0	32	104	0	60	92448
2026-01-18 00:50:52.44	112.31	16.66	-49.3	-67.5	3.5	3.02e+01	0	32	104	0	60	91449
2026-01-18 00:50:53.45	112.18	16.77	-49.4	-67.5	3.5	3.02e+01	0	32	104	0	60	91615
2026-01-18 00:50:54.46	112.05	16.89	-49.2	-67.4	3.5	3.02e+01	0	32	104	0	60	90302
2026-01-18 00:50:55.47	111.92	17.00	-49.1	-67.2	3.5	3.02e+01	0	33	104	0	60	88442
2026-01-18 00:50:56.48	111.79	17.11	-49.3	-67.5	3.5	3.02e+01	0	32	104	0	60	90915
2026-01-18 00:50:57.49	111.66	17.22	-49.3	-67.5	3.5	3.02e+01	0	32	104	0	60	90800
2026-01-18 00:50:58.50	111.52	17.34	-49.2	-67.4	3.5	3.02e+01	0	32	104	0	60	90068
2026-01-18 00:50:59.51	111.38	17.45	-49.2	-67.3	3.5	3.02e+01	0	33	104	0	60	89595
2026-01-18 00:51:00.52	111.25	17.57	-49.1	-67.3	3.5	3.02e+01	0	32	104	0	60	89045
2026-01-18 00:51:01.53	111.11	17.68	-49.4	-67.6	3.5	3.02e+01	0	32	104	0	60	91831
2026-01-18 00:51:02.54	110.97	17.80	-49.5	-67.7	3.5	3.02e+01	0	32	104	0	60	92906
2026-01-18 00:51:03.55	110.83	17.91	-49.2	-67.3	3.5	3.02e+01	0	32	104	0	60	89552
2026-01-18 00:51:04.56	110.69	18.03	-49.2	-67.4	3.5	3.02e+01	0	32	104	0	60	89958
2026-01-18 00:51:05.57	110.54	18.15	-49.2	-67.4	3.5	3.02e+01	0	33	104	0	60	90341
2026-01-18 00:51:06.58	110.40	18.27	-49.2	-67.3	3.5	3.02e+01	0	32	104	0	60	89639
2026-01-18 00:51:07.59	110.25	18.38	-49.3	-67.4	3.5	3.02e+01	0	32	104	0	60	90607
2026-01-18 00:51:08.60	110.11	18.50	-49.4	-67.6	3.5	3.02e+01	0	33	104	0	60	92003
2026-01-18 00:51:09.61	109.96	18.62	-49.3	-67.5	3.5	3.02e+01	0	32	104	0	60	91058
2026-01-18 00:51:10.61	109.81	18.74	-49.9	-68.0	3.5	3.02e+01	0	32	104	0	60	97160
2026-01-18 00:51:11.62	109.66	18.86	-49.4	-67.6	3.5	3.02e+01	0	32	104	0	60	91799
2026-01-18 00:51:12.63	109.51	18.98	-49.3	-67.4	3.5	3.02e+01	0	32	104	0	60	90464
2026-01-18 00:51:13.64	109.36	19.10	-49.4	-67.6	3.5	3.02e+01	0	32	104	0	60	92134
2026-01-18 00:51:14.65	109.20	19.22	-49.4	-67.5	3.5	3.02e+01	0	32	104	0	60	91298
2026-01-18 00:51:15.66	109.05	19.34	-49.5	-67.6	3.5	3.02e+01	0	32	104	0	60	92734
2026-01-18 00:51:16.67	108.89	19.46	-49.4	-67.5	3.5	3.02e+01	0	32	104	0	60	91595
2026-01-18 00:51:17.69	108.73	19.58	-49.4	-67.6	3.5	3.02e+01	0	32	104	0	60	92025
2026-01-18 00:51:18.70	108.57	19.71	-49.5	-67.6	3.5	3.02e+01	0	32	104	0	60	92809
2026-01-18 00:51:19.70	108.41	19.83	-49.3	-67.4	3.5	3.02e+01	0	32	104	0	60	90665
2026-01-18 00:51:20.71	108.25	19.95	-49.3	-67.4	3.5	3.02e+01	0	32	104	0	60	90617
2026-01-18 00:51:21.72	108.09	20.08	-49.4	-67.6	3.5	3.02e+01	0	32	104	0	60	91940
2026-01-18 00:51:22.73	107.92	20.20	-49.4	-67.5	3.5	3.02e+01	0	32	104	0	60	90987
2026-01-18 00:51:23.74	107.75	20.33	-49.5	-67.7	3.5	3.02e+01	0	32	104	0	60	93070
2026-01-18 00:51:24.75	107.59	20.45	-49.2	-67.3	3.5	3.02e+01	0	32	104	0	60	89622
2026-01-18 00:51:25.77	107.41	20.58	-49.4	-67.6	3.5	3.02e+01	0	32	104	0	60	92052
2026-01-18 00:51:26.78	107.24	20.70	-49.3	-67.4	3.5	3.02e+01	0	32	104	0	60	90412
2026-01-18 00:51:27.79	107.07	20.83	-49.3	-67.4	3.5	3.02e+01	0	32	104	0	60	90272
2026-01-18 00:51:28.80	106.90	20.96	-49.5	-67.6	3.5	3.02e+01	0	33	104	0	60	92032
2026-01-18 00:51:29.81	106.72	21.08	-49.3	-67.4	3.5	3.02e+01	0	33	104	0	60	90600
2026-01-18 00:51:30.81	106.55	21.21	-49.1	-67.3	3.5	3.02e+01	0	33	104	0	60	89517
2026-01-18 00:51:31.82	106.37	21.34	-49.1	-67.2	3.5	3.02e+01	0	33	104	0	60	88616
2026-01-18 00:51:32.83	106.19	21.47	-49.0	-67.2	3.5	3.02e+01	0	33	104	0	60	88031
2026-01-18 00:51:33.84	106.01	21.60	-49.1	-67.2	3.6	3.02e+01	0	32	104	0	60	88481
2026-01-18 00:51:34.85	105.82	21.73	-49.1	-67.3	3.5	3.02e+01	0	33	104	0	60	88964
2026-01-18 00:51:35.86	105.64	21.86	-49.2	-67.3	3.5	3.02e+01	0	33	104	0	60	89492
2026-01-18 00:51:36.87	105.45	21.99	-49.3	-67.4	3.5	3.02e+01	0	33	104	0	60	90534
2026-01-18 00:51:37.88	105.26	22.12	-49.3	-67.4	3.5	3.02e+01	0	32	104	0	60	89908
2026-01-18 00:51:38.89	105.07	22.25	-49.3	-67.5	3.5	3.02e+01	0	32	104	0	60	90937
2026-01-18 00:51:39.90	104.88	22.38	-49.1	-67.2	3.5	3.02e+01	0	32	104	0	60	88551
2026-01-18 00:51:40.91	104.69	22.51	-49.1	-67.3	3.5	3.02e+01	0	32	104	0	60	89090
2026-01-18 00:51:41.92	104.49	22.64	-49.1	-67.2	3.5	3.02e+01	0	33	104	0	60	88649
2026-01-18 00:51:42.93	104.29	22.78	-49.1	-67.2	3.5	3.02e+01	0	33	104	0	60	88141
2026-01-18 00:51:43.94	104.09	22.91	-49.1	-67.2	3.5	3.02e+01	0	33	104	0	60	88571
2026-01-18 00:51:44.95	103.89	23.04	-49.0	-67.2	3.5	3.02e+01	0	33	104	0	60	87673
2026-01-18 00:51:45.96	103.69	23.18	-48.9	-67.1	3.5	3.02e+01	0	33	104	0	60	87336
2026-01-18 00:51:46.97	103.49	23.31	-49.1	-67.2	3.5	3.02e+01	0	33	104	0	60	88315
2026-01-18 00:51:47.98	103.28	23.44	-49.1	-67.3	3.5	3.02e+01	0	33	104	0	60	89211
2026-01-18 00:51:48.99	103.07	23.58	-49.3	-67.5	3.5	3.02e+01	0	33	104	0	60	91592
2026-01-18 00:51:50.00	102.86	23.72	-49.3	-67.4	3.5	3.02e+01	0	33	104	0	60	90703
2026-01-18 00:51:51.01	102.65	23.85	-49.6	-67.7	3.5	3.02e+01	0	33	104	0	60	93652
2026-01-18 00:51:52.02	102.44	23.99	-49.6	-67.8	3.5	3.02e+01	0	33	104	0	60	93953
2026-01-18 00:51:53.03	102.22	24.12	-49.9	-68.1	3.5	3.02e+01	0	33	104	0	60	97315
2026-01-18 00:51:54.04	102.00	24.26	-49.3	-67.4	3.5	3.02e+01	0	33	104	0	60	90694
2026-01-18 00:51:55.05	101.78	24.40	-49.5	-67.7	3.5	3.02e+01	0	33	104	0	60	92956
2026-01-18 00:51:56.05	101.56	24.53	-49.6	-67.7	3.5	3.02e+01	0	33	104	0	60	93699
2026-01-18 00:51:57.06	101.34	24.67	-49.9	-68.0	3.5	3.02e+01	0	32	104	0	60	96764
2026-01-18 00:51:58.07	101.11	24.81	-49.3	-67.5	3.5	3.02e+01	0	32	104	0	60	90904
2026-01-18 00:51:59.08	100.89	24.95	-49.2	-67.4	3.5	3.02e+01	0	33	104	0	60	89774
2026-01-18 00:52:00.09	100.65	25.09	-49.2	-67.4	3.5	3.02e+01	0	32	104	0	60	89798
2026-01-18 00:52:01.10	100.42	25.22	-49.4	-67.5	3.5	3.02e+01	0	33	104	0	60	91318
2026-01-18 00:52:02.11	100.19	25.36	-49.3	-67.4	3.5	3.02e+01	0	33	104	0	60	90143
2026-01-18 00:52:03.12	99.95	25.50	-49.4	-67.5	3.5	3.02e+01	0	32	104	0	60	91139
2026-01-18 00:52:04.13	99.71	25.64	-49.4	-67.6	3.5	3.02e+01	0	32	104	0	60	92315
2026-01-18 00:52:05.14	99.47	25.78	-49.4	-67.5	3.5	3.02e+01	0	33	104	0	60	91477
2026-01-18 00:52:06.15	99.23	25.92	-49.3	-67.5	3.5	3.02e+01	0	33	104	0	60	90793
2026-01-18 00:52:07.16	98.98	26.06	-50.0	-68.1	3.5	3.02e+01	0	33	104	0	60	98002
2026-01-18 00:52:08.17	98.73	26.20	-49.7	-67.9	3.5	3.02e+01	0	33	104	0	60	95194
2026-01-18 00:52:09.18	98.48	26.34	-49.5	-67.7	3.5	3.02e+01	0	33	104	0	60	93396
2026-01-18 00:52:10.19	98.23	26.49	-49.5	-67.6	3.5	3.02e+01	0	33	104	0	60	92845
2026-01-18 00:52:11.20	97.98	26.63	-49.3	-67.4	3.5	3.02e+01	0	33	104	0	60	90705
2026-01-18 00:52:12.21	97.72	26.77	-49.5	-67.7	3.5	3.02e+01	0	33	104	0	60	93599
2026-01-18 00:52:13.22	97.46	26.91	-49.5	-67.6	3.5	3.02e+01	0	33	104	0	60	92667
2026-01-18 00:52:14.23	97.20	27.05	-49.7	-67.8	3.5	3.02e+01	0	33	104	0	60	94021
2026-01-18 00:52:15.24	96.93	27.19	-49.2	-67.3	3.5	3.02e+01	0	33	104	0	60	89617
2026-01-18 00:52:16.25	96.67	27.34	-49.6	-67.8	3.5	3.02e+01	0	33	104	0	60	94165
2026-01-18 00:52:17.26	96.40	27.48	-49.5	-67.6	3.5	3.02e+01	0	33	104	0	60	92085
2026-01-18 00:52:18.27	96.12	27.62	-49.4	-67.5	3.5	3.02e+01	0	33	104	0	60	91586
2026-01-18 00:52:19.28	95.85	27.76	-49.4	-67.5	3.5	3.02e+01	0	33	104	0	60	91244
2026-01-18 00:52:20.28	95.58	27.90	-49.5	-67.6	3.5	3.02e+01	0	33	104	0	60	91950
2026-01-18 00:52:21.30	95.29	28.05	-49.5	-67.6	3.5	3.02e+01	0	33	104	0	60	92324
2026-01-18 00:52:22.31	95.01	28.19	-49.4	-67.5	3.5	3.02e+01	0	33	104	0	60	91207
2026-01-18 00:52:23.31	94.73	28.33	-49.6	-67.8	3.5	3.02e+01	0	33	104	0	60	93931
2026-01-18 00:52:24.32	94.44	28.47	-49.6	-67.8	3.5	3.02e+01	0	33	104	0	60	94663
2026-01-18 00:52:25.33	94.15	28.62	-49.4	-67.6	3.5	3.02e+01	0	33	104	0	60	92411
2026-01-18 00:52:26.34	93.86	28.76	-49.6	-67.8	3.5	3.02e+01	0	32	104	0	60	94245
2026-01-18 00:52:27.35	93.56	28.90	-49.4	-67.5	3.5	3.02e+01	0	33	104	0	60	91426
2026-01-18 00:52:28.36	93.26	29.04	-49.6	-67.7	3.5	3.02e+01	0	33	104	0	60	93912
2026-01-18 00:52:29.37	92.96	29.19	-49.3	-67.5	3.5	3.02e+01	0	33	104	0	60	90879
2026-01-18 00:52:30.38	92.66	29.33	-49.4	-67.5	3.5	3.02e+01	0	33	104	0	60	91772
2026-01-18 00:52:31.39	92.35	29.47	-49.7	-67.8	3.5	3.02e+01	0	32	104	0	60	94654
2026-01-18 00:52:32.40	92.04	29.61	-49.3	-67.6	3.5	3.02e+01	0	33	104	0	60	92059
2026-01-18 00:52:33.41	91.73	29.75	-49.5	-67.7	3.6	3.02e+01	0	33	104	0	60	93111
2026-01-18 00:52:34.42	91.41	29.90	-49.5	-67.6	3.5	3.02e+01	0	33	104	0	60	92572
2026-01-18 00:52:35.43	91.10	30.04	-49.5	-67.6	3.5	3.02e+01	0	33	104	0	60	92592
2026-01-18 00:52:36.43	90.78	30.18	-49.5	-67.6	3.5	3.02e+01	0	33	104	0	60	92505
2026-01-18 00:52:37.44	90.45	30.32	-49.6	-67.7	3.5	3.02e+01	0	32	104	0	60	93777
2026-01-18 00:52:38.45	90.13	30.46	-49.4	-67.5	3.5	3.02e+01	0	32	104	0	60	91480
2026-01-18 00:52:39.46	89.80	30.60	-49.6	-67.7	3.5	3.02e+01	0	32	104	0	60	93444
2026-01-18 00:52:40.47	89.46	30.74	-49.4	-67.5	3.5	3.02e+01	0	33	104	0	60	91641
2026-01-18 00:52:41.48	89.13	30.88	-49.4	-67.5	3.5	3.02e+01	0	32	104	0	60	91694
2026-01-18 00:52:42.49	88.79	31.02	-49.5	-67.7	3.5	3.02e+01	0	32	104	0	60	93190
2026-01-18 00:52:43.50	88.45	31.16	-49.4	-67.5	3.5	3.02e+01	0	33	104	0	60	91450
2026-01-18 00:52:44.51	88.10	31.29	-49.6	-67.7	3.5	3.02e+01	0	33	104	0	60	93917
2026-01-18 00:52:45.52	87.75	31.43	-49.5	-67.7	3.5	3.02e+01	0	33	104	0	60	92902
2026-01-18 00:52:46.53	87.40	31.57	-49.3	-67.4	3.5	3.02e+01	0	32	104	0	60	90723
2026-01-18 00:52:47.54	87.05	31.71	-49.4	-67.5	3.5	3.02e+01	0	33	104	0	60	91277
2026-01-18 00:52:48.55	86.69	31.84	-49.3	-67.5	3.5	3.02e+01	0	32	104	0	60	91459
2026-01-18 00:52:49.56	86.33	31.98	-49.4	-67.5	3.5	3.02e+01	0	33	104	0	60	91358
2026-01-18 00:52:50.57	85.97	32.11	-49.4	-67.5	3.5	3.02e+01	0	33	104	0	60	91443
2026-01-18 00:52:51.58	85.60	32.25	-49.4	-67.5	3.5	3.02e+01	0	33	104	0	60	91121
2026-01-18 00:52:52.59	85.23	32.38	-49.4	-67.5	3.5	3.02e+01	0	33	104	0	60	91282
2026-01-18 00:52:53.59	84.86	32.52	-49.2	-67.3	3.5	3.02e+01	0	33	104	0	60	89484
2026-01-18 00:52:54.61	84.48	32.65	-49.2	-67.4	3.5	3.02e+01	0	33	104	0	60	90120
2026-01-18 00:52:55.61	84.11	32.78	-49.2	-67.4	3.5	3.02e+01	0	33	104	0	60	90008
2026-01-18 00:52:56.62	83.72	32.91	-49.3	-67.4	3.5	3.02e+01	0	33	104	0	60	90410
2026-01-18 00:52:57.63	83.34	33.04	-49.3	-67.5	3.5	3.02e+01	0	32	104	0	60	90916
2026-01-18 00:52:58.64	82.95	33.17	-49.2	-67.3	3.5	3.02e+01	0	33	104	0	60	89281
2026-01-18 00:52:59.66	82.55	33.30	-49.3	-67.4	3.5	3.02e+01	0	33	104	0	60	90285
2026-01-18 00:53:00.67	82.16	33.43	-49.4	-67.5	3.5	3.02e+01	0	33	104	0	60	91754
2026-01-18 00:53:01.68	81.76	33.55	-49.7	-67.9	3.5	3.02e+01	0	33	104	0	60	95146
2026-01-18 00:53:02.69	81.36	33.68	-49.9	-68.0	3.5	3.02e+01	0	33	104	0	60	96148
2026-01-18 00:53:03.70	80.95	33.80	-49.3	-67.5	3.5	3.02e+01	0	33	104	0	60	90999
2026-01-18 00:53:04.71	80.54	33.93	-49.6	-67.7	3.5	3.02e+01	0	33	104	0	60	93188
2026-01-18 00:53:05.72	80.13	34.05	-49.7	-67.8	3.5	3.02e+01	0	33	104	0	60	94252
2026-01-18 00:53:06.72	79.72	34.17	-49.8	-67.9	3.5	3.02e+01	0	32	104	0	60	95429
2026-01-18 00:53:07.73	79.31	34.29	-49.9	-68.0	3.5	3.02e+01	0	32	104	0	60	96735
2026-01-18 00:53:08.75	78.88	34.41	-49.2	-67.3	3.5	3.02e+01	0	33	104	0	60	89572
2026-01-18 00:53:09.76	78.46	34.53	-49.5	-67.6	3.5	3.02e+01	0	33	104	0	60	92125
2026-01-18 00:53:10.76	78.03	34.64	-49.6	-67.7	3.5	3.02e+01	0	33	104	0	60	93148
2026-01-18 00:53:11.77	77.60	34.76	-49.9	-68.0	3.5	3.02e+01	0	33	104	0	60	96579
2026-01-18 00:53:12.78	77.17	34.87	-49.6	-67.7	3.5	3.02e+01	0	33	104	0	60	93886
2026-01-18 00:53:13.79	76.73	34.98	-49.1	-67.2	3.5	3.02e+01	0	33	104	0	60	88617
2026-01-18 00:53:14.80	76.30	35.09	-49.2	-67.4	3.5	3.02e+01	0	32	104	0	60	89951
2026-01-18 00:53:15.81	75.85	35.20	-49.3	-67.4	3.5	3.02e+01	0	33	104	0	60	90245
2026-01-18 00:53:16.82	75.41	35.31	-49.5	-67.6	3.5	3.02e+01	0	33	104	0	60	92076
2026-01-18 00:53:17.82	74.96	35.41	-49.4	-67.5	3.5	3.02e+01	0	33	104	0	60	91213
2026-01-18 00:53:18.83	74.51	35.52	-49.3	-67.5	3.5	3.02e+01	0	33	104	0	60	91356
2026-01-18 00:53:19.85	74.05	35.62	-49.2	-67.3	3.5	3.02e+01	0	33	104	0	60	89157
2026-01-18 00:53:20.85	73.60	35.72	-49.2	-67.3	3.5	3.02e+01	0	33	104	0	60	89473
2026-01-18 00:53:21.86	73.14	35.82	-49.1	-67.3	3.5	3.02e+01	0	33	104	0	60	88941
2026-01-18 00:53:22.87	72.68	35.92	-49.3	-67.5	3.5	3.02e+01	0	33	104	0	60	91024
2026-01-18 00:53:23.88	72.21	36.02	-49.2	-67.4	3.5	3.02e+01	0	33	104	0	60	89824
2026-01-18 00:53:24.89	71.74	36.11	-49.2	-67.3	3.5	3.02e+01	0	33	104	0	60	89557
2026-01-18 00:53:25.90	71.27	36.20	-49.4	-67.5	3.5	3.02e+01	0	33	104	0	60	91463
2026-01-18 00:53:26.91	70.80	36.29	-49.3	-67.5	3.5	3.02e+01	0	33	104	0	60	91025
2026-01-18 00:53:27.92	70.32	36.38	-49.1	-67.3	3.5	3.02e+01	0	33	104	0	60	88970
2026-01-18 00:53:28.93	69.84	36.47	-49.2	-67.3	3.5	3.02e+01	0	33	104	0	60	89132
2026-01-18 00:53:29.94	69.36	36.55	-49.2	-67.3	3.5	3.02e+01	0	32	104	0	60	89410
2026-01-18 00:53:30.95	68.88	36.63	-49.3	-67.5	3.5	3.02e+01	0	33	104	0	60	90943
2026-01-18 00:53:31.96	68.39	36.71	-49.2	-67.3	3.5	3.02e+01	0	33	104	0	60	88970
2026-01-18 00:53:32.96	67.90	36.79	-49.2	-67.4	3.5	3.02e+01	0	33	104	0	60	90016
2026-01-18 00:53:33.97	67.41	36.87	-49.1	-67.2	3.5	3.02e+01	0	33	104	0	60	88460
2026-01-18 00:53:34.98	66.92	36.94	-49.1	-67.3	3.5	3.02e+01	0	33	104	0	60	88764
2026-01-18 00:53:35.99	66.42	37.01	-49.2	-67.3	3.5	3.02e+01	0	33	104	0	60	89536
2026-01-18 00:53:37.00	65.92	37.08	-49.2	-67.4	3.5	3.02e+01	0	33	104	0	60	90202
2026-01-18 00:53:38.01	65.42	37.15	-49.1	-67.3	3.5	3.02e+01	0	33	104	0	60	89210
2026-01-18 00:53:39.02	64.92	37.21	-49.1	-67.2	3.5	3.02e+01	0	33	104	0	60	88532
2026-01-18 00:53:40.03	64.42	37.27	-49.0	-67.2	3.5	3.02e+01	0	33	104	0	60	87887
2026-01-18 00:53:41.04	63.91	37.33	-49.0	-67.1	3.5	3.02e+01	0	33	104	0	60	87581
2026-01-18 00:53:42.05	63.40	37.39	-48.9	-67.1	3.5	3.02e+01	0	33	104	0	60	87316
2026-01-18 00:53:43.06	62.89	37.45	-48.9	-67.1	3.5	3.02e+01	0	33	104	0	60	87214
2026-01-18 00:53:44.07	62.38	37.50	-48.9	-67.1	3.5	3.02e+01	0	33	104	0	60	87453
2026-01-18 00:53:45.08	61.87	37.55	-49.0	-67.2	3.5	3.02e+01	0	33	104	0	60	88069
2026-01-18 00:53:46.09	61.35	37.60	-49.0	-67.2	3.5	3.02e+01	0	33	104	0	60	87736
2026-01-18 00:53:47.10	60.83	37.64	-49.3	-67.4	3.5	3.02e+01	0	33	104	0	60	90354
2026-01-18 00:53:48.11	60.32	37.68	-49.2	-67.4	3.5	3.02e+01	0	33	104	0	60	89940
2026-01-18 00:53:49.12	59.80	37.72	-49.3	-67.5	3.5	3.02e+01	0	33	104	0	60	90878
2026-01-18 00:53:50.13	59.28	37.76	-49.4	-67.5	3.5	3.02e+01	0	33	104	0	60	91729
2026-01-18 00:53:51.14	58.75	37.80	-49.4	-67.5	3.5	3.02e+01	0	33	104	0	60	91267
2026-01-18 00:53:52.15	58.23	37.83	-49.6	-67.7	3.5	3.02e+01	0	32	104	0	60	93177
2026-01-18 00:53:53.15	57.71	37.86	-49.3	-67.5	3.5	3.02e+01	0	33	104	0	60	91216
2026-01-18 00:53:54.16	57.19	37.88	-49.2	-67.3	3.5	3.02e+01	0	33	104	0	60	89105
2026-01-18 00:53:55.17	56.66	37.91	-49.2	-67.3	3.5	3.02e+01	0	33	104	0	60	89399
2026-01-18 00:53:56.18	56.14	37.93	-49.1	-67.3	3.5	3.02e+01	0	33	104	0	60	89536
2026-01-18 00:53:57.19	55.61	37.95	-49.3	-67.5	3.5	3.02e+01	0	33	104	0	60	91013
2026-01-18 00:53:58.20	55.08	37.97	-49.3	-67.4	3.5	3.02e+01	0	32	104	0	60	90370
2026-01-18 00:53:59.21	54.55	37.98	-49.3	-67.4	3.5	3.02e+01	0	32	104	0	60	90069
2026-01-18 00:54:00.22	54.02	37.99	-49.2	-67.3	3.5	3.02e+01	0	33	104	0	60	89344
2026-01-18 00:54:01.23	53.50	38.00	-49.4	-67.5	3.5	3.02e+01	0	33	104	0	60	91550
2026-01-18 00:54:02.24	52.97	38.00	-49.5	-67.6	3.5	3.02e+01	0	33	104	0	60	92578
2026-01-18 00:54:03.25	52.44	38.01	-49.8	-67.9	3.5	3.02e+01	0	33	104	0	60	96025
2026-01-18 00:54:04.26	51.91	38.01	-49.2	-67.3	3.5	3.02e+01	0	33	104	0	60	89329
2026-01-18 00:54:05.27	51.38	38.00	-49.3	-67.4	3.5	3.02e+01	0	33	104	0	60	90384
2026-01-18 00:54:06.27	50.86	38.00	-49.2	-67.3	3.5	3.02e+01	0	33	104	0	60	89132
2026-01-18 00:54:07.29	50.32	37.99	-49.4	-67.6	3.5	3.02e+01	0	33	104	0	60	91902
2026-01-18 00:54:08.29	49.80	37.98	-49.5	-67.5	3.5	3.02e+01	0	33	104	0	60	91725
2026-01-18 00:54:09.30	49.27	37.96	-49.4	-67.4	3.5	3.02e+01	0	33	104	0	60	90706
2026-01-18 00:54:10.31	48.74	37.95	-49.5	-67.6	3.5	3.02e+01	0	33	104	0	60	92769
2026-01-18 00:54:11.32	48.22	37.93	-49.3	-67.4	3.5	3.02e+01	0	33	104	0	60	90200
2026-01-18 00:54:12.32	47.70	37.91	-49.5	-67.5	3.5	3.02e+01	0	33	104	0	60	91612
2026-01-18 00:54:13.33	47.17	37.88	-49.6	-67.8	3.5	3.02e+01	0	33	104	0	60	94025
2026-01-18 00:54:14.34	46.65	37.85	-49.4	-67.5	3.5	3.02e+01	0	33	104	0	60	91270
2026-01-18 00:54:15.35	46.12	37.82	-49.3	-67.4	3.5	3.02e+01	0	33	104	0	60	90158
2026-01-18 00:54:16.36	45.60	37.79	-49.4	-67.5	3.5	3.02e+01	0	33	104	0	60	91764
2026-01-18 00:54:17.37	45.08	37.76	-49.4	-67.5	3.5	3.02e+01	0	33	104	0	60	91421
2026-01-18 00:54:18.38	44.56	37.72	-49.4	-67.6	3.5	3.02e+01	0	33	104	0	60	91896
2026-01-18 00:54:19.39	44.04	37.68	-49.5	-67.7	3.5	3.02e+01	0	32	104	0	60	92933
2026-01-18 00:54:20.40	43.52	37.64	-49.3	-67.4	3.5	3.02e+01	0	33	104	0	60	90180
2026-01-18 00:54:21.41	43.01	37.59	-49.4	-67.6	3.5	3.02e+01	0	33	104	0	60	91971
2026-01-18 00:54:22.42	42.49	37.54	-49.2	-67.4	3.5	3.02e+01	0	33	104	0	60	90250
2026-01-18 00:54:23.43	41.98	37.49	-49.4	-67.5	3.6	3.02e+01	0	33	104	0	60	91621
2026-01-18 00:54:24.44	41.47	37.44	-49.4	-67.5	3.5	3.02e+01	0	33	104	0	60	91379
2026-01-18 00:54:25.45	40.96	37.38	-49.6	-67.7	3.5	3.02e+01	0	33	104	0	60	92933
2026-01-18 00:54:26.46	40.45	37.33	-49.4	-67.5	3.5	3.02e+01	0	33	104	0	60	91636
2026-01-18 00:54:27.47	39.95	37.27	-49.6	-67.7	3.5	3.02e+01	0	33	104	0	60	92930
2026-01-18 00:54:28.48	39.44	37.20	-49.3	-67.4	3.5	3.02e+01	0	33	104	0	60	90693
2026-01-18 00:54:29.49	38.94	37.14	-49.3	-67.4	3.5	3.02e+01	0	33	104	0	60	90191
2026-01-18 00:54:30.50	38.44	37.07	-49.5	-67.7	3.5	3.02e+01	0	32	104	0	60	93335
2026-01-18 00:54:31.51	37.94	37.00	-49.5	-67.6	3.5	3.02e+01	0	33	104	0	60	92663
2026-01-18 00:54:32.52	37.45	36.93	-49.2	-67.4	3.5	3.02e+01	0	33	104	0	60	89834
2026-01-18 00:54:33.53	36.96	36.86	-49.4	-67.5	3.5	3.02e+01	0	32	104	0	60	91354
2026-01-18 00:54:34.54	36.47	36.78	-49.4	-67.5	3.5	3.02e+01	0	33	104	0	60	91072
2026-01-18 00:54:35.55	35.98	36.70	-49.6	-67.6	3.5	3.02e+01	0	33	104	0	60	92684
2026-01-18 00:54:36.56	35.49	36.62	-49.5	-67.6	3.5	3.02e+01	0	33	104	0	60	92168
2026-01-18 00:54:37.57	35.01	36.54	-49.5	-67.6	3.5	3.02e+01	0	33	104	0	60	92288
2026-01-18 00:54:38.58	34.53	36.45	-49.4	-67.6	3.5	3.02e+01	0	33	104	0	60	91967
2026-01-18 00:54:39.59	34.05	36.37	-50.0	-68.1	3.5	3.02e+01	0	33	104	0	60	97423
2026-01-18 00:54:40.60	33.57	36.28	-49.5	-67.6	3.5	3.02e+01	0	33	104	0	60	92548
2026-01-18 00:54:41.61	33.10	36.19	-49.4	-67.5	3.5	3.02e+01	0	33	104	0	60	91575
2026-01-18 00:54:42.62	32.63	36.10	-49.7	-67.8	3.5	3.02e+01	0	33	104	0	60	94689
2026-01-18 00:54:43.63	32.16	36.00	-49.7	-67.8	3.5	3.02e+01	0	33	104	0	60	94051
2026-01-18 00:54:44.64	31.70	35.91	-49.7	-67.8	3.5	3.02e+01	0	33	104	0	60	94498
2026-01-18 00:54:45.65	31.24	35.81	-49.7	-67.8	3.5	3.02e+01	0	32	104	0	60	94642
2026-01-18 00:54:46.66	30.78	35.71	-49.5	-67.7	3.5	3.02e+01	0	33	104	0	60	93020
2026-01-18 00:54:47.67	30.32	35.61	-49.2	-67.3	3.5	3.02e+01	0	32	104	0	60	89379
2026-01-18 00:54:48.68	29.87	35.51	-49.5	-67.6	3.5	3.02e+01	0	33	104	0	60	92682
2026-01-18 00:54:49.69	29.42	35.40	-49.4	-67.6	3.5	3.02e+01	0	32	104	0	60	92784
2026-01-18 00:54:50.70	28.97	35.29	-49.3	-67.4	3.5	3.02e+01	0	33	104	0	60	90151
2026-01-18 00:54:51.71	28.53	35.19	-49.3	-67.4	3.5	3.02e+01	0	33	104	0	60	90158
2026-01-18 00:54:52.72	28.09	35.08	-49.5	-67.5	3.5	3.02e+01	0	32	104	0	60	91480
2026-01-18 00:54:53.73	27.65	34.97	-49.4	-67.6	3.5	3.02e+01	0	33	104	0	60	92257
2026-01-18 00:54:54.74	27.22	34.86	-49.5	-67.5	3.5	3.02e+01	0	33	104	0	60	91441
2026-01-18 00:54:55.75	26.79	34.74	-49.6	-67.7	3.5	3.02e+01	0	33	104	0	60	93225
2026-01-18 00:54:56.76	26.36	34.63	-49.2	-67.3	3.5	3.02e+01	0	33	104	0	60	89412
2026-01-18 00:54:57.77	25.93	34.51	-49.7	-67.8	3.5	3.02e+01	0	33	104	0	60	94621
2026-01-18 00:54:58.78	25.51	34.39	-49.4	-67.5	3.5	3.02e+01	0	33	104	0	60	91621
2026-01-18 00:54:59.79	25.09	34.28	-49.3	-67.5	3.5	3.02e+01	0	33	104	0	60	90901
2026-01-18 00:55:00.79	24.68	34.16	-49.3	-67.4	3.5	3.02e+01	0	33	104	0	60	90318
2026-01-18 00:55:01.80	24.27	34.04	-49.5	-67.6	3.5	3.02e+01	0	33	104	0	60	92205
2026-01-18 00:55:02.81	23.86	33.91	-49.1	-67.3	3.5	3.02e+01	0	33	104	0	60	88847
2026-01-18 00:55:03.82	23.45	33.79	-49.4	-67.6	3.5	3.02e+01	0	33	104	0	60	92085
2026-01-18 00:55:04.83	23.05	33.67	-49.3	-67.5	3.5	3.02e+01	0	33	104	0	60	91060
2026-01-18 00:55:05.84	22.65	33.54	-49.4	-67.5	3.5	3.02e+01	0	33	104	0	60	91598
2026-01-18 00:55:06.85	22.25	33.42	-49.2	-67.3	3.5	3.02e+01	0	33	104	0	60	89180
2026-01-18 00:55:07.86	21.86	33.29	-49.2	-67.3	3.5	3.02e+01	0	33	104	0	60	89129
2026-01-18 00:55:08.87	21.46	33.16	-49.5	-67.6	3.5	3.02e+01	0	33	104	0	60	92705
2026-01-18 00:55:09.88	21.08	33.03	-49.3	-67.3	3.5	3.02e+01	0	33	104	0	60	89320
2026-01-18 00:55:10.89	20.69	32.90	-49.2	-67.3	3.5	3.02e+01	0	33	104	0	60	89655
2026-01-18 00:55:11.90	20.31	32.77	-49.2	-67.3	3.5	3.02e+01	0	33	104	0	60	89580
2026-01-18 00:55:12.91	19.93	32.64	-49.3	-67.4	3.5	3.02e+01	0	33	104	0	60	90166
2026-01-18 00:55:13.92	19.56	32.51	-49.2	-67.3	3.5	3.02e+01	0	33	104	0	60	89382
2026-01-18 00:55:14.93	19.19	32.37	-49.2	-67.3	3.5	3.02e+01	0	33	104	0	60	89657
2026-01-18 00:55:15.94	18.82	32.24	-49.3	-67.5	3.5	3.02e+01	0	33	104	0	60	90894
2026-01-18 00:55:16.95	18.46	32.11	-49.3	-67.5	3.5	3.02e+01	0	33	104	0	60	90884
2026-01-18 00:55:17.96	18.09	31.97	-49.2	-67.3	3.5	3.02e+01	0	33	104	0	60	89639
2026-01-18 00:55:18.97	17.73	31.84	-49.3	-67.4	3.5	3.02e+01	0	33	104	0	60	90509
2026-01-18 00:55:19.98	17.38	31.70	-49.3	-67.4	3.5	3.02e+01	0	33	104	0	60	90605
2026-01-18 00:55:20.99	17.03	31.56	-49.3	-67.4	3.5	3.02e+01	0	33	104	0	60	89837
2026-01-18 00:55:21.99	16.68	31.43	-49.4	-67.6	3.5	3.02e+01	0	33	104	0	60	91893
2026-01-18 00:55:23.01	16.33	31.29	-49.4	-67.5	3.5	3.02e+01	0	33	104	0	60	91560
2026-01-18 00:55:24.02	15.99	31.15	-49.3	-67.5	3.5	3.02e+01	0	33	104	0	60	90824
2026-01-18 00:55:25.03	15.65	31.01	-49.3	-67.4	3.5	3.02e+01	0	33	104	0	60	89893
2026-01-18 00:55:26.04	15.31	30.87	-49.3	-67.4	3.5	3.02e+01	0	33	104	0	60	90668
2026-01-18 00:55:27.05	14.97	30.73	-49.3	-67.3	3.5	3.02e+01	0	33	104	0	60	89628
2026-01-18 00:55:28.06	14.64	30.59	-49.3	-67.4	3.5	3.02e+01	0	33	104	0	60	90637
2026-01-18 00:55:29.07	14.31	30.45	-49.2	-67.3	3.5	3.02e+01	0	33	104	0	60	89505
2026-01-18 00:55:30.08	13.99	30.31	-49.3	-67.5	3.5	3.02e+01	0	33	104	0	60	90893
2026-01-18 00:55:31.09	13.67	30.17	-49.3	-67.5	3.5	3.02e+01	0	33	104	0	60	90838
2026-01-18 00:55:32.10	13.35	30.03	-49.3	-67.4	3.5	3.02e+01	0	33	104	0	60	90319
2026-01-18 00:55:33.11	13.03	29.89	-49.2	-67.4	3.5	3.02e+01	0	33	104	0	60	89959
2026-01-18 00:55:34.12	12.72	29.75	-49.4	-67.6	3.5	3.02e+01	0	33	104	0	60	91954
2026-01-18 00:55:35.13	12.41	29.61	-49.5	-67.6	3.5	3.02e+01	0	33	104	0	60	92144
2026-01-18 00:55:36.13	12.10	29.47	-49.6	-67.8	3.5	3.02e+01	0	33	104	0	60	94108
2026-01-18 00:55:37.14	11.79	29.33	-49.4	-67.6	3.5	3.02e+01	0	33	104	0	60	91989
2026-01-18 00:55:38.15	11.49	29.19	-49.4	-67.6	3.5	3.02e+01	0	33	104	0	60	91950
2026-01-18 00:55:39.16	11.19	29.04	-49.4	-67.5	3.5	3.02e+01	0	33	104	0	60	91379
2026-01-18 00:55:40.17	10.90	28.90	-49.2	-67.3	3.5	3.02e+01	0	33	104	0	60	89410
2026-01-18 00:55:41.18	10.60	28.76	-49.2	-67.4	3.5	3.02e+01	0	33	104	0	60	89932
2026-01-18 00:55:42.19	10.31	28.62	-49.5	-67.5	3.5	3.02e+01	0	33	104	0	60	91652
2026-01-18 00:55:43.20	10.02	28.48	-49.2	-67.4	3.5	3.02e+01	0	33	104	0	60	90107
2026-01-18 00:55:44.21	9.73	28.34	-49.5	-67.6	3.5	3.02e+01	0	33	104	0	60	92690
2026-01-18 00:55:45.22	9.45	28.19	-49.4	-67.6	3.5	3.02e+01	0	33	104	0	60	92076
2026-01-18 00:55:46.23	9.17	28.05	-49.3	-67.4	3.5	3.02e+01	0	33	104	0	60	90267
2026-01-18 00:55:47.24	8.89	27.91	-49.5	-67.6	3.5	3.02e+01	0	33	104	0	60	92258
2026-01-18 00:55:48.25	8.62	27.77	-49.2	-67.3	3.5	3.02e+01	0	33	104	0	60	89624
2026-01-18 00:55:49.26	8.34	27.63	-50.0	-68.2	3.5	3.02e+01	0	33	104	0	60	98600
2026-01-18 00:55:50.27	8.07	27.48	-49.3	-67.5	3.5	3.02e+01	0	33	104	0	60	90824
2026-01-18 00:55:51.28	7.80	27.34	-49.3	-67.4	3.5	3.02e+01	0	33	104	0	60	90477
2026-01-18 00:55:52.29	7.54	27.20	-49.5	-67.7	3.5	3.02e+01	0	33	104	0	60	93342
2026-01-18 00:55:53.29	7.28	27.06	-49.3	-67.5	3.5	3.02e+01	0	33	104	0	60	91325
2026-01-18 00:55:54.30	7.02	26.92	-49.5	-67.6	3.5	3.02e+01	0	33	104	0	60	92322
2026-01-18 00:55:55.31	6.76	26.78	-49.3	-67.4	3.5	3.02e+01	0	33	104	0	60	90445
2026-01-18 00:55:56.32	6.50	26.64	-49.3	-67.5	3.5	3.02e+01	0	33	104	0	60	91387
2026-01-18 00:55:57.33	6.25	26.50	-49.4	-67.6	3.5	3.02e+01	0	33	104	0	60	92087
2026-01-18 00:55:58.34	6.00	26.36	-49.6	-67.7	3.5	3.02e+01	0	33	104	0	60	93417
2026-01-18 00:55:59.35	5.75	26.22	-49.7	-67.8	3.5	3.02e+01	0	33	104	0	60	93989
2026-01-18 00:56:00.36	5.50	26.08	-49.4	-67.5	3.5	3.02e+01	0	33	104	0	60	90971
2026-01-18 00:56:01.37	5.26	25.94	-49.8	-67.9	3.5	3.02e+01	0	33	104	0	60	95101
2026-01-18 00:56:02.38	5.01	25.80	-49.3	-67.4	3.5	3.02e+01	0	33	104	0	60	90256
2026-01-18 00:56:03.39	4.78	25.66	-49.3	-67.4	3.5	3.02e+01	0	33	104	0	60	90398
2026-01-18 00:56:04.40	4.54	25.52	-49.2	-67.3	3.5	3.02e+01	0	33	104	0	60	89137
2026-01-18 00:56:05.41	4.30	25.38	-49.4	-67.5	3.5	3.02e+01	0	33	104	0	60	90889
2026-01-18 00:56:06.42	4.07	25.24	-49.2	-67.3	3.5	3.02e+01	0	33	104	0	60	89456
2026-01-18 00:56:07.43	3.84	25.10	-49.6	-67.7	3.5	3.02e+01	0	33	104	0	60	93401
2026-01-18 00:56:08.44	3.61	24.97	-49.4	-67.5	3.5	3.02e+01	0	33	104	0	60	91182
2026-01-18 00:56:09.44	3.38	24.83	-49.1	-67.3	3.5	3.02e+01	0	33	104	0	60	89052
2026-01-18 00:56:10.45	3.16	24.69	-49.5	-67.6	3.5	3.02e+01	0	33	104	0	60	92809
2026-01-18 00:56:11.46	2.94	24.55	-49.2	-67.4	3.5	3.02e+01	0	33	104	0	60	89719
2026-01-18 00:56:12.47	2.72	24.42	-49.3	-67.4	3.5	3.02e+01	0	33	104	0	60	90233
2026-01-18 00:56:13.48	2.50	24.28	-49.3	-67.5	3.5	3.02e+01	0	33	104	0	60	90922
2026-01-18 00:56:14.49	2.28	24.15	-49.3	-67.4	3.5	3.02e+01	0	33	104	0	60	90223
2026-01-18 00:56:15.50	2.07	24.01	-49.3	-67.4	3.5	3.02e+01	0	33	104	0	60	90588
2026-01-18 00:56:16.51	1.85	23.87	-49.4	-67.5	3.5	3.02e+01	0	33	104	0	60	90946
2026-01-18 00:56:17.52	1.64	23.74	-49.4	-67.6	3.5	3.02e+01	0	33	104	0	60	91874
2026-01-18 00:56:18.53	1.43	23.60	-49.3	-67.4	3.5	3.02e+01	0	33	104	0	60	90690
2026-01-18 00:56:19.54	1.23	23.47	-50.0	-68.1	3.5	3.02e+01	0	33	104	0	60	97848
2026-01-18 00:56:20.55	1.02	23.34	-49.5	-67.6	3.5	3.02e+01	0	33	104	0	60	92576
2026-01-18 00:56:21.56	0.82	23.20	-49.3	-67.4	3.5	3.02e+01	0	33	104	0	60	90126
2026-01-18 00:56:22.57	0.62	23.07	-49.2	-67.4	3.5	3.02e+01	0	33	104	0	60	90290
2026-01-18 00:56:23.58	0.42	22.94	-49.6	-67.7	3.5	3.02e+01	0	33	104	0	60	93141
2026-01-18 00:56:24.59	0.22	22.80	-49.2	-67.4	3.5	3.02e+01	0	33	104	0	60	90003
2026-01-18 00:56:25.60	0.02	22.67	-49.3	-67.5	3.5	3.02e+01	0	33	104	0	60	91103
2026-01-18 00:56:26.61	359.83	22.54	-49.1	-67.3	3.5	3.02e+01	0	33	104	0	60	89044
2026-01-18 00:56:27.62	359.64	22.41	-49.1	-67.3	3.5	3.02e+01	0	33	104	0	60	88776
2026-01-18 00:56:28.63	359.45	22.28	-49.0	-67.2	3.5	3.02e+01	0	33	104	0	60	87733
2026-01-18 00:56:29.64	359.26	22.15	-49.3	-67.4	3.5	3.02e+01	0	33	104	0	60	90702
2026-01-18 00:56:30.65	359.07	22.02	-49.4	-67.5	3.5	3.02e+01	0	33	104	0	60	91355
2026-01-18 00:56:31.66	358.88	21.89	-49.4	-67.6	3.5	3.02e+01	0	33	104	0	60	92205
2026-01-18 00:56:32.66	358.70	21.76	-49.3	-67.4	3.5	3.02e+01	0	33	104	0	60	90334
2026-01-18 00:56:33.67	358.52	21.63	-49.4	-67.6	3.5	3.02e+01	0	33	104	0	60	91837
2026-01-18 00:56:34.68	358.34	21.50	-49.3	-67.5	3.5	3.02e+01	0	33	104	0	60	91194
2026-01-18 00:56:35.69	358.16	21.37	-49.6	-67.7	3.5	3.02e+01	0	33	104	0	60	93882
2026-01-18 00:56:36.70	357.98	21.25	-49.4	-67.5	3.5	3.02e+01	0	33	104	0	60	91360
2026-01-18 00:56:37.71	357.80	21.12	-49.5	-67.6	3.5	3.02e+01	0	33	104	0	60	92762
2026-01-18 00:56:38.72	357.63	20.99	-49.4	-67.5	3.5	3.02e+01	0	33	104	0	60	90948
2026-01-18 00:56:39.73	357.46	20.87	-49.2	-67.3	3.5	3.02e+01	0	33	104	0	60	89303
2026-01-18 00:56:40.74	357.29	20.74	-49.3	-67.4	3.5	3.02e+01	0	33	104	0	60	90576
2026-01-18 00:56:41.75	357.12	20.62	-49.4	-67.5	3.5	3.02e+01	0	33	104	0	60	91257
2026-01-18 00:56:42.76	356.95	20.49	-49.5	-67.7	3.5	3.02e+01	0	33	104	0	60	92893
2026-01-18 00:56:43.77	356.78	20.37	-49.4	-67.6	3.5	3.02e+01	0	33	104	0	60	91855
2026-01-18 00:56:44.78	356.61	20.24	-49.4	-67.5	3.5	3.02e+01	0	33	104	0	60	91520
2026-01-18 00:56:45.79	356.45	20.12	-49.4	-67.5	3.5	3.02e+01	0	33	104	0	60	91186
2026-01-18 00:56:46.80	356.29	19.99	-49.4	-67.6	3.5	3.02e+01	0	33	104	0	60	92072
2026-01-18 00:56:47.80	356.13	19.87	-49.3	-67.4	3.5	3.02e+01	0	33	104	0	60	90281
2026-01-18 00:56:48.82	355.97	19.75	-49.5	-67.6	3.5	3.02e+01	0	33	104	0	60	92370
2026-01-18 00:56:49.82	355.81	19.63	-49.4	-67.6	3.5	3.02e+01	0	33	104	0	60	92258
2026-01-18 00:56:50.84	355.65	19.51	-49.4	-67.5	3.5	3.02e+01	0	33	104	0	60	91455
2026-01-18 00:56:51.85	355.49	19.38	-49.6	-67.6	3.5	3.02e+01	0	33	104	0	60	92846
2026-01-18 00:56:52.85	355.34	19.26	-49.4	-67.5	3.5	3.02e+01	0	33	104	0	60	91230
2026-01-18 00:56:53.86	355.19	19.14	-49.3	-67.5	3.5	3.02e+01	0	33	104	0	60	90801
2026-01-18 00:56:54.87	355.04	19.02	-49.5	-67.6	3.5	3.02e+01	0	33	104	0	60	92038
2026-01-18 00:56:55.88	354.88	18.90	-49.6	-67.7	3.5	3.02e+01	0	33	104	0	60	93182
2026-01-18 00:56:56.89	354.74	18.79	-49.6	-67.7	3.5	3.02e+01	0	33	104	0	60	93839
2026-01-18 00:56:57.90	354.59	18.67	-49.3	-67.4	3.5	3.02e+01	0	33	104	0	60	89953
2026-01-18 00:56:58.91	354.44	18.55	-49.5	-67.7	3.5	3.02e+01	0	33	104	0	60	93029
2026-01-18 00:56:59.92	354.29	18.43	-49.5	-67.6	3.5	3.02e+01	0	33	104	0	60	92613
2026-01-18 00:57:00.93	354.15	18.31	-49.3	-67.4	3.5	3.02e+01	0	33	104	0	60	90164
2026-01-18 00:57:01.94	354.01	18.20	-49.4	-67.6	3.5	3.02e+01	0	33	104	0	60	91859
2026-01-18 00:57:02.95	353.86	18.08	-49.4	-67.5	3.5	3.02e+01	0	33	104	0	60	91318
2026-01-18 00:57:03.96	353.72	17.96	-49.4	-67.5	3.5	3.02e+01	0	33	104	0	60	91475
2026-01-18 00:57:04.97	353.58	17.85	-49.4	-67.5	3.5	3.02e+01	0	33	104	0	60	91565
2026-01-18 00:57:05.98	353.44	17.73	-49.2	-67.4	3.5	3.02e+01	0	33	104	0	60	90550
2026-01-18 00:57:06.99	353.31	17.62	-49.3	-67.5	3.5	3.02e+01	0	33	104	0	60	91122
2026-01-18 00:57:08.00	353.17	17.51	-49.2	-67.3	3.5	3.02e+01	0	33	104	0	60	89682
2026-01-18 00:57:09.01	353.04	17.39	-49.1	-67.3	3.5	3.02e+01	0	33	104	0	60	88908
2026-01-18 00:57:10.02	352.90	17.28	-49.2	-67.3	3.5	3.02e+01	0	33	104	0	60	89651
2026-01-18 00:57:11.03	352.77	17.16	-49.2	-67.4	3.5	3.02e+01	0	33	104	0	60	90411
2026-01-18 00:57:12.03	352.64	17.05	-49.5	-67.6	3.5	3.02e+01	0	33	104	0	60	92551
2026-01-18 00:57:13.04	352.51	16.94	-49.7	-67.8	3.5	3.02e+01	0	33	104	0	60	94893
2026-01-18 00:57:14.05	352.38	16.83	-49.4	-67.6	3.5	3.02e+01	0	33	104	0	60	92302
2026-01-18 00:57:15.06	352.25	16.72	-49.4	-67.5	3.5	3.02e+01	0	33	104	0	60	90903
2026-01-18 00:57:16.07	352.12	16.61	-49.5	-67.7	3.5	3.02e+01	0	33	104	0	60	92856
2026-01-18 00:57:17.08	351.99	16.50	-49.4	-67.5	3.5	3.02e+01	0	33	104	0	60	91512
2026-01-18 00:57:18.09	351.87	16.39	-49.4	-67.5	3.5	3.02e+01	0	33	104	0	60	91219
2026-01-18 00:57:19.10	351.74	16.28	-49.4	-67.5	3.5	3.02e+01	0	33	104	0	60	90892
2026-01-18 00:57:20.11	351.62	16.17	-49.5	-67.7	3.5	3.02e+01	0	33	104	0	60	92920
2026-01-18 00:57:21.12	351.50	16.06	-49.3	-67.4	3.5	3.02e+01	0	33	104	0	60	90422
2026-01-18 00:57:22.13	351.38	15.95	-49.3	-67.4	3.5	3.02e+01	0	33	104	0	60	90206
2026-01-18 00:57:23.14	351.25	15.84	-49.2	-67.4	3.5	3.02e+01	0	33	104	0	60	90115
2026-01-18 00:57:24.15	351.13	15.73	-49.3	-67.4	3.5	3.02e+01	0	33	104	0	60	89876
2026-01-18 00:57:25.16	351.02	15.63	-49.3	-67.4	3.5	3.02e+01	0	33	104	0	60	89889
2026-01-18 00:57:26.17	350.90	15.52	-49.6	-67.7	3.5	3.02e+01	0	33	104	0	60	93496
2026-01-18 00:57:27.18	350.78	15.41	-49.3	-67.5	3.5	3.02e+01	0	33	104	0	60	90891
2026-01-18 00:57:28.19	350.66	15.31	-49.6	-67.7	3.5	3.02e+01	0	33	104	0	60	93624
2026-01-18 00:57:29.20	350.55	15.20	-49.7	-67.8	3.5	3.02e+01	0	33	104	0	60	95001
2026-01-18 00:57:30.22	350.43	15.10	-49.4	-67.5	3.5	3.02e+01	0	33	104	0	60	91027
2026-01-18 00:57:31.23	350.32	14.99	-49.3	-67.4	3.5	3.02e+01	0	33	104	0	60	90018
2026-01-18 00:57:32.24	350.21	14.89	-49.5	-67.6	3.5	3.02e+01	0	33	104	0	60	92594
2026-01-18 00:57:33.25	350.10	14.78	-49.3	-67.4	3.5	3.02e+01	0	33	104	0	60	90442
2026-01-18 00:57:34.26	349.99	14.68	-49.6	-67.7	3.5	3.02e+01	0	33	104	0	60	93609
2026-01-18 00:57:35.27	349.88	14.57	-49.6	-67.7	3.5	3.02e+01	0	33	104	0	60	93098
2026-01-18 00:57:36.28	349.77	14.47	-49.4	-67.5	3.5	3.02e+01	0	33	104	0	60	91349
2026-01-18 00:57:37.29	349.66	14.37	-49.5	-67.6	3.5	3.02e+01	0	33	104	0	60	92150
2026-01-18 00:57:38.30	349.55	14.27	-49.6	-67.7	3.5	3.02e+01	0	33	104	0	60	93133
2026-01-18 00:57:39.31	349.44	14.17	-49.4	-67.5	3.5	3.02e+01	0	33	104	0	60	91355
2026-01-18 00:57:40.32	349.34	14.06	-49.5	-67.7	3.5	3.02e+01	0	33	104	0	60	92887
2026-01-18 00:57:41.32	349.23	13.96	-49.2	-67.3	3.5	3.02e+01	0	33	104	0	60	89630
2026-01-18 00:57:42.33	349.13	13.86	-49.3	-67.4	3.5	3.02e+01	0	33	104	0	60	90640
2026-01-18 00:57:43.34	349.03	13.76	-49.6	-67.6	3.5	3.02e+01	0	33	104	0	60	92664
2026-01-18 00:57:44.35	348.92	13.66	-49.4	-67.5	3.5	3.02e+01	0	33	104	0	60	91739
2026-01-18 00:57:45.36	348.82	13.56	-49.4	-67.6	3.5	3.02e+01	0	33	104	0	60	91892
2026-01-18 00:57:46.37	348.72	13.46	-49.3	-67.4	3.5	3.02e+01	0	33	104	0	60	89954
2026-01-18 00:57:47.38	348.62	13.36	-49.4	-67.5	3.5	3.02e+01	0	33	104	0	60	91022
2026-01-18 00:57:48.39	348.52	13.27	-49.4	-67.5	3.5	3.02e+01	0	33	104	0	60	91238
2026-01-18 00:57:49.40	348.42	13.17	-49.4	-67.5	3.5	3.02e+01	0	33	104	0	60	91708
2026-01-18 00:57:50.41	348.32	13.07	-49.6	-67.7	3.5	3.02e+01	0	33	104	0	60	93123
2026-01-18 00:57:51.42	348.22	12.97	-49.3	-67.4	3.5	3.02e+01	0	33	104	0	60	90029
2026-01-18 00:57:52.43	348.13	12.88	-49.5	-67.6	3.5	3.02e+01	0	33	104	0	60	92788
2026-01-18 00:57:53.44	348.03	12.78	-49.4	-67.6	3.5	3.02e+01	0	33	104	0	60	91919
2026-01-18 00:57:54.45	347.94	12.68	-49.6	-67.7	3.5	3.02e+01	0	33	104	0	60	93713
2026-01-18 00:57:55.46	347.84	12.59	-49.5	-67.7	3.5	3.02e+01	0	33	104	0	60	92877
2026-01-18 00:57:56.47	347.75	12.49	-49.2	-67.4	3.5	3.02e+01	0	33	104	0	60	89964
2026-01-18 00:57:57.48	347.65	12.40	-49.2	-67.4	3.5	3.02e+01	0	33	104	0	60	90340
2026-01-18 00:57:58.49	347.56	12.30	-49.4	-67.6	3.5	3.02e+01	0	33	104	0	60	92060
2026-01-18 00:57:59.50	347.47	12.21	-49.4	-67.5	3.5	3.02e+01	0	33	104	0	60	91744
2026-01-18 00:58:00.51	347.38	12.11	-49.3	-67.4	3.5	3.02e+01	0	33	104	0	60	90083
2026-01-18 00:58:01.52	347.29	12.02	-49.2	-67.3	3.5	3.02e+01	0	33	104	0	60	89064
2026-01-18 00:58:02.53	347.20	11.92	-49.3	-67.4	3.5	3.02e+01	0	33	104	0	60	90046
2026-01-18 00:58:03.54	347.11	11.83	-49.3	-67.5	3.5	3.02e+01	0	33	104	0	60	90749
2026-01-18 00:58:04.55	347.02	11.74	-49.3	-67.4	3.5	3.02e+01	0	33	104	0	60	90058
2026-01-18 00:58:05.56	346.93	11.64	-49.4	-67.6	3.5	3.02e+01	0	33	104	0	60	92016
2026-01-18 00:58:06.57	346.84	11.55	-49.3	-67.4	3.5	3.02e+01	0	33	104	0	60	90360
2026-01-18 00:58:07.58	346.76	11.46	-49.4	-67.4	3.5	3.02e+01	0	33	104	0	60	90592
2026-01-18 00:58:08.59	346.67	11.37	-49.3	-67.4	3.5	3.02e+01	0	33	104	0	60	90622
2026-01-18 00:58:09.60	346.58	11.28	-49.7	-67.8	3.5	3.02e+01	0	33	104	0	60	94891
2026-01-18 00:58:10.61	346.50	11.19	-49.3	-67.5	3.5	3.02e+01	0	33	104	0	60	90981
2026-01-18 00:58:11.62	346.41	11.09	-49.3	-67.4	3.5	3.02e+01	0	33	104	0	60	90123
2026-01-18 00:58:12.63	346.33	11.00	-49.3	-67.3	3.5	3.02e+01	0	33	104	0	60	89663
2026-01-18 00:58:13.64	346.25	10.91	-49.3	-67.4	3.5	3.02e+01	0	33	104	0	60	90695
2026-01-18 00:58:14.65	346.16	10.82	-49.3	-67.4	3.5	3.02e+01	0	33	104	0	60	90497
2026-01-18 00:58:15.66	346.08	10.73	-49.4	-67.5	3.5	3.02e+01	0	33	104	0	60	91512
2026-01-18 00:58:16.67	346.00	10.64	-49.3	-67.4	3.5	3.02e+01	0	33	104	0	60	90105
2026-01-18 00:58:17.68	345.92	10.56	-49.5	-67.6	3.5	3.02e+01	0	33	104	0	60	92228
2026-01-18 00:58:18.69	345.84	10.47	-49.4	-67.6	3.5	3.02e+01	0	33	104	0	60	92100
2026-01-18 00:58:19.70	345.76	10.38	-49.3	-67.4	3.5	3.02e+01	0	33	104	0	60	90426
2026-01-18 00:58:20.71	345.68	10.29	-49.3	-67.5	3.5	3.02e+01	0	33	104	0	60	91144
2026-01-18 00:58:21.72	345.60	10.20	-49.5	-67.6	3.5	3.02e+01	0	33	104	0	60	92725
2026-01-18 00:58:22.73	345.52	10.12	-49.5	-67.7	3.5	3.02e+01	0	33	104	0	60	93098
2026-01-18 00:58:23.74	345.44	10.03	-49.4	-67.5	3.5	3.02e+01	0	33	104	0	60	91649
2026-01-18 00:58:24.75	345.37	9.94	-49.2	-67.4	3.5	3.02e+01	0	33	104	0	60	89917
2026-01-18 00:58:25.76	345.29	9.86	-49.4	-67.5	3.5	3.02e+01	0	33	104	0	60	91641
2026-01-18 00:58:26.77	345.21	9.77	-49.4	-67.5	3.5	3.02e+01	0	33	104	0	60	91202
2026-01-18 00:58:27.78	345.14	9.68	-49.5	-67.6	3.5	3.02e+01	0	33	104	0	60	92174
2026-01-18 00:58:28.79	345.06	9.60	-49.4	-67.6	3.5	3.02e+01	0	33	104	0	60	92308
2026-01-18 00:58:29.80	344.99	9.51	-49.4	-67.5	3.5	3.02e+01	0	33	104	0	60	91608
2026-01-18 00:58:30.81	344.91	9.43	-50.1	-68.3	3.5	3.02e+01	0	33	104	0	60	99760
2026-01-18 00:58:31.82	344.84	9.34	-49.4	-67.5	3.5	3.02e+01	0	33	104	0	60	91556
2026-01-18 00:58:32.83	344.77	9.26	-49.6	-67.7	3.5	3.02e+01	0	33	104	0	60	93196
2026-01-18 00:58:33.84	344.69	9.17	-49.6	-67.7	3.5	3.02e+01	0	33	104	0	60	93709
2026-01-18 00:58:34.85	344.62	9.09	-49.6	-67.8	3.5	3.02e+01	0	33	104	0	60	94399
2026-01-18 00:58:35.86	344.55	9.00	-49.3	-67.4	3.5	3.02e+01	0	33	104	0	60	90723
2026-01-18 00:58:36.87	344.48	8.92	-49.5	-67.6	3.5	3.02e+01	0	33	104	0	60	92448
2026-01-18 00:58:37.88	344.41	8.84	-49.7	-67.8	3.5	3.02e+01	0	33	104	0	60	94844
2026-01-18 00:58:38.89	344.34	8.75	-49.3	-67.4	3.5	3.02e+01	0	33	104	0	60	90637
2026-01-18 00:58:39.90	344.27	8.67	-49.7	-67.8	3.5	3.02e+01	0	33	104	0	60	94404
2026-01-18 00:58:40.91	344.20	8.59	-49.3	-67.5	3.5	3.02e+01	0	33	104	0	60	91389
2026-01-18 00:58:41.91	344.13	8.51	-49.5	-67.6	3.5	3.02e+01	0	33	104	0	60	92767
2026-01-18 00:58:42.92	344.06	8.43	-49.3	-67.5	3.5	3.02e+01	0	33	104	0	60	91046
2026-01-18 00:58:43.93	343.99	8.34	-49.4	-67.5	3.5	3.02e+01	0	33	104	0	60	91587
2026-01-18 00:58:44.94	343.92	8.26	-49.5	-67.6	3.5	3.02e+01	0	33	104	0	60	92768
2026-01-18 00:58:45.95	343.86	8.18	-49.2	-67.3	3.5	3.02e+01	0	33	104	0	60	89269
2026-01-18 00:58:46.96	343.79	8.10	-49.7	-67.8	3.5	3.02e+01	0	33	104	0	60	94014
2026-01-18 00:58:47.98	343.72	8.02	-49.6	-67.8	3.5	3.02e+01	0	33	104	0	60	94079
2026-01-18 00:58:48.98	343.66	7.94	-49.5	-67.6	3.5	3.02e+01	0	33	104	0	60	92311
2026-01-18 00:58:49.99	343.59	7.86	-49.5	-67.6	3.5	3.02e+01	0	33	104	0	60	92494
2026-01-18 00:58:51.00	343.53	7.78	-49.3	-67.5	3.5	3.02e+01	0	33	104	0	60	90894
2026-01-18 00:58:52.01	343.46	7.70	-49.3	-67.4	3.5	3.02e+01	0	33	104	0	60	90380
2026-01-18 00:58:53.02	343.40	7.62	-49.5	-67.6	3.5	3.02e+01	0	33	104	0	60	92846
2026-01-18 00:58:54.03	343.33	7.54	-49.4	-67.4	3.5	3.02e+01	0	33	104	0	60	90547
2026-01-18 00:58:55.04	343.27	7.46	-49.8	-67.9	3.5	3.02e+01	0	33	104	0	60	95828
2026-01-18 00:58:56.05	343.21	7.38	-49.4	-67.6	3.5	3.02e+01	0	33	104	0	60	92083
2026-01-18 00:58:57.06	343.14	7.31	-49.4	-67.5	3.5	3.02e+01	0	33	104	0	60	91090
2026-01-18 00:58:58.07	343.08	7.23	-49.4	-67.6	3.5	3.02e+01	0	33	104	0	60	92027
2026-01-18 00:58:59.08	343.02	7.15	-49.5	-67.6	3.5	3.02e+01	0	33	104	0	60	92105
2026-01-18 00:59:00.09	342.96	7.07	-49.3	-67.5	3.5	3.02e+01	0	33	104	0	60	91062
2026-01-18 00:59:01.10	342.90	6.99	-49.3	-67.4	3.5	3.02e+01	0	33	104	0	60	90322
2026-01-18 00:59:02.11	342.83	6.92	-49.4	-67.5	3.5	3.02e+01	0	33	104	0	60	91504
2026-01-18 00:59:03.12	342.77	6.84	-49.2	-67.4	3.5	3.02e+01	0	33	104	0	60	90209
2026-01-18 00:59:04.13	342.71	6.76	-49.1	-67.3	3.5	3.02e+01	0	33	104	0	60	89287
2026-01-18 00:59:05.14	342.65	6.69	-49.3	-67.4	3.5	3.02e+01	0	33	104	0	60	90545
2026-01-18 00:59:06.15	342.60	6.61	-49.3	-67.4	3.5	3.02e+01	0	33	104	0	60	90347
2026-01-18 00:59:07.16	342.54	6.53	-49.3	-67.4	3.5	3.02e+01	0	33	104	0	60	90333
2026-01-18 00:59:08.17	342.48	6.46	-49.4	-67.6	3.5	3.02e+01	0	33	104	0	60	91830
2026-01-18 00:59:09.18	342.42	6.38	-49.3	-67.4	3.5	3.02e+01	0	33	104	0	60	90718
2026-01-18 00:59:10.19	342.36	6.31	-49.3	-67.5	3.5	3.02e+01	0	33	104	0	60	91231
2026-01-18 00:59:11.20	342.30	6.23	-49.5	-67.6	3.5	3.02e+01	0	33	104	0	60	92158
2026-01-18 00:59:12.21	342.25	6.16	-49.4	-67.5	3.5	3.02e+01	0	33	104	0	60	91437
2026-01-18 00:59:13.22	342.19	6.08	-49.3	-67.4	3.5	3.02e+01	0	33	104	0	60	90487
2026-01-18 00:59:14.23	342.13	6.01	-49.4	-67.5	3.5	3.02e+01	0	33	104	0	60	91774
2026-01-18 00:59:15.24	342.08	5.93	-49.5	-67.6	3.5	3.02e+01	0	33	104	0	60	92633
2026-01-18 00:59:16.25	342.02	5.86	-49.3	-67.4	3.5	3.02e+01	0	33	104	0	60	90019
2026-01-18 00:59:17.25	341.96	5.78	-49.1	-67.3	3.5	3.02e+01	0	33	104	0	60	88791
2026-01-18 00:59:18.26	341.91	5.71	-49.1	-67.2	3.5	3.02e+01	0	33	104	0	60	88569
2026-01-18 00:59:19.27	341.85	5.64	-49.1	-67.3	3.5	3.02e+01	0	33	104	0	60	88974
2026-01-18 00:59:20.28	341.80	5.56	-49.1	-67.3	3.5	3.02e+01	0	33	104	0	60	89322
2026-01-18 00:59:21.29	341.75	5.49	-49.3	-67.5	3.5	3.02e+01	0	33	104	0	60	90922
2026-01-18 00:59:22.30	341.69	5.42	-49.4	-67.5	3.5	3.02e+01	0	33	104	0	60	91372
2026-01-18 00:59:23.31	341.64	5.34	-49.4	-67.6	3.5	3.02e+01	0	33	104	0	60	91886
2026-01-18 00:59:24.32	341.58	5.27	-49.1	-67.3	3.5	3.02e+01	0	33	104	0	60	89279
2026-01-18 00:59:25.33	341.53	5.20	-49.3	-67.4	3.5	3.02e+01	0	33	104	0	60	90283
2026-01-18 00:59:26.34	341.48	5.13	-49.2	-67.3	3.5	3.02e+01	0	33	104	0	60	89004
2026-01-18 00:59:27.35	341.43	5.05	-49.2	-67.4	3.5	3.02e+01	0	33	104	0	60	90370
2026-01-18 00:59:28.36	341.37	4.98	-49.3	-67.5	3.5	3.02e+01	0	33	104	0	60	91343
2026-01-18 00:59:29.37	341.32	4.91	-49.2	-67.4	3.5	3.02e+01	0	33	104	0	60	90476
2026-01-18 00:59:30.38	341.27	4.84	-49.3	-67.4	3.5	3.02e+01	0	33	104	0	60	90317
2026-01-18 00:59:31.39	341.22	4.77	-49.2	-67.4	3.5	3.02e+01	0	33	104	0	60	89984
2026-01-18 00:59:32.40	341.17	4.70	-49.2	-67.3	3.5	3.02e+01	0	33	104	0	60	89293
2026-01-18 00:59:33.40	341.12	4.63	-49.1	-67.2	3.4	3.02e+01	0	33	104	0	60	88660
2026-01-18 00:59:34.41	341.07	4.56	-49.1	-67.3	3.5	3.02e+01	0	33	104	0	60	89630
2026-01-18 00:59:35.42	341.02	4.49	-49.1	-67.3	3.5	3.02e+01	0	33	104	0	60	89186
2026-01-18 00:59:36.43	340.97	4.41	-49.1	-67.2	3.5	3.02e+01	0	33	104	0	60	88394
2026-01-18 00:59:37.44	340.92	4.34	-49.0	-67.2	3.5	3.02e+01	0	33	104	0	60	88380
2026-01-18 00:59:38.45	340.87	4.27	-49.2	-67.3	3.5	3.02e+01	0	33	104	0	60	89422
2026-01-18 00:59:39.46	340.82	4.20	-49.2	-67.4	3.5	3.02e+01	0	33	104	0	60	89828
2026-01-18 00:59:40.47	340.77	4.14	-49.2	-67.3	3.5	3.02e+01	0	33	104	0	60	89684
2026-01-18 00:59:41.48	340.72	4.07	-49.2	-67.3	3.5	3.02e+01	0	33	104	0	60	89364
2026-01-18 00:59:42.49	340.67	4.00	-49.3	-67.4	3.5	3.02e+01	0	33	104	0	60	90515
2026-01-18 00:59:43.49	340.63	3.93	-49.2	-67.4	3.5	3.02e+01	0	33	104	0	60	89886
2026-01-18 00:59:44.50	340.58	3.86	-49.1	-67.3	3.5	3.02e+01	0	33	104	0	60	89002
2026-01-18 00:59:45.51	340.53	3.79	-49.0	-67.2	3.5	3.02e+01	0	33	104	0	60	87708
2026-01-18 00:59:46.52	340.49	3.72	-49.0	-67.2	3.5	3.02e+01	0	33	104	0	60	87826
2026-01-18 00:59:47.53	340.44	3.65	-49.1	-67.2	3.5	3.02e+01	0	33	104	0	60	88184
2026-01-18 00:59:48.54	340.39	3.59	-49.0	-67.2	3.5	3.02e+01	0	33	104	0	60	87675
2026-01-18 00:59:49.55	340.35	3.52	-49.2	-67.3	3.5	3.02e+01	0	33	104	0	60	89589
2026-01-18 00:59:50.56	340.30	3.45	-49.4	-67.5	3.5	3.02e+01	0	33	104	0	60	91640
2026-01-18 00:59:51.57	340.25	3.38	-49.3	-67.5	3.5	3.02e+01	0	33	104	0	60	91083
2026-01-18 00:59:52.58	340.21	3.31	-49.2	-67.4	3.5	3.02e+01	0	33	104	0	60	89905
2026-01-18 00:59:53.59	340.16	3.25	-49.4	-67.5	3.5	3.02e+01	0	33	104	0	60	91390
2026-01-18 00:59:54.60	340.12	3.18	-49.3	-67.5	3.5	3.02e+01	0	33	104	0	60	91169
