passes_logs/2026/01/18/R4.6S_Anadyr/R4.6S_Anadyr__20260118_020431_NOAA_20_JPSS-1_rec.log

#Pass ID: 20260118_020431_NOAA 20 (JPSS-1)
#Satellite: NOAA 20 (JPSS-1)
#Configuration: NOAA 20
#almurnet v.1.7.20251203
#Start time: 2026-01-18 02:04:36

#Version: 2.2.20231116
#Station: R4.6S_Anadyr
#Location: 177.4865 lon 64.73178 lat
#TLE: 1 43013U 17073A   26017.58553584  .00000066  00000+0  52288-4 0  9998
#TLE: 2 43013  98.7639 318.4977 0001406  35.6039 324.5231 14.19536575423107

#Time	Az	El	Level	Level2	SNR	BER	BlckErr	Temp	State	Recorded	gain1	gain2
2026-01-18 02:04:36.47	204.50	0.28	-49.3	-50.7	5.7	0.00e+00	0	31	0	0	60	42206
2026-01-18 02:04:37.48	204.56	0.33	-50.0	-65.2	3.6	1.51e+00	0	32	104	0	60	65731
2026-01-18 02:04:38.49	204.62	0.39	-49.6	-64.9	3.6	1.51e+00	0	32	104	0	60	63243
2026-01-18 02:04:39.50	204.68	0.44	-49.7	-64.9	3.6	1.51e+00	0	32	104	0	60	63745
2026-01-18 02:04:40.51	204.74	0.50	-49.4	-64.6	3.6	1.51e+00	0	32	104	0	60	61366
2026-01-18 02:04:41.51	204.80	0.55	-49.2	-64.3	3.6	1.51e+00	0	32	104	0	60	59632
2026-01-18 02:04:42.52	204.86	0.60	-48.9	-64.2	3.6	1.51e+00	0	32	104	0	60	58603
2026-01-18 02:04:43.53	204.93	0.66	-48.8	-64.0	3.6	1.51e+00	0	32	104	0	60	57006
2026-01-18 02:04:44.54	204.99	0.71	-48.7	-63.9	3.6	1.51e+00	0	32	104	0	60	56409
2026-01-18 02:04:45.55	205.05	0.77	-48.6	-63.8	3.6	1.51e+00	0	32	104	0	60	56118
2026-01-18 02:04:46.56	205.11	0.82	-48.5	-63.7	3.6	1.51e+00	0	32	104	0	60	55347
2026-01-18 02:04:47.57	205.17	0.88	-48.2	-63.4	3.6	1.51e+00	0	32	104	0	60	53387
2026-01-18 02:04:48.58	205.24	0.93	-47.7	-62.9	3.6	1.51e+00	0	32	104	0	60	50396
2026-01-18 02:04:49.59	205.30	0.99	-47.4	-62.5	3.6	1.51e+00	0	32	104	0	60	48297
2026-01-18 02:04:50.60	205.36	1.05	-47.4	-62.5	3.6	1.51e+00	0	32	104	0	60	48249
2026-01-18 02:04:51.61	205.43	1.10	-47.4	-62.4	3.6	1.51e+00	0	32	104	0	60	47775
2026-01-18 02:04:52.62	205.49	1.16	-47.4	-62.5	3.6	1.51e+00	0	32	104	0	60	48420
2026-01-18 02:04:53.63	205.55	1.21	-47.4	-62.4	3.6	1.51e+00	0	32	104	0	60	47823
2026-01-18 02:04:54.64	205.62	1.27	-47.4	-62.4	3.6	1.51e+00	0	32	104	0	60	47503
2026-01-18 02:04:55.65	205.68	1.32	-47.4	-62.5	3.6	1.51e+00	0	32	104	0	60	48113
2026-01-18 02:04:56.65	205.74	1.38	-47.4	-62.4	3.6	1.51e+00	0	32	104	0	60	47772
2026-01-18 02:04:57.66	205.81	1.44	-47.4	-62.5	3.6	1.51e+00	0	32	104	0	60	47991
2026-01-18 02:04:58.67	205.87	1.49	-47.3	-62.4	3.6	1.51e+00	0	32	104	0	60	47871
2026-01-18 02:04:59.68	205.94	1.55	-47.3	-62.5	3.6	1.51e+00	0	32	104	0	60	48058
2026-01-18 02:05:00.69	206.00	1.60	-47.3	-62.4	3.6	1.51e+00	0	32	104	0	60	47790
2026-01-18 02:05:01.70	206.07	1.66	-47.3	-62.5	3.6	1.51e+00	0	32	104	0	60	48001
2026-01-18 02:05:02.70	206.13	1.72	-47.3	-62.5	3.6	1.51e+00	0	32	104	0	60	47976
2026-01-18 02:05:03.72	206.20	1.77	-47.3	-62.5	3.6	1.51e+00	0	32	104	0	60	48158
2026-01-18 02:05:04.72	206.27	1.83	-47.3	-62.5	3.5	1.51e+00	0	32	104	0	60	47936
2026-01-18 02:05:05.73	206.33	1.89	-47.3	-62.4	3.6	1.51e+00	0	32	104	0	60	47870
2026-01-18 02:05:06.74	206.40	1.94	-47.4	-62.4	3.6	1.51e+00	0	32	104	0	60	47886
2026-01-18 02:05:07.75	206.47	2.00	-47.3	-62.4	3.6	1.51e+00	0	32	104	0	60	47512
2026-01-18 02:05:08.76	206.53	2.06	-47.4	-62.5	3.6	1.51e+00	0	32	104	0	60	47926
2026-01-18 02:05:09.77	206.60	2.11	-47.3	-62.5	3.6	1.51e+00	0	32	104	0	60	47941
2026-01-18 02:05:10.79	206.67	2.17	-47.3	-62.4	3.6	1.51e+00	0	32	104	0	60	47840
2026-01-18 02:05:11.80	206.74	2.23	-47.3	-62.4	3.5	1.51e+00	0	32	104	0	60	47633
2026-01-18 02:05:12.81	206.81	2.29	-47.3	-62.4	3.6	1.51e+00	0	32	104	0	60	47850
2026-01-18 02:05:13.82	206.87	2.34	-47.4	-62.5	3.6	1.51e+00	0	32	104	0	60	48378
2026-01-18 02:05:14.83	206.94	2.40	-47.3	-62.5	3.6	1.51e+00	0	32	104	0	60	48019
2026-01-18 02:05:15.84	207.01	2.46	-47.3	-62.1	3.6	1.51e+00	0	32	104	0	60	45966
2026-01-18 02:05:16.84	207.08	2.51	-47.3	-61.5	3.6	1.51e+00	0	32	104	0	60	42990
2026-01-18 02:05:17.85	207.15	2.57	-47.2	-60.5	3.6	1.51e+00	0	32	104	0	60	38465
2026-01-18 02:05:18.86	207.22	2.63	-47.3	-60.8	3.6	1.51e+00	0	32	104	0	60	39529
2026-01-18 02:05:19.87	207.29	2.69	-47.2	-60.5	3.6	1.50e+00	0	32	104	0	60	38400
2026-01-18 02:05:20.88	207.36	2.75	-47.3	-61.2	3.6	1.51e+00	0	32	104	0	60	41509
2026-01-18 02:05:21.89	207.43	2.80	-47.2	-60.0	3.6	1.51e+00	0	32	104	0	60	36255
2026-01-18 02:05:22.90	207.50	2.86	-47.0	-57.0	5.1	8.95e-01	0	32	104	0	60	25737
2026-01-18 02:05:23.91	207.57	2.92	-46.1	-51.5	9.4	1.94e-01	0	32	0	1048576	60	13608
2026-01-18 02:05:24.92	207.64	2.98	-45.8	-50.8	10.3	9.16e-03	0	32	0	3145728	60	12517
2026-01-18 02:05:25.93	207.72	3.04	-44.9	-48.7	12.7	3.77e-04	0	32	0	5242880	60	9840
2026-01-18 02:05:26.94	207.79	3.10	-44.0	-46.9	14.6	4.50e-06	0	32	0	7340032	60	7996
2026-01-18 02:05:27.95	207.86	3.15	-43.8	-46.6	14.8	0.00e+00	0	32	0	8388608	60	7716
2026-01-18 02:05:28.96	207.93	3.21	-42.9	-45.2	16.5	0.00e+00	0	32	0	10485760	60	6565
2026-01-18 02:05:29.97	208.00	3.27	-43.4	-45.9	15.6	0.00e+00	0	32	0	12582912	60	7140
2026-01-18 02:05:30.98	208.08	3.33	-42.7	-44.9	16.6	0.00e+00	0	32	0	14680064	58	7117
2026-01-18 02:05:31.99	208.15	3.39	-47.2	-61.9	3.6	1.04e+00	0	32	104	15728640	60	45135
2026-01-18 02:05:33.00	208.22	3.45	-43.1	-45.5	15.2	1.44e+00	68	32	104	15728640	58	7649
2026-01-18 02:05:34.01	208.30	3.51	-46.4	-52.3	8.6	1.42e-04	0	32	0	15728640	60	14849
2026-01-18 02:05:35.01	208.37	3.57	-45.9	-51.0	9.0	1.47e-04	0	32	0	17825792	60	12800
2026-01-18 02:05:36.03	208.45	3.63	-44.3	-47.3	14.3	2.37e-04	0	32	0	19922944	60	8398
2026-01-18 02:05:37.03	208.52	3.68	-43.8	-46.5	15.3	7.00e-07	0	32	0	22020096	60	7610
2026-01-18 02:05:38.04	208.59	3.74	-43.9	-46.7	15.1	0.00e+00	0	32	0	23068672	60	7811
2026-01-18 02:05:39.05	208.67	3.80	-43.0	-45.2	16.4	0.00e+00	0	32	0	25165824	60	6569
2026-01-18 02:05:40.06	208.75	3.86	-43.5	-45.9	15.9	0.00e+00	0	32	0	27262976	60	7170
2026-01-18 02:05:41.07	208.82	3.92	-43.1	-45.4	16.4	0.00e+00	0	32	0	29360128	60	6754
2026-01-18 02:05:42.08	208.90	3.98	-43.5	-45.9	16.2	0.00e+00	0	32	0	31457280	60	7112
2026-01-18 02:05:43.09	208.97	4.04	-43.2	-45.6	16.3	0.00e+00	0	32	0	32505856	60	6863
2026-01-18 02:05:44.10	209.05	4.10	-43.3	-45.6	16.3	0.00e+00	0	32	0	34603008	60	6855
2026-01-18 02:05:45.11	209.13	4.16	-42.4	-44.4	17.3	0.00e+00	0	32	0	36700160	58	6735
2026-01-18 02:05:46.12	209.20	4.22	-42.0	-43.8	17.9	0.00e+00	0	32	0	38797312	58	6275
2026-01-18 02:05:47.14	209.28	4.28	-42.7	-44.7	17.1	0.00e+00	0	32	0	40894464	58	6984
2026-01-18 02:05:48.15	209.36	4.34	-42.3	-44.2	17.7	0.00e+00	0	32	0	41943040	58	6562
2026-01-18 02:05:49.16	209.44	4.40	-42.1	-43.9	18.0	0.00e+00	0	32	0	44040192	58	6373
2026-01-18 02:05:50.17	209.52	4.46	-41.7	-43.4	18.4	0.00e+00	0	32	0	46137344	56	6743
2026-01-18 02:05:51.18	209.60	4.53	-41.7	-43.3	18.6	0.00e+00	0	32	0	48234496	56	6678
2026-01-18 02:05:52.18	209.67	4.59	-41.4	-43.0	19.0	0.00e+00	0	32	0	50331648	56	6442
2026-01-18 02:05:53.19	209.75	4.65	-41.1	-42.6	19.2	0.00e+00	0	32	0	51380224	56	6149
2026-01-18 02:05:54.20	209.83	4.71	-41.7	-43.3	18.6	0.00e+00	0	32	0	53477376	56	6662
2026-01-18 02:05:55.21	209.91	4.77	-40.5	-41.9	19.9	0.00e+00	0	32	0	55574528	54	6323
2026-01-18 02:05:56.22	209.99	4.83	-40.8	-42.3	19.6	0.00e+00	0	32	0	57671680	54	6644
2026-01-18 02:05:57.23	210.07	4.89	-40.5	-41.9	19.9	0.00e+00	0	32	0	59768832	54	6360
2026-01-18 02:05:58.24	210.16	4.95	-40.6	-42.0	19.9	0.00e+00	0	32	0	60817408	54	6430
2026-01-18 02:05:59.25	210.24	5.01	-40.4	-41.8	20.1	0.00e+00	0	32	0	62914560	54	6261
2026-01-18 02:06:00.26	210.32	5.07	-40.7	-42.1	19.8	0.00e+00	0	32	0	65011712	54	6487
2026-01-18 02:06:01.26	210.40	5.14	-40.1	-41.4	20.5	0.00e+00	0	32	0	67108864	54	5982
2026-01-18 02:06:02.27	210.48	5.20	-40.9	-42.3	19.6	0.00e+00	0	32	0	69206016	54	6674
2026-01-18 02:06:03.28	210.56	5.26	-40.7	-42.1	19.9	0.00e+00	0	32	0	70254592	54	6479
2026-01-18 02:06:04.29	210.65	5.32	-40.5	-41.8	20.0	0.00e+00	0	32	0	72351744	54	6301
2026-01-18 02:06:05.30	210.73	5.38	-40.8	-42.2	19.8	0.00e+00	0	32	0	74448896	54	6564
2026-01-18 02:06:06.31	210.81	5.45	-40.4	-41.7	20.3	0.00e+00	0	32	0	76546048	54	6185
2026-01-18 02:06:07.32	210.90	5.51	-40.6	-41.9	19.9	0.00e+00	0	32	0	78643200	54	6367
2026-01-18 02:06:08.33	210.98	5.57	-40.7	-42.1	20.1	0.00e+00	0	32	0	79691776	54	6470
2026-01-18 02:06:09.34	211.07	5.63	-40.8	-42.2	19.9	0.00e+00	0	32	0	81788928	54	6559
2026-01-18 02:06:10.35	211.15	5.69	-40.5	-41.9	20.1	0.00e+00	0	32	0	83886080	54	6344
2026-01-18 02:06:11.36	211.24	5.76	-41.3	-42.8	19.3	0.00e+00	0	32	0	85983232	54	7027
2026-01-18 02:06:12.37	211.32	5.82	-39.9	-41.1	21.0	0.00e+00	0	32	0	88080384	54	5762
2026-01-18 02:06:13.37	211.41	5.88	-40.2	-41.5	20.6	0.00e+00	0	32	0	89128960	52	6787
2026-01-18 02:06:14.39	211.50	5.95	-40.2	-41.5	20.6	0.00e+00	0	32	0	91226112	52	6798
2026-01-18 02:06:15.39	211.58	6.01	-40.1	-41.4	20.8	0.00e+00	0	32	0	93323264	52	6716
2026-01-18 02:06:16.40	211.67	6.07	-40.1	-41.3	20.7	0.00e+00	0	32	0	95420416	52	6652
2026-01-18 02:06:17.41	211.76	6.13	-40.1	-41.3	20.8	0.00e+00	0	32	0	97517568	52	6653
2026-01-18 02:06:18.41	211.84	6.20	-40.2	-41.4	20.6	0.00e+00	0	32	0	98566144	52	6764
2026-01-18 02:06:19.42	211.93	6.26	-40.2	-41.4	20.6	0.00e+00	0	32	0	100663296	52	6728
2026-01-18 02:06:20.43	212.02	6.32	-40.1	-41.3	20.8	0.00e+00	0	32	0	102760448	52	6688
2026-01-18 02:06:21.44	212.11	6.39	-40.2	-41.4	20.7	0.00e+00	0	32	0	104857600	52	6739
2026-01-18 02:06:22.45	212.20	6.45	-40.2	-41.5	20.7	0.00e+00	0	32	0	106954752	52	6814
2026-01-18 02:06:23.46	212.29	6.51	-40.3	-41.5	20.6	0.00e+00	0	32	0	109051904	52	6820
2026-01-18 02:06:24.47	212.38	6.58	-40.3	-41.6	20.6	0.00e+00	0	32	0	110100480	52	6883
2026-01-18 02:06:25.47	212.47	6.64	-40.0	-41.2	20.9	0.00e+00	0	32	0	112197632	52	6599
2026-01-18 02:06:26.48	212.56	6.71	-40.3	-41.6	20.5	0.00e+00	0	32	0	114294784	52	6877
2026-01-18 02:06:27.49	212.65	6.77	-40.1	-41.4	20.7	0.00e+00	0	32	0	116391936	52	6712
2026-01-18 02:06:28.50	212.74	6.83	-40.3	-41.6	20.5	0.00e+00	0	32	0	118489088	52	6889
2026-01-18 02:06:29.51	212.83	6.90	-40.4	-41.7	20.6	0.00e+00	0	32	0	119537664	52	7003
2026-01-18 02:06:30.52	212.93	6.96	-40.3	-41.5	20.6	0.00e+00	0	32	0	121634816	52	6826
2026-01-18 02:06:31.53	213.02	7.03	-40.5	-41.8	20.4	0.00e+00	0	32	0	123731968	52	7031
2026-01-18 02:06:32.54	213.11	7.09	-40.3	-41.5	20.7	0.00e+00	0	32	0	125829120	52	6824
2026-01-18 02:06:33.55	213.21	7.16	-40.3	-41.5	20.7	0.00e+00	0	32	0	127926272	52	6807
2026-01-18 02:06:34.57	213.30	7.22	-40.1	-41.3	20.8	0.00e+00	0	32	0	128974848	52	6639
2026-01-18 02:06:35.58	213.40	7.29	-40.1	-41.4	20.8	0.00e+00	0	32	0	131072000	52	6699
2026-01-18 02:06:36.58	213.49	7.35	-40.0	-41.2	20.9	0.00e+00	0	32	0	133169152	52	6585
2026-01-18 02:06:37.59	213.58	7.42	-39.8	-41.0	21.2	0.00e+00	0	32	0	135266304	52	6428
2026-01-18 02:06:38.60	213.68	7.48	-39.8	-41.0	21.1	0.00e+00	0	32	0	137363456	52	6435
2026-01-18 02:06:39.61	213.78	7.55	-40.0	-41.3	21.0	0.00e+00	0	32	0	138412032	52	6620
2026-01-18 02:06:40.62	213.87	7.61	-40.0	-41.2	21.0	0.00e+00	0	32	0	140509184	52	6553
2026-01-18 02:06:41.63	213.97	7.68	-40.1	-41.3	20.9	0.00e+00	0	32	0	142606336	52	6641
2026-01-18 02:06:42.64	214.07	7.74	-39.8	-40.9	21.5	0.00e+00	0	32	0	144703488	52	6365
2026-01-18 02:06:43.65	214.16	7.81	-39.7	-40.9	21.5	0.00e+00	0	32	0	146800640	52	6346
2026-01-18 02:06:44.66	214.26	7.88	-39.6	-40.8	21.5	0.00e+00	0	32	0	147849216	52	6249
2026-01-18 02:06:45.67	214.36	7.94	-39.8	-40.9	21.3	0.00e+00	0	32	0	149946368	52	6366
2026-01-18 02:06:46.68	214.46	8.01	-39.5	-40.6	21.5	0.00e+00	0	32	0	152043520	52	6160
2026-01-18 02:06:47.69	214.56	8.07	-39.5	-40.6	21.6	0.00e+00	0	32	0	154140672	52	6145
2026-01-18 02:06:48.70	214.66	8.14	-39.5	-40.6	21.6	0.00e+00	0	32	0	156237824	52	6143
2026-01-18 02:06:49.71	214.76	8.21	-39.4	-40.5	21.6	0.00e+00	0	32	0	157286400	52	6070
2026-01-18 02:06:50.72	214.86	8.27	-39.4	-40.5	21.7	0.00e+00	0	32	0	159383552	52	6088
2026-01-18 02:06:51.73	214.96	8.34	-39.4	-40.5	21.7	0.00e+00	0	32	0	161480704	52	6041
2026-01-18 02:06:52.74	215.06	8.41	-39.5	-40.6	21.5	0.00e+00	0	32	0	163577856	52	6159
2026-01-18 02:06:53.74	215.16	8.47	-39.7	-40.9	21.3	0.00e+00	0	32	0	165675008	52	6327
2026-01-18 02:06:54.75	215.27	8.54	-39.6	-40.7	21.5	0.00e+00	0	32	0	166723584	52	6191
2026-01-18 02:06:55.76	215.37	8.61	-39.7	-40.8	21.5	0.00e+00	0	32	0	168820736	52	6284
2026-01-18 02:06:56.77	215.47	8.67	-39.5	-40.6	21.6	0.00e+00	0	32	0	170917888	52	6126
2026-01-18 02:06:57.78	215.58	8.74	-39.5	-40.6	21.6	0.00e+00	0	32	0	173015040	52	6147
2026-01-18 02:06:58.79	215.68	8.81	-39.6	-40.7	21.4	0.00e+00	0	32	0	175112192	52	6228
2026-01-18 02:06:59.80	215.78	8.88	-39.6	-40.7	21.5	0.00e+00	0	32	0	177209344	52	6212
2026-01-18 02:07:00.81	215.89	8.94	-39.2	-40.3	21.9	0.00e+00	0	32	0	178257920	52	5912
2026-01-18 02:07:01.82	216.00	9.01	-39.5	-40.6	21.7	0.00e+00	0	32	0	180355072	52	6159
2026-01-18 02:07:02.83	216.10	9.08	-39.4	-40.5	21.8	0.00e+00	0	32	0	182452224	52	6047
2026-01-18 02:07:03.84	216.21	9.15	-39.6	-40.7	21.4	0.00e+00	0	32	0	184549376	52	6221
2026-01-18 02:07:04.85	216.32	9.21	-39.5	-40.6	21.7	0.00e+00	0	32	0	186646528	52	6124
2026-01-18 02:07:05.86	216.42	9.28	-39.5	-40.6	21.6	0.00e+00	0	32	0	187695104	52	6154
2026-01-18 02:07:06.87	216.53	9.35	-39.7	-40.8	21.5	0.00e+00	0	32	0	189792256	52	6316
2026-01-18 02:07:07.87	216.64	9.42	-39.5	-40.6	21.7	0.00e+00	0	32	0	191889408	52	6167
2026-01-18 02:07:08.88	216.75	9.49	-39.7	-40.8	21.6	0.00e+00	0	32	0	193986560	52	6265
2026-01-18 02:07:09.89	216.86	9.55	-39.6	-40.8	21.6	0.00e+00	0	32	0	196083712	52	6252
2026-01-18 02:07:10.90	216.97	9.62	-39.5	-40.6	21.7	0.00e+00	0	32	0	197132288	52	6136
2026-01-18 02:07:11.91	217.08	9.69	-39.5	-40.6	21.7	0.00e+00	0	32	0	199229440	52	6145
2026-01-18 02:07:12.92	217.19	9.76	-39.6	-40.7	21.6	0.00e+00	0	32	0	201326592	52	6240
2026-01-18 02:07:13.93	217.30	9.83	-39.4	-40.5	21.7	0.00e+00	0	32	0	203423744	52	6095
2026-01-18 02:07:14.94	217.41	9.90	-39.2	-40.3	22.1	0.00e+00	0	32	0	205520896	52	5919
2026-01-18 02:07:15.95	217.52	9.97	-39.1	-40.1	22.2	0.00e+00	0	32	0	206569472	52	5809
2026-01-18 02:07:16.96	217.64	10.04	-39.0	-40.1	22.2	0.00e+00	0	32	0	208666624	52	5786
2026-01-18 02:07:17.97	217.75	10.10	-39.1	-40.2	22.1	0.00e+00	0	32	0	210763776	52	5854
2026-01-18 02:07:18.99	217.87	10.17	-39.0	-40.0	22.2	0.00e+00	0	32	0	212860928	52	5750
2026-01-18 02:07:19.99	217.98	10.24	-39.1	-40.1	22.2	0.00e+00	0	32	0	214958080	52	5815
2026-01-18 02:07:21.01	218.10	10.31	-38.9	-39.9	22.4	0.00e+00	0	32	0	216006656	52	5663
2026-01-18 02:07:22.02	218.21	10.38	-38.9	-40.0	22.3	0.00e+00	0	32	0	218103808	52	5708
2026-01-18 02:07:23.03	218.33	10.45	-38.9	-39.9	22.4	0.00e+00	0	32	0	220200960	52	5691
2026-01-18 02:07:24.03	218.44	10.52	-38.9	-39.9	22.4	0.00e+00	0	32	0	222298112	52	5671
2026-01-18 02:07:25.04	218.56	10.59	-39.2	-40.2	22.1	0.00e+00	0	32	0	224395264	52	5879
2026-01-18 02:07:26.05	218.68	10.66	-39.1	-40.2	22.2	0.00e+00	0	32	0	225443840	52	5859
2026-01-18 02:07:27.06	218.80	10.73	-39.3	-40.3	22.0	0.00e+00	0	32	0	227540992	52	5948
2026-01-18 02:07:28.07	218.92	10.80	-38.9	-39.9	22.4	0.00e+00	0	32	0	229638144	52	5668
2026-01-18 02:07:29.08	219.03	10.87	-39.1	-40.1	22.3	0.00e+00	0	32	0	231735296	52	5828
2026-01-18 02:07:30.09	219.15	10.94	-39.1	-40.1	22.4	0.00e+00	0	32	0	233832448	52	5796
2026-01-18 02:07:31.10	219.28	11.01	-39.0	-40.0	22.5	0.00e+00	0	32	0	234881024	52	5708
2026-01-18 02:07:32.11	219.40	11.08	-39.0	-40.0	22.4	0.00e+00	0	32	0	236978176	52	5727
2026-01-18 02:07:33.12	219.52	11.15	-38.9	-40.0	22.4	0.00e+00	0	32	0	239075328	52	5703
2026-01-18 02:07:34.13	219.64	11.22	-39.0	-40.1	22.4	0.00e+00	0	32	0	241172480	52	5762
2026-01-18 02:07:35.14	219.76	11.30	-39.0	-40.1	22.4	0.00e+00	0	32	0	243269632	52	5762
2026-01-18 02:07:36.15	219.89	11.37	-39.1	-40.1	22.2	0.00e+00	0	32	0	245366784	52	5781
2026-01-18 02:07:37.15	220.01	11.44	-38.8	-39.8	22.6	0.00e+00	0	32	0	246415360	52	5603
2026-01-18 02:07:38.16	220.13	11.51	-39.1	-40.1	22.3	0.00e+00	0	32	0	248512512	52	5806
2026-01-18 02:07:39.17	220.26	11.58	-39.1	-40.1	22.3	0.00e+00	0	32	0	250609664	52	5793
2026-01-18 02:07:40.18	220.38	11.65	-39.4	-40.5	21.9	0.00e+00	0	32	0	252706816	52	6055
2026-01-18 02:07:41.19	220.51	11.72	-39.3	-40.3	22.1	0.00e+00	0	32	0	254803968	52	5933
2026-01-18 02:07:42.20	220.64	11.79	-39.2	-40.3	22.2	0.00e+00	0	32	0	255852544	52	5897
2026-01-18 02:07:43.21	220.76	11.86	-39.2	-40.2	22.2	0.00e+00	0	32	0	257949696	52	5887
2026-01-18 02:07:44.22	220.89	11.94	-39.1	-40.2	22.2	0.00e+00	0	32	0	260046848	52	5851
2026-01-18 02:07:45.23	221.02	12.01	-39.1	-40.2	22.3	0.00e+00	0	32	0	262144000	52	5849
2026-01-18 02:07:46.24	221.15	12.08	-39.0	-40.0	22.4	0.00e+00	0	32	0	264241152	52	5754
2026-01-18 02:07:47.25	221.28	12.15	-39.1	-40.1	22.4	0.00e+00	0	32	0	265289728	52	5816
2026-01-18 02:07:48.26	221.41	12.22	-38.9	-39.9	22.5	0.00e+00	0	32	0	267386880	52	5688
2026-01-18 02:07:49.26	221.54	12.29	-38.8	-39.8	22.7	0.00e+00	0	32	0	269484032	52	5577
2026-01-18 02:07:50.27	221.67	12.37	-38.8	-39.7	22.7	0.00e+00	0	32	0	271581184	52	5564
2026-01-18 02:07:51.28	221.80	12.44	-39.0	-40.0	22.4	0.00e+00	0	32	0	273678336	52	5724
2026-01-18 02:07:52.29	221.94	12.51	-39.0	-40.0	22.6	0.00e+00	0	32	0	274726912	52	5702
2026-01-18 02:07:53.30	222.07	12.58	-39.1	-40.1	22.4	0.00e+00	0	32	0	276824064	52	5808
2026-01-18 02:07:54.31	222.21	12.65	-38.8	-39.8	22.5	0.00e+00	0	32	0	278921216	52	5621
2026-01-18 02:07:55.32	222.34	12.73	-39.1	-40.1	22.1	0.00e+00	0	32	0	281018368	52	5789
2026-01-18 02:07:56.33	222.48	12.80	-39.1	-40.1	22.3	0.00e+00	0	32	0	283115520	52	5778
2026-01-18 02:07:57.34	222.61	12.87	-39.1	-40.1	22.5	0.00e+00	0	32	0	284164096	52	5792
2026-01-18 02:07:58.35	222.75	12.94	-38.9	-39.9	22.6	0.00e+00	0	32	0	286261248	52	5656
2026-01-18 02:07:59.35	222.88	13.02	-38.9	-39.9	22.6	0.00e+00	0	32	0	288358400	52	5665
2026-01-18 02:08:00.36	223.02	13.09	-38.6	-39.6	22.8	0.00e+00	0	32	0	290455552	50	6154
2026-01-18 02:08:01.37	223.16	13.16	-38.6	-39.6	22.9	0.00e+00	0	32	0	292552704	50	6110
2026-01-18 02:08:02.38	223.30	13.23	-38.6	-39.6	23.0	0.00e+00	0	32	0	293601280	50	6113
2026-01-18 02:08:03.39	223.44	13.31	-38.4	-39.3	23.1	0.00e+00	0	32	0	295698432	50	5964
2026-01-18 02:08:04.40	223.58	13.38	-38.4	-39.3	23.1	0.00e+00	0	32	0	297795584	50	5931
2026-01-18 02:08:05.40	223.72	13.45	-38.4	-39.4	23.0	0.00e+00	0	32	0	299892736	50	5972
2026-01-18 02:08:06.41	223.86	13.53	-38.5	-39.4	23.0	0.00e+00	0	32	0	301989888	50	6000
2026-01-18 02:08:07.42	224.01	13.60	-38.5	-39.5	22.9	0.00e+00	0	32	0	303038464	50	6053
2026-01-18 02:08:08.43	224.15	13.67	-38.6	-39.6	22.9	0.00e+00	0	32	0	305135616	50	6108
2026-01-18 02:08:09.44	224.29	13.75	-38.7	-39.6	22.8	0.00e+00	0	32	0	307232768	50	6152
2026-01-18 02:08:10.45	224.44	13.82	-38.7	-39.7	22.8	0.00e+00	0	32	0	309329920	50	6175
2026-01-18 02:08:11.46	224.58	13.89	-38.7	-39.6	22.8	0.00e+00	0	32	0	311427072	50	6166
2026-01-18 02:08:12.47	224.73	13.97	-38.7	-39.7	22.7	0.00e+00	0	32	0	312475648	50	6175
2026-01-18 02:08:13.48	224.88	14.04	-38.6	-39.6	22.8	0.00e+00	0	32	0	314572800	50	6149
2026-01-18 02:08:14.49	225.02	14.11	-38.7	-39.6	22.8	0.00e+00	0	32	0	316669952	50	6159
2026-01-18 02:08:15.50	225.17	14.19	-38.6	-39.5	22.9	0.00e+00	0	32	0	318767104	50	6100
2026-01-18 02:08:16.50	225.32	14.26	-38.5	-39.4	23.0	0.00e+00	0	32	0	320864256	50	6001
2026-01-18 02:08:17.51	225.47	14.33	-38.4	-39.4	23.0	0.00e+00	0	32	0	321912832	50	5967
2026-01-18 02:08:18.52	225.62	14.41	-38.4	-39.3	23.1	0.00e+00	0	32	0	324009984	50	5919
2026-01-18 02:08:19.53	225.77	14.48	-38.5	-39.4	23.0	0.00e+00	0	32	0	326107136	50	6002
2026-01-18 02:08:20.54	225.92	14.55	-38.5	-39.5	23.0	0.00e+00	0	32	0	328204288	50	6059
2026-01-18 02:08:21.55	226.08	14.63	-38.6	-39.6	22.9	0.00e+00	0	32	0	330301440	50	6113
2026-01-18 02:08:22.56	226.23	14.70	-38.6	-39.5	23.1	0.00e+00	0	32	0	331350016	50	6094
2026-01-18 02:08:23.57	226.38	14.78	-38.4	-39.4	23.0	0.00e+00	0	32	0	333447168	50	5987
2026-01-18 02:08:24.58	226.54	14.85	-38.3	-39.2	23.2	0.00e+00	0	32	0	335544320	50	5852
2026-01-18 02:08:25.59	226.69	14.92	-38.4	-39.3	23.1	0.00e+00	0	32	0	337641472	50	5927
2026-01-18 02:08:26.60	226.85	15.00	-38.2	-39.1	23.3	0.00e+00	0	32	0	339738624	50	5796
2026-01-18 02:08:27.61	227.01	15.07	-38.4	-39.3	23.2	0.00e+00	0	32	0	341835776	50	5955
2026-01-18 02:08:28.62	227.17	15.15	-38.2	-39.1	23.3	0.00e+00	0	32	0	342884352	50	5821
2026-01-18 02:08:29.63	227.32	15.22	-38.2	-39.1	23.3	0.00e+00	0	32	0	344981504	50	5786
2026-01-18 02:08:30.64	227.48	15.29	-38.4	-39.3	23.1	0.00e+00	0	32	0	347078656	50	5948
2026-01-18 02:08:31.65	227.64	15.37	-38.2	-39.1	23.3	0.00e+00	0	32	0	349175808	50	5784
2026-01-18 02:08:32.66	227.80	15.44	-38.1	-39.1	23.3	0.00e+00	0	32	0	351272960	50	5764
2026-01-18 02:08:33.66	227.96	15.52	-38.3	-39.2	23.3	0.00e+00	0	32	0	352321536	50	5881
2026-01-18 02:08:34.67	228.13	15.59	-38.3	-39.2	23.4	0.00e+00	0	32	0	354418688	50	5846
2026-01-18 02:08:35.68	228.29	15.67	-38.2	-39.1	23.4	0.00e+00	0	32	0	356515840	50	5789
2026-01-18 02:08:36.69	228.45	15.74	-38.3	-39.2	23.3	0.00e+00	0	32	0	358612992	50	5861
2026-01-18 02:08:37.70	228.62	15.81	-38.0	-38.9	23.6	0.00e+00	0	32	0	360710144	50	5655
2026-01-18 02:08:38.71	228.78	15.89	-38.0	-38.9	23.6	0.00e+00	0	32	0	361758720	50	5645
2026-01-18 02:08:39.72	228.95	15.96	-37.9	-38.8	23.7	0.00e+00	0	32	0	363855872	50	5599
2026-01-18 02:08:40.73	229.12	16.04	-37.9	-38.8	23.6	0.00e+00	0	32	0	365953024	50	5570
2026-01-18 02:08:41.74	229.29	16.11	-37.8	-38.7	23.8	0.00e+00	0	32	0	368050176	50	5527
2026-01-18 02:08:42.75	229.45	16.18	-37.8	-38.7	23.7	0.00e+00	0	32	0	370147328	50	5522
2026-01-18 02:08:43.76	229.62	16.26	-37.6	-38.5	23.9	0.00e+00	0	32	0	371195904	48	6051
2026-01-18 02:08:44.77	229.79	16.33	-37.7	-38.6	23.8	0.00e+00	0	32	0	373293056	48	6108
2026-01-18 02:08:45.78	229.97	16.41	-37.6	-38.5	23.9	0.00e+00	0	32	0	375390208	48	6048
2026-01-18 02:08:46.79	230.14	16.48	-37.6	-38.4	24.0	0.00e+00	0	32	0	377487360	48	6024
2026-01-18 02:08:47.80	230.31	16.56	-37.7	-38.6	23.8	0.00e+00	0	32	0	379584512	48	6138
2026-01-18 02:08:48.81	230.48	16.63	-38.0	-38.9	23.6	0.00e+00	0	32	0	380633088	48	6347
2026-01-18 02:08:49.82	230.66	16.70	-37.8	-38.7	23.7	0.00e+00	0	32	0	382730240	48	6229
2026-01-18 02:08:50.83	230.83	16.78	-37.9	-38.7	23.7	0.00e+00	0	32	0	384827392	48	6231
2026-01-18 02:08:51.84	231.01	16.85	-38.0	-38.9	23.6	0.00e+00	0	32	0	386924544	48	6360
2026-01-18 02:08:52.85	231.19	16.93	-37.9	-38.8	23.8	0.00e+00	0	32	0	389021696	48	6254
2026-01-18 02:08:53.86	231.37	17.00	-38.0	-38.9	23.7	0.00e+00	0	32	0	390070272	48	6319
2026-01-18 02:08:54.86	231.54	17.07	-38.0	-38.9	23.6	0.00e+00	0	32	0	392167424	48	6376
2026-01-18 02:08:55.87	231.72	17.15	-38.0	-38.9	23.5	0.00e+00	0	32	0	394264576	48	6350
2026-01-18 02:08:56.88	231.90	17.22	-38.1	-39.0	23.5	0.00e+00	0	32	0	396361728	48	6435
2026-01-18 02:08:57.90	232.09	17.30	-38.0	-38.9	23.6	0.00e+00	0	32	0	398458880	48	6371
2026-01-18 02:08:58.91	232.27	17.37	-38.1	-39.0	23.5	0.00e+00	0	32	0	399507456	48	6456
2026-01-18 02:08:59.92	232.45	17.44	-38.1	-39.0	23.4	0.00e+00	0	32	0	401604608	48	6456
2026-01-18 02:09:00.92	232.63	17.52	-38.3	-39.2	23.2	0.00e+00	0	32	0	403701760	48	6609
2026-01-18 02:09:01.93	232.82	17.59	-38.3	-39.2	23.3	0.00e+00	0	32	0	405798912	48	6579
2026-01-18 02:09:02.94	233.00	17.66	-38.3	-39.2	23.3	0.00e+00	0	32	0	407896064	48	6613
2026-01-18 02:09:03.95	233.19	17.74	-38.2	-39.1	23.4	0.00e+00	0	32	0	409993216	48	6522
2026-01-18 02:09:04.96	233.38	17.81	-38.3	-39.2	23.3	0.00e+00	0	32	0	411041792	48	6603
2026-01-18 02:09:05.97	233.57	17.88	-38.1	-39.0	23.4	0.00e+00	0	32	0	413138944	48	6422
2026-01-18 02:09:06.98	233.76	17.96	-38.1	-39.0	23.5	0.00e+00	0	32	0	415236096	48	6416
2026-01-18 02:09:07.99	233.95	18.03	-37.9	-38.8	23.7	0.00e+00	0	31	0	417333248	48	6268
2026-01-18 02:09:09.00	234.14	18.10	-37.8	-38.7	23.8	0.00e+00	0	32	0	419430400	48	6196
2026-01-18 02:09:10.01	234.33	18.18	-37.7	-38.6	23.9	0.00e+00	0	32	0	420478976	48	6132
2026-01-18 02:09:11.02	234.52	18.25	-37.8	-38.6	23.9	0.00e+00	0	32	0	422576128	48	6156
2026-01-18 02:09:12.03	234.71	18.32	-37.8	-38.7	23.7	0.00e+00	0	32	0	424673280	48	6212
2026-01-18 02:09:13.04	234.91	18.39	-37.9	-38.8	23.7	0.00e+00	0	32	0	426770432	48	6284
2026-01-18 02:09:14.05	235.10	18.47	-37.5	-38.4	24.1	0.00e+00	0	32	0	428867584	48	5968
2026-01-18 02:09:15.06	235.30	18.54	-37.5	-38.4	24.0	0.00e+00	0	32	0	429916160	48	5997
2026-01-18 02:09:16.07	235.50	18.61	-37.6	-38.4	24.0	0.00e+00	0	31	0	432013312	48	6027
2026-01-18 02:09:17.08	235.70	18.68	-37.4	-38.2	24.2	0.00e+00	0	32	0	434110464	48	5884
2026-01-18 02:09:18.08	235.89	18.75	-37.3	-38.2	24.1	0.00e+00	0	32	0	436207616	48	5844
2026-01-18 02:09:19.10	236.10	18.83	-37.4	-38.3	24.1	0.00e+00	0	32	0	438304768	48	5915
2026-01-18 02:09:20.11	236.30	18.90	-37.1	-37.9	24.4	0.00e+00	0	32	0	439353344	48	5642
2026-01-18 02:09:21.11	236.50	18.97	-37.0	-37.8	24.4	0.00e+00	0	31	0	441450496	48	5589
2026-01-18 02:09:22.12	236.70	19.04	-37.0	-37.9	24.4	0.00e+00	0	32	0	443547648	48	5647
2026-01-18 02:09:23.13	236.90	19.11	-36.8	-37.6	24.7	0.00e+00	0	32	0	445644800	48	5487
2026-01-18 02:09:24.14	237.11	19.18	-36.9	-37.7	24.5	0.00e+00	0	32	0	447741952	48	5563
2026-01-18 02:09:25.14	237.31	19.25	-37.0	-37.8	24.5	0.00e+00	0	31	0	448790528	48	5587
2026-01-18 02:09:26.15	237.52	19.33	-36.9	-37.7	24.5	0.00e+00	0	32	0	450887680	48	5557
2026-01-18 02:09:27.16	237.73	19.40	-36.8	-37.6	24.7	0.00e+00	0	32	0	452984832	48	5489
2026-01-18 02:09:28.17	237.93	19.47	-36.9	-37.7	24.6	0.00e+00	0	32	0	455081984	48	5535
2026-01-18 02:09:29.16	238.14	19.54	-36.8	-37.6	24.7	0.00e+00	0	31	0	457179136	46	6164
2026-01-18 02:09:30.14	238.34	19.60	-36.7	-37.6	24.7	0.00e+00	0	32	0	458227712	46	6105
2026-01-18 02:09:31.12	238.55	19.67	-36.7	-37.5	24.7	0.00e+00	0	32	0	460324864	46	6062
2026-01-18 02:09:32.10	238.75	19.74	-36.8	-37.6	24.7	0.00e+00	0	32	0	462422016	46	6150
2026-01-18 02:09:33.08	238.96	19.81	-36.7	-37.5	24.7	0.00e+00	0	32	0	464519168	46	6091
2026-01-18 02:09:34.06	239.17	19.87	-36.8	-37.6	24.7	0.00e+00	0	32	0	465567744	46	6127
2026-01-18 02:09:35.04	239.38	19.94	-36.8	-37.6	24.7	0.00e+00	0	31	0	467664896	46	6154
2026-01-18 02:09:36.02	239.58	20.01	-36.8	-37.6	24.7	0.00e+00	0	32	0	469762048	46	6128
2026-01-18 02:09:36.99	239.79	20.08	-36.9	-37.7	24.6	0.00e+00	0	32	0	471859200	46	6202
2026-01-18 02:09:37.98	240.01	20.14	-37.1	-37.9	24.5	0.00e+00	0	32	0	472907776	46	6346
2026-01-18 02:09:38.95	240.22	20.21	-37.0	-37.8	24.4	0.00e+00	0	32	0	475004928	46	6293
2026-01-18 02:09:39.92	240.43	20.27	-36.8	-37.6	24.6	0.00e+00	0	32	0	477102080	46	6156
2026-01-18 02:09:40.90	240.64	20.34	-36.8	-37.6	24.7	0.00e+00	0	32	0	479199232	46	6161
2026-01-18 02:09:41.88	240.85	20.41	-36.9	-37.7	24.7	0.00e+00	0	32	0	480247808	46	6227
2026-01-18 02:09:42.86	241.07	20.47	-37.0	-37.8	24.5	0.00e+00	0	32	0	482344960	46	6293
2026-01-18 02:09:43.84	241.29	20.54	-37.0	-37.9	24.5	0.00e+00	0	32	0	484442112	46	6331
2026-01-18 02:09:44.82	241.50	20.60	-37.2	-38.0	24.4	0.00e+00	0	32	0	486539264	46	6456
2026-01-18 02:09:45.80	241.72	20.67	-37.1	-38.0	24.4	0.00e+00	0	32	0	487587840	46	6405
2026-01-18 02:09:46.78	241.94	20.73	-37.2	-38.1	24.4	0.00e+00	0	32	0	489684992	46	6466
2026-01-18 02:09:47.76	242.16	20.80	-37.2	-38.0	24.4	0.00e+00	0	32	0	491782144	46	6427
2026-01-18 02:09:48.74	242.38	20.86	-37.1	-37.9	24.5	0.00e+00	0	32	0	493879296	46	6345
2026-01-18 02:09:49.71	242.60	20.92	-37.0	-37.9	24.6	0.00e+00	0	32	0	494927872	46	6319
2026-01-18 02:09:50.69	242.82	20.99	-37.0	-37.8	24.6	0.00e+00	0	31	0	497025024	46	6273
2026-01-18 02:09:51.67	243.05	21.05	-37.1	-37.9	24.5	0.00e+00	0	31	0	499122176	46	6349
2026-01-18 02:09:52.65	243.27	21.11	-37.2	-38.1	24.4	0.00e+00	0	32	0	501219328	46	6466
2026-01-18 02:09:53.62	243.50	21.18	-37.4	-38.3	24.2	0.00e+00	0	31	0	502267904	46	6651
2026-01-18 02:09:54.61	243.72	21.24	-37.5	-38.4	24.1	0.00e+00	0	31	0	504365056	46	6711
2026-01-18 02:09:55.58	243.95	21.30	-37.8	-38.7	23.8	0.00e+00	0	32	0	506462208	48	6203
2026-01-18 02:09:56.56	244.18	21.36	-37.7	-38.5	23.9	0.00e+00	0	32	0	508559360	48	6092
2026-01-18 02:09:57.54	244.41	21.42	-37.8	-38.7	23.8	0.00e+00	0	32	0	509607936	48	6184
2026-01-18 02:09:58.52	244.64	21.49	-37.8	-38.6	23.9	0.00e+00	0	32	0	511705088	48	6160
2026-01-18 02:09:59.49	244.86	21.55	-37.8	-38.6	23.8	0.00e+00	0	32	0	513802240	48	6172
2026-01-18 02:10:00.47	245.09	21.61	-37.9	-38.7	23.8	0.00e+00	0	32	0	515899392	48	6239
2026-01-18 02:10:01.45	245.33	21.67	-37.8	-38.7	23.8	0.00e+00	0	32	0	516947968	48	6208
2026-01-18 02:10:02.42	245.56	21.73	-38.0	-38.9	23.7	0.00e+00	0	32	0	519045120	48	6328
2026-01-18 02:10:03.40	245.79	21.79	-37.8	-38.7	23.8	0.00e+00	0	32	0	521142272	48	6228
2026-01-18 02:10:04.38	246.03	21.85	-37.9	-38.8	23.7	0.00e+00	0	32	0	523239424	48	6282
2026-01-18 02:10:05.35	246.26	21.90	-38.0	-38.9	23.5	0.00e+00	0	32	0	524288000	48	6374
2026-01-18 02:10:06.33	246.50	21.96	-38.2	-39.1	23.3	0.00e+00	0	32	0	526385152	48	6504
2026-01-18 02:10:07.31	246.74	22.02	-38.2	-39.1	23.3	0.00e+00	0	32	0	528482304	48	6539
2026-01-18 02:10:08.29	246.97	22.08	-38.4	-39.3	23.2	0.00e+00	0	32	0	530579456	48	6657
2026-01-18 02:10:09.27	247.21	22.14	-38.3	-39.2	23.3	0.00e+00	0	32	0	531628032	48	6579
2026-01-18 02:10:10.25	247.45	22.19	-38.1	-39.1	23.5	0.00e+00	0	32	0	533725184	48	6471
2026-01-18 02:10:11.23	247.69	22.25	-38.0	-38.9	23.7	0.00e+00	0	31	0	535822336	48	6319
2026-01-18 02:10:12.20	247.93	22.31	-37.8	-38.7	23.9	0.00e+00	0	31	0	537919488	48	6176
2026-01-18 02:10:13.18	248.18	22.36	-37.7	-38.6	23.9	0.00e+00	0	31	0	538968064	48	6115
2026-01-18 02:10:14.16	248.42	22.42	-37.7	-38.6	23.9	0.00e+00	0	31	0	541065216	48	6123
2026-01-18 02:10:15.13	248.66	22.47	-37.7	-38.5	24.0	0.00e+00	0	31	0	543162368	48	6088
2026-01-18 02:10:16.11	248.91	22.53	-37.8	-38.7	23.8	0.00e+00	0	31	0	545259520	48	6224
2026-01-18 02:10:17.08	249.15	22.58	-37.8	-38.6	23.9	0.00e+00	0	31	0	546308096	48	6168
2026-01-18 02:10:18.06	249.40	22.63	-38.0	-38.9	23.6	0.00e+00	0	31	0	548405248	48	6384
2026-01-18 02:10:19.04	249.65	22.69	-38.1	-39.0	23.5	0.00e+00	0	31	0	550502400	48	6452
2026-01-18 02:10:20.01	249.89	22.74	-38.4	-39.3	23.2	0.00e+00	0	32	0	552599552	48	6644
2026-01-18 02:10:20.99	250.14	22.79	-38.3	-39.2	23.3	0.00e+00	0	32	0	553648128	48	6607
2026-01-18 02:10:21.97	250.39	22.85	-38.5	-39.5	23.2	0.00e+00	0	32	0	555745280	48	6793
2026-01-18 02:10:22.94	250.64	22.90	-38.8	-39.7	23.0	0.00e+00	0	32	0	557842432	50	6218
2026-01-18 02:10:23.92	250.89	22.95	-38.6	-39.5	23.2	0.00e+00	0	31	0	558891008	50	6100
2026-01-18 02:10:24.89	251.14	23.00	-38.5	-39.5	23.2	0.00e+00	0	32	0	560988160	50	6048
2026-01-18 02:10:25.87	251.40	23.05	-38.6	-39.5	23.1	0.00e+00	0	32	0	563085312	50	6080
2026-01-18 02:10:26.85	251.65	23.10	-38.6	-39.5	23.2	0.00e+00	0	32	0	565182464	50	6095
2026-01-18 02:10:27.83	251.91	23.15	-38.7	-39.6	23.1	0.00e+00	0	32	0	566231040	50	6136
2026-01-18 02:10:28.80	252.16	23.20	-38.7	-39.6	23.2	0.00e+00	0	32	0	568328192	50	6128
2026-01-18 02:10:29.77	252.41	23.24	-38.9	-39.8	22.9	0.00e+00	0	32	0	570425344	50	6296
2026-01-18 02:10:30.75	252.67	23.29	-38.9	-39.8	22.8	0.00e+00	0	32	0	572522496	50	6305
2026-01-18 02:10:31.73	252.93	23.34	-39.2	-40.2	22.5	0.00e+00	0	31	0	573571072	50	6608
2026-01-18 02:10:32.71	253.19	23.39	-39.3	-40.3	22.5	0.00e+00	0	32	0	575668224	50	6654
2026-01-18 02:10:33.69	253.45	23.43	-39.5	-40.6	22.2	0.00e+00	0	32	0	577765376	50	6851
2026-01-18 02:10:34.67	253.71	23.48	-39.6	-40.6	22.3	0.00e+00	0	32	0	579862528	50	6917
2026-01-18 02:10:35.64	253.97	23.52	-39.4	-40.5	22.3	0.00e+00	0	32	0	580911104	50	6787
2026-01-18 02:10:36.62	254.23	23.57	-39.3	-40.3	22.5	0.00e+00	0	32	0	583008256	50	6662
2026-01-18 02:10:37.59	254.49	23.61	-39.2	-40.2	22.5	0.00e+00	0	32	0	585105408	50	6554
2026-01-18 02:10:38.57	254.75	23.66	-39.0	-40.0	22.7	0.00e+00	0	32	0	587202560	50	6446
2026-01-18 02:10:39.55	255.01	23.70	-38.9	-39.9	22.8	0.00e+00	0	32	0	588251136	50	6368
2026-01-18 02:10:40.52	255.28	23.74	-38.9	-39.9	22.8	0.00e+00	0	32	0	590348288	50	6321
2026-01-18 02:10:41.49	255.54	23.78	-38.9	-39.9	23.0	0.00e+00	0	32	0	592445440	50	6323
2026-01-18 02:10:42.46	255.80	23.83	-38.8	-39.8	22.9	0.00e+00	0	32	0	594542592	50	6268
2026-01-18 02:10:43.44	256.07	23.87	-39.0	-40.0	22.7	0.00e+00	0	32	0	595591168	50	6454
2026-01-18 02:10:44.42	256.34	23.91	-39.2	-40.2	22.6	0.00e+00	0	32	0	597688320	50	6571
2026-01-18 02:10:45.40	256.60	23.95	-39.4	-40.4	22.2	0.00e+00	0	32	0	599785472	50	6743
2026-01-18 02:10:46.37	256.87	23.99	-39.4	-40.4	22.3	0.00e+00	0	32	0	601882624	50	6749
2026-01-18 02:10:47.35	257.14	24.02	-39.6	-40.7	22.1	0.00e+00	0	32	0	602931200	50	6963
2026-01-18 02:10:48.33	257.41	24.06	-39.7	-40.7	22.1	0.00e+00	0	32	0	605028352	50	6971
2026-01-18 02:10:49.30	257.68	24.10	-39.7	-40.7	22.1	0.00e+00	0	32	0	607125504	52	6239
2026-01-18 02:10:50.28	257.95	24.14	-39.4	-40.4	22.4	0.00e+00	0	32	0	609222656	52	6027
2026-01-18 02:10:51.26	258.22	24.17	-39.4	-40.4	22.3	0.00e+00	0	32	0	610271232	52	6024
2026-01-18 02:10:52.23	258.49	24.21	-39.6	-40.6	22.3	0.00e+00	0	32	0	612368384	52	6165
2026-01-18 02:10:53.21	258.76	24.24	-39.5	-40.5	22.3	0.00e+00	0	32	0	614465536	52	6060
2026-01-18 02:10:54.19	259.04	24.28	-39.7	-40.7	22.1	0.00e+00	0	32	0	616562688	52	6223
2026-01-18 02:10:55.17	259.31	24.31	-39.8	-40.9	22.0	0.00e+00	0	32	0	617611264	52	6354
2026-01-18 02:10:56.14	259.58	24.34	-40.0	-41.1	21.7	0.00e+00	0	32	0	619708416	52	6481
2026-01-18 02:10:57.12	259.86	24.38	-40.0	-41.1	21.8	0.00e+00	0	32	0	621805568	52	6517
2026-01-18 02:10:58.09	260.13	24.41	-40.2	-41.3	21.5	0.00e+00	0	32	0	623902720	52	6670
2026-01-18 02:10:59.07	260.41	24.44	-40.2	-41.4	21.6	0.00e+00	0	32	0	624951296	52	6694
2026-01-18 02:11:00.05	260.69	24.47	-40.1	-41.2	21.6	0.00e+00	0	32	0	627048448	52	6570
2026-01-18 02:11:01.03	260.96	24.50	-40.1	-41.2	21.7	0.00e+00	0	32	0	629145600	52	6595
2026-01-18 02:11:02.01	261.24	24.53	-39.9	-41.0	21.8	0.00e+00	0	32	0	631242752	52	6452
2026-01-18 02:11:02.99	261.52	24.56	-39.7	-40.8	22.1	0.00e+00	0	32	0	632291328	52	6251
2026-01-18 02:11:03.96	261.80	24.59	-39.7	-40.7	22.2	0.00e+00	0	32	0	634388480	52	6243
2026-01-18 02:11:04.94	262.07	24.61	-39.6	-40.6	22.3	0.00e+00	0	32	0	636485632	52	6126
2026-01-18 02:11:05.92	262.35	24.64	-39.5	-40.5	22.4	0.00e+00	0	31	0	638582784	52	6059
2026-01-18 02:11:06.90	262.64	24.67	-39.7	-40.7	22.2	0.00e+00	0	32	0	639631360	52	6207
2026-01-18 02:11:07.88	262.92	24.69	-39.6	-40.6	22.2	0.00e+00	0	32	0	641728512	52	6160
2026-01-18 02:11:08.85	263.19	24.72	-39.6	-40.6	22.2	0.00e+00	0	32	0	643825664	52	6148
2026-01-18 02:11:09.83	263.48	24.74	-39.5	-40.5	22.3	0.00e+00	0	32	0	645922816	52	6048
2026-01-18 02:11:10.81	263.76	24.76	-39.6	-40.6	22.2	0.00e+00	0	32	0	646971392	52	6146
2026-01-18 02:11:11.78	264.04	24.78	-39.4	-40.4	22.4	0.00e+00	0	32	0	649068544	52	5990
2026-01-18 02:11:12.76	264.32	24.81	-39.5	-40.5	22.3	0.00e+00	0	32	0	651165696	52	6094
2026-01-18 02:11:13.74	264.60	24.83	-40.0	-41.1	22.7	0.00e+00	0	31	0	653262848	52	6492
2026-01-18 02:11:14.71	264.88	24.85	-39.0	-40.0	22.8	0.00e+00	0	32	0	654311424	52	5719
2026-01-18 02:11:15.69	265.17	24.87	-38.8	-39.7	23.1	0.00e+00	0	32	0	656408576	52	5562
2026-01-18 02:11:16.67	265.45	24.89	-38.7	-39.7	23.0	0.00e+00	0	31	0	658505728	50	6177
2026-01-18 02:11:17.64	265.73	24.90	-38.7	-39.6	23.2	0.00e+00	0	32	0	660602880	50	6158
2026-01-18 02:11:18.62	266.02	24.92	-38.8	-39.7	23.1	0.00e+00	0	32	0	661651456	50	6209
2026-01-18 02:11:19.60	266.30	24.94	-38.8	-39.8	23.0	0.00e+00	0	32	0	663748608	50	6262
2026-01-18 02:11:20.58	266.59	24.95	-38.6	-39.6	23.2	0.00e+00	0	32	0	665845760	50	6106
2026-01-18 02:11:21.56	266.88	24.97	-38.4	-39.3	23.4	0.00e+00	0	32	0	667942912	50	5922
2026-01-18 02:11:22.54	267.16	24.98	-38.4	-39.3	23.4	0.00e+00	0	32	0	668991488	50	5913
2026-01-18 02:11:23.51	267.44	25.00	-38.4	-39.3	23.4	0.00e+00	0	31	0	671088640	50	5957
2026-01-18 02:11:24.49	267.73	25.01	-38.4	-39.2	23.4	0.00e+00	0	32	0	673185792	50	5896
2026-01-18 02:11:25.47	268.02	25.02	-38.5	-39.4	23.4	0.00e+00	0	32	0	675282944	50	6029
2026-01-18 02:11:26.44	268.30	25.04	-38.7	-39.6	23.2	0.00e+00	0	32	0	676331520	50	6140
2026-01-18 02:11:27.42	268.59	25.05	-38.7	-39.6	23.1	0.00e+00	0	32	0	678428672	50	6169
2026-01-18 02:11:28.40	268.88	25.06	-38.9	-39.9	22.9	0.00e+00	0	32	0	680525824	50	6355
2026-01-18 02:11:29.37	269.16	25.07	-39.0	-40.0	22.8	0.00e+00	0	32	0	682622976	50	6434
2026-01-18 02:11:30.35	269.45	25.07	-39.3	-40.3	22.5	0.00e+00	0	31	0	683671552	50	6656
2026-01-18 02:11:31.33	269.74	25.08	-39.6	-40.6	22.2	0.00e+00	0	31	0	685768704	50	6907
2026-01-18 02:11:32.31	270.02	25.09	-39.6	-40.7	22.2	0.00e+00	0	32	0	687865856	50	6939
2026-01-18 02:11:33.29	270.31	25.10	-39.7	-40.7	22.2	0.00e+00	0	31	0	689963008	50	6976
2026-01-18 02:11:34.26	270.60	25.10	-39.2	-40.2	22.6	0.00e+00	0	31	0	691011584	50	6577
2026-01-18 02:11:35.24	270.88	25.11	-38.8	-39.8	23.0	0.00e+00	0	31	0	693108736	50	6268
2026-01-18 02:11:36.22	271.17	25.11	-38.7	-39.7	23.0	0.00e+00	0	31	0	695205888	50	6205
2026-01-18 02:11:37.20	271.46	25.12	-38.6	-39.5	23.2	0.00e+00	0	32	0	697303040	50	6091
2026-01-18 02:11:38.18	271.75	25.12	-38.5	-39.4	23.2	0.00e+00	0	32	0	698351616	50	6024
2026-01-18 02:11:39.15	272.03	25.12	-38.6	-39.5	23.2	0.00e+00	0	32	0	700448768	50	6069
2026-01-18 02:11:40.13	272.32	25.12	-38.6	-39.6	23.1	0.00e+00	0	32	0	702545920	50	6132
2026-01-18 02:11:41.11	272.61	25.12	-38.6	-39.6	23.0	0.00e+00	0	32	0	704643072	50	6135
2026-01-18 02:11:42.09	272.90	25.12	-38.9	-39.9	22.9	0.00e+00	0	32	0	705691648	50	6332
2026-01-18 02:11:43.07	273.19	25.12	-38.7	-39.7	23.1	0.00e+00	0	32	0	707788800	50	6189
2026-01-18 02:11:44.05	273.48	25.12	-38.7	-39.6	23.0	0.00e+00	0	32	0	709885952	50	6143
2026-01-18 02:11:45.02	273.76	25.12	-38.7	-39.6	23.1	0.00e+00	0	31	0	711983104	50	6166
2026-01-18 02:11:46.00	274.05	25.11	-38.7	-39.6	23.0	0.00e+00	0	32	0	713031680	50	6134
2026-01-18 02:11:46.98	274.34	25.11	-39.0	-40.0	22.9	0.00e+00	0	32	0	715128832	50	6395
2026-01-18 02:11:47.96	274.63	25.10	-38.3	-39.2	23.5	0.00e+00	0	32	0	717225984	50	5880
2026-01-18 02:11:48.93	274.91	25.10	-38.2	-39.1	23.6	0.00e+00	0	32	0	719323136	50	5791
2026-01-18 02:11:49.91	275.20	25.09	-38.2	-39.1	23.7	0.00e+00	0	32	0	720371712	50	5807
2026-01-18 02:11:50.89	275.49	25.09	-38.2	-39.1	23.6	0.00e+00	0	32	0	722468864	50	5819
2026-01-18 02:11:51.87	275.78	25.08	-38.6	-39.6	23.4	0.00e+00	0	32	0	724566016	50	6112
2026-01-18 02:11:52.84	276.06	25.07	-38.7	-39.7	23.2	0.00e+00	0	32	0	726663168	50	6195
2026-01-18 02:11:53.82	276.35	25.06	-38.8	-39.8	23.1	0.00e+00	0	31	0	727711744	50	6273
2026-01-18 02:11:54.79	276.63	25.05	-39.0	-39.9	22.9	0.00e+00	0	32	0	729808896	50	6369
2026-01-18 02:11:55.76	276.92	25.04	-38.8	-39.7	23.1	0.00e+00	0	32	0	731906048	50	6207
2026-01-18 02:11:56.75	277.20	25.03	-38.6	-39.5	23.4	0.00e+00	0	32	0	734003200	50	6087
2026-01-18 02:11:57.72	277.49	25.02	-38.2	-39.1	23.7	0.00e+00	0	32	0	735051776	50	5799
2026-01-18 02:11:58.70	277.77	25.00	-38.0	-38.9	23.7	0.00e+00	0	32	0	737148928	50	5679
2026-01-18 02:11:59.68	278.06	24.99	-38.0	-38.9	23.8	0.00e+00	0	31	0	739246080	50	5660
2026-01-18 02:12:00.66	278.35	24.98	-38.1	-39.0	23.8	0.00e+00	0	32	0	740294656	50	5724
2026-01-18 02:12:01.64	278.63	24.96	-38.0	-38.8	23.9	0.00e+00	0	32	0	742391808	50	5621
2026-01-18 02:12:02.61	278.91	24.95	-38.2	-39.1	23.6	0.00e+00	0	32	0	744488960	50	5788
2026-01-18 02:12:03.59	279.20	24.93	-38.8	-39.7	23.0	0.00e+00	0	32	0	746586112	50	6229
2026-01-18 02:12:04.57	279.48	24.91	-39.2	-40.2	22.7	0.00e+00	0	32	0	747634688	50	6550
2026-01-18 02:12:05.55	279.77	24.89	-39.5	-40.5	22.3	0.00e+00	0	32	0	749731840	50	6834
2026-01-18 02:12:06.53	280.05	24.87	-39.4	-40.4	22.4	0.00e+00	0	31	0	751828992	50	6761
2026-01-18 02:12:07.50	280.33	24.86	-39.3	-40.3	22.5	0.00e+00	0	32	0	753926144	50	6652
2026-01-18 02:12:08.48	280.62	24.84	-39.3	-40.3	22.5	0.00e+00	0	32	0	756023296	50	6657
2026-01-18 02:12:09.46	280.90	24.81	-39.4	-40.4	22.5	0.00e+00	0	32	0	757071872	50	6735
2026-01-18 02:12:10.44	281.18	24.79	-39.5	-40.5	22.4	0.00e+00	0	32	0	759169024	50	6799
2026-01-18 02:12:11.41	281.46	24.77	-39.3	-40.3	22.6	0.00e+00	0	31	0	761266176	50	6689
2026-01-18 02:12:12.39	281.74	24.75	-39.1	-40.1	22.9	0.00e+00	0	31	0	762314752	50	6500
2026-01-18 02:12:13.37	282.02	24.72	-39.0	-40.0	23.0	0.00e+00	0	32	0	764411904	50	6398
2026-01-18 02:12:14.35	282.31	24.70	-38.8	-39.7	23.2	0.00e+00	0	32	0	766509056	50	6217
2026-01-18 02:12:15.33	282.59	24.68	-38.7	-39.6	23.3	0.00e+00	0	31	0	768606208	50	6133
2026-01-18 02:12:16.31	282.87	24.65	-38.9	-39.9	23.1	0.00e+00	0	31	0	769654784	50	6325
2026-01-18 02:12:17.28	283.14	24.62	-38.8	-39.8	23.1	0.00e+00	0	31	0	771751936	50	6252
2026-01-18 02:12:18.26	283.42	24.60	-39.0	-39.9	22.9	0.00e+00	0	32	0	773849088	50	6388
2026-01-18 02:12:19.23	283.70	24.57	-39.0	-40.0	22.9	0.00e+00	0	31	0	775946240	50	6430
2026-01-18 02:12:20.21	283.98	24.54	-38.8	-39.8	23.0	0.00e+00	0	31	0	776994816	50	6271
2026-01-18 02:12:21.20	284.26	24.51	-39.0	-40.0	22.9	0.00e+00	0	31	0	779091968	50	6420
2026-01-18 02:12:22.17	284.53	24.48	-38.7	-39.7	23.1	0.00e+00	0	31	0	781189120	50	6202
2026-01-18 02:12:23.15	284.81	24.45	-38.6	-39.6	23.3	0.00e+00	0	31	0	783286272	50	6109
2026-01-18 02:12:24.13	285.08	24.42	-38.4	-39.3	23.4	0.00e+00	0	31	0	784334848	50	5948
2026-01-18 02:12:25.11	285.36	24.39	-38.5	-39.5	23.3	0.00e+00	0	31	0	786432000	50	6046
2026-01-18 02:12:26.08	285.63	24.36	-38.6	-39.5	23.2	0.00e+00	0	31	0	788529152	50	6099
2026-01-18 02:12:27.05	285.90	24.33	-38.9	-39.8	23.1	0.00e+00	0	32	0	790626304	50	6291
2026-01-18 02:12:28.03	286.18	24.29	-38.9	-39.9	23.0	0.00e+00	0	32	0	791674880	50	6319
2026-01-18 02:12:29.01	286.45	24.26	-38.7	-39.6	23.3	0.00e+00	0	31	0	793772032	50	6146
2026-01-18 02:12:29.99	286.72	24.22	-38.6	-39.5	23.5	0.00e+00	0	31	0	795869184	50	6088
2026-01-18 02:12:30.97	286.99	24.19	-38.2	-39.1	23.7	0.00e+00	0	31	0	797966336	50	5787
2026-01-18 02:12:31.94	287.26	24.15	-38.0	-38.8	24.0	0.00e+00	0	31	0	799014912	50	5616
2026-01-18 02:12:32.92	287.53	24.12	-37.8	-38.7	24.0	0.00e+00	0	32	0	801112064	50	5533
2026-01-18 02:12:33.90	287.80	24.08	-37.9	-38.8	23.9	0.00e+00	0	31	0	803209216	50	5578
2026-01-18 02:12:34.88	288.07	24.04	-38.2	-39.1	23.8	0.00e+00	0	32	0	805306368	50	5774
2026-01-18 02:12:35.86	288.34	24.00	-38.1	-39.0	23.7	0.00e+00	0	31	0	806354944	50	5743
2026-01-18 02:12:36.84	288.61	23.96	-38.2	-39.1	23.7	0.00e+00	0	32	0	808452096	50	5775
2026-01-18 02:12:37.81	288.88	23.92	-38.0	-38.9	23.9	0.00e+00	0	31	0	810549248	50	5643
2026-01-18 02:12:38.79	289.14	23.88	-37.7	-38.6	24.1	0.00e+00	0	32	0	812646400	48	6123
2026-01-18 02:12:39.76	289.41	23.84	-37.8	-38.6	24.1	0.00e+00	0	31	0	813694976	48	6166
2026-01-18 02:12:40.74	289.67	23.80	-37.8	-38.7	24.0	0.00e+00	0	31	0	815792128	48	6192
2026-01-18 02:12:41.72	289.94	23.76	-37.6	-38.5	24.2	0.00e+00	0	31	0	817889280	48	6043
2026-01-18 02:12:42.69	290.20	23.72	-37.8	-38.7	23.9	0.00e+00	0	31	0	819986432	48	6195
2026-01-18 02:12:43.67	290.46	23.68	-37.6	-38.5	24.3	0.00e+00	0	31	0	821035008	48	6044
2026-01-18 02:12:44.65	290.73	23.63	-37.3	-38.1	24.5	0.00e+00	0	31	0	823132160	48	5789
2026-01-18 02:12:45.62	290.98	23.59	-37.2	-38.0	24.6	0.00e+00	0	32	0	825229312	48	5716
2026-01-18 02:12:46.60	291.25	23.55	-37.2	-38.0	24.6	0.00e+00	0	32	0	827326464	48	5750
2026-01-18 02:12:47.58	291.51	23.50	-37.0	-37.8	24.7	0.00e+00	0	32	0	828375040	48	5626
2026-01-18 02:12:48.56	291.77	23.45	-37.2	-38.1	24.6	0.00e+00	0	31	0	830472192	48	5768
2026-01-18 02:12:49.53	292.02	23.41	-37.1	-37.9	24.6	0.00e+00	0	31	0	832569344	48	5667
2026-01-18 02:12:50.51	292.28	23.36	-37.1	-37.9	24.6	0.00e+00	0	31	0	834666496	48	5678
2026-01-18 02:12:51.49	292.54	23.32	-36.9	-37.7	24.7	0.00e+00	0	31	0	835715072	48	5553
2026-01-18 02:12:52.46	292.79	23.27	-36.9	-37.7	24.8	0.00e+00	0	31	0	837812224	48	5519
2026-01-18 02:12:53.44	293.05	23.22	-36.7	-37.4	24.9	0.00e+00	0	31	0	839909376	46	6030
2026-01-18 02:12:54.42	293.30	23.17	-36.5	-37.3	25.1	0.00e+00	0	32	0	842006528	46	5921
2026-01-18 02:12:55.40	293.56	23.12	-36.5	-37.3	25.0	0.00e+00	0	32	0	843055104	46	5941
2026-01-18 02:12:56.38	293.81	23.07	-36.6	-37.4	25.1	0.00e+00	0	31	0	845152256	46	5995
2026-01-18 02:12:57.36	294.07	23.02	-36.8	-37.6	24.3	0.00e+00	0	31	0	847249408	46	6153
2026-01-18 02:12:58.34	294.32	22.97	-37.0	-37.8	24.9	0.00e+00	0	31	0	849346560	46	6259
2026-01-18 02:12:59.31	294.57	22.92	-36.9	-37.7	24.9	0.00e+00	0	32	0	850395136	46	6183
2026-01-18 02:13:00.29	294.82	22.87	-36.6	-37.4	25.1	0.00e+00	0	32	0	852492288	46	6011
2026-01-18 02:13:01.27	295.07	22.82	-36.5	-37.3	25.2	0.00e+00	0	31	0	854589440	46	5933
2026-01-18 02:13:02.25	295.32	22.77	-36.6	-37.4	25.0	0.00e+00	0	32	0	856686592	46	5982
2026-01-18 02:13:03.22	295.56	22.72	-36.8	-37.6	24.8	0.00e+00	0	31	0	857735168	46	6124
2026-01-18 02:13:04.20	295.81	22.66	-37.1	-38.0	24.7	0.00e+00	0	31	0	859832320	46	6399
2026-01-18 02:13:05.18	296.05	22.61	-37.5	-38.3	24.4	0.00e+00	0	31	0	861929472	46	6669
2026-01-18 02:13:06.16	296.30	22.55	-37.8	-38.6	24.0	0.00e+00	0	31	0	864026624	48	6155
2026-01-18 02:13:07.13	296.54	22.50	-37.7	-38.6	24.3	0.00e+00	0	31	0	865075200	48	6118
2026-01-18 02:13:08.11	296.79	22.45	-37.6	-38.5	24.4	0.00e+00	0	32	0	867172352	48	6041
2026-01-18 02:13:09.09	297.03	22.39	-37.5	-38.3	24.5	0.00e+00	0	31	0	869269504	48	5937
2026-01-18 02:13:10.06	297.27	22.34	-37.3	-38.1	24.7	0.00e+00	0	31	0	871366656	48	5776
2026-01-18 02:13:11.04	297.51	22.28	-37.2	-38.0	24.8	0.00e+00	0	32	0	872415232	48	5704
2026-01-18 02:13:12.02	297.75	22.22	-37.4	-38.3	24.8	0.00e+00	0	32	0	874512384	48	5898
2026-01-18 02:13:13.00	297.99	22.17	-37.5	-38.3	24.5	0.00e+00	0	32	0	876609536	48	5948
2026-01-18 02:13:13.98	298.23	22.11	-37.6	-38.4	24.6	0.00e+00	0	32	0	878706688	48	6032
2026-01-18 02:13:14.96	298.47	22.05	-37.4	-38.2	24.8	0.00e+00	0	32	0	879755264	48	5869
2026-01-18 02:13:15.94	298.70	21.99	-37.4	-38.2	24.4	0.00e+00	0	31	0	881852416	48	5880
2026-01-18 02:13:16.92	298.94	21.94	-37.9	-38.7	24.5	0.00e+00	0	31	0	883949568	48	6195
2026-01-18 02:13:17.89	299.17	21.88	-38.2	-39.0	24.2	0.00e+00	0	32	0	886046720	48	6457
2026-01-18 02:13:18.87	299.41	21.82	-38.2	-39.1	24.1	0.00e+00	0	31	0	887095296	48	6492
2026-01-18 02:13:19.85	299.64	21.76	-38.3	-39.2	24.0	0.00e+00	0	32	0	889192448	48	6569
2026-01-18 02:13:20.83	299.87	21.70	-38.5	-39.4	23.8	0.00e+00	0	31	0	891289600	48	6705
2026-01-18 02:13:21.81	300.11	21.64	-38.7	-39.6	23.5	0.00e+00	0	32	0	893386752	50	6136
2026-01-18 02:13:22.80	300.34	21.58	-38.7	-39.6	23.4	0.00e+00	0	32	0	894435328	50	6149
2026-01-18 02:13:23.77	300.57	21.52	-38.8	-39.8	23.3	0.00e+00	0	31	0	896532480	50	6246
2026-01-18 02:13:24.76	300.80	21.46	-38.7	-39.7	23.2	0.00e+00	0	32	0	898629632	50	6179
2026-01-18 02:13:25.74	301.03	21.40	-39.0	-40.0	23.3	0.00e+00	0	32	0	900726784	50	6396
2026-01-18 02:13:26.71	301.25	21.34	-39.1	-40.0	23.2	0.00e+00	0	32	0	901775360	50	6433
2026-01-18 02:13:27.68	301.48	21.28	-39.2	-40.2	23.1	0.00e+00	0	32	0	903872512	50	6546
2026-01-18 02:13:28.66	301.70	21.21	-39.0	-40.0	23.3	0.00e+00	0	32	0	905969664	50	6400
2026-01-18 02:13:29.64	301.93	21.15	-39.1	-40.1	23.4	0.00e+00	0	32	0	908066816	50	6486
2026-01-18 02:13:30.62	302.15	21.09	-38.6	-39.5	23.6	0.00e+00	0	32	0	909115392	50	6041
2026-01-18 02:13:31.59	302.37	21.03	-37.9	-38.8	24.0	0.00e+00	0	31	0	911212544	50	5606
2026-01-18 02:13:32.57	302.59	20.96	-37.9	-38.8	24.1	0.00e+00	0	32	0	913309696	50	5580
2026-01-18 02:13:33.55	302.82	20.90	-37.7	-38.5	24.1	0.00e+00	0	31	0	915406848	48	6099
2026-01-18 02:13:34.53	303.04	20.84	-37.6	-38.5	24.1	0.00e+00	0	31	0	916455424	48	6062
2026-01-18 02:13:35.50	303.25	20.77	-37.8	-38.7	24.0	0.00e+00	0	31	0	918552576	48	6214
2026-01-18 02:13:36.49	303.47	20.71	-38.2	-39.1	23.9	0.00e+00	0	31	0	920649728	48	6467
2026-01-18 02:13:37.46	303.69	20.65	-38.4	-39.3	23.6	0.00e+00	0	32	0	922746880	48	6660
2026-01-18 02:13:38.44	303.91	20.58	-38.7	-39.6	23.4	0.00e+00	0	31	0	923795456	48	6904
2026-01-18 02:13:39.42	304.12	20.52	-38.9	-39.8	23.3	0.00e+00	0	32	0	925892608	50	6311
2026-01-18 02:13:40.40	304.34	20.45	-38.6	-39.5	23.4	0.00e+00	0	31	0	927989760	50	6058
2026-01-18 02:13:41.38	304.55	20.39	-38.7	-39.6	23.2	0.00e+00	0	32	0	930086912	50	6170
2026-01-18 02:13:42.36	304.76	20.32	-38.8	-39.7	23.3	0.00e+00	0	32	0	931135488	50	6231
2026-01-18 02:13:43.33	304.97	20.26	-39.0	-39.9	23.1	0.00e+00	0	32	0	933232640	50	6353
2026-01-18 02:13:44.31	305.19	20.19	-38.8	-39.7	23.2	0.00e+00	0	32	0	935329792	50	6225
2026-01-18 02:13:45.29	305.40	20.12	-38.8	-39.8	23.0	0.00e+00	0	32	0	937426944	50	6279
2026-01-18 02:13:46.26	305.60	20.06	-38.9	-39.8	23.1	0.00e+00	0	31	0	938475520	50	6278
2026-01-18 02:13:47.24	305.81	19.99	-38.6	-39.5	23.1	0.00e+00	0	32	0	940572672	50	6050
2026-01-18 02:13:48.22	306.02	19.92	-38.5	-39.4	23.5	0.00e+00	0	32	0	942669824	50	6019
2026-01-18 02:13:49.19	306.22	19.86	-38.1	-39.0	23.8	0.00e+00	0	32	0	944766976	50	5728
2026-01-18 02:13:50.18	306.43	19.79	-38.3	-39.2	23.8	0.00e+00	0	31	0	945815552	50	5859
2026-01-18 02:13:51.15	306.64	19.72	-38.1	-38.9	23.9	0.00e+00	0	32	0	947912704	50	5689
2026-01-18 02:13:52.13	306.84	19.66	-38.1	-39.0	23.7	0.00e+00	0	32	0	950009856	50	5735
2026-01-18 02:13:53.11	307.04	19.59	-38.4	-39.3	23.4	0.00e+00	0	31	0	952107008	50	5907
2026-01-18 02:13:54.08	307.24	19.52	-38.3	-39.2	23.5	0.00e+00	0	31	0	953155584	50	5887
2026-01-18 02:13:55.06	307.45	19.45	-38.4	-39.4	23.5	0.00e+00	0	32	0	955252736	50	5973
2026-01-18 02:13:56.04	307.65	19.39	-38.7	-39.6	23.5	0.00e+00	0	31	0	957349888	50	6156
2026-01-18 02:13:57.02	307.85	19.32	-38.6	-39.5	23.4	0.00e+00	0	31	0	959447040	50	6039
2026-01-18 02:13:57.99	308.04	19.25	-38.7	-39.6	23.5	0.00e+00	0	31	0	960495616	50	6131
2026-01-18 02:13:58.97	308.24	19.18	-38.5	-39.4	23.6	0.00e+00	0	31	0	962592768	50	5985
2026-01-18 02:13:59.95	308.44	19.11	-38.4	-39.3	23.6	0.00e+00	0	31	0	964689920	50	5932
2026-01-18 02:14:00.92	308.63	19.04	-38.6	-39.5	23.5	0.00e+00	0	31	0	966787072	50	6054
2026-01-18 02:14:01.90	308.83	18.98	-38.8	-39.7	23.4	0.00e+00	0	32	0	967835648	50	6238
2026-01-18 02:14:02.88	309.02	18.91	-38.9	-39.8	23.4	0.00e+00	0	31	0	969932800	50	6297
2026-01-18 02:14:03.86	309.22	18.84	-38.9	-39.8	23.3	0.00e+00	0	31	0	972029952	50	6283
2026-01-18 02:14:04.84	309.41	18.77	-38.8	-39.7	23.3	0.00e+00	0	31	0	974127104	50	6224
2026-01-18 02:14:05.81	309.60	18.70	-38.8	-39.7	23.3	0.00e+00	0	32	0	975175680	50	6227
2026-01-18 02:14:06.79	309.79	18.63	-38.8	-39.7	23.2	0.00e+00	0	31	0	977272832	50	6231
2026-01-18 02:14:07.77	309.98	18.56	-38.7	-39.7	23.1	0.00e+00	0	31	0	979369984	50	6200
2026-01-18 02:14:08.75	310.17	18.49	-39.0	-40.0	22.9	0.00e+00	0	31	0	981467136	50	6427
2026-01-18 02:14:09.73	310.36	18.42	-39.4	-40.4	22.5	0.00e+00	0	31	0	982515712	50	6717
2026-01-18 02:14:10.71	310.55	18.35	-39.7	-40.7	22.4	0.00e+00	0	31	0	984612864	50	6957
2026-01-18 02:14:11.68	310.74	18.28	-39.9	-41.0	22.2	0.00e+00	0	31	0	986710016	52	6426
2026-01-18 02:14:12.66	310.92	18.21	-39.7	-40.7	22.4	0.00e+00	0	31	0	988807168	52	6196
2026-01-18 02:14:13.64	311.11	18.14	-39.3	-40.3	22.9	0.00e+00	0	31	0	989855744	52	5936
2026-01-18 02:14:14.61	311.29	18.07	-38.8	-39.7	23.2	0.00e+00	0	32	0	991952896	52	5565
2026-01-18 02:14:15.59	311.47	18.00	-38.6	-39.5	23.6	0.00e+00	0	32	0	994050048	50	6063
2026-01-18 02:14:16.57	311.66	17.93	-38.3	-39.2	23.7	0.00e+00	0	31	0	995098624	50	5859
2026-01-18 02:14:17.54	311.84	17.86	-38.5	-39.4	23.6	0.00e+00	0	32	0	997195776	50	6007
2026-01-18 02:14:18.52	312.02	17.79	-38.7	-39.6	23.5	0.00e+00	0	31	0	999292928	50	6162
2026-01-18 02:14:19.50	312.20	17.72	-39.2	-40.2	23.1	0.00e+00	0	31	0	1001390080	50	6541
2026-01-18 02:14:20.48	312.38	17.65	-39.2	-40.2	22.7	0.00e+00	0	31	0	1002438656	50	6602
2026-01-18 02:14:21.46	312.56	17.58	-39.4	-40.4	22.5	0.00e+00	0	32	0	1004535808	50	6749
2026-01-18 02:14:22.43	312.73	17.51	-39.6	-40.6	22.4	0.00e+00	0	32	0	1006632960	50	6881
2026-01-18 02:14:23.40	312.91	17.44	-39.7	-40.8	22.4	0.00e+00	0	32	0	1008730112	52	6260
2026-01-18 02:14:24.38	313.09	17.37	-39.3	-40.4	22.5	0.00e+00	0	31	0	1009778688	52	5967
2026-01-18 02:14:25.36	313.26	17.30	-38.9	-39.8	23.0	0.00e+00	0	31	0	1011875840	52	5614
2026-01-18 02:14:26.33	313.43	17.22	-38.8	-39.7	23.3	0.00e+00	0	31	0	1013972992	50	6225
2026-01-18 02:14:27.31	313.61	17.15	-38.8	-39.7	23.2	0.00e+00	0	31	0	1016070144	50	6189
2026-01-18 02:14:28.29	313.78	17.08	-39.1	-40.0	23.1	0.00e+00	0	31	0	1018167296	50	6456
2026-01-18 02:14:29.27	313.95	17.01	-39.3	-40.2	22.9	0.00e+00	0	31	0	1019215872	50	6588
2026-01-18 02:14:30.25	314.12	16.94	-39.2	-40.2	22.7	0.00e+00	0	31	0	1021313024	50	6549
2026-01-18 02:14:31.23	314.30	16.87	-39.6	-40.6	22.4	0.00e+00	0	31	0	1023410176	50	6918
2026-01-18 02:14:32.21	314.47	16.80	-39.8	-40.8	22.5	0.00e+00	0	31	0	1024458752	52	6284
2026-01-18 02:14:33.18	314.63	16.73	-39.6	-40.5	22.7	0.00e+00	0	31	0	1026555904	52	6100
2026-01-18 02:14:34.15	314.80	16.66	-39.3	-40.3	22.9	0.00e+00	0	31	0	1028653056	52	5914
2026-01-18 02:14:35.13	314.97	16.59	-39.5	-40.4	22.9	0.00e+00	0	31	0	1030750208	52	6020
2026-01-18 02:14:36.11	315.14	16.51	-39.5	-40.4	22.9	0.00e+00	0	31	0	1031798784	52	6022
2026-01-18 02:14:37.09	315.30	16.44	-39.2	-40.1	22.9	0.00e+00	0	31	0	1033895936	52	5810
2026-01-18 02:14:38.06	315.46	16.37	-38.7	-39.7	23.1	0.00e+00	0	31	0	1035993088	52	5504
2026-01-18 02:14:39.04	315.63	16.30	-38.9	-39.9	22.9	0.00e+00	0	31	0	1038090240	50	6330
2026-01-18 02:14:40.02	315.79	16.23	-39.3	-40.2	22.7	0.00e+00	0	31	0	1039138816	50	6613
2026-01-18 02:14:41.00	315.96	16.16	-39.2	-40.2	22.5	0.00e+00	0	31	0	1041235968	50	6581
2026-01-18 02:14:41.97	316.12	16.09	-39.4	-40.4	22.4	0.00e+00	0	31	0	1043333120	50	6727
2026-01-18 02:14:42.95	316.28	16.02	-39.2	-40.3	22.6	0.00e+00	0	32	0	1045430272	50	6620
2026-01-18 02:14:43.93	316.44	15.94	-39.2	-40.2	22.5	0.00e+00	0	31	0	1046478848	50	6589
2026-01-18 02:14:44.90	316.60	15.87	-39.4	-40.3	22.7	0.00e+00	0	31	0	1048576000	50	6685
2026-01-18 02:14:45.88	316.76	15.80	-39.5	-40.5	22.7	0.00e+00	0	31	0	1050673152	50	6782
2026-01-18 02:14:46.85	316.92	15.73	-38.8	-39.7	23.3	0.00e+00	0	31	0	1052770304	50	6191
2026-01-18 02:14:47.83	317.07	15.66	-38.8	-39.7	23.3	0.00e+00	0	32	0	1053818880	50	6202
2026-01-18 02:14:48.81	317.23	15.59	-39.2	-40.1	23.1	0.00e+00	0	31	0	1055916032	50	6524
2026-01-18 02:14:49.78	317.39	15.52	-39.6	-40.6	22.8	0.00e+00	0	31	0	1058013184	50	6853
2026-01-18 02:14:50.76	317.54	15.45	-39.8	-40.9	22.3	0.00e+00	0	31	0	1060110336	52	6319
2026-01-18 02:14:51.74	317.70	15.37	-39.9	-40.9	21.9	0.00e+00	0	32	0	1061158912	52	6377
2026-01-18 02:14:52.71	317.85	15.30	-40.0	-41.1	22.0	0.00e+00	0	32	0	1063256064	52	6514
2026-01-18 02:14:53.69	318.00	15.23	-40.3	-41.4	21.7	0.00e+00	0	31	0	1065353216	52	6745
2026-01-18 02:14:54.67	318.16	15.16	-40.3	-41.4	21.9	0.00e+00	0	31	0	1067450368	52	6732
2026-01-18 02:14:55.64	318.31	15.09	-40.0	-41.1	21.8	0.00e+00	0	31	0	1068498944	52	6477
2026-01-18 02:14:56.62	318.46	15.02	-39.9	-41.0	21.9	0.00e+00	0	31	0	1070596096	52	6392
2026-01-18 02:14:57.59	318.61	14.95	-39.2	-40.2	22.6	0.00e+00	0	31	0	1072693248	52	5861
2026-01-18 02:14:58.57	318.76	14.88	-39.2	-40.2	22.9	0.00e+00	0	31	0	1074790400	52	5843
2026-01-18 02:14:59.54	318.91	14.81	-38.8	-39.8	23.0	0.00e+00	0	31	0	1075838976	52	5592
2026-01-18 02:15:00.53	319.06	14.74	-39.3	-40.2	22.8	0.00e+00	0	32	0	1077936128	52	5895
2026-01-18 02:15:01.50	319.20	14.67	-39.4	-40.4	22.7	0.00e+00	0	31	0	1080033280	52	5980
2026-01-18 02:15:02.48	319.35	14.59	-39.7	-40.7	22.5	0.00e+00	0	31	0	1082130432	52	6239
2026-01-18 02:15:03.46	319.50	14.52	-39.9	-40.9	22.3	0.00e+00	0	31	0	1083179008	52	6351
2026-01-18 02:15:04.43	319.64	14.45	-40.0	-41.1	22.1	0.00e+00	0	31	0	1085276160	52	6472
2026-01-18 02:15:05.41	319.79	14.38	-39.9	-41.0	22.1	0.00e+00	0	31	0	1087373312	52	6408
2026-01-18 02:15:06.38	319.93	14.31	-39.8	-40.8	22.3	0.00e+00	0	32	0	1089470464	52	6315
2026-01-18 02:15:07.36	320.07	14.24	-39.8	-40.8	22.2	0.00e+00	0	32	0	1090519040	52	6313
2026-01-18 02:15:08.34	320.22	14.17	-39.6	-40.7	22.3	0.00e+00	0	31	0	1092616192	52	6189
2026-01-18 02:15:09.32	320.36	14.10	-38.9	-39.9	22.7	0.00e+00	0	31	0	1094713344	52	5657
2026-01-18 02:15:10.30	320.50	14.03	-39.0	-40.0	22.7	0.00e+00	0	32	0	1096810496	52	5703
2026-01-18 02:15:11.28	320.64	13.96	-38.9	-39.9	22.7	0.00e+00	0	31	0	1097859072	52	5660
2026-01-18 02:15:12.25	320.78	13.89	-39.2	-40.2	22.6	0.00e+00	0	32	0	1099956224	52	5872
2026-01-18 02:15:13.23	320.92	13.82	-39.1	-40.0	22.6	0.00e+00	0	32	0	1102053376	52	5754
2026-01-18 02:15:14.21	321.06	13.75	-39.5	-40.5	22.3	0.00e+00	0	32	0	1104150528	52	6091
2026-01-18 02:15:15.18	321.20	13.68	-39.7	-40.8	21.9	0.00e+00	0	32	0	1105199104	52	6288
2026-01-18 02:15:16.16	321.34	13.61	-39.8	-40.9	21.7	0.00e+00	0	31	0	1107296256	52	6352
2026-01-18 02:15:17.14	321.48	13.54	-39.9	-41.0	21.8	0.00e+00	0	31	0	1109393408	52	6433
2026-01-18 02:15:18.13	321.61	13.47	-39.5	-40.6	22.0	0.00e+00	0	32	0	1111490560	52	6142
2026-01-18 02:15:19.10	321.75	13.40	-39.7	-40.8	21.8	0.00e+00	0	31	0	1112539136	52	6249
2026-01-18 02:15:20.09	321.89	13.33	-39.6	-40.7	22.0	0.00e+00	0	32	0	1114636288	52	6200
2026-01-18 02:15:21.07	322.02	13.26	-39.4	-40.5	22.1	0.00e+00	0	32	0	1116733440	52	6048
2026-01-18 02:15:22.04	322.15	13.19	-39.5	-40.6	22.1	0.00e+00	0	31	0	1118830592	52	6129
2026-01-18 02:15:23.02	322.29	13.12	-39.4	-40.4	22.4	0.00e+00	0	31	0	1119879168	52	6009
2026-01-18 02:15:24.00	322.42	13.05	-39.3	-40.4	22.2	0.00e+00	0	32	0	1121976320	52	5982
2026-01-18 02:15:24.98	322.55	12.98	-39.5	-40.5	22.3	0.00e+00	0	32	0	1124073472	52	6063
2026-01-18 02:15:25.96	322.69	12.91	-39.7	-40.7	22.2	0.00e+00	0	31	0	1126170624	52	6225
2026-01-18 02:15:26.93	322.82	12.84	-39.6	-40.7	22.1	0.00e+00	0	32	0	1127219200	52	6191
2026-01-18 02:15:27.92	322.95	12.77	-39.8	-40.9	21.9	0.00e+00	0	32	0	1129316352	52	6334
2026-01-18 02:15:28.89	323.08	12.70	-40.0	-41.1	21.7	0.00e+00	0	31	0	1131413504	52	6488
2026-01-18 02:15:29.87	323.21	12.63	-39.9	-41.0	21.8	0.00e+00	0	32	0	1133510656	52	6422
2026-01-18 02:15:30.85	323.34	12.56	-40.0	-41.2	21.6	0.00e+00	0	32	0	1134559232	52	6544
2026-01-18 02:15:31.83	323.46	12.49	-39.9	-40.9	21.8	0.00e+00	0	31	0	1136656384	52	6389
2026-01-18 02:15:32.81	323.59	12.42	-39.8	-40.9	21.6	0.00e+00	0	31	0	1138753536	52	6369
2026-01-18 02:15:33.78	323.72	12.35	-40.0	-41.1	21.4	0.00e+00	0	32	0	1140850688	52	6513
2026-01-18 02:15:34.76	323.85	12.28	-39.4	-40.5	22.0	0.00e+00	0	32	0	1141899264	52	6074
2026-01-18 02:15:35.74	323.97	12.21	-39.6	-40.7	21.9	0.00e+00	0	32	0	1143996416	52	6229
2026-01-18 02:15:36.71	324.10	12.15	-39.5	-40.5	22.1	0.00e+00	0	31	0	1146093568	52	6102
2026-01-18 02:15:37.70	324.22	12.08	-39.6	-40.6	22.2	0.00e+00	0	31	0	1148190720	52	6132
2026-01-18 02:15:38.68	324.35	12.01	-39.8	-40.8	22.0	0.00e+00	0	32	0	1149239296	52	6287
2026-01-18 02:15:39.65	324.47	11.94	-39.4	-40.4	22.2	0.00e+00	0	31	0	1151336448	52	6030
2026-01-18 02:15:40.63	324.59	11.87	-39.3	-40.3	22.2	0.00e+00	0	31	0	1153433600	52	5940
2026-01-18 02:15:41.61	324.72	11.80	-39.3	-40.4	22.2	0.00e+00	0	31	0	1155530752	52	5974
2026-01-18 02:15:42.59	324.84	11.73	-39.4	-40.4	22.0	0.00e+00	0	31	0	1156579328	52	6006
2026-01-18 02:15:43.57	324.96	11.66	-39.6	-40.7	21.8	0.00e+00	0	31	0	1158676480	52	6203
2026-01-18 02:15:44.54	325.08	11.60	-39.6	-40.7	21.9	0.00e+00	0	31	0	1160773632	52	6203
2026-01-18 02:15:45.52	325.20	11.53	-39.7	-40.8	21.7	0.00e+00	0	31	0	1162870784	52	6252
2026-01-18 02:15:46.50	325.32	11.46	-39.5	-40.6	21.9	0.00e+00	0	31	0	1163919360	52	6126
2026-01-18 02:15:47.48	325.44	11.39	-39.5	-40.6	21.8	0.00e+00	0	31	0	1166016512	52	6156
2026-01-18 02:15:48.45	325.56	11.32	-39.7	-40.9	21.6	0.00e+00	0	31	0	1168113664	52	6325
2026-01-18 02:15:49.43	325.68	11.26	-39.8	-40.9	21.7	0.00e+00	0	31	0	1170210816	52	6338
2026-01-18 02:15:50.40	325.79	11.19	-39.8	-40.9	21.6	0.00e+00	0	31	0	1171259392	52	6322
2026-01-18 02:15:51.38	325.91	11.12	-39.7	-40.8	21.7	0.00e+00	0	31	0	1173356544	52	6255
2026-01-18 02:15:52.36	326.03	11.05	-39.7	-40.8	21.6	0.00e+00	0	32	0	1175453696	52	6263
2026-01-18 02:15:53.34	326.14	10.99	-40.0	-41.2	21.1	0.00e+00	0	31	0	1177550848	52	6581
2026-01-18 02:15:54.32	326.26	10.92	-40.0	-41.2	21.1	0.00e+00	0	31	0	1178599424	52	6595
2026-01-18 02:15:55.30	326.38	10.85	-40.3	-41.5	21.1	0.00e+00	0	31	0	1180696576	52	6819
2026-01-18 02:15:56.27	326.49	10.78	-40.5	-41.8	21.0	0.00e+00	0	31	0	1182793728	52	7030
2026-01-18 02:15:57.25	326.60	10.72	-40.3	-41.5	21.0	0.00e+00	0	32	0	1184890880	52	6824
