passes_logs/2026/01/18/R4.6S_Anadyr/R4.6S_Anadyr__20260118_032700_SUOMI_NPP_rec.log

#Pass ID: 20260118_032700_SUOMI NPP
#Satellite: SUOMI NPP
#Configuration: NPP
#almurnet v.1.7.20251203
#Start time: 2026-01-18 03:27:02

#Version: 2.2.20231116
#Station: R4.6S_Anadyr
#Location: 177.4865 lon 64.73178 lat
#TLE: 1 37849U 11061A   26017.57099531  .00000072  00000+0  54974-4 0  9996
#TLE: 2 37849  98.7814 319.5974 0002398  59.1749 300.9663 14.19525865737072

#Time	Az	El	Level	Level2	SNR	BER	BlckErr	Temp	State	Recorded	gain1	gain2
2026-01-18 03:27:02.79	242.00	0.08	-49.5	-61.1	3.5	8.45e-01	0	26	0	0	60	41026
2026-01-18 03:27:03.79	242.10	0.12	-49.4	-64.6	3.6	1.51e+00	0	27	104	0	60	61064
2026-01-18 03:27:04.80	242.19	0.16	-49.3	-64.4	3.6	1.51e+00	0	28	104	0	60	60301
2026-01-18 03:27:05.81	242.29	0.20	-49.9	-65.2	3.6	1.51e+00	0	27	104	0	60	65776
2026-01-18 03:27:06.82	242.39	0.25	-50.3	-65.5	3.6	1.51e+00	0	28	104	0	60	67732
2026-01-18 03:27:07.83	242.48	0.29	-49.5	-64.8	3.6	1.51e+00	0	28	104	0	60	62457
2026-01-18 03:27:08.84	242.58	0.33	-50.1	-65.3	3.6	1.51e+00	0	28	104	0	60	66753
2026-01-18 03:27:09.85	242.68	0.37	-50.1	-65.3	3.6	1.51e+00	0	28	104	0	60	66245
2026-01-18 03:27:10.86	242.78	0.41	-49.3	-64.6	3.6	1.51e+00	0	28	104	0	60	61238
2026-01-18 03:27:11.87	242.87	0.45	-49.6	-64.9	3.6	1.51e+00	0	28	104	0	60	63605
2026-01-18 03:27:12.89	242.97	0.49	-49.4	-64.6	3.5	1.51e+00	0	28	104	0	60	61266
2026-01-18 03:27:13.90	243.07	0.53	-48.9	-64.2	3.6	1.51e+00	0	28	104	0	60	58518
2026-01-18 03:27:14.90	243.17	0.57	-48.9	-64.1	3.6	1.51e+00	0	28	104	0	60	57752
2026-01-18 03:27:15.91	243.27	0.62	-49.1	-64.3	3.6	1.51e+00	0	28	104	0	60	59092
2026-01-18 03:27:16.93	243.37	0.66	-49.0	-64.2	3.6	1.51e+00	0	28	104	0	60	58384
2026-01-18 03:27:17.93	243.47	0.70	-48.9	-64.1	3.6	1.51e+00	0	28	104	0	60	57627
2026-01-18 03:27:18.94	243.57	0.74	-48.8	-63.9	3.6	1.51e+00	0	28	104	0	60	56911
2026-01-18 03:27:19.95	243.67	0.78	-48.8	-64.0	3.6	1.51e+00	0	28	104	0	60	56970
2026-01-18 03:27:20.96	243.77	0.82	-48.8	-63.9	3.6	1.51e+00	0	28	104	0	60	56896
2026-01-18 03:27:21.97	243.87	0.86	-48.7	-63.8	3.6	1.51e+00	0	28	104	0	60	56217
2026-01-18 03:27:22.98	243.97	0.90	-48.6	-63.8	3.6	1.51e+00	0	28	104	0	60	55735
2026-01-18 03:27:23.99	244.07	0.94	-48.5	-63.6	3.6	1.51e+00	0	28	104	0	60	54914
2026-01-18 03:27:25.00	244.17	0.98	-48.3	-63.4	3.6	1.51e+00	0	28	104	0	60	53715
2026-01-18 03:27:26.01	244.27	1.03	-48.1	-63.3	3.6	1.51e+00	0	28	104	0	60	52593
2026-01-18 03:27:27.02	244.37	1.07	-47.8	-63.0	3.6	1.51e+00	0	28	104	0	60	51286
2026-01-18 03:27:28.03	244.47	1.11	-47.4	-62.6	3.6	1.51e+00	0	28	104	0	60	48562
2026-01-18 03:27:29.04	244.58	1.15	-47.2	-62.3	3.6	1.51e+00	0	28	104	0	60	47242
2026-01-18 03:27:30.05	244.68	1.19	-47.2	-62.3	3.6	1.51e+00	0	28	104	0	60	47226
2026-01-18 03:27:31.06	244.78	1.23	-47.2	-62.3	3.6	1.51e+00	0	28	104	0	60	47250
2026-01-18 03:27:32.07	244.88	1.27	-47.2	-62.3	3.6	1.51e+00	0	28	104	0	60	47282
2026-01-18 03:27:33.08	244.99	1.31	-47.2	-62.3	3.6	1.51e+00	0	28	104	0	60	46967
2026-01-18 03:27:34.09	245.09	1.35	-47.2	-62.3	3.6	1.51e+00	0	28	104	0	60	47290
2026-01-18 03:27:35.10	245.20	1.39	-47.2	-62.3	3.6	1.51e+00	0	28	104	0	60	46932
2026-01-18 03:27:36.10	245.30	1.43	-47.2	-62.3	3.5	1.51e+00	0	28	104	0	60	47073
2026-01-18 03:27:37.11	245.40	1.47	-47.2	-62.3	3.6	1.51e+00	0	28	104	0	60	47037
2026-01-18 03:27:38.12	245.51	1.52	-47.2	-62.4	3.6	1.51e+00	0	28	104	0	60	47411
2026-01-18 03:27:39.13	245.61	1.56	-47.2	-62.3	3.6	1.51e+00	0	28	104	0	60	47301
2026-01-18 03:27:40.14	245.72	1.60	-47.2	-62.3	3.6	1.51e+00	0	28	104	0	60	47162
2026-01-18 03:27:41.15	245.82	1.64	-47.1	-62.3	3.6	1.51e+00	0	28	104	0	60	46839
2026-01-18 03:27:42.16	245.93	1.68	-47.2	-62.3	3.6	1.51e+00	0	28	104	0	60	46975
2026-01-18 03:27:43.17	246.04	1.72	-47.1	-62.3	3.6	1.51e+00	0	28	104	0	60	46870
2026-01-18 03:27:44.18	246.14	1.76	-47.2	-62.3	3.6	1.51e+00	0	28	104	0	60	47249
2026-01-18 03:27:45.19	246.25	1.80	-47.1	-62.3	3.6	1.51e+00	0	28	104	0	60	46988
2026-01-18 03:27:46.20	246.36	1.84	-47.1	-62.3	3.6	1.51e+00	0	28	104	0	60	47188
2026-01-18 03:27:47.21	246.46	1.88	-47.1	-62.3	3.6	1.51e+00	0	28	104	0	60	47020
2026-01-18 03:27:48.22	246.57	1.92	-47.1	-62.3	3.6	1.51e+00	0	28	104	0	60	46932
2026-01-18 03:27:49.23	246.68	1.96	-47.1	-62.2	3.6	1.51e+00	0	29	104	0	60	46543
2026-01-18 03:27:50.24	246.79	2.00	-47.1	-62.2	3.6	1.51e+00	0	28	104	0	60	46697
2026-01-18 03:27:51.25	246.89	2.04	-47.1	-62.2	3.6	1.51e+00	0	28	104	0	60	46460
2026-01-18 03:27:52.26	247.00	2.08	-47.1	-62.1	3.6	1.51e+00	0	28	104	0	60	46199
2026-01-18 03:27:53.27	247.11	2.13	-47.1	-62.2	3.6	1.51e+00	0	28	104	0	60	46589
2026-01-18 03:27:54.28	247.22	2.17	-47.1	-62.2	3.6	1.51e+00	0	28	104	0	60	46601
2026-01-18 03:27:55.29	247.33	2.21	-47.1	-62.2	3.6	1.51e+00	0	28	104	0	60	46334
2026-01-18 03:27:56.30	247.44	2.25	-47.1	-62.2	3.6	1.51e+00	0	28	104	0	60	46531
2026-01-18 03:27:57.31	247.55	2.29	-47.1	-62.2	3.6	1.51e+00	0	28	104	0	60	46571
2026-01-18 03:27:58.32	247.66	2.33	-47.1	-62.1	3.6	1.51e+00	0	29	104	0	60	46215
2026-01-18 03:27:59.33	247.77	2.37	-47.1	-62.1	3.6	1.51e+00	0	28	104	0	60	45806
2026-01-18 03:28:00.34	247.88	2.41	-47.1	-61.9	3.6	1.51e+00	0	28	104	0	60	45043
2026-01-18 03:28:01.35	247.99	2.45	-47.1	-61.9	3.6	1.51e+00	0	28	104	0	60	45154
2026-01-18 03:28:02.36	248.11	2.49	-47.1	-62.1	3.6	1.51e+00	0	28	104	0	60	45777
2026-01-18 03:28:03.37	248.22	2.53	-47.1	-62.2	3.6	1.51e+00	0	29	104	0	60	46407
2026-01-18 03:28:04.38	248.33	2.57	-47.1	-61.8	3.6	1.51e+00	0	29	104	0	60	44309
2026-01-18 03:28:05.39	248.44	2.61	-47.0	-60.7	3.6	1.51e+00	0	29	104	0	60	38959
2026-01-18 03:28:06.40	248.55	2.65	-47.0	-59.5	3.8	1.51e+00	0	29	104	0	60	33933
2026-01-18 03:28:07.41	248.67	2.69	-47.1	-60.9	3.6	1.51e+00	0	29	104	0	60	40275
2026-01-18 03:28:08.42	248.78	2.73	-47.1	-62.0	3.6	1.51e+00	0	29	104	0	60	45761
2026-01-18 03:28:09.43	248.89	2.77	-47.1	-61.1	3.6	1.51e+00	0	29	104	0	60	41049
2026-01-18 03:28:10.44	249.01	2.81	-46.7	-55.6	5.7	6.06e-01	0	28	104	0	60	21877
2026-01-18 03:28:11.45	249.12	2.85	-46.3	-52.6	7.9	1.01e-01	92	28	0	1048576	60	15449
2026-01-18 03:28:12.46	249.24	2.89	-45.4	-49.8	11.5	1.40e-02	44	28	0	3145728	60	11223
2026-01-18 03:28:13.47	249.35	2.93	-44.3	-47.6	14.2	1.90e-05	92	28	0	5242880	60	8697
2026-01-18 03:28:14.48	249.47	2.97	-44.4	-47.8	13.2	2.82e-05	90	29	0	7340032	60	8867
2026-01-18 03:28:15.49	249.58	3.01	-43.6	-46.4	14.8	0.00e+00	0	29	0	8388608	60	7546
2026-01-18 03:28:16.50	249.70	3.05	-41.7	-43.6	17.8	7.00e-07	92	29	0	10485760	58	6107
2026-01-18 03:28:17.51	249.81	3.09	-41.7	-43.6	17.4	0.00e+00	0	29	0	12582912	56	6909
2026-01-18 03:28:18.52	249.93	3.13	-44.3	-47.7	12.8	4.50e-06	92	29	0	14680064	60	8802
2026-01-18 03:28:19.53	250.05	3.17	-47.0	-60.2	3.6	1.02e+00	0	29	104	15728640	60	37006
2026-01-18 03:28:20.54	250.16	3.21	-43.2	-45.8	16.3	1.12e+00	92	29	104	15728640	60	7026
2026-01-18 03:28:21.55	250.28	3.25	-41.7	-43.5	18.0	0.00e+00	92	28	0	15728640	56	6770
2026-01-18 03:28:22.56	250.40	3.29	-41.1	-42.7	18.6	0.00e+00	0	29	0	17825792	56	6213
2026-01-18 03:28:23.57	250.52	3.33	-40.8	-42.4	18.9	0.00e+00	92	28	0	19922944	54	6703
2026-01-18 03:28:24.58	250.63	3.37	-39.6	-40.9	20.1	0.00e+00	0	29	0	22020096	54	5656
2026-01-18 03:28:25.58	250.75	3.40	-40.7	-42.3	18.9	0.00e+00	90	29	0	24117248	52	7438
2026-01-18 03:28:26.60	250.87	3.44	-40.3	-41.7	19.6	0.00e+00	0	29	0	25165824	54	6212
2026-01-18 03:28:27.60	250.99	3.48	-41.0	-42.7	18.5	0.00e+00	90	28	0	27262976	54	6939
2026-01-18 03:28:28.61	251.11	3.52	-41.0	-42.6	18.6	0.00e+00	92	29	0	29360128	54	6893
2026-01-18 03:28:29.62	251.23	3.56	-40.5	-42.0	19.3	0.00e+00	67	29	0	31457280	54	6455
2026-01-18 03:28:30.63	251.35	3.60	-40.5	-41.9	19.5	0.00e+00	90	29	0	33554432	54	6378
2026-01-18 03:28:31.64	251.47	3.64	-40.6	-42.1	19.0	0.00e+00	0	29	0	34603008	54	6466
2026-01-18 03:28:32.65	251.59	3.68	-40.0	-41.4	19.8	0.00e+00	92	29	0	36700160	54	6002
2026-01-18 03:28:33.66	251.71	3.72	-40.6	-42.1	19.1	0.00e+00	0	29	0	38797312	54	6483
2026-01-18 03:28:34.67	251.83	3.76	-41.0	-42.6	18.8	0.00e+00	92	29	0	40894464	54	6872
2026-01-18 03:28:35.68	251.95	3.80	-40.2	-41.6	19.7	0.00e+00	47	29	0	42991616	54	6112
2026-01-18 03:28:36.69	252.07	3.84	-40.2	-41.6	19.7	0.00e+00	92	29	0	44040192	54	6131
2026-01-18 03:28:37.70	252.19	3.87	-39.9	-41.2	20.0	0.00e+00	92	29	0	46137344	54	5857
2026-01-18 03:28:38.71	252.32	3.91	-39.9	-41.3	19.9	0.00e+00	0	29	0	48234496	54	5930
2026-01-18 03:28:39.71	252.44	3.95	-39.7	-41.0	20.4	0.00e+00	91	29	0	50331648	52	6443
2026-01-18 03:28:40.72	252.56	3.99	-39.9	-41.2	19.8	0.00e+00	0	29	0	52428800	52	6598
2026-01-18 03:28:41.73	252.68	4.03	-40.4	-41.9	19.3	0.00e+00	92	29	0	53477376	52	7111
2026-01-18 03:28:42.74	252.81	4.07	-40.4	-41.9	19.4	0.00e+00	0	29	0	55574528	52	7119
2026-01-18 03:28:43.75	252.93	4.11	-40.3	-41.8	19.4	0.00e+00	92	29	0	57671680	52	7017
2026-01-18 03:28:44.76	253.06	4.14	-40.2	-41.6	19.8	0.00e+00	92	29	0	59768832	52	6888
2026-01-18 03:28:45.77	253.18	4.18	-40.5	-42.0	19.3	0.00e+00	0	29	0	61865984	52	7197
2026-01-18 03:28:46.78	253.31	4.22	-40.6	-42.1	19.4	0.00e+00	92	29	0	63963136	52	7320
2026-01-18 03:28:47.79	253.43	4.26	-40.6	-42.1	18.9	0.00e+00	0	29	0	65011712	54	6502
2026-01-18 03:28:48.80	253.56	4.30	-40.7	-42.2	19.2	0.00e+00	92	29	0	67108864	54	6576
2026-01-18 03:28:49.80	253.68	4.34	-40.6	-42.1	19.2	0.00e+00	53	29	0	69206016	54	6486
2026-01-18 03:28:50.81	253.81	4.37	-40.4	-41.9	19.4	0.00e+00	92	29	0	71303168	54	6331
2026-01-18 03:28:51.82	253.93	4.41	-40.2	-41.6	19.7	0.00e+00	92	29	0	73400320	54	6140
2026-01-18 03:28:52.83	254.06	4.45	-40.2	-41.6	19.9	0.00e+00	0	28	0	74448896	54	6135
2026-01-18 03:28:53.84	254.19	4.49	-40.6	-42.1	19.5	0.00e+00	92	29	0	76546048	52	7264
2026-01-18 03:28:54.85	254.31	4.53	-40.0	-41.4	20.0	0.00e+00	0	29	0	78643200	52	6703
2026-01-18 03:28:55.86	254.44	4.56	-40.0	-41.4	19.9	0.00e+00	92	29	0	80740352	52	6702
2026-01-18 03:28:56.87	254.57	4.60	-40.7	-42.2	19.2	0.00e+00	0	29	0	82837504	52	7412
2026-01-18 03:28:57.88	254.70	4.64	-39.8	-41.1	20.1	0.00e+00	92	29	0	83886080	52	6539
2026-01-18 03:28:58.89	254.83	4.68	-40.2	-41.6	19.7	0.00e+00	92	29	0	85983232	52	6887
2026-01-18 03:28:59.90	254.96	4.72	-40.1	-41.5	20.1	0.00e+00	0	29	0	88080384	52	6776
2026-01-18 03:29:00.91	255.09	4.75	-40.0	-41.3	20.2	0.00e+00	91	29	0	90177536	52	6678
2026-01-18 03:29:01.92	255.22	4.79	-40.2	-41.5	19.8	0.00e+00	0	29	0	92274688	52	6831
2026-01-18 03:29:02.93	255.34	4.83	-40.6	-42.1	19.3	0.00e+00	91	29	0	93323264	52	7293
2026-01-18 03:29:03.94	255.48	4.87	-40.4	-41.8	19.6	0.00e+00	0	29	0	95420416	52	7074
2026-01-18 03:29:04.95	255.61	4.90	-40.4	-41.9	19.6	0.00e+00	92	29	0	97517568	52	7110
2026-01-18 03:29:05.96	255.74	4.94	-40.5	-42.0	19.4	0.00e+00	92	29	0	99614720	52	7180
2026-01-18 03:29:06.97	255.87	4.98	-40.4	-41.8	19.7	0.00e+00	74	29	0	101711872	52	7074
2026-01-18 03:29:07.98	256.00	5.01	-40.0	-41.3	20.0	0.00e+00	92	29	0	102760448	52	6667
2026-01-18 03:29:08.99	256.13	5.05	-39.5	-40.7	20.5	0.00e+00	0	29	0	104857600	52	6233
2026-01-18 03:29:10.00	256.26	5.09	-39.4	-40.6	20.8	0.00e+00	92	29	0	106954752	52	6171
2026-01-18 03:29:11.01	256.40	5.12	-40.2	-41.6	19.7	0.00e+00	0	29	0	109051904	52	6863
2026-01-18 03:29:12.02	256.53	5.16	-40.1	-41.4	19.9	0.00e+00	90	29	0	111149056	52	6763
2026-01-18 03:29:13.03	256.66	5.20	-39.8	-41.0	20.3	0.00e+00	17	29	0	112197632	52	6464
2026-01-18 03:29:14.04	256.80	5.24	-39.8	-41.1	20.2	0.00e+00	76	29	0	114294784	52	6497
2026-01-18 03:29:15.05	256.93	5.27	-40.1	-41.5	19.9	0.00e+00	90	29	0	116391936	52	6790
2026-01-18 03:29:16.06	257.06	5.31	-39.8	-41.1	20.1	0.00e+00	0	29	0	118489088	52	6530
2026-01-18 03:29:17.07	257.20	5.34	-40.3	-41.7	19.7	0.00e+00	92	29	0	120586240	52	6985
2026-01-18 03:29:18.08	257.33	5.38	-40.3	-41.7	19.9	0.00e+00	0	29	0	121634816	52	6956
2026-01-18 03:29:19.08	257.47	5.42	-40.1	-41.4	19.8	0.00e+00	54	29	0	123731968	52	6760
2026-01-18 03:29:20.09	257.60	5.45	-40.2	-41.5	20.0	0.00e+00	15	29	0	125829120	52	6846
2026-01-18 03:29:21.10	257.74	5.49	-40.0	-41.3	20.0	0.00e+00	91	29	0	127926272	52	6684
2026-01-18 03:29:22.11	257.87	5.52	-40.0	-41.3	20.4	0.00e+00	92	29	0	130023424	52	6672
2026-01-18 03:29:23.12	258.01	5.56	-39.9	-41.2	20.3	0.00e+00	0	29	0	132120576	52	6563
2026-01-18 03:29:24.13	258.15	5.60	-40.2	-41.5	19.8	0.00e+00	93	29	0	133169152	52	6816
2026-01-18 03:29:25.14	258.28	5.63	-40.0	-41.3	20.1	0.00e+00	0	29	0	135266304	52	6681
2026-01-18 03:29:26.15	258.42	5.67	-40.5	-41.9	19.7	0.00e+00	92	29	0	137363456	52	7109
2026-01-18 03:29:27.16	258.56	5.70	-40.5	-41.9	19.7	0.00e+00	47	29	0	139460608	52	7102
2026-01-18 03:29:28.17	258.70	5.74	-40.4	-41.8	19.6	0.00e+00	90	28	0	141557760	52	7081
2026-01-18 03:29:29.18	258.83	5.77	-40.3	-41.7	19.8	0.00e+00	92	29	0	142606336	52	6946
2026-01-18 03:29:30.19	258.97	5.81	-41.0	-42.5	19.0	0.00e+00	0	29	0	144703488	54	6818
2026-01-18 03:29:31.19	259.11	5.84	-40.3	-41.7	19.8	0.00e+00	92	29	0	146800640	54	6188
2026-01-18 03:29:32.20	259.25	5.88	-40.6	-42.0	19.4	0.00e+00	0	29	0	148897792	54	6442
2026-01-18 03:29:33.21	259.39	5.91	-40.6	-42.1	19.5	0.00e+00	90	29	0	150994944	54	6479
2026-01-18 03:29:34.22	259.53	5.95	-40.8	-42.3	19.2	0.00e+00	33	29	0	152043520	54	6662
2026-01-18 03:29:35.23	259.67	5.98	-40.3	-41.7	19.7	0.00e+00	92	29	0	154140672	54	6206
2026-01-18 03:29:36.24	259.81	6.02	-40.6	-42.0	19.5	0.00e+00	92	29	0	156237824	54	6423
2026-01-18 03:29:37.25	259.95	6.05	-40.6	-42.0	19.5	0.00e+00	0	29	0	158334976	54	6433
2026-01-18 03:29:38.26	260.09	6.09	-40.5	-41.9	19.5	0.00e+00	92	29	0	160432128	54	6361
2026-01-18 03:29:39.27	260.23	6.12	-40.9	-42.4	19.1	0.00e+00	0	29	0	161480704	54	6762
2026-01-18 03:29:40.27	260.37	6.16	-40.9	-42.4	19.3	0.00e+00	92	29	0	163577856	54	6731
2026-01-18 03:29:41.28	260.52	6.19	-40.8	-42.3	19.3	0.00e+00	0	29	0	165675008	54	6628
2026-01-18 03:29:42.29	260.66	6.23	-40.5	-41.9	19.6	0.00e+00	92	29	0	167772160	54	6367
2026-01-18 03:29:43.30	260.80	6.26	-40.7	-42.2	19.3	0.00e+00	92	29	0	169869312	54	6566
2026-01-18 03:29:44.31	260.94	6.29	-41.3	-42.9	18.7	0.00e+00	12	29	0	170917888	54	7164
2026-01-18 03:29:45.32	261.09	6.33	-40.7	-42.2	19.4	0.00e+00	91	29	0	173015040	54	6555
2026-01-18 03:29:46.33	261.23	6.36	-40.5	-42.0	19.6	0.00e+00	0	29	0	175112192	54	6403
2026-01-18 03:29:47.34	261.37	6.39	-41.0	-42.5	19.3	0.00e+00	90	29	0	177209344	54	6812
2026-01-18 03:29:48.35	261.52	6.43	-41.0	-42.6	19.1	0.00e+00	0	29	0	179306496	54	6851
2026-01-18 03:29:49.36	261.66	6.46	-40.6	-42.0	19.7	0.00e+00	92	29	0	180355072	54	6401
2026-01-18 03:29:50.37	261.81	6.49	-40.5	-41.9	19.7	0.00e+00	52	29	0	182452224	54	6344
2026-01-18 03:29:51.38	261.95	6.53	-40.3	-41.7	19.9	0.00e+00	92	29	0	184549376	54	6178
2026-01-18 03:29:52.39	262.10	6.56	-40.5	-41.9	19.8	0.00e+00	92	29	0	186646528	54	6333
2026-01-18 03:29:53.40	262.25	6.59	-40.6	-42.0	19.5	0.00e+00	0	29	0	188743680	54	6392
2026-01-18 03:29:54.41	262.39	6.63	-40.8	-42.3	19.5	0.00e+00	90	29	0	189792256	54	6633
2026-01-18 03:29:55.42	262.54	6.66	-40.6	-42.0	19.6	0.00e+00	0	29	0	191889408	54	6403
2026-01-18 03:29:56.43	262.69	6.69	-40.3	-41.7	19.7	0.00e+00	92	29	0	193986560	54	6192
2026-01-18 03:29:57.44	262.83	6.72	-40.5	-41.9	19.9	0.00e+00	45	29	0	196083712	54	6344
2026-01-18 03:29:58.45	262.98	6.76	-40.4	-41.8	19.8	0.00e+00	91	29	0	198180864	54	6287
2026-01-18 03:29:59.46	263.13	6.79	-40.4	-41.8	19.8	0.00e+00	91	29	0	200278016	54	6287
2026-01-18 03:30:00.46	263.27	6.82	-40.8	-42.2	19.2	0.00e+00	0	29	0	201326592	54	6600
2026-01-18 03:30:01.47	263.42	6.85	-40.7	-42.1	19.6	0.00e+00	92	29	0	203423744	54	6500
2026-01-18 03:30:02.49	263.57	6.88	-40.6	-42.0	19.6	0.00e+00	0	29	0	205520896	54	6416
2026-01-18 03:30:03.49	263.72	6.92	-40.7	-42.1	19.5	0.00e+00	92	29	0	207618048	54	6504
2026-01-18 03:30:04.50	263.87	6.95	-40.8	-42.3	19.3	0.00e+00	0	29	0	209715200	54	6651
2026-01-18 03:30:05.51	264.02	6.98	-40.8	-42.2	19.5	0.00e+00	92	29	0	210763776	54	6604
2026-01-18 03:30:06.52	264.17	7.01	-40.4	-41.8	19.8	0.00e+00	92	29	0	212860928	54	6269
2026-01-18 03:30:07.53	264.32	7.04	-40.6	-42.0	19.6	0.00e+00	0	29	0	214958080	54	6434
2026-01-18 03:30:08.54	264.47	7.07	-40.6	-42.0	19.6	0.00e+00	92	29	0	217055232	54	6431
2026-01-18 03:30:09.54	264.62	7.10	-41.9	-43.3	18.4	5.96e-01	0	29	104	217055232	56	6619
2026-01-18 03:30:10.56	264.77	7.13	-41.5	-43.0	18.9	1.50e-06	90	29	0	218103808	56	6395
2026-01-18 03:30:11.56	264.92	7.17	-41.5	-43.1	19.3	0.00e+00	0	29	0	220200960	56	6483
2026-01-18 03:30:12.57	265.07	7.20	-41.0	-42.5	19.4	0.00e+00	92	29	0	221249536	56	6042
2026-01-18 03:30:13.58	265.23	7.23	-41.1	-42.6	19.2	0.00e+00	54	29	0	223346688	56	6116
2026-01-18 03:30:14.59	265.38	7.26	-40.9	-42.4	19.4	0.00e+00	0	29	0	225443840	56	6002
2026-01-18 03:30:15.60	265.53	7.29	-40.8	-42.2	19.4	0.00e+00	90	29	0	227540992	56	5874
2026-01-18 03:30:16.61	265.69	7.32	-40.8	-42.2	19.4	0.00e+00	0	29	0	229638144	54	6615
2026-01-18 03:30:17.62	265.84	7.35	-40.8	-42.2	19.6	0.00e+00	92	29	0	230686720	54	6593
2026-01-18 03:30:18.63	265.99	7.38	-40.5	-41.9	19.7	0.00e+00	0	29	0	232783872	54	6381
2026-01-18 03:30:19.64	266.15	7.41	-40.5	-41.8	20.0	0.00e+00	92	29	0	234881024	54	6316
2026-01-18 03:30:20.65	266.30	7.44	-40.8	-42.3	19.3	0.00e+00	90	29	0	236978176	54	6623
2026-01-18 03:30:21.66	266.46	7.47	-40.7	-42.1	19.6	0.00e+00	0	29	0	239075328	54	6531
2026-01-18 03:30:22.67	266.61	7.49	-40.8	-42.2	19.4	0.00e+00	92	29	0	241172480	54	6600
2026-01-18 03:30:23.67	266.76	7.52	-40.2	-41.5	20.1	0.00e+00	0	29	0	242221056	54	6071
2026-01-18 03:30:24.68	266.92	7.55	-40.4	-41.7	19.8	0.00e+00	72	29	0	244318208	54	6241
2026-01-18 03:30:25.69	267.07	7.58	-40.1	-41.5	20.1	0.00e+00	0	29	0	246415360	54	6056
2026-01-18 03:30:26.71	267.23	7.61	-40.2	-41.5	20.0	0.00e+00	92	29	0	248512512	54	6086
2026-01-18 03:30:27.71	267.39	7.64	-40.4	-41.8	19.8	0.00e+00	49	29	0	250609664	54	6286
2026-01-18 03:30:28.72	267.54	7.67	-40.8	-42.3	19.4	0.00e+00	57	29	0	251658240	54	6653
2026-01-18 03:30:29.73	267.70	7.69	-40.2	-41.6	20.1	0.00e+00	90	29	0	253755392	54	6125
2026-01-18 03:30:30.74	267.86	7.72	-40.7	-42.1	19.6	0.00e+00	0	29	0	255852544	54	6512
2026-01-18 03:30:31.75	268.02	7.75	-41.0	-42.5	19.3	0.00e+00	53	29	0	257949696	54	6775
2026-01-18 03:30:32.76	268.17	7.78	-41.0	-42.5	19.1	0.00e+00	0	29	0	260046848	54	6838
2026-01-18 03:30:33.77	268.33	7.81	-41.1	-42.7	19.1	0.00e+00	82	29	0	261095424	54	6943
2026-01-18 03:30:34.78	268.49	7.83	-41.0	-42.5	19.3	0.00e+00	52	29	0	263192576	54	6779
2026-01-18 03:30:35.79	268.65	7.86	-40.6	-42.0	19.8	0.00e+00	92	29	0	265289728	54	6438
2026-01-18 03:30:36.80	268.81	7.89	-40.6	-42.0	19.8	0.00e+00	92	29	0	267386880	54	6427
2026-01-18 03:30:37.81	268.97	7.91	-40.5	-41.9	19.7	0.00e+00	0	29	0	269484032	54	6372
2026-01-18 03:30:38.82	269.13	7.94	-40.3	-41.6	20.1	0.00e+00	53	29	0	270532608	54	6126
2026-01-18 03:30:39.83	269.29	7.97	-39.9	-41.2	20.5	0.00e+00	0	29	0	272629760	54	5841
2026-01-18 03:30:40.83	269.44	7.99	-40.2	-41.5	20.2	0.00e+00	92	29	0	274726912	54	6059
2026-01-18 03:30:41.84	269.60	8.02	-40.0	-41.3	20.4	0.00e+00	0	29	0	276824064	54	5940
2026-01-18 03:30:42.86	269.77	8.05	-40.1	-41.4	20.2	0.00e+00	90	29	0	278921216	54	6025
2026-01-18 03:30:43.86	269.93	8.07	-40.5	-41.9	19.8	0.00e+00	92	29	0	279969792	54	6363
2026-01-18 03:30:44.88	270.09	8.10	-40.8	-42.2	19.6	0.00e+00	0	29	0	282066944	54	6561
2026-01-18 03:30:45.89	270.25	8.12	-40.8	-42.3	19.5	0.00e+00	78	29	0	284164096	54	6651
2026-01-18 03:30:46.89	270.41	8.15	-40.9	-42.3	19.4	0.00e+00	0	29	0	286261248	54	6689
2026-01-18 03:30:47.90	270.57	8.17	-40.9	-42.4	19.5	0.00e+00	92	29	0	288358400	54	6735
2026-01-18 03:30:48.91	270.73	8.20	-41.0	-42.5	19.3	0.00e+00	0	29	0	289406976	54	6804
2026-01-18 03:30:49.92	270.90	8.22	-40.6	-42.0	19.6	0.00e+00	92	29	0	291504128	54	6419
2026-01-18 03:30:50.93	271.06	8.25	-40.8	-42.2	19.5	0.00e+00	92	29	0	293601280	54	6581
2026-01-18 03:30:51.94	271.22	8.27	-40.7	-42.0	19.7	0.00e+00	14	29	0	295698432	54	6464
2026-01-18 03:30:52.95	271.39	8.30	-40.8	-42.3	19.6	0.00e+00	90	29	0	297795584	54	6626
2026-01-18 03:30:53.96	271.55	8.32	-40.8	-42.3	19.5	0.00e+00	0	29	0	298844160	54	6647
2026-01-18 03:30:54.97	271.71	8.35	-40.8	-42.3	19.5	0.00e+00	90	29	0	300941312	54	6617
2026-01-18 03:30:55.98	271.88	8.37	-40.8	-42.2	19.3	0.00e+00	0	29	0	303038464	54	6560
2026-01-18 03:30:56.99	272.04	8.39	-40.8	-42.2	19.6	0.00e+00	92	29	0	305135616	54	6573
2026-01-18 03:30:58.00	272.21	8.42	-40.6	-42.0	19.7	0.00e+00	92	29	0	307232768	54	6419
2026-01-18 03:30:59.01	272.37	8.44	-40.5	-41.9	19.9	0.00e+00	90	29	0	309329920	54	6359
2026-01-18 03:31:00.01	272.54	8.46	-40.6	-41.9	19.8	0.00e+00	92	29	0	310378496	54	6367
2026-01-18 03:31:01.02	272.70	8.49	-40.5	-41.8	20.0	0.00e+00	0	29	0	312475648	54	6289
2026-01-18 03:31:02.03	272.87	8.51	-40.2	-41.5	20.3	0.00e+00	92	29	0	314572800	54	6079
2026-01-18 03:31:03.04	273.03	8.53	-40.3	-41.6	20.1	0.00e+00	0	29	0	316669952	54	6110
2026-01-18 03:31:04.05	273.20	8.55	-40.2	-41.4	20.3	0.00e+00	87	29	0	318767104	54	6029
2026-01-18 03:31:05.06	273.36	8.58	-40.3	-41.7	20.1	0.00e+00	92	29	0	319815680	54	6178
2026-01-18 03:31:06.07	273.53	8.60	-40.6	-42.0	19.6	0.00e+00	92	29	0	321912832	54	6416
2026-01-18 03:31:07.07	273.70	8.62	-40.9	-42.3	19.5	0.00e+00	92	29	0	324009984	54	6667
2026-01-18 03:31:08.08	273.86	8.64	-40.9	-42.4	19.5	0.00e+00	0	29	0	326107136	54	6725
2026-01-18 03:31:09.09	274.03	8.66	-41.2	-42.7	19.0	0.00e+00	57	29	0	327155712	54	6968
2026-01-18 03:31:10.10	274.20	8.69	-41.8	-43.4	18.5	0.00e+00	0	29	0	329252864	56	6763
2026-01-18 03:31:11.11	274.37	8.71	-42.0	-43.8	18.3	0.00e+00	92	29	0	331350016	56	7027
2026-01-18 03:31:12.12	274.53	8.73	-42.4	-44.2	17.7	0.00e+00	0	29	0	333447168	56	7416
2026-01-18 03:31:13.14	274.70	8.75	-42.4	-44.2	18.0	0.00e+00	92	29	0	335544320	56	7375
2026-01-18 03:31:14.14	274.87	8.77	-41.9	-43.5	18.3	0.00e+00	91	29	0	337641472	56	6842
2026-01-18 03:31:15.15	275.04	8.79	-41.2	-42.7	19.3	0.00e+00	0	29	0	338690048	56	6186
2026-01-18 03:31:16.16	275.21	8.81	-41.0	-42.4	19.5	0.00e+00	92	29	0	340787200	56	6008
2026-01-18 03:31:17.17	275.38	8.83	-40.9	-42.3	19.6	0.00e+00	0	29	0	342884352	56	5922
2026-01-18 03:31:18.18	275.55	8.85	-40.8	-42.2	19.7	0.00e+00	92	29	0	344981504	56	5864
2026-01-18 03:31:19.19	275.72	8.87	-40.5	-41.9	19.9	0.00e+00	33	29	0	347078656	54	6340
2026-01-18 03:31:20.20	275.89	8.89	-40.6	-41.9	19.9	0.00e+00	92	29	0	348127232	54	6371
2026-01-18 03:31:21.21	276.06	8.91	-40.7	-42.1	19.6	0.00e+00	92	29	0	350224384	54	6500
2026-01-18 03:31:22.22	276.23	8.93	-40.7	-42.1	19.6	0.00e+00	0	29	0	352321536	54	6534
2026-01-18 03:31:23.23	276.40	8.94	-40.7	-42.1	19.7	0.00e+00	59	29	0	354418688	54	6467
2026-01-18 03:31:24.24	276.57	8.96	-40.5	-41.8	19.9	0.00e+00	0	29	0	356515840	54	6294
2026-01-18 03:31:25.25	276.74	8.98	-40.3	-41.6	20.1	0.00e+00	91	29	0	357564416	54	6137
2026-01-18 03:31:26.26	276.91	9.00	-40.4	-41.7	20.0	0.00e+00	0	29	0	359661568	54	6243
2026-01-18 03:31:27.27	277.08	9.02	-40.1	-41.4	20.2	0.00e+00	92	29	0	361758720	54	5965
2026-01-18 03:31:28.28	277.25	9.03	-40.3	-41.6	20.1	0.00e+00	51	29	0	363855872	54	6163
2026-01-18 03:31:29.29	277.42	9.05	-40.3	-41.6	20.1	0.00e+00	35	29	0	365953024	54	6157
2026-01-18 03:31:30.30	277.60	9.07	-40.4	-41.8	20.0	0.00e+00	92	29	0	367001600	54	6271
2026-01-18 03:31:31.31	277.77	9.09	-40.8	-42.2	19.6	0.00e+00	0	29	0	369098752	54	6587
2026-01-18 03:31:32.32	277.94	9.10	-41.1	-42.6	19.2	0.00e+00	91	29	0	371195904	54	6861
2026-01-18 03:31:33.33	278.11	9.12	-41.2	-42.7	19.2	0.00e+00	0	29	0	373293056	54	6969
2026-01-18 03:31:34.34	278.28	9.14	-41.0	-42.5	19.4	0.00e+00	92	29	0	375390208	54	6780
2026-01-18 03:31:35.35	278.46	9.15	-41.0	-42.4	19.4	0.00e+00	50	29	0	377487360	54	6762
2026-01-18 03:31:36.36	278.63	9.17	-40.7	-42.0	19.8	0.00e+00	0	29	0	378535936	54	6446
2026-01-18 03:31:37.37	278.80	9.18	-40.1	-41.4	20.4	0.00e+00	92	29	0	380633088	54	6002
2026-01-18 03:31:38.38	278.98	9.20	-39.9	-41.1	20.5	0.00e+00	0	29	0	382730240	54	5827
2026-01-18 03:31:39.39	279.15	9.22	-39.8	-41.0	20.6	0.00e+00	92	29	0	384827392	52	6460
2026-01-18 03:31:40.40	279.32	9.23	-39.9	-41.2	20.5	0.00e+00	0	29	0	386924544	52	6562
2026-01-18 03:31:41.41	279.50	9.25	-40.2	-41.5	20.2	0.00e+00	90	29	0	387973120	52	6806
2026-01-18 03:31:42.42	279.67	9.26	-40.3	-41.7	20.2	0.00e+00	46	29	0	390070272	52	6938
2026-01-18 03:31:43.43	279.85	9.27	-40.8	-42.2	19.6	0.00e+00	92	29	0	392167424	54	6580
2026-01-18 03:31:44.44	280.02	9.29	-41.1	-42.6	19.3	0.00e+00	92	29	0	394264576	54	6861
2026-01-18 03:31:45.44	280.19	9.30	-40.3	-41.7	20.0	0.00e+00	0	29	0	395313152	54	6184
2026-01-18 03:31:46.46	280.37	9.32	-40.4	-41.7	20.1	0.00e+00	91	29	0	397410304	54	6233
2026-01-18 03:31:47.47	280.54	9.33	-40.1	-41.3	20.4	0.00e+00	33	29	0	399507456	54	5960
2026-01-18 03:31:48.48	280.72	9.34	-40.2	-41.5	20.3	0.00e+00	91	29	0	401604608	54	6043
2026-01-18 03:31:49.48	280.89	9.36	-39.9	-41.2	20.5	0.00e+00	0	29	0	403701760	54	5853
2026-01-18 03:31:50.49	281.07	9.37	-39.9	-41.1	20.6	0.00e+00	90	29	0	405798912	54	5786
2026-01-18 03:31:51.50	281.24	9.38	-40.1	-41.4	20.4	0.00e+00	92	29	0	406847488	54	5978
2026-01-18 03:31:52.51	281.42	9.39	-40.0	-41.3	20.5	0.00e+00	0	29	0	408944640	54	5932
2026-01-18 03:31:53.52	281.59	9.41	-40.3	-41.6	20.2	0.00e+00	83	29	0	411041792	54	6151
2026-01-18 03:31:54.53	281.77	9.42	-40.3	-41.6	20.3	0.00e+00	0	29	0	413138944	54	6107
2026-01-18 03:31:55.54	281.95	9.43	-40.2	-41.5	20.3	0.00e+00	92	29	0	415236096	54	6076
2026-01-18 03:31:56.55	282.12	9.44	-40.3	-41.6	20.1	0.00e+00	0	29	0	416284672	54	6140
2026-01-18 03:31:57.56	282.30	9.45	-40.3	-41.6	20.2	0.00e+00	91	29	0	418381824	54	6137
2026-01-18 03:31:58.56	282.47	9.46	-40.2	-41.5	20.2	0.00e+00	90	29	0	420478976	54	6064
2026-01-18 03:31:59.57	282.65	9.47	-40.5	-41.9	19.9	0.00e+00	0	29	0	422576128	54	6364
2026-01-18 03:32:00.59	282.83	9.49	-40.9	-42.3	19.4	0.00e+00	83	29	0	424673280	54	6684
2026-01-18 03:32:01.59	283.00	9.50	-41.1	-42.6	19.1	0.00e+00	0	29	0	425721856	54	6887
2026-01-18 03:32:02.60	283.18	9.51	-41.4	-43.0	18.8	0.00e+00	92	29	0	427819008	54	7217
2026-01-18 03:32:03.61	283.36	9.52	-41.7	-43.3	18.6	0.00e+00	0	29	0	429916160	54	7467
2026-01-18 03:32:04.62	283.53	9.53	-42.1	-43.8	18.2	0.00e+00	92	29	0	432013312	56	7061
2026-01-18 03:32:05.63	283.71	9.53	-42.2	-44.0	18.1	0.00e+00	92	29	0	434110464	56	7186
2026-01-18 03:32:06.64	283.89	9.54	-42.1	-43.9	18.2	0.00e+00	0	29	0	435159040	56	7118
2026-01-18 03:32:07.65	284.07	9.55	-41.8	-43.5	18.5	0.00e+00	66	29	0	437256192	56	6793
2026-01-18 03:32:08.66	284.24	9.56	-41.7	-43.3	18.8	0.00e+00	0	29	0	439353344	56	6632
2026-01-18 03:32:09.66	284.42	9.57	-41.6	-43.2	18.7	0.00e+00	92	29	0	441450496	56	6567
2026-01-18 03:32:10.67	284.60	9.58	-41.4	-43.0	18.9	0.00e+00	0	29	0	443547648	56	6412
2026-01-18 03:32:11.68	284.77	9.59	-41.2	-42.7	19.2	0.00e+00	92	29	0	444596224	56	6179
2026-01-18 03:32:12.69	284.95	9.59	-41.6	-43.2	18.8	0.00e+00	52	29	0	446693376	56	6547
2026-01-18 03:32:13.70	285.13	9.60	-41.5	-43.1	18.9	0.00e+00	0	29	0	448790528	56	6482
2026-01-18 03:32:14.71	285.31	9.61	-41.4	-43.0	19.0	0.00e+00	92	29	0	450887680	56	6407
2026-01-18 03:32:15.71	285.48	9.62	-41.6	-43.2	18.8	0.00e+00	0	29	0	452984832	56	6543
2026-01-18 03:32:16.72	285.66	9.62	-41.6	-43.2	18.8	0.00e+00	79	29	0	454033408	56	6566
2026-01-18 03:32:17.73	285.84	9.63	-41.8	-43.5	18.6	0.00e+00	0	29	0	456130560	56	6782
2026-01-18 03:32:18.74	286.02	9.64	-42.1	-43.8	18.2	0.00e+00	91	29	0	458227712	56	7049
2026-01-18 03:32:19.75	286.20	9.64	-41.7	-43.3	18.7	0.00e+00	50	29	0	460324864	56	6668
2026-01-18 03:32:20.76	286.38	9.65	-41.9	-43.5	18.6	0.00e+00	89	29	0	462422016	56	6815
2026-01-18 03:32:21.77	286.55	9.65	-41.7	-43.2	18.8	0.00e+00	92	29	0	463470592	56	6611
2026-01-18 03:32:22.78	286.73	9.66	-42.0	-43.6	18.5	0.00e+00	0	29	0	465567744	56	6923
2026-01-18 03:32:23.79	286.91	9.66	-41.6	-43.2	19.0	0.00e+00	90	29	0	467664896	56	6573
2026-01-18 03:32:24.80	287.09	9.67	-41.6	-43.2	19.0	0.00e+00	0	29	0	469762048	56	6543
2026-01-18 03:32:25.81	287.27	9.67	-41.6	-43.1	19.1	0.00e+00	92	29	0	471859200	56	6492
2026-01-18 03:32:26.82	287.45	9.68	-41.4	-43.0	19.1	0.00e+00	53	29	0	473956352	56	6405
2026-01-18 03:32:27.83	287.63	9.68	-41.5	-43.0	19.3	0.00e+00	92	29	0	475004928	56	6417
2026-01-18 03:32:28.84	287.81	9.69	-41.8	-43.4	18.9	0.00e+00	91	29	0	477102080	56	6735
2026-01-18 03:32:29.84	287.98	9.69	-41.7	-43.3	19.0	0.00e+00	0	29	0	479199232	56	6664
2026-01-18 03:32:30.86	288.16	9.69	-41.5	-43.0	19.1	0.00e+00	92	29	0	481296384	56	6447
2026-01-18 03:32:31.86	288.34	9.70	-41.3	-42.7	19.5	0.00e+00	0	29	0	483393536	56	6219
2026-01-18 03:32:32.87	288.52	9.70	-41.3	-42.8	19.3	0.00e+00	91	29	0	484442112	56	6292
2026-01-18 03:32:33.88	288.70	9.70	-41.4	-42.9	19.2	0.00e+00	0	29	0	486539264	56	6336
2026-01-18 03:32:34.89	288.88	9.70	-41.2	-42.6	19.5	0.00e+00	92	29	0	488636416	56	6142
2026-01-18 03:32:35.90	289.06	9.71	-41.5	-43.0	19.0	0.00e+00	91	29	0	490733568	56	6427
2026-01-18 03:32:36.91	289.24	9.71	-41.7	-43.2	19.2	0.00e+00	0	29	0	492830720	56	6589
2026-01-18 03:32:37.92	289.42	9.71	-41.3	-42.7	19.4	0.00e+00	61	29	0	493879296	56	6225
2026-01-18 03:32:38.93	289.59	9.71	-41.4	-42.9	19.2	0.00e+00	0	29	0	495976448	56	6365
2026-01-18 03:32:39.94	289.77	9.71	-41.1	-42.5	19.7	0.00e+00	92	29	0	498073600	56	6073
2026-01-18 03:32:40.94	289.95	9.71	-41.0	-42.4	19.6	0.00e+00	0	29	0	500170752	56	5997
2026-01-18 03:32:41.95	290.13	9.71	-41.2	-42.6	19.6	0.00e+00	92	29	0	502267904	56	6119
2026-01-18 03:32:42.96	290.31	9.72	-41.4	-42.8	19.5	0.00e+00	92	29	0	503316480	56	6315
2026-01-18 03:32:43.97	290.49	9.72	-41.1	-42.5	19.5	0.00e+00	0	29	0	505413632	56	6076
2026-01-18 03:32:44.98	290.67	9.72	-41.6	-43.1	19.2	0.00e+00	58	29	0	507510784	56	6498
2026-01-18 03:32:45.99	290.85	9.72	-41.1	-42.6	19.7	0.00e+00	0	29	0	509607936	56	6127
2026-01-18 03:32:47.00	291.03	9.71	-41.1	-42.6	19.5	0.00e+00	47	29	0	511705088	56	6122
2026-01-18 03:32:48.01	291.21	9.71	-41.2	-42.6	19.5	0.00e+00	0	29	0	512753664	56	6137
2026-01-18 03:32:49.02	291.38	9.71	-41.0	-42.4	19.7	0.00e+00	86	29	0	514850816	56	5972
2026-01-18 03:32:50.03	291.56	9.71	-40.3	-41.5	20.4	0.00e+00	19	29	0	516947968	54	6083
2026-01-18 03:32:51.04	291.74	9.71	-40.0	-41.3	20.6	0.00e+00	0	29	0	519045120	54	5926
2026-01-18 03:32:52.05	291.92	9.71	-40.2	-41.5	20.3	0.00e+00	92	29	0	521142272	54	6072
2026-01-18 03:32:53.06	292.10	9.71	-40.0	-41.3	20.5	0.00e+00	0	29	0	522190848	54	5902
2026-01-18 03:32:54.07	292.28	9.70	-40.0	-41.2	20.6	0.00e+00	19	29	0	524288000	54	5856
2026-01-18 03:32:55.08	292.46	9.70	-39.8	-41.1	20.7	0.00e+00	0	29	0	526385152	54	5765
2026-01-18 03:32:56.09	292.64	9.70	-39.9	-41.1	20.7	0.00e+00	52	29	0	528482304	54	5791
2026-01-18 03:32:57.10	292.82	9.70	-39.9	-41.1	20.7	0.00e+00	46	29	0	530579456	52	6486
2026-01-18 03:32:58.11	293.00	9.69	-39.3	-40.5	21.3	0.00e+00	26	29	0	531628032	52	6044
2026-01-18 03:32:59.12	293.18	9.69	-39.5	-40.7	21.2	0.00e+00	92	29	0	533725184	52	6198
2026-01-18 03:33:00.12	293.35	9.69	-39.3	-40.4	21.2	0.00e+00	0	29	0	535822336	52	6028
2026-01-18 03:33:01.13	293.53	9.68	-39.1	-40.2	21.5	0.00e+00	65	29	0	537919488	52	5878
2026-01-18 03:33:02.14	293.71	9.68	-39.5	-40.7	21.0	0.00e+00	0	29	0	540016640	52	6195
2026-01-18 03:33:03.15	293.89	9.67	-39.6	-40.8	21.0	0.00e+00	92	29	0	542113792	52	6255
2026-01-18 03:33:04.16	294.07	9.67	-39.8	-41.0	20.4	0.00e+00	0	29	0	543162368	52	6445
2026-01-18 03:33:05.17	294.25	9.67	-40.0	-41.2	20.6	0.00e+00	54	29	0	545259520	52	6602
2026-01-18 03:33:06.18	294.42	9.66	-39.9	-41.1	20.8	0.00e+00	92	29	0	547356672	52	6514
2026-01-18 03:33:07.19	294.60	9.65	-40.2	-41.5	20.4	0.00e+00	0	29	0	549453824	52	6799
2026-01-18 03:33:08.20	294.78	9.65	-40.1	-41.3	20.6	0.00e+00	49	29	0	550502400	52	6685
2026-01-18 03:33:09.21	294.96	9.64	-40.1	-41.3	20.6	0.00e+00	0	29	0	552599552	52	6642
2026-01-18 03:33:10.21	295.14	9.64	-40.4	-41.6	20.5	0.00e+00	91	29	0	554696704	52	6920
2026-01-18 03:33:11.23	295.32	9.63	-40.2	-41.4	20.7	0.00e+00	0	29	0	556793856	52	6748
2026-01-18 03:33:12.23	295.49	9.62	-40.2	-41.4	20.7	0.00e+00	92	29	0	558891008	52	6756
2026-01-18 03:33:13.24	295.67	9.62	-40.4	-41.7	20.3	0.00e+00	92	29	0	559939584	52	6945
2026-01-18 03:33:14.25	295.85	9.61	-40.2	-41.5	20.8	0.00e+00	0	29	0	562036736	52	6792
2026-01-18 03:33:15.26	296.03	9.60	-40.2	-41.4	20.6	0.00e+00	52	29	0	564133888	52	6753
2026-01-18 03:33:16.27	296.20	9.60	-40.6	-41.9	20.5	0.00e+00	0	29	0	566231040	52	7167
2026-01-18 03:33:17.28	296.38	9.59	-40.3	-41.6	20.6	0.00e+00	92	29	0	568328192	52	6855
2026-01-18 03:33:18.29	296.56	9.58	-40.5	-41.8	20.5	0.00e+00	0	29	0	570425344	52	7021
2026-01-18 03:33:19.30	296.74	9.57	-40.3	-41.5	20.6	0.00e+00	90	29	0	571473920	52	6843
2026-01-18 03:33:20.31	296.91	9.56	-39.9	-41.1	20.9	0.00e+00	78	29	0	573571072	52	6502
2026-01-18 03:33:21.31	297.09	9.56	-39.8	-41.0	21.0	0.00e+00	0	29	0	575668224	52	6438
2026-01-18 03:33:22.33	297.27	9.55	-39.8	-41.0	21.1	0.00e+00	68	29	0	577765376	52	6412
2026-01-18 03:33:23.33	297.44	9.54	-39.6	-40.8	21.1	0.00e+00	0	29	0	579862528	52	6282
2026-01-18 03:33:24.34	297.62	9.53	-39.9	-41.1	20.9	0.00e+00	92	29	0	580911104	52	6518
2026-01-18 03:33:25.35	297.80	9.52	-40.0	-41.3	20.9	0.00e+00	0	29	0	583008256	52	6618
2026-01-18 03:33:26.36	297.97	9.51	-39.7	-40.9	21.0	0.00e+00	92	29	0	585105408	52	6325
2026-01-18 03:33:27.37	298.15	9.50	-39.5	-40.7	21.1	0.00e+00	80	29	0	587202560	52	6177
2026-01-18 03:33:28.38	298.33	9.49	-39.7	-40.8	21.1	0.00e+00	0	29	0	589299712	52	6314
2026-01-18 03:33:29.39	298.50	9.48	-39.6	-40.8	21.2	0.00e+00	90	29	0	590348288	52	6255
2026-01-18 03:33:30.40	298.68	9.47	-39.2	-40.3	21.6	0.00e+00	0	29	0	592445440	52	5911
2026-01-18 03:33:31.41	298.86	9.46	-39.2	-40.3	21.5	0.00e+00	88	29	0	594542592	52	5938
2026-01-18 03:33:32.42	299.03	9.45	-39.1	-40.2	21.7	0.00e+00	0	29	0	596639744	52	5848
2026-01-18 03:33:33.42	299.21	9.43	-39.0	-40.0	21.9	0.00e+00	91	29	0	598736896	50	6436
2026-01-18 03:33:34.43	299.38	9.42	-38.7	-39.7	22.1	0.00e+00	45	29	0	599785472	50	6207
2026-01-18 03:33:35.44	299.56	9.41	-38.6	-39.6	22.0	0.00e+00	0	29	0	601882624	50	6143
2026-01-18 03:33:36.45	299.73	9.40	-38.7	-39.7	22.0	0.00e+00	91	29	0	603979776	50	6192
2026-01-18 03:33:37.46	299.91	9.39	-38.6	-39.6	22.0	0.00e+00	0	29	0	606076928	50	6148
2026-01-18 03:33:38.47	300.08	9.37	-38.6	-39.7	22.0	0.00e+00	46	29	0	608174080	50	6200
2026-01-18 03:33:39.48	300.26	9.36	-39.0	-40.1	21.5	0.00e+00	0	29	0	609222656	50	6501
2026-01-18 03:33:40.49	300.43	9.35	-38.9	-40.0	21.8	0.00e+00	92	29	0	611319808	50	6402
2026-01-18 03:33:41.49	300.61	9.33	-39.2	-40.3	21.5	0.00e+00	0	29	0	613416960	50	6621
2026-01-18 03:33:42.50	300.78	9.32	-39.1	-40.2	21.5	0.00e+00	34	29	0	615514112	50	6608
2026-01-18 03:33:43.51	300.95	9.31	-39.3	-40.4	21.5	0.00e+00	91	29	0	617611264	50	6743
2026-01-18 03:33:44.52	301.13	9.29	-38.6	-39.6	22.0	0.00e+00	0	29	0	618659840	50	6144
2026-01-18 03:33:45.53	301.30	9.28	-39.5	-40.6	21.2	0.00e+00	45	29	0	620756992	50	6877
2026-01-18 03:33:46.54	301.48	9.27	-39.4	-40.5	21.5	0.00e+00	0	29	0	622854144	50	6824
2026-01-18 03:33:47.55	301.65	9.25	-39.0	-40.1	21.5	0.00e+00	92	29	0	624951296	50	6521
2026-01-18 03:33:48.56	301.82	9.24	-39.1	-40.2	21.5	0.00e+00	0	29	0	627048448	50	6587
2026-01-18 03:33:49.57	302.00	9.22	-39.1	-40.2	21.5	0.00e+00	63	29	0	628097024	50	6557
2026-01-18 03:33:50.58	302.17	9.21	-39.0	-40.1	21.6	0.00e+00	46	29	0	630194176	50	6518
2026-01-18 03:33:51.59	302.34	9.19	-39.3	-40.4	21.1	0.00e+00	0	29	0	632291328	50	6761
2026-01-18 03:33:52.60	302.52	9.17	-39.3	-40.5	21.3	0.00e+00	51	29	0	634388480	50	6802
2026-01-18 03:33:53.61	302.69	9.16	-39.4	-40.6	21.0	0.00e+00	0	29	0	636485632	50	6879
2026-01-18 03:33:54.62	302.86	9.14	-39.1	-40.2	21.5	0.00e+00	90	29	0	638582784	50	6574
2026-01-18 03:33:55.63	303.03	9.13	-39.2	-40.3	21.5	0.00e+00	0	29	0	639631360	50	6636
2026-01-18 03:33:56.63	303.20	9.11	-39.1	-40.2	21.5	0.00e+00	92	29	0	641728512	50	6549
2026-01-18 03:33:57.64	303.38	9.09	-39.0	-40.1	21.5	0.00e+00	47	29	0	643825664	50	6528
2026-01-18 03:33:58.65	303.55	9.08	-39.2	-40.3	21.4	0.00e+00	0	29	0	645922816	50	6662
2026-01-18 03:33:59.66	303.72	9.06	-39.4	-40.5	21.2	0.00e+00	66	29	0	648019968	50	6828
2026-01-18 03:34:00.67	303.89	9.04	-39.4	-40.6	21.3	0.00e+00	0	29	0	649068544	50	6852
2026-01-18 03:34:01.68	304.06	9.02	-39.7	-40.9	21.0	0.00e+00	90	29	0	651165696	50	7135
2026-01-18 03:34:02.69	304.23	9.01	-39.9	-41.0	21.0	0.00e+00	0	29	0	653262848	50	7241
2026-01-18 03:34:03.70	304.40	8.99	-40.1	-41.3	20.9	0.00e+00	92	29	0	655360000	52	6638
2026-01-18 03:34:04.71	304.57	8.97	-40.0	-41.2	20.9	0.00e+00	0	29	0	657457152	52	6567
2026-01-18 03:34:05.72	304.74	8.95	-40.2	-41.4	20.8	0.00e+00	0	29	0	658505728	52	6740
2026-01-18 03:34:06.73	304.91	8.93	-40.3	-41.6	20.4	0.00e+00	92	29	0	660602880	52	6879
2026-01-18 03:34:07.74	305.08	8.92	-40.8	-42.1	20.2	0.00e+00	0	29	0	662700032	54	6508
2026-01-18 03:34:08.75	305.25	8.90	-40.7	-42.0	20.4	0.00e+00	48	29	0	664797184	54	6401
2026-01-18 03:34:09.76	305.42	8.88	-40.2	-41.4	20.6	0.00e+00	0	29	0	666894336	54	5992
2026-01-18 03:34:10.77	305.59	8.86	-39.8	-41.1	20.7	0.00e+00	92	29	0	667942912	54	5762
2026-01-18 03:34:11.78	305.76	8.84	-39.7	-40.9	20.8	0.00e+00	0	29	0	670040064	52	6369
2026-01-18 03:34:12.78	305.93	8.82	-39.8	-41.0	20.9	0.00e+00	0	29	0	672137216	52	6393
2026-01-18 03:34:13.79	306.10	8.80	-39.5	-40.7	21.0	0.00e+00	92	29	0	674234368	52	6179
2026-01-18 03:34:14.80	306.26	8.78	-39.3	-40.4	21.4	0.00e+00	0	29	0	676331520	52	6032
2026-01-18 03:34:15.81	306.43	8.76	-39.5	-40.7	21.1	0.00e+00	92	29	0	677380096	52	6190
2026-01-18 03:34:16.82	306.60	8.74	-39.0	-40.1	21.7	0.00e+00	0	29	0	679477248	52	5825
2026-01-18 03:34:17.83	306.77	8.72	-38.8	-39.8	21.9	0.00e+00	90	29	0	681574400	50	6276
2026-01-18 03:34:18.84	306.93	8.70	-38.6	-39.6	22.0	0.00e+00	0	29	0	683671552	50	6171
2026-01-18 03:34:19.85	307.10	8.68	-38.5	-39.5	22.2	0.00e+00	0	29	0	685768704	50	6072
2026-01-18 03:34:20.86	307.27	8.65	-38.4	-39.4	22.0	0.00e+00	70	29	0	686817280	50	6025
2026-01-18 03:34:21.87	307.44	8.63	-38.2	-39.2	22.4	0.00e+00	0	29	0	688914432	50	5843
2026-01-18 03:34:22.87	307.60	8.61	-38.3	-39.3	22.2	0.00e+00	51	29	0	691011584	50	5961
2026-01-18 03:34:23.88	307.77	8.59	-38.8	-39.8	22.1	0.00e+00	0	29	0	693108736	50	6267
2026-01-18 03:34:24.89	307.93	8.57	-38.8	-39.8	22.0	0.00e+00	72	29	0	695205888	50	6292
2026-01-18 03:34:25.90	308.10	8.54	-38.9	-39.9	21.8	0.00e+00	0	29	0	696254464	50	6356
2026-01-18 03:34:26.91	308.26	8.52	-38.7	-39.8	21.9	0.00e+00	13	29	0	698351616	50	6266
2026-01-18 03:34:27.92	308.43	8.50	-39.3	-40.4	21.6	0.00e+00	92	29	0	700448768	50	6706
2026-01-18 03:34:28.93	308.59	8.48	-39.1	-40.2	21.6	0.00e+00	0	29	0	702545920	50	6555
2026-01-18 03:34:29.94	308.76	8.45	-39.7	-40.9	21.2	0.00e+00	50	29	0	704643072	50	7093
2026-01-18 03:34:30.95	308.92	8.43	-39.6	-40.7	21.1	0.00e+00	0	29	0	706740224	50	7000
2026-01-18 03:34:31.96	309.09	8.41	-39.3	-40.4	21.0	0.00e+00	52	29	0	707788800	50	6748
2026-01-18 03:34:32.97	309.25	8.38	-39.9	-41.1	21.1	0.00e+00	0	29	0	709885952	50	7280
2026-01-18 03:34:33.98	309.41	8.36	-39.4	-40.6	21.3	0.00e+00	44	29	0	711983104	52	6111
2026-01-18 03:34:34.99	309.58	8.34	-39.0	-40.1	21.7	0.00e+00	54	29	0	714080256	50	6524
2026-01-18 03:34:36.00	309.74	8.31	-38.9	-40.0	21.8	0.00e+00	0	29	0	716177408	50	6430
2026-01-18 03:34:37.01	309.90	8.29	-39.0	-40.1	21.5	0.00e+00	18	29	0	717225984	50	6504
2026-01-18 03:34:38.02	310.07	8.26	-38.9	-40.0	21.6	0.00e+00	0	29	0	719323136	50	6421
2026-01-18 03:34:39.03	310.23	8.24	-39.1	-40.3	21.3	0.00e+00	90	29	0	721420288	50	6623
2026-01-18 03:34:40.03	310.39	8.21	-39.2	-40.3	21.4	0.00e+00	0	29	0	723517440	50	6634
2026-01-18 03:34:41.05	310.55	8.19	-39.3	-40.4	21.4	0.00e+00	19	29	0	724566016	50	6753
2026-01-18 03:34:42.06	310.71	8.16	-39.5	-40.7	21.2	0.00e+00	20	29	0	726663168	50	6960
2026-01-18 03:34:43.07	310.87	8.14	-40.0	-41.2	20.9	0.00e+00	0	29	0	728760320	52	6606
2026-01-18 03:34:44.07	311.03	8.11	-39.7	-40.9	20.8	0.00e+00	83	29	0	730857472	52	6353
2026-01-18 03:34:45.08	311.19	8.09	-39.4	-40.5	21.4	0.00e+00	0	29	0	732954624	52	6067
2026-01-18 03:34:46.09	311.36	8.06	-39.7	-40.9	20.8	0.00e+00	10	29	0	735051776	52	6379
2026-01-18 03:34:47.11	311.52	8.04	-38.8	-40.0	21.5	0.00e+00	0	29	0	736100352	52	5699
2026-01-18 03:34:48.12	311.68	8.01	-38.4	-39.5	22.0	0.00e+00	92	29	0	738197504	50	6037
2026-01-18 03:34:49.13	311.84	7.98	-38.5	-39.5	22.0	0.00e+00	0	29	0	740294656	50	6069
2026-01-18 03:34:50.14	312.00	7.96	-38.5	-39.5	21.9	0.00e+00	33	29	0	742391808	50	6082
2026-01-18 03:34:51.15	312.15	7.93	-38.1	-39.1	22.3	0.00e+00	92	29	0	744488960	50	5809
2026-01-18 03:34:52.16	312.31	7.90	-38.1	-39.1	22.3	0.00e+00	0	29	0	745537536	50	5814
2026-01-18 03:34:53.17	312.47	7.88	-38.1	-39.2	22.1	0.00e+00	92	29	0	747634688	50	5831
2026-01-18 03:34:54.17	312.63	7.85	-38.3	-39.4	21.9	0.00e+00	0	29	0	749731840	50	5993
2026-01-18 03:34:55.19	312.79	7.82	-38.5	-39.5	21.9	0.00e+00	90	29	0	751828992	50	6087
2026-01-18 03:34:56.20	312.95	7.80	-38.9	-40.1	21.5	0.00e+00	0	29	0	753926144	50	6470
2026-01-18 03:34:57.20	313.10	7.77	-39.2	-40.4	21.3	0.00e+00	0	29	0	754974720	50	6727
2026-01-18 03:34:58.22	313.26	7.74	-39.0	-40.2	21.4	0.00e+00	92	29	0	757071872	50	6547
2026-01-18 03:34:59.23	313.42	7.71	-39.0	-40.1	21.4	0.00e+00	0	29	0	759169024	50	6520
2026-01-18 03:35:00.24	313.57	7.69	-39.2	-40.3	21.5	0.00e+00	88	29	0	761266176	50	6659
2026-01-18 03:35:01.25	313.73	7.66	-39.4	-40.6	20.8	0.00e+00	0	29	0	763363328	50	6856
2026-01-18 03:35:02.26	313.88	7.63	-39.8	-41.0	20.9	0.00e+00	91	29	0	764411904	50	7239
2026-01-18 03:35:03.26	314.04	7.60	-39.2	-40.4	21.1	0.00e+00	0	29	0	766509056	52	5975
2026-01-18 03:35:04.27	314.19	7.57	-39.6	-40.8	20.9	0.00e+00	37	29	0	768606208	52	6293
2026-01-18 03:35:05.28	314.35	7.54	-39.9	-41.1	20.8	0.00e+00	50	29	0	770703360	52	6506
2026-01-18 03:35:06.29	314.50	7.52	-39.6	-40.8	20.6	0.00e+00	0	29	0	772800512	52	6272
2026-01-18 03:35:07.30	314.66	7.49	-39.9	-41.1	20.5	0.00e+00	48	29	0	774897664	52	6493
2026-01-18 03:35:08.31	314.81	7.46	-40.2	-41.4	20.4	0.00e+00	0	29	0	775946240	52	6756
2026-01-18 03:35:09.32	314.97	7.43	-39.9	-41.2	20.5	0.00e+00	74	29	0	778043392	52	6540
2026-01-18 03:35:10.33	315.12	7.40	-40.4	-41.7	20.1	0.00e+00	0	29	0	780140544	52	6992
2026-01-18 03:35:11.34	315.27	7.37	-40.3	-41.6	20.1	0.00e+00	43	29	0	782237696	52	6917
2026-01-18 03:35:12.35	315.43	7.34	-40.8	-42.2	19.4	0.00e+00	92	29	0	784334848	54	6598
2026-01-18 03:35:13.36	315.58	7.31	-41.0	-42.4	19.3	0.00e+00	0	29	0	785383424	54	6769
2026-01-18 03:35:14.37	315.73	7.28	-40.6	-42.0	19.6	0.00e+00	47	29	0	787480576	54	6392
2026-01-18 03:35:15.38	315.88	7.25	-40.7	-42.1	19.6	0.00e+00	0	29	0	789577728	54	6510
2026-01-18 03:35:16.39	316.03	7.22	-40.5	-41.8	20.2	0.00e+00	67	29	0	791674880	54	6274
2026-01-18 03:35:17.40	316.19	7.19	-40.7	-42.1	19.9	0.00e+00	0	29	0	792723456	54	6485
2026-01-18 03:35:18.41	316.34	7.16	-40.7	-42.1	20.0	0.00e+00	57	29	0	794820608	54	6478
2026-01-18 03:35:19.42	316.49	7.13	-40.9	-42.3	19.5	0.00e+00	43	29	0	796917760	54	6660
2026-01-18 03:35:20.43	316.64	7.10	-40.8	-42.2	19.3	0.00e+00	0	29	0	799014912	54	6582
2026-01-18 03:35:21.44	316.79	7.07	-40.6	-42.0	19.3	0.00e+00	76	29	0	801112064	54	6464
2026-01-18 03:35:22.45	316.94	7.04	-40.9	-42.4	19.3	0.00e+00	0	29	0	803209216	54	6723
2026-01-18 03:35:23.46	317.09	7.00	-40.7	-42.1	19.4	0.00e+00	87	29	0	804257792	54	6528
2026-01-18 03:35:24.47	317.24	6.97	-40.8	-42.3	19.2	0.00e+00	0	29	0	806354944	54	6677
2026-01-18 03:35:25.48	317.39	6.94	-40.8	-42.3	19.2	0.00e+00	92	29	0	808452096	54	6628
2026-01-18 03:35:26.49	317.53	6.91	-40.9	-42.4	19.2	0.00e+00	0	29	0	810549248	54	6756
2026-01-18 03:35:27.50	317.68	6.88	-40.7	-42.2	19.5	0.00e+00	0	29	0	812646400	54	6543
2026-01-18 03:35:28.50	317.83	6.85	-40.6	-42.0	19.5	0.00e+00	92	29	0	813694976	54	6434
2026-01-18 03:35:29.52	317.98	6.82	-40.5	-42.0	19.6	0.00e+00	0	29	0	815792128	54	6393
2026-01-18 03:35:30.52	318.12	6.78	-40.4	-41.8	19.7	0.00e+00	71	29	0	817889280	54	6311
2026-01-18 03:35:31.54	318.27	6.75	-40.4	-41.7	19.8	0.00e+00	0	29	0	819986432	54	6235
2026-01-18 03:35:32.54	318.42	6.72	-40.6	-42.0	19.5	0.00e+00	78	29	0	822083584	54	6445
2026-01-18 03:35:33.55	318.56	6.69	-40.7	-42.2	19.2	0.00e+00	0	29	0	823132160	54	6568
2026-01-18 03:35:34.56	318.71	6.66	-41.0	-42.6	19.0	0.00e+00	0	29	0	825229312	54	6854
2026-01-18 03:35:35.57	318.86	6.62	-40.8	-42.3	19.4	0.00e+00	54	29	0	827326464	54	6670
2026-01-18 03:35:36.58	319.00	6.59	-41.2	-42.7	19.0	0.00e+00	0	29	0	829423616	54	7000
2026-01-18 03:35:37.59	319.15	6.56	-41.1	-42.6	19.0	0.00e+00	92	29	0	831520768	54	6894
2026-01-18 03:35:38.60	319.29	6.52	-41.1	-42.7	18.9	0.00e+00	0	29	0	832569344	54	6937
2026-01-18 03:35:39.61	319.44	6.49	-41.3	-42.9	18.8	0.00e+00	90	29	0	834666496	54	7122
2026-01-18 03:35:40.62	319.58	6.46	-41.2	-42.8	18.8	0.00e+00	0	29	0	836763648	54	7081
2026-01-18 03:35:41.63	319.72	6.43	-41.0	-42.6	19.0	0.00e+00	0	29	0	838860800	54	6851
2026-01-18 03:35:42.64	319.87	6.39	-41.7	-43.4	18.4	0.00e+00	45	29	0	840957952	54	7589
2026-01-18 03:35:43.65	320.01	6.36	-42.1	-43.8	17.9	0.00e+00	0	29	0	842006528	56	7079
2026-01-18 03:35:44.66	320.15	6.33	-42.3	-44.2	17.6	0.00e+00	44	29	0	844103680	56	7407
2026-01-18 03:35:45.66	320.29	6.29	-42.3	-44.2	17.6	0.00e+00	0	29	0	846200832	56	7361
2026-01-18 03:35:46.68	320.44	6.26	-42.6	-44.6	17.2	0.00e+00	63	29	0	848297984	58	6922
2026-01-18 03:35:47.68	320.58	6.22	-42.6	-44.7	17.0	0.00e+00	33	29	0	850395136	58	6933
2026-01-18 03:35:48.70	320.72	6.19	-42.8	-45.0	16.8	0.00e+00	86	29	0	851443712	58	7228
2026-01-18 03:35:49.70	320.86	6.16	-42.7	-44.8	17.0	0.00e+00	47	29	0	853540864	58	7088
2026-01-18 03:35:50.72	321.00	6.12	-42.7	-44.8	17.1	0.00e+00	0	29	0	855638016	58	7024
2026-01-18 03:35:51.72	321.14	6.09	-42.6	-44.7	17.0	0.00e+00	47	29	0	857735168	58	6976
2026-01-18 03:35:52.73	321.28	6.05	-42.3	-44.2	17.5	0.00e+00	0	29	0	859832320	58	6612
2026-01-18 03:35:53.74	321.42	6.02	-42.1	-43.9	17.8	0.00e+00	86	29	0	860880896	58	6368
2026-01-18 03:35:54.75	321.56	5.99	-42.1	-43.9	17.8	0.00e+00	0	29	0	862978048	56	7138
2026-01-18 03:35:55.76	321.70	5.95	-42.1	-43.9	17.7	0.00e+00	68	29	0	865075200	56	7158
2026-01-18 03:35:56.78	321.84	5.92	-41.7	-43.4	18.3	0.00e+00	0	29	0	867172352	56	6760
2026-01-18 03:35:57.78	321.98	5.88	-41.7	-43.5	18.4	0.00e+00	0	29	0	869269504	56	6772
2026-01-18 03:35:58.80	322.12	5.85	-41.3	-42.9	18.6	0.00e+00	43	29	0	871366656	56	6343
2026-01-18 03:35:59.80	322.26	5.81	-41.5	-43.2	18.4	0.00e+00	0	29	0	872415232	56	6573
2026-01-18 03:36:00.81	322.40	5.78	-42.2	-44.1	17.8	0.00e+00	50	29	0	874512384	56	7263
2026-01-18 03:36:01.83	322.53	5.74	-42.1	-43.9	17.7	0.00e+00	0	29	0	876609536	56	7157
2026-01-18 03:36:02.83	322.67	5.71	-42.2	-44.0	17.7	0.00e+00	0	29	0	878706688	56	7250
2026-01-18 03:36:03.84	322.81	5.67	-42.2	-44.1	17.6	0.00e+00	49	29	0	880803840	56	7267
2026-01-18 03:36:04.85	322.94	5.64	-42.5	-44.5	17.1	0.00e+00	0	29	0	881852416	56	7631
2026-01-18 03:36:05.86	323.08	5.60	-42.4	-44.3	17.3	0.00e+00	46	29	0	883949568	56	7502
2026-01-18 03:36:06.87	323.22	5.56	-42.2	-44.2	17.4	0.00e+00	0	29	0	886046720	56	7379
2026-01-18 03:36:07.88	323.35	5.53	-42.6	-44.6	16.9	0.00e+00	88	29	0	888143872	56	7752
2026-01-18 03:36:08.89	323.49	5.49	-42.5	-44.6	17.0	0.00e+00	0	29	0	890241024	56	7706
2026-01-18 03:36:09.90	323.62	5.46	-42.4	-44.4	17.1	0.00e+00	0	29	0	891289600	56	7578
2026-01-18 03:36:10.91	323.76	5.42	-42.2	-44.2	17.2	0.00e+00	0	29	0	893386752	56	7368
2026-01-18 03:36:11.91	323.89	5.39	-42.2	-44.2	17.3	0.00e+00	0	29	0	895483904	58	6564
2026-01-18 03:36:12.93	324.02	5.35	-42.0	-43.9	17.8	0.00e+00	44	29	0	897581056	58	6348
2026-01-18 03:36:14.19	324.19	5.30	-42.1	-44.0	17.6	0.00e+00	0	29	0	899678208	58	6424
2026-01-18 03:36:14.91	324.29	5.28	-41.8	-43.6	18.1	0.00e+00	45	29	0	900726784	58	6111
2026-01-18 03:36:16.20	324.46	5.23	-41.9	-43.7	17.9	0.00e+00	0	29	0	902823936	56	6982
2026-01-18 03:36:16.93	324.55	5.21	-42.0	-43.8	17.9	0.00e+00	92	29	0	904921088	56	7054
2026-01-18 03:36:18.22	324.72	5.16	-41.4	-43.0	18.6	0.00e+00	0	29	0	907018240	56	6428
2026-01-18 03:36:18.94	324.81	5.13	-42.1	-43.8	18.2	0.00e+00	0	29	0	908066816	56	7075
2026-01-18 03:36:20.24	324.98	5.09	-41.6	-43.3	18.3	0.00e+00	26	29	0	910163968	56	6648
2026-01-18 03:36:20.96	325.08	5.06	-41.7	-43.3	18.7	0.00e+00	0	29	0	912261120	56	6682
2026-01-18 03:36:22.25	325.25	5.01	-41.7	-43.5	18.2	0.00e+00	30	29	0	914358272	56	6784
2026-01-18 03:36:22.97	325.34	4.99	-42.1	-44.0	17.8	0.00e+00	0	29	0	915406848	56	7201
2026-01-18 03:36:24.27	325.51	4.94	-42.1	-43.9	17.8	0.00e+00	0	29	0	918552576	56	7139
2026-01-18 03:36:24.99	325.60	4.91	-42.2	-44.1	17.7	0.00e+00	0	29	0	919601152	56	7259
2026-01-18 03:36:26.29	325.77	4.87	-42.3	-44.3	17.6	0.00e+00	0	29	0	921698304	56	7440
2026-01-18 03:36:27.01	325.86	4.84	-42.5	-44.6	17.2	0.00e+00	0	29	0	923795456	56	7717
2026-01-18 03:36:28.31	326.03	4.79	-42.6	-44.6	16.9	0.00e+00	0	29	0	925892608	56	7746
2026-01-18 03:36:29.03	326.12	4.77	-42.0	-43.9	17.8	0.00e+00	13	29	0	926941184	56	7100
2026-01-18 03:36:30.32	326.28	4.72	-42.3	-44.3	17.3	0.00e+00	0	29	0	929038336	56	7463
2026-01-18 03:36:31.04	326.37	4.69	-42.4	-44.4	17.1	0.00e+00	42	29	0	931135488	56	7555
2026-01-18 03:36:32.34	326.54	4.64	-41.5	-43.2	18.2	0.00e+00	0	29	0	933232640	56	6601
2026-01-18 03:36:33.06	326.63	4.62	-42.0	-43.9	17.8	0.00e+00	24	29	0	934281216	56	7115
2026-01-18 03:36:34.36	326.79	4.57	-41.8	-43.5	18.4	0.00e+00	2	29	0	937426944	56	6843
2026-01-18 03:36:35.08	326.88	4.54	-40.9	-42.4	19.1	0.00e+00	0	29	0	938475520	56	6027
2026-01-18 03:36:36.38	327.05	4.49	-41.3	-43.0	18.5	0.00e+00	72	29	0	940572672	54	7209
2026-01-18 03:36:37.10	327.14	4.47	-41.3	-42.9	18.6	0.00e+00	0	29	0	942669824	54	7157
2026-01-18 03:36:38.40	327.30	4.42	-41.1	-42.7	18.7	0.00e+00	92	29	0	944766976	54	6974
2026-01-18 03:36:39.12	327.39	4.39	-40.7	-42.2	19.2	0.00e+00	0	29	0	945815552	54	6549
2026-01-18 03:36:40.42	327.55	4.34	-40.7	-42.2	19.1	0.00e+00	0	29	0	948961280	54	6600
2026-01-18 03:36:41.14	327.64	4.32	-40.3	-41.7	19.5	0.00e+00	0	29	0	950009856	54	6218
2026-01-18 03:36:42.43	327.80	4.27	-41.0	-42.5	18.8	0.00e+00	0	29	0	952107008	54	6837
2026-01-18 03:36:43.16	327.89	4.24	-41.0	-42.7	18.6	0.00e+00	0	29	0	953155584	54	6938
2026-01-18 03:36:44.45	328.05	4.19	-40.6	-42.1	19.3	0.00e+00	0	29	0	956301312	54	6483
2026-01-18 03:36:45.17	328.13	4.16	-40.9	-42.5	18.7	0.00e+00	47	29	0	957349888	54	6776
2026-01-18 03:36:46.47	328.29	4.11	-41.1	-42.8	18.5	0.00e+00	0	29	0	959447040	54	7024
2026-01-18 03:36:47.19	328.38	4.09	-41.3	-43.0	18.4	0.00e+00	47	29	0	961544192	54	7197
2026-01-18 03:36:48.49	328.54	4.04	-41.1	-42.8	18.4	0.00e+00	0	29	0	963641344	54	7038
2026-01-18 03:36:49.21	328.63	4.01	-41.5	-43.3	18.0	0.00e+00	0	29	0	964689920	54	7431
2026-01-18 03:36:50.51	328.78	3.96	-40.8	-42.3	19.0	0.00e+00	74	29	0	967835648	54	6680
2026-01-18 03:36:51.23	328.87	3.93	-40.9	-42.5	18.6	0.00e+00	0	29	0	968884224	54	6809
2026-01-18 03:36:52.53	329.03	3.88	-41.6	-43.4	17.7	0.00e+00	77	29	0	970981376	54	7577
2026-01-18 03:36:53.25	329.12	3.86	-41.4	-43.1	18.2	0.00e+00	0	29	0	973078528	56	6486
2026-01-18 03:36:54.55	329.27	3.81	-41.5	-43.3	18.0	0.00e+00	0	29	0	975175680	56	6619
2026-01-18 03:36:55.27	329.36	3.78	-41.4	-43.1	18.2	0.00e+00	0	29	0	976224256	56	6522
2026-01-18 03:36:56.57	329.51	3.73	-41.6	-43.4	17.8	0.00e+00	0	29	0	978321408	56	6739
2026-01-18 03:36:57.29	329.60	3.70	-41.3	-43.1	18.2	0.00e+00	0	29	0	980418560	56	6475
2026-01-18 03:36:58.59	329.75	3.65	-41.5	-43.3	18.0	0.00e+00	0	29	0	982515712	56	6685
2026-01-18 03:36:59.31	329.84	3.62	-40.6	-42.2	18.6	0.00e+00	12	29	0	983564288	54	6564
2026-01-18 03:37:00.60	329.99	3.57	-40.9	-42.7	18.2	0.00e+00	0	29	0	986710016	54	6963
2026-01-18 03:37:01.32	330.07	3.55	-41.4	-43.3	17.5	0.00e+00	24	29	0	987758592	54	7464
2026-01-18 03:37:02.62	330.23	3.50	-40.1	-41.6	19.1	0.00e+00	0	29	0	989855744	54	6136
2026-01-18 03:37:03.34	330.31	3.47	-41.5	-43.5	17.3	0.00e+00	46	29	0	990904320	54	7648
2026-01-18 03:37:04.64	330.46	3.42	-40.5	-42.1	18.4	0.00e+00	45	29	0	994050048	54	6518
2026-01-18 03:37:05.36	330.55	3.39	-40.8	-42.6	17.9	0.00e+00	0	29	0	995098624	54	6883
2026-01-18 03:37:06.66	330.70	3.34	-42.1	-44.4	16.4	0.00e+00	90	29	0	997195776	56	7571
2026-01-18 03:37:07.38	330.78	3.31	-41.6	-43.7	16.4	0.00e+00	0	29	0	999292928	56	6979
2026-01-18 03:37:08.68	330.93	3.26	-41.6	-43.9	16.2	0.00e+00	0	29	0	1001390080	56	7105
2026-01-18 03:37:09.40	331.02	3.23	-42.5	-45.5	14.3	0.00e+00	0	29	0	1002438656	56	8603
2026-01-18 03:37:10.70	331.17	3.18	-42.6	-45.7	13.9	6.10e-06	0	29	0	1005584384	58	7852
2026-01-18 03:37:11.42	331.25	3.16	-43.1	-47.0	12.6	3.00e-06	0	29	0	1006632960	58	9119
2026-01-18 03:37:12.72	331.40	3.11	-43.1	-47.4	11.2	2.97e-04	0	29	0	1008730112	58	9544
2026-01-18 03:37:13.44	331.48	3.08	-43.3	-48.5	10.1	2.32e-03	0	29	0	1010827264	58	10732
2026-01-18 03:37:14.74	331.63	3.03	-43.6	-49.7	7.9	1.92e-02	0	29	0	1012924416	58	12420
2026-01-18 03:37:15.46	331.71	3.00	-43.7	-50.8	7.1	1.26e-01	63	29	0	1013972992	58	14002
2026-01-18 03:37:16.76	331.86	2.95	-47.6	-62.7	3.6	1.51e+00	0	29	104	1015021568	60	49407
2026-01-18 03:37:17.48	331.94	2.92	-47.6	-62.8	3.6	1.51e+00	0	29	104	1015021568	60	49928
2026-01-18 03:37:18.78	332.09	2.87	-47.9	-63.0	3.6	1.51e+00	0	29	104	1015021568	60	51291
2026-01-18 03:37:19.50	332.17	2.84	-48.3	-63.5	3.6	1.51e+00	0	29	104	1015021568	60	53808
2026-01-18 03:37:20.80	332.31	2.79	-48.4	-63.6	3.6	1.51e+00	0	29	104	1015021568	60	54615
2026-01-18 03:37:21.52	332.39	2.76	-48.6	-63.8	3.6	1.51e+00	0	29	104	1015021568	60	55871
2026-01-18 03:37:22.82	332.54	2.71	-48.7	-63.8	3.6	1.51e+00	0	29	104	1015021568	60	56249
2026-01-18 03:37:23.54	332.62	2.68	-48.7	-63.8	3.6	1.51e+00	0	29	104	1015021568	60	56202
2026-01-18 03:37:24.84	332.76	2.63	-48.8	-64.0	3.6	1.51e+00	0	29	104	1015021568	60	57534
2026-01-18 03:37:25.56	332.84	2.60	-48.8	-64.0	3.6	1.51e+00	0	29	104	1015021568	60	57101
2026-01-18 03:37:26.86	332.99	2.55	-48.9	-64.0	3.6	1.51e+00	0	29	104	1015021568	60	57555
2026-01-18 03:37:27.58	333.07	2.52	-48.9	-64.0	3.6	1.51e+00	0	29	104	1015021568	60	57513
2026-01-18 03:37:28.88	333.21	2.47	-48.9	-64.1	3.6	1.51e+00	0	29	104	1015021568	60	57824
2026-01-18 03:37:29.60	333.29	2.44	-49.1	-64.3	3.6	1.51e+00	0	29	104	1015021568	60	59006
2026-01-18 03:37:30.90	333.43	2.39	-48.8	-64.1	3.6	1.51e+00	0	29	104	1015021568	60	57816
2026-01-18 03:37:31.62	333.51	2.36	-48.8	-64.1	3.6	1.51e+00	0	29	104	1015021568	60	58145
2026-01-18 03:37:32.92	333.65	2.31	-48.9	-64.1	3.6	1.51e+00	0	29	104	1015021568	60	58142
2026-01-18 03:37:33.64	333.73	2.28	-48.8	-64.0	3.6	1.51e+00	0	29	104	1015021568	60	57363
2026-01-18 03:37:34.94	333.87	2.23	-49.1	-64.3	3.6	1.51e+00	0	29	104	1015021568	60	59152
2026-01-18 03:37:35.66	333.95	2.20	-49.0	-64.2	3.6	1.51e+00	0	29	104	1015021568	60	58547
2026-01-18 03:37:36.96	334.09	2.15	-48.8	-64.0	3.6	1.51e+00	0	29	104	1015021568	60	57442
2026-01-18 03:37:37.69	334.16	2.12	-48.8	-64.0	3.6	1.51e+00	0	29	104	1015021568	60	56969
2026-01-18 03:37:38.98	334.30	2.07	-49.0	-64.2	3.6	1.51e+00	0	29	104	1015021568	60	58587
2026-01-18 03:37:39.70	334.38	2.04	-48.9	-64.1	3.6	1.51e+00	0	29	104	1015021568	60	57699
2026-01-18 03:37:41.00	334.52	1.99	-48.8	-64.0	3.6	1.51e+00	0	29	104	1015021568	60	57176
2026-01-18 03:37:41.72	334.60	1.96	-48.9	-64.1	3.6	1.51e+00	0	29	104	1015021568	60	57717
2026-01-18 03:37:43.02	334.73	1.91	-48.8	-64.0	3.6	1.51e+00	0	29	104	1015021568	60	57436
2026-01-18 03:37:43.74	334.81	1.88	-48.9	-64.1	3.6	1.51e+00	0	29	104	1015021568	60	58033
2026-01-18 03:37:45.04	334.95	1.83	-48.9	-64.0	3.6	1.51e+00	0	29	104	1015021568	60	57540
2026-01-18 03:37:45.76	335.02	1.80	-49.3	-64.5	3.6	1.51e+00	0	29	104	1015021568	60	60828
2026-01-18 03:37:47.06	335.16	1.75	-49.0	-64.2	3.6	1.51e+00	0	29	104	1015021568	60	58337
2026-01-18 03:37:47.78	335.23	1.72	-49.0	-64.2	3.6	1.51e+00	0	29	104	1015021568	60	58408
2026-01-18 03:37:49.08	335.37	1.67	-49.2	-64.4	3.6	1.51e+00	0	29	104	1015021568	60	59964
2026-01-18 03:37:49.80	335.44	1.64	-49.2	-64.4	3.6	1.51e+00	0	29	104	1015021568	60	59664
2026-01-18 03:37:51.10	335.58	1.59	-49.0	-64.2	3.6	1.51e+00	0	29	104	1015021568	60	58702
2026-01-18 03:37:51.82	335.65	1.56	-49.3	-64.5	3.6	1.51e+00	0	29	104	1015021568	60	60454
2026-01-18 03:37:53.12	335.79	1.51	-48.9	-64.1	3.5	1.51e+00	0	29	104	1015021568	60	57850
2026-01-18 03:37:53.84	335.86	1.48	-49.1	-64.3	3.6	1.51e+00	0	29	104	1015021568	60	59134
2026-01-18 03:37:55.14	336.00	1.43	-48.9	-64.1	3.6	1.51e+00	0	29	104	1015021568	60	57620
2026-01-18 03:37:55.86	336.07	1.40	-48.9	-64.1	3.6	1.51e+00	0	29	104	1015021568	60	58125
2026-01-18 03:37:57.16	336.20	1.35	-48.8	-64.0	3.6	1.51e+00	0	29	104	1015021568	60	57025
2026-01-18 03:37:57.88	336.28	1.32	-48.8	-63.9	3.6	1.51e+00	0	29	104	1015021568	60	56805
2026-01-18 03:37:59.18	336.41	1.27	-48.8	-63.9	3.6	1.51e+00	0	29	104	1015021568	60	56891
2026-01-18 03:37:59.90	336.48	1.24	-48.9	-64.0	3.6	1.51e+00	0	29	104	1015021568	60	57502
2026-01-18 03:38:01.19	336.61	1.19	-49.2	-64.3	3.6	1.51e+00	0	29	104	1015021568	60	59638
2026-01-18 03:38:01.91	336.69	1.16	-49.1	-64.3	3.6	1.51e+00	0	29	104	1015021568	60	59047
2026-01-18 03:38:03.21	336.82	1.11	-48.9	-64.1	3.6	1.51e+00	0	29	104	1015021568	60	58119
2026-01-18 03:38:03.94	336.89	1.08	-48.8	-64.0	3.6	1.51e+00	0	29	104	1015021568	60	57274
2026-01-18 03:38:05.23	337.02	1.02	-48.9	-64.1	3.6	1.51e+00	0	29	104	1015021568	60	57833
2026-01-18 03:38:05.95	337.09	1.00	-49.0	-64.1	3.6	1.51e+00	0	29	104	1015021568	60	58192
2026-01-18 03:38:07.25	337.22	0.94	-49.3	-64.4	3.6	1.51e+00	0	29	104	1015021568	60	60296
2026-01-18 03:38:07.97	337.29	0.91	-49.3	-64.5	3.6	1.51e+00	0	29	104	1015021568	60	60676
2026-01-18 03:38:09.27	337.42	0.86	-49.3	-64.4	3.6	1.51e+00	0	29	104	1015021568	60	60296
2026-01-18 03:38:09.99	337.49	0.83	-48.8	-64.0	3.6	1.51e+00	0	29	104	1015021568	60	57368
2026-01-18 03:38:11.29	337.62	0.78	-49.2	-64.4	3.6	1.51e+00	0	29	104	1015021568	60	59872
2026-01-18 03:38:12.01	337.69	0.75	-49.1	-64.3	3.6	1.51e+00	0	29	104	1015021568	60	59298
2026-01-18 03:38:13.31	337.82	0.70	-49.0	-64.2	3.6	1.51e+00	0	29	104	1015021568	60	58296
2026-01-18 03:38:14.03	337.89	0.67	-49.0	-64.2	3.6	1.51e+00	0	29	104	1015021568	60	58403
2026-01-18 03:38:15.33	338.02	0.62	-49.4	-64.5	3.6	1.51e+00	0	29	104	1015021568	60	60916
2026-01-18 03:38:16.05	338.09	0.59	-49.0	-64.2	3.6	1.51e+00	0	29	104	1015021568	60	58379
2026-01-18 03:38:17.35	338.21	0.54	-48.9	-64.1	3.6	1.51e+00	0	29	104	1015021568	60	58000
2026-01-18 03:38:18.07	338.28	0.51	-49.2	-64.3	3.6	1.51e+00	0	29	104	1015021568	60	59248
2026-01-18 03:38:19.37	338.41	0.46	-49.1	-64.3	3.6	1.51e+00	0	29	104	1015021568	60	59408
2026-01-18 03:38:20.09	338.48	0.43	-49.4	-64.6	3.6	1.51e+00	0	29	104	1015021568	60	61364
2026-01-18 03:38:21.39	338.60	0.37	-49.0	-64.2	3.6	1.51e+00	0	29	104	1015021568	60	58303
2026-01-18 03:38:22.11	338.67	0.35	-49.1	-64.3	3.6	1.51e+00	0	29	104	1015021568	60	59159
2026-01-18 03:38:23.41	338.80	0.29	-48.8	-64.0	3.6	1.51e+00	0	29	104	1015021568	60	57417
2026-01-18 03:38:24.13	338.86	0.26	-48.9	-64.1	3.6	1.51e+00	0	29	104	1015021568	60	57824
2026-01-18 03:38:25.43	338.99	0.21	-49.1	-64.3	3.6	1.51e+00	0	29	104	1015021568	60	59226
2026-01-18 03:38:26.15	339.06	0.18	-49.0	-64.2	3.6	1.51e+00	0	29	104	1015021568	60	58375
2026-01-18 03:38:27.45	339.18	0.13	-48.9	-64.1	3.6	1.51e+00	0	29	104	1015021568	60	58241
2026-01-18 03:38:28.17	339.25	0.10	-49.9	-65.1	3.6	1.51e+00	0	29	104	1015021568	60	64660
2026-01-18 03:38:29.47	339.37	0.05	-49.0	-64.2	3.6	1.51e+00	0	29	104	1015021568	60	58578
2026-01-18 03:38:30.19	339.44	0.02	-49.9	-65.2	3.5	1.51e+00	0	29	104	1015021568	60	65536
2026-01-18 03:38:31.48	339.56	-0.03	-49.8	-65.0	3.6	1.51e+00	0	29	104	1015021568	60	63920
2026-01-18 03:38:32.20	339.63	-0.06	-49.2	-64.4	3.6	1.51e+00	0	29	104	1015021568	60	60190

#Closed at: 2026-01-18 03:38:33
#Recorded file [1015 MB]: D:/lorett/data/35029_260118_152702.dat