passes_logs/2026/01/18/R4.6S_Anadyr/R4.6S_Anadyr__20260118_134806_SUOMI_NPP_rec.log

#Pass ID: 20260118_134806_SUOMI NPP
#Satellite: SUOMI NPP
#Configuration: NPP
#almurnet v.1.7.20251203
#Start time: 2026-01-18 13:48:08

#Version: 2.2.20231116
#Station: R4.6S_Anadyr
#Location: 177.4865 lon 64.73178 lat
#TLE: 1 37849U 11061A   26017.57099531  .00000072  00000+0  54974-4 0  9996
#TLE: 2 37849  98.7814 319.5974 0002398  59.1749 300.9663 14.19525865737072

#Time	Az	El	Level	Level2	SNR	BER	BlckErr	Temp	State	Recorded	gain1	gain2
2026-01-18 13:48:08.57	19.13	0.10	-49.4	-61.9	3.4	1.52e+00	0	33	0	0	60	43696
2026-01-18 13:48:09.58	19.16	0.15	-49.5	-64.7	3.6	1.51e+00	0	34	104	0	60	62314
2026-01-18 13:48:10.59	19.20	0.21	-49.5	-64.8	3.6	1.51e+00	0	34	104	0	60	62553
2026-01-18 13:48:11.59	19.23	0.27	-49.5	-64.8	3.6	1.51e+00	0	34	104	0	60	62901
2026-01-18 13:48:12.60	19.27	0.33	-49.5	-64.8	3.6	1.51e+00	0	34	104	0	60	62814
2026-01-18 13:48:13.61	19.30	0.39	-49.6	-64.8	3.6	1.51e+00	0	34	104	0	60	63051
2026-01-18 13:48:14.62	19.34	0.45	-49.6	-64.8	3.6	1.51e+00	0	35	104	0	60	62963
2026-01-18 13:48:15.63	19.37	0.51	-49.7	-64.8	3.6	1.51e+00	0	35	104	0	60	63170
2026-01-18 13:48:16.64	19.41	0.56	-49.7	-64.8	3.6	1.51e+00	0	35	104	0	60	62961
2026-01-18 13:48:17.64	19.44	0.62	-49.6	-64.8	3.6	1.51e+00	0	35	104	0	60	63058
2026-01-18 13:48:18.65	19.48	0.68	-49.7	-64.9	3.6	1.51e+00	0	34	104	0	60	63308
2026-01-18 13:48:19.66	19.51	0.74	-49.7	-64.9	3.5	1.51e+00	0	35	104	0	60	63251
2026-01-18 13:48:20.67	19.55	0.80	-49.6	-64.9	3.6	1.51e+00	0	34	104	0	60	63211
2026-01-18 13:48:21.68	19.59	0.86	-49.6	-64.8	3.6	1.51e+00	0	34	104	0	60	62727
2026-01-18 13:48:22.69	19.62	0.92	-49.5	-64.7	3.6	1.51e+00	0	35	104	0	60	62293
2026-01-18 13:48:23.70	19.66	0.98	-49.5	-64.7	3.6	1.51e+00	0	35	104	0	60	61884
2026-01-18 13:48:24.70	19.69	1.04	-49.4	-64.6	3.6	1.51e+00	0	35	104	0	60	61716
2026-01-18 13:48:25.72	19.73	1.10	-49.3	-64.5	3.6	1.51e+00	0	35	104	0	60	60871
2026-01-18 13:48:26.72	19.77	1.16	-49.2	-64.4	3.6	1.51e+00	0	35	104	0	60	59933
2026-01-18 13:48:27.74	19.80	1.22	-48.9	-64.3	3.6	1.51e+00	0	35	104	0	60	58999
2026-01-18 13:48:28.74	19.84	1.28	-48.9	-64.1	3.6	1.51e+00	0	35	104	0	60	58151
2026-01-18 13:48:29.75	19.88	1.34	-48.8	-64.0	3.6	1.51e+00	0	35	104	0	60	57464
2026-01-18 13:48:30.76	19.91	1.40	-48.7	-63.9	3.6	1.51e+00	0	35	104	0	60	56699
2026-01-18 13:48:31.77	19.95	1.46	-48.5	-63.6	3.6	1.51e+00	0	35	104	0	60	54996
2026-01-18 13:48:32.78	19.99	1.52	-48.2	-63.3	3.6	1.51e+00	0	35	104	0	60	53121
2026-01-18 13:48:33.79	20.03	1.58	-48.1	-63.3	3.6	1.51e+00	0	35	104	0	60	52660
2026-01-18 13:48:34.80	20.06	1.65	-48.1	-63.3	3.6	1.51e+00	0	35	104	0	60	52600
2026-01-18 13:48:35.81	20.10	1.71	-48.1	-63.3	3.6	1.51e+00	0	35	104	0	60	52661
2026-01-18 13:48:36.81	20.14	1.77	-48.1	-63.4	3.6	1.51e+00	0	35	104	0	60	53207
2026-01-18 13:48:37.82	20.18	1.83	-48.1	-63.3	3.6	1.51e+00	0	35	104	0	60	52690
2026-01-18 13:48:38.83	20.21	1.89	-48.1	-63.3	3.6	1.51e+00	0	35	104	0	60	52820
2026-01-18 13:48:39.84	20.25	1.95	-48.1	-63.2	3.6	1.51e+00	0	35	104	0	60	52453
2026-01-18 13:48:40.85	20.29	2.01	-48.1	-63.2	3.6	1.51e+00	0	35	104	0	60	52542
2026-01-18 13:48:41.86	20.33	2.08	-48.1	-63.2	3.6	1.51e+00	0	35	104	0	60	52053
2026-01-18 13:48:42.87	20.37	2.14	-48.1	-62.9	3.6	1.51e+00	0	35	104	0	60	50256
2026-01-18 13:48:43.88	20.41	2.20	-48.1	-62.3	3.6	1.51e+00	0	35	104	0	60	47081
2026-01-18 13:48:44.89	20.45	2.26	-48.0	-61.9	3.6	1.51e+00	0	35	104	0	60	45015
2026-01-18 13:48:45.89	20.48	2.32	-48.0	-61.6	3.6	1.51e+00	0	35	104	0	60	43349
2026-01-18 13:48:46.90	20.52	2.39	-48.0	-61.6	3.6	1.51e+00	0	35	104	0	60	43559
2026-01-18 13:48:47.91	20.56	2.45	-48.0	-61.9	3.6	1.51e+00	0	35	104	0	60	45229
2026-01-18 13:48:48.91	20.60	2.51	-48.1	-62.6	3.5	1.51e+00	0	35	104	0	60	48955
2026-01-18 13:48:49.92	20.64	2.57	-48.1	-62.4	3.6	1.51e+00	0	35	104	0	60	47632
2026-01-18 13:48:50.93	20.68	2.64	-47.9	-60.2	3.9	1.51e+00	0	35	104	0	60	37093
2026-01-18 13:48:51.94	20.72	2.70	-47.6	-55.6	6.0	5.96e-01	0	35	0	1048576	60	21903
2026-01-18 13:48:52.95	20.76	2.76	-47.1	-53.4	8.4	1.33e-01	91	35	0	2097152	60	16967
2026-01-18 13:48:53.96	20.80	2.83	-46.2	-50.8	11.3	1.53e-02	0	35	0	4194304	60	12503
2026-01-18 13:48:54.97	20.84	2.89	-45.4	-48.9	13.3	2.89e-05	0	35	0	6291456	60	10015
2026-01-18 13:48:55.98	20.88	2.96	-44.6	-47.5	14.8	0.00e+00	0	35	0	8388608	60	8547
2026-01-18 13:48:56.99	20.92	3.02	-43.7	-46.0	16.3	0.00e+00	0	35	0	10485760	60	7232
2026-01-18 13:48:57.99	20.96	3.08	-43.1	-45.2	17.0	0.00e+00	0	35	0	11534336	60	6611
2026-01-18 13:48:59.00	21.01	3.15	-43.0	-45.1	17.1	0.00e+00	0	35	0	13631488	60	6484
2026-01-18 13:49:00.01	21.05	3.21	-42.9	-45.0	17.2	0.00e+00	76	35	0	15728640	58	7176
2026-01-18 13:49:01.02	21.09	3.28	-43.2	-45.3	16.8	0.00e+00	0	35	0	17825792	58	7454
2026-01-18 13:49:02.03	21.13	3.34	-43.5	-45.8	16.3	0.00e+00	0	35	0	19922944	58	7936
2026-01-18 13:49:03.03	21.17	3.40	-44.4	-47.1	15.2	0.00e+00	0	35	0	20971520	60	8175
2026-01-18 13:49:04.04	21.21	3.47	-45.3	-48.7	13.4	7.00e-07	0	35	0	23068672	60	9879
2026-01-18 13:49:05.05	21.25	3.53	-46.1	-50.5	11.3	3.35e-04	0	35	0	25165824	60	12158
2026-01-18 13:49:06.06	21.30	3.60	-47.0	-53.0	8.4	1.12e-02	0	35	0	27262976	60	16195
2026-01-18 13:49:07.07	21.34	3.66	-43.8	-46.1	16.1	1.83e-03	66	35	0	29360128	60	7310
2026-01-18 13:49:08.08	21.38	3.73	-47.9	-61.5	3.6	9.73e-01	0	35	104	30408704	60	43206
2026-01-18 13:49:09.09	21.42	3.80	-48.0	-59.0	3.8	1.04e-01	4	35	0	30408704	60	32100
2026-01-18 13:49:10.10	21.47	3.86	-45.7	-49.3	13.4	9.36e-02	0	35	0	31457280	60	10499
2026-01-18 13:49:11.10	21.51	3.93	-48.1	-62.0	3.6	1.50e+00	0	35	104	32505856	60	45398
2026-01-18 13:49:12.11	21.55	3.99	-45.3	-48.6	13.1	1.08e+00	51	35	104	32505856	60	9763
2026-01-18 13:49:13.12	21.60	4.06	-45.2	-48.4	13.8	2.89e-05	0	35	0	32505856	60	9485
2026-01-18 13:49:14.13	21.64	4.13	-45.5	-49.0	13.8	6.10e-06	23	35	0	34603008	60	10205
2026-01-18 13:49:15.14	21.68	4.19	-45.4	-48.8	13.5	9.10e-06	0	35	0	36700160	60	9972
2026-01-18 13:49:16.15	21.73	4.26	-45.6	-49.2	13.2	1.90e-05	23	35	0	38797312	60	10462
2026-01-18 13:49:17.16	21.77	4.33	-45.3	-48.5	13.8	8.30e-06	0	35	0	40894464	60	9661
2026-01-18 13:49:18.16	21.82	4.39	-45.4	-48.8	13.4	1.83e-05	0	35	0	41943040	60	9990
2026-01-18 13:49:19.17	21.86	4.46	-45.4	-48.8	13.7	3.00e-06	0	35	0	44040192	60	9942
2026-01-18 13:49:20.18	21.90	4.53	-45.4	-48.8	14.0	2.20e-06	0	35	0	46137344	60	9965
2026-01-18 13:49:21.19	21.95	4.59	-45.2	-48.3	14.1	3.80e-06	49	35	0	48234496	60	9349
2026-01-18 13:49:22.20	21.99	4.66	-45.5	-48.9	13.9	1.14e-05	0	35	0	50331648	60	10029
2026-01-18 13:49:23.21	22.04	4.73	-45.0	-48.0	14.4	1.44e-05	91	35	0	52428800	60	9057
2026-01-18 13:49:24.22	22.08	4.80	-45.0	-47.9	14.8	1.50e-06	0	35	0	53477376	60	8992
2026-01-18 13:49:25.23	22.13	4.86	-44.5	-47.2	15.2	0.00e+00	0	35	0	55574528	60	8246
2026-01-18 13:49:26.23	22.18	4.93	-44.4	-47.0	15.5	0.00e+00	0	35	0	57671680	60	8094
2026-01-18 13:49:27.24	22.22	5.00	-44.8	-47.6	15.1	0.00e+00	0	35	0	59768832	60	8640
2026-01-18 13:49:28.25	22.27	5.07	-43.9	-46.2	16.4	0.00e+00	0	35	0	61865984	60	7357
2026-01-18 13:49:29.26	22.31	5.14	-43.4	-45.5	17.1	0.00e+00	0	35	0	62914560	60	6806
2026-01-18 13:49:30.27	22.36	5.21	-43.0	-45.0	17.6	0.00e+00	92	35	0	65011712	60	6408
2026-01-18 13:49:31.28	22.41	5.28	-42.9	-44.7	17.8	0.00e+00	0	35	0	67108864	60	6232
2026-01-18 13:49:32.29	22.45	5.35	-42.7	-44.5	18.1	0.00e+00	0	35	0	69206016	58	6803
2026-01-18 13:49:33.30	22.50	5.41	-42.3	-44.0	18.6	0.00e+00	0	35	0	71303168	58	6424
2026-01-18 13:49:34.31	22.55	5.48	-42.3	-44.0	18.6	0.00e+00	0	35	0	72351744	58	6402
2026-01-18 13:49:35.32	22.60	5.55	-42.3	-44.0	18.5	0.00e+00	0	36	0	74448896	58	6411
2026-01-18 13:49:36.33	22.64	5.62	-42.0	-43.7	18.7	0.00e+00	0	36	0	76546048	58	6195
2026-01-18 13:49:37.34	22.69	5.69	-42.2	-43.9	18.6	0.00e+00	68	35	0	78643200	58	6352
2026-01-18 13:49:38.35	22.74	5.76	-42.0	-43.6	18.9	0.00e+00	0	35	0	80740352	58	6104
2026-01-18 13:49:39.36	22.79	5.83	-42.1	-43.7	18.8	0.00e+00	0	35	0	81788928	58	6209
2026-01-18 13:49:40.36	22.84	5.90	-42.2	-43.8	18.7	0.00e+00	0	35	0	83886080	58	6284
2026-01-18 13:49:41.38	22.89	5.98	-41.9	-43.5	19.0	0.00e+00	0	35	0	85983232	58	6077
2026-01-18 13:49:42.38	22.93	6.05	-42.1	-43.8	18.7	0.00e+00	89	35	0	88080384	58	6260
2026-01-18 13:49:43.39	22.98	6.12	-42.1	-43.8	18.8	0.00e+00	0	35	0	90177536	58	6275
2026-01-18 13:49:44.40	23.03	6.19	-41.8	-43.4	19.1	0.00e+00	90	35	0	91226112	58	5965
2026-01-18 13:49:45.41	23.08	6.26	-42.0	-43.6	18.9	0.00e+00	0	35	0	93323264	58	6162
2026-01-18 13:49:46.42	23.13	6.33	-41.8	-43.3	19.1	0.00e+00	17	35	0	95420416	58	5964
2026-01-18 13:49:47.43	23.18	6.40	-41.9	-43.5	19.2	0.00e+00	0	35	0	97517568	58	6035
2026-01-18 13:49:48.43	23.23	6.48	-41.8	-43.4	19.2	0.00e+00	0	35	0	99614720	56	6697
2026-01-18 13:49:49.44	23.28	6.55	-41.9	-43.5	19.1	0.00e+00	0	35	0	100663296	56	6786
2026-01-18 13:49:50.45	23.33	6.62	-41.8	-43.4	19.2	0.00e+00	0	35	0	102760448	56	6695
2026-01-18 13:49:51.46	23.38	6.69	-41.8	-43.3	19.3	0.00e+00	90	35	0	104857600	56	6655
2026-01-18 13:49:52.47	23.44	6.77	-41.8	-43.3	19.4	0.00e+00	0	35	0	106954752	56	6635
2026-01-18 13:49:53.47	23.49	6.84	-41.7	-43.1	19.4	0.00e+00	87	35	0	109051904	56	6534
2026-01-18 13:49:54.48	23.54	6.91	-41.5	-42.9	19.7	0.00e+00	0	35	0	110100480	56	6364
2026-01-18 13:49:55.49	23.59	6.98	-41.7	-43.2	19.4	0.00e+00	0	35	0	112197632	56	6587
2026-01-18 13:49:56.50	23.64	7.06	-41.6	-43.1	19.6	0.00e+00	0	35	0	114294784	56	6493
2026-01-18 13:49:57.51	23.69	7.13	-41.5	-42.9	19.7	0.00e+00	0	35	0	116391936	56	6373
2026-01-18 13:49:58.52	23.75	7.21	-41.6	-43.0	19.7	0.00e+00	0	35	0	118489088	56	6427
2026-01-18 13:49:59.53	23.80	7.28	-41.4	-42.8	19.8	0.00e+00	0	35	0	119537664	56	6307
2026-01-18 13:50:00.54	23.85	7.35	-41.5	-43.0	19.8	0.00e+00	85	36	0	121634816	56	6403
2026-01-18 13:50:01.55	23.91	7.43	-41.5	-42.9	19.8	0.00e+00	0	35	0	123731968	56	6340
2026-01-18 13:50:02.56	23.96	7.50	-41.6	-43.0	19.7	0.00e+00	0	35	0	125829120	56	6442
2026-01-18 13:50:03.56	24.01	7.58	-41.3	-42.7	19.9	0.00e+00	0	35	0	127926272	56	6196
2026-01-18 13:50:04.57	24.07	7.65	-41.4	-42.8	19.9	0.00e+00	0	35	0	128974848	56	6309
2026-01-18 13:50:05.58	24.12	7.73	-41.5	-42.9	19.8	0.00e+00	87	35	0	131072000	56	6376
2026-01-18 13:50:06.59	24.18	7.80	-41.3	-42.7	20.0	0.00e+00	0	35	0	133169152	56	6191
2026-01-18 13:50:07.60	24.23	7.88	-41.5	-42.9	20.0	0.00e+00	90	35	0	135266304	56	6340
2026-01-18 13:50:08.61	24.29	7.95	-41.2	-42.6	20.1	0.00e+00	0	36	0	137363456	56	6116
2026-01-18 13:50:09.62	24.34	8.03	-41.4	-42.8	20.0	0.00e+00	0	36	0	138412032	56	6271
2026-01-18 13:50:10.63	24.40	8.11	-41.5	-42.9	19.9	0.00e+00	0	36	0	140509184	56	6328
2026-01-18 13:50:11.63	24.45	8.18	-41.5	-42.8	19.9	0.00e+00	0	35	0	142606336	56	6316
2026-01-18 13:50:12.64	24.51	8.26	-41.3	-42.7	20.0	0.00e+00	0	35	0	144703488	56	6192
2026-01-18 13:50:13.65	24.57	8.34	-41.3	-42.7	20.0	0.00e+00	0	35	0	146800640	56	6215
2026-01-18 13:50:14.66	24.62	8.41	-41.4	-42.7	20.0	0.00e+00	83	35	0	148897792	56	6231
2026-01-18 13:50:15.67	24.68	8.49	-41.2	-42.6	20.1	0.00e+00	0	35	0	149946368	56	6123
2026-01-18 13:50:16.68	24.74	8.57	-41.1	-42.4	20.4	0.00e+00	0	35	0	152043520	56	5983
2026-01-18 13:50:17.69	24.80	8.65	-41.1	-42.5	20.2	0.00e+00	0	35	0	154140672	56	6041
2026-01-18 13:50:18.70	24.85	8.73	-41.1	-42.4	20.4	0.00e+00	0	35	0	156237824	56	5986
2026-01-18 13:50:19.71	24.91	8.80	-41.2	-42.5	20.3	0.00e+00	41	35	0	158334976	56	6082
2026-01-18 13:50:20.72	24.97	8.88	-41.3	-42.7	20.1	0.00e+00	0	36	0	159383552	56	6208
2026-01-18 13:50:21.72	25.03	8.96	-40.8	-42.1	20.6	0.00e+00	4	36	0	161480704	56	5775
2026-01-18 13:50:22.73	25.09	9.04	-41.0	-42.3	20.4	0.00e+00	0	35	0	163577856	56	5953
2026-01-18 13:50:23.74	25.15	9.12	-40.9	-42.2	20.5	0.00e+00	92	35	0	165675008	56	5869
2026-01-18 13:50:24.74	25.21	9.20	-40.9	-42.2	20.5	0.00e+00	0	35	0	167772160	56	5875
2026-01-18 13:50:25.75	25.27	9.28	-40.9	-42.2	20.4	0.00e+00	0	35	0	168820736	56	5868
2026-01-18 13:50:26.76	25.33	9.36	-41.0	-42.3	20.6	0.00e+00	0	35	0	170917888	56	5898
2026-01-18 13:50:27.77	25.39	9.44	-40.9	-42.1	20.7	0.00e+00	0	35	0	173015040	56	5821
2026-01-18 13:50:28.78	25.45	9.52	-40.5	-41.7	21.0	0.00e+00	57	35	0	175112192	54	6195
2026-01-18 13:50:29.79	25.51	9.60	-40.3	-41.5	21.1	0.00e+00	0	35	0	177209344	54	6081
2026-01-18 13:50:30.80	25.57	9.68	-40.4	-41.6	21.0	0.00e+00	73	36	0	178257920	54	6145
2026-01-18 13:50:31.81	25.63	9.76	-40.2	-41.4	21.3	0.00e+00	0	35	0	180355072	54	6002
2026-01-18 13:50:32.82	25.69	9.84	-40.4	-41.6	21.1	0.00e+00	0	35	0	182452224	54	6164
2026-01-18 13:50:33.83	25.76	9.92	-40.4	-41.6	21.1	0.00e+00	0	36	0	184549376	54	6124
2026-01-18 13:50:34.84	25.82	10.00	-40.3	-41.5	21.2	0.00e+00	0	35	0	186646528	54	6056
2026-01-18 13:50:35.85	25.88	10.09	-40.0	-41.2	21.4	0.00e+00	89	36	0	187695104	54	5841
2026-01-18 13:50:36.85	25.94	10.17	-40.0	-41.1	21.6	0.00e+00	0	36	0	189792256	54	5767
2026-01-18 13:50:37.86	26.01	10.25	-40.0	-41.2	21.5	0.00e+00	89	36	0	191889408	54	5838
2026-01-18 13:50:38.87	26.07	10.33	-40.0	-41.1	21.5	0.00e+00	0	35	0	193986560	54	5781
2026-01-18 13:50:39.88	26.14	10.42	-39.9	-41.0	21.6	0.00e+00	0	36	0	196083712	54	5753
2026-01-18 13:50:40.88	26.20	10.50	-40.0	-41.2	21.4	0.00e+00	0	36	0	197132288	54	5847
2026-01-18 13:50:41.89	26.27	10.58	-39.8	-40.9	21.7	0.00e+00	0	36	0	199229440	54	5675
2026-01-18 13:50:42.89	26.33	10.67	-39.9	-41.0	21.6	0.00e+00	1	36	0	201326592	54	5731
2026-01-18 13:50:43.90	26.40	10.75	-40.0	-41.1	21.6	0.00e+00	0	36	0	203423744	54	5808
2026-01-18 13:50:44.91	26.46	10.83	-40.0	-41.1	21.6	0.00e+00	62	36	0	205520896	54	5818
2026-01-18 13:50:45.92	26.53	10.92	-39.8	-40.9	21.7	0.00e+00	0	35	0	206569472	54	5653
2026-01-18 13:50:46.93	26.60	11.00	-40.0	-41.1	21.6	0.00e+00	0	36	0	208666624	54	5785
2026-01-18 13:50:47.94	26.66	11.09	-39.8	-40.9	21.7	0.00e+00	0	35	0	210763776	54	5664
2026-01-18 13:50:48.95	26.73	11.17	-39.8	-40.8	21.8	0.00e+00	0	35	0	212860928	52	6312
2026-01-18 13:50:49.96	26.80	11.26	-39.7	-40.8	21.9	0.00e+00	1	35	0	214958080	52	6246
2026-01-18 13:50:50.97	26.87	11.35	-39.8	-40.9	21.8	0.00e+00	0	36	0	216006656	52	6357
2026-01-18 13:50:51.97	26.93	11.43	-39.7	-40.8	21.8	0.00e+00	91	36	0	218103808	52	6265
2026-01-18 13:50:52.98	27.00	11.52	-39.7	-40.7	22.0	0.00e+00	0	35	0	220200960	52	6230
2026-01-18 13:50:53.99	27.07	11.60	-39.6	-40.7	22.0	0.00e+00	25	36	0	222298112	52	6209
2026-01-18 13:50:55.00	27.14	11.69	-39.4	-40.5	22.1	0.00e+00	0	36	0	224395264	52	6048
2026-01-18 13:50:56.01	27.21	11.78	-39.4	-40.4	22.2	0.00e+00	0	36	0	225443840	52	6027
2026-01-18 13:50:57.02	27.28	11.87	-39.3	-40.3	22.3	0.00e+00	0	36	0	227540992	52	5918
2026-01-18 13:50:58.03	27.35	11.95	-39.2	-40.2	22.3	0.00e+00	0	36	0	229638144	52	5857
2026-01-18 13:50:59.04	27.43	12.04	-39.2	-40.2	22.4	0.00e+00	88	35	0	231735296	52	5841
2026-01-18 13:51:00.05	27.50	12.13	-39.4	-40.4	22.3	0.00e+00	0	35	0	233832448	52	6004
2026-01-18 13:51:01.06	27.57	12.22	-39.0	-40.0	22.6	0.00e+00	74	35	0	234881024	52	5734
2026-01-18 13:51:02.06	27.64	12.31	-38.9	-39.8	22.8	0.00e+00	0	35	0	236978176	52	5600
2026-01-18 13:51:03.07	27.72	12.40	-38.8	-39.8	22.7	0.00e+00	0	36	0	239075328	52	5572
2026-01-18 13:51:04.08	27.79	12.49	-38.6	-39.5	23.0	0.00e+00	0	35	0	241172480	50	6060
2026-01-18 13:51:05.09	27.86	12.58	-38.8	-39.8	22.8	0.00e+00	0	35	0	243269632	50	6279
2026-01-18 13:51:06.10	27.94	12.67	-38.7	-39.6	22.8	0.00e+00	65	36	0	245366784	50	6157
2026-01-18 13:51:07.11	28.01	12.76	-38.6	-39.6	22.8	0.00e+00	0	36	0	246415360	50	6119
2026-01-18 13:51:08.11	28.09	12.85	-38.7	-39.7	22.8	0.00e+00	56	36	0	248512512	50	6206
2026-01-18 13:51:09.12	28.16	12.94	-38.7	-39.7	22.9	0.00e+00	0	36	0	250609664	50	6176
2026-01-18 13:51:10.13	28.24	13.03	-38.6	-39.5	22.9	0.00e+00	0	36	0	252706816	50	6066
2026-01-18 13:51:11.14	28.31	13.12	-38.9	-39.8	22.8	0.00e+00	0	35	0	254803968	50	6299
2026-01-18 13:51:12.15	28.39	13.21	-38.6	-39.6	22.9	0.00e+00	0	36	0	255852544	50	6131
2026-01-18 13:51:13.16	28.47	13.30	-38.8	-39.8	22.8	0.00e+00	65	36	0	257949696	50	6293
2026-01-18 13:51:14.17	28.55	13.40	-38.7	-39.7	22.8	0.00e+00	0	36	0	260046848	50	6185
2026-01-18 13:51:15.18	28.62	13.49	-38.7	-39.7	22.8	0.00e+00	90	36	0	262144000	50	6218
2026-01-18 13:51:16.19	28.70	13.58	-38.7	-39.7	22.9	0.00e+00	0	36	0	264241152	50	6208
2026-01-18 13:51:17.20	28.78	13.68	-38.7	-39.7	22.9	0.00e+00	11	36	0	265289728	50	6203
2026-01-18 13:51:18.21	28.86	13.77	-38.7	-39.7	22.9	0.00e+00	0	36	0	267386880	50	6224
2026-01-18 13:51:19.22	28.94	13.86	-39.0	-40.0	22.7	0.00e+00	0	36	0	269484032	50	6394
2026-01-18 13:51:20.22	29.02	13.96	-38.9	-39.9	22.8	0.00e+00	3	36	0	271581184	50	6372
2026-01-18 13:51:21.23	29.10	14.05	-38.9	-39.9	22.6	0.00e+00	30	36	0	273678336	50	6361
2026-01-18 13:51:22.24	29.18	14.15	-39.0	-40.0	22.6	0.00e+00	71	36	0	274726912	50	6454
2026-01-18 13:51:23.25	29.27	14.24	-38.7	-39.6	22.9	0.00e+00	0	36	0	276824064	50	6171
2026-01-18 13:51:24.26	29.35	14.34	-39.0	-40.0	22.7	0.00e+00	92	36	0	278921216	50	6403
2026-01-18 13:51:25.26	29.43	14.43	-38.8	-39.8	22.7	0.00e+00	0	36	0	281018368	50	6302
2026-01-18 13:51:26.27	29.51	14.53	-38.9	-39.9	22.8	0.00e+00	0	36	0	283115520	50	6343
2026-01-18 13:51:27.28	29.60	14.63	-38.8	-39.8	22.8	0.00e+00	0	36	0	284164096	50	6283
2026-01-18 13:51:28.29	29.68	14.72	-38.9	-39.9	22.7	0.00e+00	0	36	0	286261248	50	6329
2026-01-18 13:51:29.30	29.77	14.82	-38.8	-39.8	22.8	0.00e+00	0	36	0	288358400	50	6283
2026-01-18 13:51:30.31	29.85	14.92	-39.1	-40.1	22.6	0.00e+00	0	36	0	290455552	50	6514
2026-01-18 13:51:31.32	29.94	15.02	-39.1	-40.0	22.6	0.00e+00	90	36	0	292552704	50	6462
2026-01-18 13:51:32.33	30.03	15.12	-39.3	-40.3	22.5	0.00e+00	0	36	0	293601280	50	6626
2026-01-18 13:51:33.34	30.11	15.21	-39.4	-40.4	22.4	0.00e+00	0	36	0	295698432	50	6735
2026-01-18 13:51:34.35	30.20	15.31	-39.4	-40.4	22.5	0.00e+00	1	36	0	297795584	50	6717
2026-01-18 13:51:35.36	30.29	15.41	-39.4	-40.5	22.4	0.00e+00	0	36	0	299892736	50	6772
2026-01-18 13:51:36.36	30.38	15.51	-39.4	-40.4	22.4	0.00e+00	0	36	0	301989888	50	6719
2026-01-18 13:51:37.37	30.47	15.61	-39.6	-40.6	22.2	0.00e+00	0	36	0	303038464	50	6896
2026-01-18 13:51:38.38	30.56	15.71	-39.5	-40.5	22.2	0.00e+00	71	36	0	305135616	50	6826
2026-01-18 13:51:39.39	30.65	15.81	-39.6	-40.6	22.2	0.00e+00	0	36	0	307232768	50	6915
2026-01-18 13:51:40.40	30.74	15.91	-39.6	-40.7	22.1	0.00e+00	0	36	0	309329920	52	6199
2026-01-18 13:51:41.41	30.83	16.02	-39.3	-40.3	22.5	0.00e+00	0	36	0	311427072	52	5915
2026-01-18 13:51:42.41	30.92	16.12	-39.4	-40.5	22.3	0.00e+00	0	36	0	312475648	52	6042
2026-01-18 13:51:43.42	31.02	16.22	-39.5	-40.5	22.3	0.00e+00	87	36	0	314572800	52	6095
2026-01-18 13:51:44.43	31.11	16.32	-39.5	-40.5	22.3	0.00e+00	0	36	0	316669952	52	6079
2026-01-18 13:51:45.44	31.20	16.42	-39.4	-40.4	22.4	0.00e+00	69	36	0	318767104	52	6004
2026-01-18 13:51:46.44	31.30	16.53	-39.4	-40.4	22.4	0.00e+00	0	36	0	320864256	52	6016
2026-01-18 13:51:47.45	31.39	16.63	-39.5	-40.5	22.3	0.00e+00	0	36	0	321912832	52	6103
2026-01-18 13:51:48.46	31.49	16.73	-39.6	-40.6	22.2	0.00e+00	0	36	0	324009984	52	6148
2026-01-18 13:51:49.47	31.59	16.84	-39.5	-40.5	22.4	0.00e+00	0	36	0	326107136	52	6055
2026-01-18 13:51:50.48	31.68	16.94	-39.8	-40.8	22.2	0.00e+00	15	36	0	328204288	52	6290
2026-01-18 13:51:51.49	31.78	17.05	-39.5	-40.6	22.2	0.00e+00	0	36	0	330301440	52	6127
2026-01-18 13:51:52.50	31.88	17.15	-39.6	-40.6	22.4	0.00e+00	77	36	0	331350016	52	6148
2026-01-18 13:51:53.51	31.98	17.26	-39.7	-40.8	22.2	0.00e+00	0	36	0	333447168	52	6268
2026-01-18 13:51:54.51	32.08	17.37	-39.6	-40.7	22.2	0.00e+00	25	36	0	335544320	52	6195
2026-01-18 13:51:55.52	32.18	17.47	-39.5	-40.6	22.3	0.00e+00	0	36	0	337641472	52	6105
2026-01-18 13:51:56.53	32.28	17.58	-39.7	-40.8	22.1	0.00e+00	0	36	0	339738624	52	6274
2026-01-18 13:51:57.54	32.38	17.69	-39.6	-40.6	22.2	0.00e+00	0	36	0	341835776	52	6166
2026-01-18 13:51:58.55	32.49	17.79	-39.6	-40.7	22.2	0.00e+00	0	36	0	342884352	52	6211
2026-01-18 13:51:59.56	32.59	17.90	-39.6	-40.7	22.2	0.00e+00	55	36	0	344981504	52	6198
2026-01-18 13:52:00.57	32.69	18.01	-39.6	-40.6	22.3	0.00e+00	0	36	0	347078656	52	6139
2026-01-18 13:52:01.57	32.80	18.12	-39.6	-40.7	22.3	0.00e+00	89	36	0	349175808	52	6180
2026-01-18 13:52:02.58	32.90	18.23	-39.8	-40.9	21.9	0.00e+00	0	36	0	351272960	52	6342
2026-01-18 13:52:03.59	33.01	18.34	-40.0	-41.0	21.9	0.00e+00	0	36	0	352321536	52	6456
2026-01-18 13:52:04.60	33.12	18.45	-39.6	-40.6	22.3	0.00e+00	0	36	0	354418688	52	6158
2026-01-18 13:52:05.61	33.22	18.56	-39.6	-40.6	22.4	0.00e+00	0	36	0	356515840	52	6148
2026-01-18 13:52:06.62	33.33	18.67	-39.4	-40.4	22.5	0.00e+00	0	36	0	358612992	52	5970
2026-01-18 13:52:07.63	33.44	18.78	-39.6	-40.7	22.3	0.00e+00	0	36	0	359661568	52	6185
2026-01-18 13:52:08.64	33.55	18.89	-39.8	-40.8	22.1	0.00e+00	90	36	0	361758720	52	6287
2026-01-18 13:52:09.65	33.66	19.01	-39.4	-40.4	22.4	0.00e+00	0	36	0	363855872	52	5980
2026-01-18 13:52:10.66	33.77	19.12	-39.6	-40.6	22.3	0.00e+00	0	36	0	365953024	52	6171
2026-01-18 13:52:11.66	33.89	19.23	-39.6	-40.6	22.3	0.00e+00	0	36	0	368050176	52	6124
2026-01-18 13:52:12.67	34.00	19.34	-39.5	-40.5	22.2	0.00e+00	0	36	0	370147328	52	6051
2026-01-18 13:52:13.68	34.11	19.46	-39.7	-40.8	22.1	0.00e+00	0	36	0	371195904	52	6275
2026-01-18 13:52:14.69	34.23	19.57	-39.6	-40.6	22.3	0.00e+00	0	36	0	373293056	52	6128
2026-01-18 13:52:15.70	34.34	19.69	-39.7	-40.7	22.2	0.00e+00	92	36	0	375390208	52	6242
2026-01-18 13:52:16.71	34.46	19.80	-39.8	-40.9	22.2	0.00e+00	0	36	0	377487360	52	6342
2026-01-18 13:52:17.72	34.58	19.92	-40.0	-41.1	22.0	0.00e+00	0	36	0	379584512	52	6502
2026-01-18 13:52:18.73	34.70	20.03	-39.8	-40.9	22.0	0.00e+00	0	36	0	380633088	52	6340
2026-01-18 13:52:19.74	34.81	20.15	-39.5	-40.6	22.3	0.00e+00	0	36	0	382730240	52	6112
2026-01-18 13:52:20.74	34.93	20.27	-39.8	-40.8	22.2	0.00e+00	56	36	0	384827392	52	6295
2026-01-18 13:52:21.75	35.05	20.38	-39.8	-40.8	22.1	0.00e+00	0	36	0	386924544	52	6309
2026-01-18 13:52:22.76	35.18	20.50	-39.7	-40.8	22.1	0.00e+00	89	36	0	389021696	52	6278
2026-01-18 13:52:23.77	35.30	20.62	-39.8	-40.9	22.2	0.00e+00	0	36	0	390070272	52	6341
2026-01-18 13:52:24.78	35.42	20.74	-39.5	-40.5	22.5	0.00e+00	0	36	0	392167424	52	6064
2026-01-18 13:52:25.79	35.55	20.86	-39.4	-40.4	22.4	0.00e+00	0	36	0	394264576	52	6017
2026-01-18 13:52:26.79	35.67	20.98	-39.4	-40.4	22.5	0.00e+00	0	36	0	396361728	52	5969
2026-01-18 13:52:27.80	35.80	21.10	-39.7	-40.8	22.3	0.00e+00	41	36	0	398458880	52	6282
2026-01-18 13:52:28.81	35.92	21.22	-39.9	-41.0	22.0	0.00e+00	0	36	0	399507456	52	6436
2026-01-18 13:52:29.82	36.05	21.34	-39.8	-40.9	22.1	0.00e+00	86	36	0	401604608	52	6360
2026-01-18 13:52:30.83	36.18	21.46	-39.7	-40.7	22.2	0.00e+00	0	36	0	403701760	52	6219
2026-01-18 13:52:31.84	36.31	21.58	-39.7	-40.8	22.4	0.00e+00	92	36	0	405798912	52	6247
2026-01-18 13:52:32.84	36.44	21.70	-39.7	-40.7	22.2	0.00e+00	0	36	0	407896064	52	6214
2026-01-18 13:52:33.85	36.57	21.82	-39.6	-40.6	22.5	0.00e+00	0	36	0	408944640	52	6151
2026-01-18 13:52:34.86	36.71	21.95	-39.5	-40.5	22.3	0.00e+00	0	36	0	411041792	52	6103
2026-01-18 13:52:35.87	36.84	22.07	-39.6	-40.7	22.3	0.00e+00	0	36	0	413138944	52	6181
2026-01-18 13:52:36.88	36.98	22.20	-39.3	-40.3	22.5	0.00e+00	0	36	0	415236096	52	5954
2026-01-18 13:52:37.89	37.11	22.32	-39.5	-40.5	22.5	0.00e+00	0	36	0	417333248	52	6061
2026-01-18 13:52:38.90	37.25	22.44	-39.6	-40.6	22.3	0.00e+00	90	36	0	418381824	52	6152
2026-01-18 13:52:39.91	37.39	22.57	-39.6	-40.7	22.3	0.00e+00	0	36	0	420478976	52	6188
2026-01-18 13:52:40.91	37.53	22.69	-39.5	-40.5	22.4	0.00e+00	0	36	0	422576128	52	6098
2026-01-18 13:52:41.92	37.67	22.82	-39.6	-40.7	22.5	0.00e+00	0	36	0	424673280	52	6207
2026-01-18 13:52:42.93	37.81	22.95	-39.5	-40.6	22.6	0.00e+00	0	36	0	426770432	52	6108
2026-01-18 13:52:43.94	37.95	23.07	-39.5	-40.5	22.4	0.00e+00	86	36	0	427819008	52	6084
2026-01-18 13:52:44.95	38.10	23.20	-39.4	-40.5	22.5	0.00e+00	0	36	0	429916160	52	6045
2026-01-18 13:52:45.96	38.24	23.33	-39.3	-40.3	22.6	0.00e+00	90	36	0	432013312	52	5900
2026-01-18 13:52:46.97	38.39	23.46	-39.4	-40.4	22.5	0.00e+00	0	36	0	434110464	52	6012
2026-01-18 13:52:47.98	38.53	23.59	-39.3	-40.4	22.6	0.00e+00	0	36	0	436207616	52	5968
2026-01-18 13:52:48.99	38.68	23.72	-39.2	-40.2	22.8	0.00e+00	0	36	0	438304768	52	5853
2026-01-18 13:52:50.00	38.83	23.85	-39.3	-40.3	22.7	0.00e+00	0	36	0	439353344	52	5924
2026-01-18 13:52:51.00	38.98	23.98	-39.3	-40.3	22.6	0.00e+00	70	36	0	441450496	52	5961
2026-01-18 13:52:52.01	39.13	24.11	-39.3	-40.4	22.6	0.00e+00	0	36	0	443547648	52	5970
2026-01-18 13:52:53.02	39.29	24.24	-39.3	-40.3	22.7	0.00e+00	92	36	0	445644800	52	5954
2026-01-18 13:52:54.03	39.44	24.37	-39.5	-40.5	22.6	0.00e+00	0	36	0	446693376	52	6064
2026-01-18 13:52:55.04	39.60	24.50	-39.3	-40.3	22.7	0.00e+00	54	36	0	448790528	52	5936
2026-01-18 13:52:56.05	39.76	24.63	-39.3	-40.3	22.5	0.00e+00	0	36	0	450887680	52	5905
2026-01-18 13:52:57.06	39.91	24.77	-39.6	-40.6	22.5	0.00e+00	0	36	0	452984832	52	6149
2026-01-18 13:52:58.06	40.07	24.90	-39.7	-40.7	22.2	0.00e+00	0	36	0	455081984	52	6219
2026-01-18 13:52:59.07	40.23	25.03	-39.9	-40.9	22.5	0.00e+00	0	36	0	456130560	52	6380
2026-01-18 13:53:00.08	40.40	25.17	-39.8	-40.8	22.4	0.00e+00	42	36	0	458227712	52	6305
2026-01-18 13:53:01.09	40.56	25.30	-39.6	-40.7	22.3	0.00e+00	0	36	0	460324864	52	6179
2026-01-18 13:53:02.10	40.73	25.44	-39.4	-40.4	22.1	0.00e+00	92	36	0	462422016	52	6005
2026-01-18 13:53:03.11	40.89	25.57	-39.0	-40.0	22.7	0.00e+00	0	36	0	464519168	52	5700
2026-01-18 13:53:04.12	41.06	25.71	-39.0	-39.9	22.9	0.00e+00	0	36	0	466616320	52	5665
2026-01-18 13:53:05.12	41.23	25.85	-39.0	-40.0	22.9	0.00e+00	0	36	0	467664896	52	5711
2026-01-18 13:53:06.13	41.40	25.98	-39.2	-40.2	22.7	0.00e+00	0	36	0	469762048	52	5867
2026-01-18 13:53:07.14	41.57	26.12	-39.5	-40.5	22.4	0.00e+00	73	36	0	471859200	52	6047
2026-01-18 13:53:08.15	41.74	26.26	-40.0	-41.1	22.1	0.00e+00	0	36	0	473956352	52	6525
2026-01-18 13:53:09.16	41.92	26.40	-39.8	-40.9	22.2	0.00e+00	74	36	0	476053504	52	6363
2026-01-18 13:53:10.17	42.10	26.54	-40.2	-41.3	21.7	0.00e+00	0	36	0	477102080	52	6680
2026-01-18 13:53:11.18	42.27	26.68	-40.4	-41.5	21.6	0.00e+00	0	36	0	479199232	52	6819
2026-01-18 13:53:12.19	42.45	26.81	-40.2	-41.3	21.8	0.00e+00	0	36	0	481296384	52	6672
2026-01-18 13:53:13.20	42.64	26.96	-39.7	-40.7	22.4	0.00e+00	0	36	0	483393536	52	6236
2026-01-18 13:53:14.20	42.82	27.09	-39.3	-40.3	22.7	0.00e+00	92	36	0	485490688	52	5902
2026-01-18 13:53:15.21	43.00	27.24	-39.2	-40.1	22.8	0.00e+00	0	36	0	486539264	52	5805
2026-01-18 13:53:16.22	43.19	27.38	-38.7	-39.6	23.1	0.00e+00	93	36	0	488636416	52	5486
2026-01-18 13:53:17.23	43.37	27.52	-39.2	-40.1	23.0	0.00e+00	0	36	0	490733568	50	6521
2026-01-18 13:53:18.24	43.56	27.66	-39.1	-40.0	22.9	0.00e+00	0	36	0	492830720	50	6423
2026-01-18 13:53:19.25	43.75	27.80	-39.2	-40.1	22.7	0.00e+00	0	36	0	494927872	50	6533
2026-01-18 13:53:20.25	43.95	27.95	-39.3	-40.2	22.6	0.00e+00	0	36	0	495976448	50	6609
2026-01-18 13:53:21.26	44.14	28.09	-39.6	-40.7	22.4	0.00e+00	92	36	0	498073600	50	6944
2026-01-18 13:53:22.27	44.34	28.23	-39.9	-40.9	22.2	0.00e+00	0	36	0	500170752	52	6390
2026-01-18 13:53:23.28	44.53	28.38	-40.0	-41.1	22.1	0.00e+00	90	36	0	502267904	52	6496
2026-01-18 13:53:24.29	44.73	28.52	-40.0	-41.0	22.1	0.00e+00	0	36	0	504365056	52	6441
2026-01-18 13:53:25.29	44.93	28.67	-40.2	-41.3	22.0	0.00e+00	0	36	0	505413632	52	6640
2026-01-18 13:53:26.30	45.13	28.81	-40.1	-41.2	22.0	0.00e+00	0	36	0	507510784	52	6572
2026-01-18 13:53:27.31	45.34	28.96	-40.1	-41.1	22.0	0.00e+00	0	36	0	509607936	52	6539
2026-01-18 13:53:28.32	45.55	29.10	-40.2	-41.3	21.9	0.00e+00	3	36	0	511705088	52	6626
2026-01-18 13:53:29.33	45.75	29.25	-40.0	-41.0	22.1	0.00e+00	0	36	0	513802240	52	6441
2026-01-18 13:53:30.34	45.97	29.40	-40.1	-41.2	22.1	0.00e+00	92	36	0	514850816	52	6569
2026-01-18 13:53:31.35	46.18	29.54	-39.8	-40.8	22.3	0.00e+00	0	36	0	516947968	52	6305
2026-01-18 13:53:32.36	46.39	29.69	-40.4	-41.5	21.8	0.00e+00	92	36	0	519045120	52	6771
2026-01-18 13:53:33.37	46.61	29.84	-40.5	-41.5	21.8	0.00e+00	0	36	0	521142272	52	6848
2026-01-18 13:53:34.38	46.83	29.99	-40.1	-41.1	21.8	0.00e+00	0	36	0	523239424	52	6523
2026-01-18 13:53:35.39	47.05	30.14	-40.4	-41.5	21.0	0.00e+00	4	36	0	524288000	52	6840
2026-01-18 13:53:36.40	47.27	30.29	-40.6	-41.8	21.2	0.00e+00	0	36	0	526385152	54	6283
2026-01-18 13:53:37.41	47.49	30.44	-41.2	-42.5	20.8	0.00e+00	84	36	0	528482304	54	6796
2026-01-18 13:53:38.42	47.72	30.59	-41.3	-42.6	20.9	0.00e+00	0	36	0	530579456	56	6120
2026-01-18 13:53:39.42	47.94	30.73	-41.8	-43.2	20.3	0.00e+00	92	36	0	532676608	56	6543
2026-01-18 13:53:40.44	48.18	30.89	-41.5	-42.8	20.7	0.00e+00	0	36	0	534773760	56	6293
2026-01-18 13:53:41.44	48.41	31.04	-41.5	-42.8	20.5	0.00e+00	0	36	0	535822336	56	6284
2026-01-18 13:53:42.45	48.64	31.19	-40.8	-42.0	21.5	0.00e+00	0	36	0	537919488	56	5701
2026-01-18 13:53:43.46	48.88	31.34	-40.4	-41.5	21.7	0.00e+00	0	36	0	540016640	54	6039
2026-01-18 13:53:44.47	49.12	31.49	-40.1	-41.1	22.0	0.00e+00	0	36	0	542113792	54	5826
2026-01-18 13:53:45.47	49.35	31.64	-40.2	-41.2	21.9	0.00e+00	0	36	0	543162368	54	5892
2026-01-18 13:53:46.48	49.60	31.79	-40.1	-41.2	21.9	0.00e+00	90	36	0	545259520	54	5857
2026-01-18 13:53:47.49	49.84	31.94	-40.1	-41.2	21.9	0.00e+00	0	36	0	547356672	54	5874
2026-01-18 13:53:48.50	50.09	32.10	-40.2	-41.3	21.8	0.00e+00	0	36	0	549453824	54	5926
2026-01-18 13:53:49.51	50.34	32.25	-39.8	-40.8	22.3	0.00e+00	0	36	0	551550976	54	5625
2026-01-18 13:53:50.52	50.59	32.40	-40.1	-41.1	22.1	0.00e+00	0	36	0	552599552	52	6525
2026-01-18 13:53:51.53	50.85	32.55	-39.9	-41.0	22.2	0.00e+00	2	36	0	554696704	52	6425
2026-01-18 13:53:52.54	51.10	32.71	-40.2	-41.3	22.1	0.00e+00	0	36	0	556793856	52	6664
2026-01-18 13:53:53.55	51.36	32.86	-40.1	-41.2	22.1	0.00e+00	90	36	0	558891008	52	6554
2026-01-18 13:53:54.56	51.62	33.01	-40.2	-41.3	22.0	0.00e+00	0	36	0	560988160	52	6654
2026-01-18 13:53:55.56	51.89	33.16	-40.4	-41.5	21.9	0.00e+00	0	36	0	563085312	52	6838
2026-01-18 13:53:56.57	52.15	33.32	-40.3	-41.4	21.8	0.00e+00	0	36	0	564133888	52	6733
2026-01-18 13:53:57.58	52.42	33.47	-40.1	-41.1	22.1	0.00e+00	0	36	0	566231040	52	6533
2026-01-18 13:53:58.59	52.69	33.63	-40.1	-41.2	22.0	0.00e+00	2	36	0	568328192	52	6598
2026-01-18 13:53:59.60	52.97	33.78	-40.0	-41.1	21.9	0.00e+00	0	36	0	570425344	52	6525
2026-01-18 13:54:00.61	53.24	33.93	-40.4	-41.5	21.7	0.00e+00	69	36	0	572522496	52	6823
2026-01-18 13:54:01.61	53.52	34.09	-40.7	-41.9	21.4	0.00e+00	0	36	0	573571072	54	6364
2026-01-18 13:54:02.62	53.80	34.24	-41.2	-42.5	20.9	0.00e+00	91	36	0	575668224	54	6835
2026-01-18 13:54:03.63	54.09	34.39	-41.6	-42.9	20.5	0.00e+00	0	36	0	577765376	54	7153
2026-01-18 13:54:04.64	54.37	34.55	-41.6	-42.9	20.5	0.00e+00	0	36	0	579862528	54	7137
2026-01-18 13:54:05.65	54.66	34.70	-41.5	-42.8	20.5	0.00e+00	5	36	0	581959680	54	7061
2026-01-18 13:54:06.65	54.95	34.85	-40.9	-42.1	21.2	0.00e+00	0	36	0	583008256	54	6480
2026-01-18 13:54:07.66	55.25	35.01	-40.4	-41.5	21.7	0.00e+00	38	36	0	585105408	54	6063
2026-01-18 13:54:08.67	55.55	35.16	-39.8	-40.8	22.3	0.00e+00	0	36	0	587202560	54	5626
2026-01-18 13:54:09.68	55.85	35.32	-39.6	-40.6	22.4	0.00e+00	92	36	0	589299712	52	6144
2026-01-18 13:54:10.69	56.15	35.47	-39.9	-41.0	22.0	0.00e+00	0	36	0	591396864	52	6422
2026-01-18 13:54:11.70	56.46	35.62	-40.3	-41.4	21.7	0.00e+00	0	36	0	592445440	52	6726
2026-01-18 13:54:12.71	56.77	35.78	-40.5	-41.7	21.5	0.00e+00	0	36	0	594542592	52	6967
2026-01-18 13:54:13.71	57.08	35.93	-40.7	-41.9	21.3	0.00e+00	0	36	0	596639744	52	7097
2026-01-18 13:54:14.72	57.39	36.08	-40.3	-41.4	21.8	0.00e+00	6	36	0	598736896	52	6756
2026-01-18 13:54:15.73	57.71	36.23	-40.0	-41.1	22.1	0.00e+00	0	36	0	600834048	52	6472
2026-01-18 13:54:16.74	58.03	36.39	-40.2	-41.3	21.8	0.00e+00	92	36	0	601882624	52	6688
2026-01-18 13:54:17.75	58.35	36.54	-40.3	-41.4	22.0	0.00e+00	0	36	0	603979776	52	6769
2026-01-18 13:54:18.76	58.68	36.69	-39.9	-41.0	22.1	0.00e+00	0	36	0	606076928	52	6400
2026-01-18 13:54:19.77	59.01	36.84	-39.6	-40.6	22.6	0.00e+00	0	36	0	608174080	52	6127
2026-01-18 13:54:20.78	59.34	36.99	-39.0	-39.9	22.9	0.00e+00	0	36	0	610271232	52	5686
2026-01-18 13:54:21.79	59.68	37.14	-38.7	-39.6	23.2	0.00e+00	4	36	0	611319808	50	6136
2026-01-18 13:54:22.80	60.02	37.29	-39.2	-40.1	22.8	0.00e+00	0	36	0	613416960	50	6504
2026-01-18 13:54:23.80	60.36	37.44	-39.9	-40.9	22.1	0.00e+00	90	36	0	615514112	52	6356
2026-01-18 13:54:24.81	60.70	37.59	-40.7	-41.8	21.3	0.00e+00	0	36	0	617611264	54	6315
2026-01-18 13:54:25.82	61.05	37.74	-41.2	-42.5	20.9	0.00e+00	0	36	0	619708416	54	6770
2026-01-18 13:54:26.83	61.40	37.89	-41.2	-42.5	20.8	0.00e+00	0	36	0	620756992	54	6834
2026-01-18 13:54:27.84	61.76	38.04	-40.9	-42.1	21.2	0.00e+00	0	36	0	622854144	54	6539
2026-01-18 13:54:28.85	62.12	38.19	-40.5	-41.6	21.5	0.00e+00	6	36	0	624951296	54	6127
2026-01-18 13:54:29.86	62.48	38.33	-40.2	-41.3	21.9	0.00e+00	0	36	0	627048448	54	5904
2026-01-18 13:54:30.86	62.84	38.48	-40.4	-41.5	21.8	0.00e+00	91	36	0	629145600	54	6052
2026-01-18 13:54:31.87	63.21	38.62	-40.5	-41.6	21.6	0.00e+00	0	36	0	630194176	54	6125
2026-01-18 13:54:32.88	63.58	38.77	-40.6	-41.8	21.3	0.00e+00	0	36	0	632291328	54	6265
2026-01-18 13:54:33.89	63.95	38.91	-40.7	-41.9	21.5	0.00e+00	0	36	0	634388480	54	6338
2026-01-18 13:54:34.90	64.33	39.06	-40.7	-41.9	21.3	0.00e+00	0	36	0	636485632	54	6373
2026-01-18 13:54:35.91	64.71	39.20	-40.5	-41.6	21.6	0.00e+00	7	36	0	638582784	54	6142
2026-01-18 13:54:36.92	65.09	39.34	-40.6	-41.7	21.7	0.00e+00	0	36	0	639631360	54	6240
2026-01-18 13:54:37.93	65.48	39.48	-39.9	-41.0	22.2	0.00e+00	92	36	0	641728512	54	5730
2026-01-18 13:54:38.94	65.87	39.62	-39.9	-41.0	21.7	0.00e+00	0	36	0	643825664	54	5700
2026-01-18 13:54:39.95	66.26	39.76	-40.0	-41.1	22.0	0.00e+00	92	36	0	645922816	52	6490
2026-01-18 13:54:40.95	66.66	39.90	-39.7	-40.8	22.3	0.00e+00	0	36	0	648019968	52	6272
2026-01-18 13:54:41.97	67.06	40.04	-39.5	-40.5	22.5	0.00e+00	0	36	0	649068544	52	6101
2026-01-18 13:54:42.98	67.47	40.17	-39.6	-40.7	22.5	0.00e+00	0	36	0	651165696	52	6190
2026-01-18 13:54:43.98	67.87	40.31	-39.2	-40.2	22.8	0.00e+00	0	36	0	653262848	52	5881
2026-01-18 13:54:44.99	68.28	40.44	-39.5	-40.5	22.5	0.00e+00	7	36	0	655360000	52	6072
2026-01-18 13:54:46.00	68.69	40.57	-39.6	-40.6	22.4	0.00e+00	0	36	0	657457152	52	6148
2026-01-18 13:54:47.01	69.11	40.71	-39.8	-40.9	22.1	0.00e+00	90	36	0	659554304	52	6361
2026-01-18 13:54:48.02	69.53	40.84	-39.9	-40.9	22.0	0.00e+00	0	36	0	660602880	52	6388
2026-01-18 13:54:49.03	69.96	40.97	-39.9	-41.0	22.1	0.00e+00	0	36	0	662700032	52	6433
2026-01-18 13:54:50.04	70.38	41.09	-39.7	-40.8	22.3	0.00e+00	0	36	0	664797184	52	6266
2026-01-18 13:54:51.05	70.81	41.22	-39.8	-40.9	22.3	0.00e+00	0	36	0	666894336	52	6362
2026-01-18 13:54:52.06	71.25	41.35	-39.5	-40.5	22.7	0.00e+00	75	36	0	668991488	52	6097
2026-01-18 13:54:53.07	71.69	41.47	-39.2	-40.3	22.9	0.00e+00	0	36	0	670040064	52	5899
2026-01-18 13:54:54.08	72.13	41.59	-38.7	-39.6	23.1	0.00e+00	92	36	0	672137216	50	6156
2026-01-18 13:54:55.08	72.57	41.71	-38.6	-39.5	23.3	0.00e+00	0	36	0	674234368	50	6082
2026-01-18 13:54:56.09	73.01	41.83	-38.3	-39.2	23.5	0.00e+00	0	36	0	676331520	50	5870
2026-01-18 13:54:57.10	73.47	41.95	-38.7	-39.6	23.3	0.00e+00	0	36	0	678428672	50	6131
2026-01-18 13:54:58.11	73.92	42.07	-39.9	-41.0	22.2	0.00e+00	0	36	0	679477248	50	7221
2026-01-18 13:54:59.12	74.38	42.18	-40.2	-41.3	22.3	0.00e+00	70	36	0	681574400	52	6621
2026-01-18 13:55:00.13	74.84	42.30	-39.4	-40.4	22.6	0.00e+00	0	36	0	683671552	52	6029
2026-01-18 13:55:01.14	75.30	42.41	-39.5	-40.5	22.5	0.00e+00	74	36	0	685768704	52	6036
2026-01-18 13:55:02.15	75.77	42.52	-39.6	-40.5	22.1	0.00e+00	0	36	0	687865856	52	6101
2026-01-18 13:55:03.16	76.24	42.63	-39.7	-40.8	22.2	0.00e+00	0	36	0	688914432	52	6276
2026-01-18 13:55:04.17	76.71	42.73	-39.8	-40.9	22.2	0.00e+00	0	36	0	691011584	52	6360
2026-01-18 13:55:05.17	77.18	42.84	-39.4	-40.4	22.5	0.00e+00	8	36	0	693108736	52	6004
2026-01-18 13:55:06.18	77.66	42.94	-39.1	-40.0	22.9	0.00e+00	7	36	0	695205888	52	5735
2026-01-18 13:55:07.19	78.14	43.04	-39.6	-40.6	22.5	0.00e+00	0	36	0	697303040	52	6154
2026-01-18 13:55:08.20	78.63	43.14	-39.6	-40.7	22.4	0.00e+00	92	36	0	698351616	52	6188
2026-01-18 13:55:09.21	79.12	43.24	-40.1	-41.1	21.9	0.00e+00	0	36	0	700448768	52	6537
2026-01-18 13:55:10.22	79.61	43.33	-40.3	-41.4	21.9	0.00e+00	90	36	0	702545920	52	6742
2026-01-18 13:55:11.23	80.10	43.42	-40.6	-41.7	21.5	0.00e+00	25	36	0	704643072	52	7003
2026-01-18 13:55:12.24	80.60	43.52	-41.0	-42.3	21.0	0.00e+00	0	36	0	706740224	54	6656
2026-01-18 13:55:13.25	81.10	43.60	-40.8	-42.1	21.1	0.00e+00	0	36	0	707788800	54	6472
2026-01-18 13:55:14.26	81.60	43.69	-40.1	-41.1	22.0	0.00e+00	25	36	0	709885952	54	5826
2026-01-18 13:55:15.27	82.11	43.77	-39.7	-40.7	22.5	0.00e+00	42	36	0	711983104	52	6214
2026-01-18 13:55:16.28	82.61	43.86	-39.1	-40.1	22.7	0.00e+00	0	36	0	714080256	52	5774
2026-01-18 13:55:17.28	83.12	43.93	-39.4	-40.4	22.7	0.00e+00	92	36	0	716177408	52	6018
2026-01-18 13:55:18.29	83.63	44.01	-39.2	-40.1	22.8	0.00e+00	0	36	0	717225984	52	5804
2026-01-18 13:55:19.30	84.15	44.09	-39.4	-40.4	22.8	0.00e+00	0	36	0	719323136	52	6013
2026-01-18 13:55:20.31	84.67	44.16	-39.8	-40.8	22.3	0.00e+00	0	36	0	721420288	52	6278
2026-01-18 13:55:21.32	85.18	44.23	-40.3	-41.5	21.8	0.00e+00	0	36	0	723517440	52	6789
2026-01-18 13:55:22.33	85.71	44.30	-39.3	-40.3	22.7	0.00e+00	6	36	0	725614592	52	5960
2026-01-18 13:55:23.34	86.23	44.36	-39.0	-39.9	22.9	0.00e+00	0	36	0	727711744	52	5663
2026-01-18 13:55:24.35	86.76	44.42	-39.1	-40.1	22.7	0.00e+00	92	36	0	728760320	52	5802
2026-01-18 13:55:25.35	87.28	44.48	-39.6	-40.6	22.4	0.00e+00	0	36	0	730857472	52	6146
2026-01-18 13:55:26.36	87.81	44.54	-39.8	-40.8	22.4	0.00e+00	0	36	0	732954624	52	6284
2026-01-18 13:55:27.37	88.34	44.60	-39.3	-40.3	22.7	0.00e+00	0	36	0	735051776	52	5935
2026-01-18 13:55:28.37	88.87	44.65	-39.4	-40.4	22.6	0.00e+00	0	36	0	736100352	52	5991
2026-01-18 13:55:29.38	89.41	44.70	-39.3	-40.3	22.5	0.00e+00	5	36	0	738197504	52	5936
2026-01-18 13:55:30.39	89.94	44.75	-38.9	-39.8	23.2	0.00e+00	0	36	0	740294656	52	5608
2026-01-18 13:55:31.40	90.48	44.79	-38.4	-39.3	23.6	0.00e+00	82	36	0	742391808	50	5904
2026-01-18 13:55:32.41	91.02	44.83	-37.4	-38.3	24.2	0.00e+00	0	36	0	744488960	48	5909
2026-01-18 13:55:33.42	91.56	44.87	-37.0	-37.8	24.5	0.00e+00	78	36	0	745537536	48	5591
2026-01-18 13:55:34.43	92.11	44.91	-37.1	-37.9	24.5	0.00e+00	0	36	0	747634688	48	5655
2026-01-18 13:55:35.44	92.65	44.94	-37.9	-38.8	23.7	0.00e+00	0	36	0	749731840	48	6248
2026-01-18 13:55:36.45	93.20	44.97	-38.6	-39.5	23.2	0.00e+00	44	36	0	751828992	48	6815
2026-01-18 13:55:37.45	93.74	45.00	-38.9	-39.9	23.0	0.00e+00	0	36	0	753926144	50	6345
2026-01-18 13:55:38.46	94.28	45.02	-38.3	-39.2	23.5	0.00e+00	92	36	0	756023296	50	5881
2026-01-18 13:55:39.47	94.83	45.05	-38.0	-38.8	23.9	0.00e+00	0	36	0	757071872	50	5628
2026-01-18 13:55:40.48	95.38	45.07	-38.2	-39.1	23.6	0.00e+00	87	36	0	759169024	50	5802
2026-01-18 13:55:41.49	95.93	45.08	-38.0	-38.8	23.8	0.00e+00	0	36	0	761266176	50	5629
2026-01-18 13:55:42.50	96.48	45.10	-37.7	-38.6	24.0	0.00e+00	0	36	0	763363328	48	6119
2026-01-18 13:55:43.51	97.03	45.11	-38.0	-38.8	23.7	0.00e+00	17	36	0	765460480	48	6310
2026-01-18 13:55:44.52	97.58	45.12	-38.5	-39.5	23.4	0.00e+00	0	36	0	766509056	48	6774
2026-01-18 13:55:45.53	98.13	45.12	-39.0	-40.0	22.9	0.00e+00	0	36	0	768606208	50	6460
2026-01-18 13:55:46.54	98.68	45.12	-39.2	-40.2	23.0	0.00e+00	0	36	0	770703360	50	6554
2026-01-18 13:55:47.55	99.23	45.12	-38.6	-39.6	23.4	0.00e+00	92	36	0	772800512	50	6112
2026-01-18 13:55:48.56	99.79	45.12	-38.0	-38.8	23.7	0.00e+00	0	36	0	774897664	50	5630
2026-01-18 13:55:49.57	100.34	45.11	-37.9	-38.8	23.8	0.00e+00	0	36	0	775946240	50	5574
2026-01-18 13:55:50.57	100.88	45.10	-37.6	-38.4	24.0	0.00e+00	0	36	0	778043392	48	6018
2026-01-18 13:55:51.58	101.43	45.09	-38.5	-39.4	23.3	0.00e+00	0	36	0	780140544	48	6743
2026-01-18 13:55:52.59	101.98	45.08	-39.0	-39.9	22.9	0.00e+00	91	36	0	782237696	50	6387
2026-01-18 13:55:53.60	102.53	45.06	-38.5	-39.3	23.5	0.00e+00	0	36	0	784334848	50	5962
2026-01-18 13:55:54.61	103.08	45.04	-38.3	-39.2	23.6	0.00e+00	43	36	0	785383424	50	5852
2026-01-18 13:55:55.62	103.63	45.02	-38.2	-39.1	23.5	0.00e+00	0	36	0	787480576	50	5787
2026-01-18 13:55:56.63	104.17	44.99	-39.0	-39.9	22.6	0.00e+00	0	36	0	789577728	50	6387
2026-01-18 13:55:57.64	104.72	44.96	-39.7	-40.7	22.4	0.00e+00	0	36	0	791674880	52	6189
2026-01-18 13:55:58.64	105.26	44.93	-39.1	-40.1	22.8	0.00e+00	0	36	0	793772032	52	5784
2026-01-18 13:55:59.65	105.80	44.90	-38.3	-39.2	23.5	0.00e+00	3	36	0	794820608	50	5832
2026-01-18 13:56:00.66	106.35	44.86	-38.9	-39.8	23.2	0.00e+00	0	36	0	796917760	50	6279
2026-01-18 13:56:01.67	106.89	44.82	-40.8	-42.0	21.2	0.00e+00	82	36	0	799014912	52	7230
2026-01-18 13:56:02.68	107.43	44.78	-41.5	-42.8	20.6	0.00e+00	0	36	0	801112064	54	7064
2026-01-18 13:56:03.69	107.97	44.73	-40.8	-42.1	21.3	0.00e+00	0	36	0	803209216	54	6474
2026-01-18 13:56:04.69	108.50	44.68	-39.8	-40.9	22.1	0.00e+00	0	36	0	804257792	54	5686
2026-01-18 13:56:05.70	109.03	44.63	-39.9	-41.0	22.2	0.00e+00	0	36	0	806354944	52	6425
2026-01-18 13:56:06.71	109.57	44.58	-40.7	-42.0	21.4	0.00e+00	70	36	0	808452096	52	7243
2026-01-18 13:56:07.72	110.10	44.52	-40.7	-42.0	21.3	0.00e+00	0	36	0	810549248	54	6424
2026-01-18 13:56:08.73	110.63	44.47	-40.3	-41.5	21.7	0.00e+00	90	36	0	812646400	54	6037
2026-01-18 13:56:09.73	111.15	44.40	-40.1	-41.2	21.6	0.00e+00	0	36	0	813694976	54	5872
2026-01-18 13:56:10.74	111.68	44.34	-40.7	-41.9	21.4	0.00e+00	89	36	0	815792128	54	6356
2026-01-18 13:56:11.75	112.20	44.28	-40.7	-41.9	21.4	0.00e+00	0	36	0	817889280	54	6344
2026-01-18 13:56:12.76	112.73	44.21	-39.8	-40.9	22.3	0.00e+00	0	36	0	819986432	54	5653
2026-01-18 13:56:13.76	113.24	44.14	-39.3	-40.3	22.7	0.00e+00	0	36	0	822083584	52	5925
2026-01-18 13:56:14.77	113.76	44.06	-39.2	-40.1	22.5	0.00e+00	0	36	0	823132160	52	5819
2026-01-18 13:56:15.78	114.27	43.99	-39.9	-40.9	22.1	0.00e+00	15	36	0	825229312	52	6375
2026-01-18 13:56:16.79	114.79	43.91	-40.9	-42.1	21.2	0.00e+00	0	36	0	827326464	52	7266
2026-01-18 13:56:17.80	115.30	43.83	-40.8	-41.9	21.3	0.00e+00	92	36	0	829423616	54	6374
2026-01-18 13:56:18.81	115.80	43.75	-40.8	-42.0	21.3	0.00e+00	0	36	0	831520768	54	6415
2026-01-18 13:56:19.82	116.31	43.66	-40.3	-41.4	21.8	0.00e+00	0	36	0	832569344	54	6028
2026-01-18 13:56:20.83	116.81	43.57	-40.9	-42.1	21.3	0.00e+00	0	36	0	834666496	54	6532
2026-01-18 13:56:21.84	117.31	43.48	-40.4	-41.5	21.7	0.00e+00	0	36	0	836763648	54	6082
2026-01-18 13:56:22.85	117.81	43.39	-39.7	-40.8	22.0	0.00e+00	6	36	0	838860800	52	6262
2026-01-18 13:56:23.86	118.30	43.30	-39.1	-40.1	22.9	0.00e+00	0	36	0	840957952	52	5768
2026-01-18 13:56:24.86	118.79	43.20	-39.5	-40.5	22.4	0.00e+00	72	36	0	842006528	52	6070
2026-01-18 13:56:25.87	119.27	43.11	-39.7	-40.8	22.3	0.00e+00	0	36	0	844103680	52	6256
2026-01-18 13:56:26.88	119.76	43.01	-39.5	-40.5	22.6	0.00e+00	0	36	0	846200832	52	6055
2026-01-18 13:56:27.89	120.24	42.91	-38.5	-39.4	23.5	0.00e+00	0	36	0	848297984	50	6016
2026-01-18 13:56:28.90	120.72	42.80	-38.5	-39.4	23.4	0.00e+00	4	36	0	850395136	50	5988
2026-01-18 13:56:29.91	121.20	42.70	-39.1	-40.0	22.9	0.00e+00	92	36	0	852492288	50	6451
2026-01-18 13:56:30.92	121.67	42.59	-39.3	-40.3	22.8	0.00e+00	0	36	0	853540864	50	6634
2026-01-18 13:56:31.93	122.14	42.48	-38.7	-39.6	23.1	0.00e+00	92	36	0	855638016	50	6172
2026-01-18 13:56:32.94	122.61	42.37	-37.7	-38.6	24.0	0.00e+00	0	36	0	857735168	50	5475
2026-01-18 13:56:33.94	123.07	42.26	-37.7	-38.6	24.0	0.00e+00	0	36	0	859832320	48	6114
2026-01-18 13:56:34.95	123.53	42.14	-38.0	-38.9	23.8	0.00e+00	0	36	0	861929472	48	6326
2026-01-18 13:56:35.96	123.98	42.03	-38.5	-39.4	23.4	0.00e+00	0	36	0	862978048	48	6727
2026-01-18 13:56:36.97	124.44	41.91	-38.5	-39.5	23.2	0.00e+00	36	36	0	865075200	48	6778
2026-01-18 13:56:37.98	124.89	41.79	-38.3	-39.2	23.5	0.00e+00	0	36	0	867172352	48	6577
2026-01-18 13:56:38.99	125.33	41.67	-38.0	-38.9	23.6	0.00e+00	92	36	0	869269504	48	6378
2026-01-18 13:56:39.99	125.77	41.55	-37.8	-38.7	23.8	0.00e+00	0	36	0	871366656	48	6180
2026-01-18 13:56:41.00	126.21	41.43	-38.4	-39.3	23.5	0.00e+00	0	36	0	872415232	48	6686
2026-01-18 13:56:42.01	126.65	41.30	-38.6	-39.5	23.3	0.00e+00	0	36	0	874512384	48	6798
2026-01-18 13:56:43.02	127.09	41.17	-39.0	-39.9	22.6	0.00e+00	0	36	0	876609536	50	6368
2026-01-18 13:56:44.03	127.52	41.05	-39.8	-40.9	22.2	0.00e+00	5	36	0	878706688	50	7136
2026-01-18 13:56:45.04	127.94	40.92	-40.2	-41.3	21.6	0.00e+00	0	36	0	880803840	52	6684
2026-01-18 13:56:46.05	128.37	40.79	-40.1	-41.3	21.8	0.00e+00	66	36	0	881852416	52	6637
2026-01-18 13:56:47.05	128.78	40.66	-40.0	-41.1	22.0	0.00e+00	0	36	0	883949568	52	6502
2026-01-18 13:56:48.06	129.20	40.52	-40.2	-41.4	21.8	0.00e+00	88	36	0	886046720	52	6733
2026-01-18 13:56:49.08	129.62	40.39	-40.8	-42.1	21.2	0.00e+00	0	36	0	888143872	52	7287
2026-01-18 13:56:50.08	130.03	40.25	-40.5	-41.7	21.7	0.00e+00	0	36	0	890241024	54	6200
2026-01-18 13:56:51.09	130.43	40.12	-39.6	-40.6	21.9	0.00e+00	0	36	0	891289600	54	5490
2026-01-18 13:56:52.10	130.84	39.98	-39.3	-40.4	22.7	0.00e+00	0	36	0	893386752	52	5973
2026-01-18 13:56:53.10	131.23	39.84	-38.9	-39.8	23.0	0.00e+00	0	36	0	895483904	52	5615
2026-01-18 13:56:54.11	131.63	39.71	-39.0	-40.0	22.8	0.00e+00	0	36	0	897581056	52	5698
2026-01-18 13:56:55.12	132.02	39.57	-39.5	-40.6	22.4	0.00e+00	70	36	0	899678208	52	6149
2026-01-18 13:56:56.13	132.41	39.42	-40.3	-41.4	21.8	0.00e+00	0	36	0	900726784	52	6747
2026-01-18 13:56:57.14	132.80	39.28	-40.2	-41.4	21.9	0.00e+00	0	36	0	902823936	52	6693
2026-01-18 13:56:58.15	133.19	39.14	-39.8	-40.9	22.2	0.00e+00	2	36	0	904921088	52	6335
2026-01-18 13:56:59.16	133.57	39.00	-39.2	-40.2	22.7	0.00e+00	0	36	0	907018240	52	5868
2026-01-18 13:57:00.17	133.94	38.85	-39.3	-40.2	22.8	0.00e+00	5	36	0	909115392	52	5886
2026-01-18 13:57:01.18	134.32	38.71	-40.2	-41.3	21.9	0.00e+00	3	36	0	910163968	52	6643
2026-01-18 13:57:02.19	134.69	38.56	-41.4	-42.8	20.4	0.00e+00	92	36	0	912261120	54	7044
2026-01-18 13:57:03.19	135.05	38.42	-42.2	-43.7	19.9	0.00e+00	0	36	0	914358272	56	6938
2026-01-18 13:57:04.21	135.42	38.27	-41.2	-42.5	21.0	0.00e+00	0	36	0	916455424	56	6075
2026-01-18 13:57:05.21	135.78	38.12	-40.0	-41.1	22.2	0.00e+00	27	36	0	918552576	54	5797
2026-01-18 13:57:06.22	136.13	37.97	-38.9	-39.8	23.2	0.00e+00	0	36	0	919601152	52	5601
2026-01-18 13:57:07.23	136.49	37.82	-38.2	-39.1	23.6	0.00e+00	73	36	0	921698304	50	5816
2026-01-18 13:57:08.24	136.84	37.67	-39.0	-40.0	22.9	0.00e+00	0	36	0	923795456	50	6431
2026-01-18 13:57:09.25	137.19	37.52	-40.1	-41.2	21.8	0.00e+00	90	36	0	925892608	52	6577
2026-01-18 13:57:10.26	137.53	37.37	-40.2	-41.3	21.8	0.00e+00	0	36	0	927989760	52	6650
2026-01-18 13:57:11.27	137.88	37.22	-38.6	-39.6	23.4	0.00e+00	44	36	0	929038336	52	5451
2026-01-18 13:57:12.28	138.21	37.07	-37.9	-38.8	23.9	0.00e+00	0	36	0	931135488	50	5571
2026-01-18 13:57:13.29	138.55	36.92	-37.6	-38.5	24.1	0.00e+00	0	36	0	933232640	48	6037
2026-01-18 13:57:14.29	138.88	36.77	-38.9	-39.8	22.9	0.00e+00	2	36	0	935329792	50	6316
2026-01-18 13:57:15.30	139.21	36.62	-40.4	-41.7	21.5	0.00e+00	0	36	0	937426944	52	6931
2026-01-18 13:57:16.31	139.54	36.47	-40.9	-42.1	21.2	0.00e+00	90	36	0	938475520	54	6537
2026-01-18 13:57:17.32	139.86	36.31	-39.3	-40.3	22.6	0.00e+00	0	36	0	940572672	52	5949
2026-01-18 13:57:18.33	140.18	36.16	-38.3	-39.2	23.5	0.00e+00	92	36	0	942669824	50	5856
2026-01-18 13:57:19.34	140.50	36.01	-38.3	-39.1	23.4	0.00e+00	0	36	0	944766976	50	5818
2026-01-18 13:57:20.34	140.81	35.85	-38.5	-39.4	23.3	0.00e+00	0	36	0	946864128	50	6019
2026-01-18 13:57:21.35	141.12	35.70	-39.7	-40.7	22.3	0.00e+00	0	36	0	948961280	50	6970
2026-01-18 13:57:22.36	141.43	35.55	-40.7	-41.9	21.3	0.00e+00	0	36	0	950009856	52	7133
2026-01-18 13:57:23.37	141.74	35.39	-39.9	-41.0	22.1	0.00e+00	92	36	0	952107008	54	5748
2026-01-18 13:57:24.38	142.04	35.24	-39.5	-40.5	22.5	0.00e+00	0	36	0	954204160	52	6055
2026-01-18 13:57:25.39	142.34	35.08	-38.3	-39.2	23.6	0.00e+00	84	36	0	956301312	50	5874
2026-01-18 13:57:26.40	142.64	34.93	-37.8	-38.7	24.0	0.00e+00	0	36	0	958398464	48	6177
2026-01-18 13:57:27.41	142.93	34.77	-37.2	-38.0	24.2	0.00e+00	0	36	0	959447040	48	5753
2026-01-18 13:57:28.42	143.23	34.62	-38.6	-39.5	23.0	0.00e+00	0	36	0	961544192	48	6820
2026-01-18 13:57:29.43	143.51	34.46	-40.2	-41.4	21.6	0.00e+00	0	36	0	963641344	52	6705
2026-01-18 13:57:30.44	143.80	34.31	-40.5	-41.7	21.5	0.00e+00	10	36	0	965738496	54	6212
2026-01-18 13:57:31.44	144.08	34.16	-39.5	-40.5	22.5	0.00e+00	0	36	0	967835648	52	6099
2026-01-18 13:57:32.45	144.36	34.00	-38.3	-39.1	23.7	0.00e+00	78	36	0	968884224	50	5824
2026-01-18 13:57:33.47	144.65	33.85	-37.4	-38.2	24.3	0.00e+00	0	36	0	970981376	48	5867
2026-01-18 13:57:34.47	144.92	33.69	-37.1	-37.9	24.4	0.00e+00	0	36	0	973078528	48	5640
2026-01-18 13:57:35.48	145.19	33.54	-38.4	-39.3	23.4	0.00e+00	0	36	0	975175680	48	6652
2026-01-18 13:57:36.49	145.47	33.38	-39.8	-40.8	22.1	0.00e+00	0	36	0	977272832	52	6295
2026-01-18 13:57:37.50	145.73	33.23	-40.6	-41.8	21.3	0.00e+00	81	36	0	978321408	54	6298
2026-01-18 13:57:38.51	146.00	33.07	-40.1	-41.3	21.6	0.00e+00	0	36	0	980418560	54	5932
2026-01-18 13:57:39.52	146.26	32.92	-38.7	-39.7	23.0	0.00e+00	85	36	0	982515712	52	5550
2026-01-18 13:57:40.53	146.53	32.77	-38.1	-39.1	23.6	0.00e+00	0	36	0	984612864	50	5778
2026-01-18 13:57:41.54	146.78	32.61	-38.2	-39.1	23.4	0.00e+00	0	36	0	986710016	50	5767
2026-01-18 13:57:42.55	147.04	32.46	-38.8	-39.8	23.1	0.00e+00	0	36	0	987758592	50	6255
2026-01-18 13:57:43.56	147.30	32.30	-40.4	-41.5	21.5	0.00e+00	0	36	0	989855744	52	6829
2026-01-18 13:57:44.56	147.54	32.15	-42.1	-43.6	19.9	0.00e+00	25	36	0	991952896	56	6912
2026-01-18 13:57:45.57	147.79	32.00	-42.5	-44.2	19.3	0.00e+00	0	36	0	994050048	58	6572
2026-01-18 13:57:46.58	148.04	31.85	-41.7	-43.2	20.2	0.00e+00	84	36	0	996147200	58	5845
2026-01-18 13:57:47.59	148.29	31.69	-39.8	-40.9	22.3	0.00e+00	0	36	0	997195776	54	5641
2026-01-18 13:57:48.60	148.53	31.54	-38.3	-39.2	23.7	0.00e+00	72	36	0	999292928	50	5837
2026-01-18 13:57:49.61	148.77	31.39	-37.9	-38.7	23.9	0.00e+00	0	36	0	1001390080	50	5564
2026-01-18 13:57:50.62	149.01	31.24	-37.4	-38.2	24.2	0.00e+00	0	36	0	1003487232	48	5844
2026-01-18 13:57:51.63	149.24	31.09	-38.1	-39.0	23.6	0.00e+00	0	36	0	1005584384	48	6401
2026-01-18 13:57:52.64	149.48	30.93	-40.2	-41.3	21.8	0.00e+00	0	36	0	1006632960	52	6636
2026-01-18 13:57:53.64	149.71	30.78	-42.2	-43.7	19.8	0.00e+00	90	36	0	1008730112	56	6953
2026-01-18 13:57:54.65	149.94	30.63	-42.6	-44.3	19.2	0.00e+00	0	36	0	1010827264	56	7462
2026-01-18 13:57:55.66	150.17	30.48	-42.5	-44.2	19.5	0.00e+00	89	36	0	1012924416	56	7358
2026-01-18 13:57:56.67	150.39	30.33	-41.0	-42.2	21.1	0.00e+00	0	36	0	1015021568	56	5895
2026-01-18 13:57:57.68	150.62	30.18	-39.6	-40.7	22.6	0.00e+00	0	36	0	1016070144	52	6209
2026-01-18 13:57:58.69	150.84	30.03	-38.4	-39.3	23.5	0.00e+00	0	36	0	1018167296	50	5912
2026-01-18 13:57:59.70	151.06	29.88	-37.9	-38.7	23.8	0.00e+00	0	36	0	1020264448	50	5560
2026-01-18 13:58:00.71	151.27	29.73	-36.9	-37.7	24.6	0.00e+00	0	36	0	1022361600	48	5503
2026-01-18 13:58:01.72	151.49	29.58	-36.9	-37.7	24.6	0.00e+00	0	36	0	1024458752	46	6212
2026-01-18 13:58:02.73	151.70	29.44	-37.5	-38.3	24.1	0.00e+00	49	36	0	1025507328	46	6664
2026-01-18 13:58:03.73	151.91	29.29	-38.2	-39.1	23.5	0.00e+00	0	36	0	1027604480	48	6508
2026-01-18 13:58:04.74	152.12	29.14	-38.6	-39.5	22.6	0.00e+00	0	36	0	1029701632	50	6101
2026-01-18 13:58:05.75	152.33	29.00	-39.1	-40.1	22.6	0.00e+00	0	36	0	1031798784	50	6471
2026-01-18 13:58:06.76	152.54	28.85	-38.9	-39.8	22.9	0.00e+00	0	36	0	1033895936	50	6314
2026-01-18 13:58:07.77	152.74	28.70	-38.9	-39.9	22.9	0.00e+00	71	36	0	1034944512	50	6339
2026-01-18 13:58:08.78	152.94	28.56	-39.1	-40.0	22.2	0.00e+00	0	36	0	1037041664	50	6459
2026-01-18 13:58:09.79	153.15	28.41	-38.9	-39.9	22.9	0.00e+00	59	36	0	1039138816	50	6332
2026-01-18 13:58:10.79	153.34	28.27	-38.9	-39.8	23.0	0.00e+00	0	36	0	1041235968	50	6274
2026-01-18 13:58:11.80	153.54	28.12	-39.2	-40.1	22.6	0.00e+00	0	36	0	1043333120	50	6534
2026-01-18 13:58:12.81	153.74	27.98	-39.1	-40.1	22.6	0.00e+00	0	36	0	1045430272	50	6476
2026-01-18 13:58:13.81	153.93	27.83	-39.0	-40.0	22.8	0.00e+00	0	36	0	1046478848	50	6423
2026-01-18 13:58:14.82	154.12	27.69	-38.9	-39.9	23.0	0.00e+00	57	36	0	1048576000	50	6325
2026-01-18 13:58:15.83	154.31	27.55	-39.1	-40.1	22.6	0.00e+00	0	36	0	1050673152	50	6512
2026-01-18 13:58:16.84	154.50	27.40	-39.5	-40.5	22.4	0.00e+00	90	36	0	1052770304	50	6796
2026-01-18 13:58:17.84	154.68	27.26	-39.6	-40.7	22.2	0.00e+00	0	36	0	1054867456	50	6930
2026-01-18 13:58:18.85	154.87	27.12	-39.8	-40.9	22.1	0.00e+00	89	36	0	1055916032	52	6340
2026-01-18 13:58:19.86	155.05	26.98	-39.7	-40.7	22.3	0.00e+00	0	36	0	1058013184	52	6213
2026-01-18 13:58:20.87	155.24	26.84	-39.5	-40.5	22.3	0.00e+00	0	36	0	1060110336	52	6095
2026-01-18 13:58:21.87	155.41	26.70	-38.8	-39.7	23.1	0.00e+00	0	36	0	1062207488	52	5529
2026-01-18 13:58:22.88	155.59	26.56	-38.4	-39.3	23.4	0.00e+00	2	36	0	1063256064	50	5919
2026-01-18 13:58:23.89	155.77	26.42	-37.9	-38.8	23.8	0.00e+00	22	36	0	1065353216	50	5577
2026-01-18 13:58:24.90	155.95	26.28	-37.7	-38.5	23.9	0.00e+00	0	36	0	1067450368	48	6063
2026-01-18 13:58:25.90	156.12	26.14	-37.8	-38.7	23.8	0.00e+00	92	36	0	1069547520	48	6191
2026-01-18 13:58:26.91	156.29	26.00	-37.7	-38.6	23.8	0.00e+00	0	36	0	1071644672	48	6114
2026-01-18 13:58:27.92	156.47	25.86	-38.1	-39.0	23.6	0.00e+00	0	36	0	1073741824	48	6436
2026-01-18 13:58:28.93	156.64	25.73	-38.5	-39.4	23.2	0.00e+00	0	36	0	1074790400	48	6755
2026-01-18 13:58:29.94	156.81	25.59	-38.5	-39.5	23.0	0.00e+00	0	36	0	1076887552	48	6808
2026-01-18 13:58:30.95	156.97	25.45	-39.1	-40.1	22.8	0.00e+00	92	36	0	1078984704	50	6479
2026-01-18 13:58:31.95	157.14	25.32	-39.3	-40.3	22.7	0.00e+00	0	36	0	1081081856	50	6692
2026-01-18 13:58:32.96	157.30	25.18	-39.7	-40.7	22.2	0.00e+00	91	36	0	1083179008	50	6998
2026-01-18 13:58:33.97	157.47	25.05	-40.1	-41.2	21.8	0.00e+00	0	36	0	1084227584	52	6606
2026-01-18 13:58:34.98	157.63	24.91	-39.8	-40.8	22.1	0.00e+00	0	36	0	1086324736	52	6294
2026-01-18 13:58:35.99	157.79	24.78	-40.0	-41.1	21.9	0.00e+00	0	36	0	1088421888	52	6500
2026-01-18 13:58:37.00	157.95	24.64	-39.8	-40.9	22.2	0.00e+00	0	36	0	1090519040	52	6329
2026-01-18 13:58:38.01	158.11	24.51	-39.5	-40.5	22.4	0.00e+00	0	36	0	1092616192	52	6070
2026-01-18 13:58:39.02	158.26	24.38	-40.1	-41.2	22.0	0.00e+00	0	36	0	1093664768	52	6588
2026-01-18 13:58:40.02	158.42	24.25	-40.0	-41.1	21.8	0.00e+00	92	36	0	1095761920	52	6535
2026-01-18 13:58:41.03	158.57	24.11	-40.3	-41.5	21.5	0.00e+00	0	36	0	1097859072	52	6815
2026-01-18 13:58:42.04	158.72	23.98	-40.9	-42.2	20.9	0.00e+00	0	36	0	1099956224	54	6605
2026-01-18 13:58:43.05	158.88	23.85	-41.2	-42.6	20.7	0.00e+00	0	36	0	1102053376	54	6888
2026-01-18 13:58:44.06	159.03	23.72	-41.6	-43.1	20.1	0.00e+00	0	36	0	1103101952	54	7269
2026-01-18 13:58:45.07	159.18	23.59	-41.4	-42.8	20.4	0.00e+00	41	36	0	1105199104	54	7052
2026-01-18 13:58:46.08	159.32	23.46	-40.9	-42.3	20.8	0.00e+00	0	36	0	1107296256	54	6632
2026-01-18 13:58:47.09	159.47	23.33	-40.6	-42.0	21.1	0.00e+00	79	36	0	1109393408	54	6404
2026-01-18 13:58:48.10	159.62	23.20	-40.3	-41.6	21.5	0.00e+00	0	36	0	1111490560	54	6129
2026-01-18 13:58:49.11	159.76	23.07	-40.4	-41.7	21.4	0.00e+00	0	36	0	1112539136	54	6180
2026-01-18 13:58:50.11	159.90	22.94	-40.5	-41.7	21.3	0.00e+00	0	36	0	1114636288	54	6225
2026-01-18 13:58:51.12	160.05	22.82	-40.5	-41.7	21.3	0.00e+00	0	36	0	1116733440	54	6241
2026-01-18 13:58:52.13	160.19	22.69	-40.6	-41.8	21.2	0.00e+00	17	36	0	1118830592	54	6315
2026-01-18 13:58:53.14	160.33	22.56	-41.1	-42.4	20.7	0.00e+00	0	36	0	1120927744	54	6759
2026-01-18 13:58:54.15	160.47	22.44	-41.6	-43.0	20.1	0.00e+00	91	36	0	1121976320	54	7180
2026-01-18 13:58:55.15	160.60	22.31	-41.5	-42.9	20.3	0.00e+00	0	36	0	1124073472	54	7163
2026-01-18 13:58:56.16	160.74	22.19	-41.5	-42.9	20.4	0.00e+00	92	36	0	1126170624	56	6318
2026-01-18 13:58:57.17	160.88	22.06	-40.8	-42.1	21.1	0.00e+00	0	36	0	1128267776	56	5767
2026-01-18 13:58:58.18	161.01	21.94	-40.3	-41.5	21.4	0.00e+00	32	36	0	1130364928	54	6077
2026-01-18 13:58:59.19	161.14	21.81	-40.3	-41.5	21.5	0.00e+00	0	36	0	1131413504	54	6035
2026-01-18 13:59:00.20	161.28	21.69	-39.2	-40.2	22.6	0.00e+00	0	36	0	1133510656	52	5886
2026-01-18 13:59:01.21	161.41	21.57	-38.9	-39.8	22.9	0.00e+00	89	36	0	1135607808	52	5610
2026-01-18 13:59:02.22	161.54	21.44	-38.1	-39.0	23.5	0.00e+00	0	36	0	1137704960	50	5727
2026-01-18 13:59:03.22	161.67	21.32	-37.4	-38.3	24.0	0.00e+00	90	36	0	1139802112	48	5915
2026-01-18 13:59:04.23	161.80	21.20	-37.4	-38.2	24.0	0.00e+00	0	36	0	1141899264	48	5884
2026-01-18 13:59:05.24	161.92	21.08	-37.3	-38.2	24.1	0.00e+00	33	36	0	1142947840	48	5835
2026-01-18 13:59:06.25	162.05	20.96	-37.5	-38.4	23.9	0.00e+00	0	36	0	1145044992	48	5984
2026-01-18 13:59:07.26	162.18	20.84	-37.8	-38.7	23.7	0.00e+00	0	36	0	1147142144	48	6189
2026-01-18 13:59:08.27	162.30	20.72	-37.7	-38.6	23.9	0.00e+00	89	36	0	1149239296	48	6106
2026-01-18 13:59:09.28	162.43	20.60	-38.3	-39.2	23.2	0.00e+00	0	36	0	1150287872	48	6611
2026-01-18 13:59:10.28	162.55	20.48	-38.6	-39.6	22.9	0.00e+00	92	36	0	1152385024	48	6854
2026-01-18 13:59:11.29	162.67	20.36	-39.2	-40.2	22.4	0.00e+00	0	36	0	1154482176	50	6615
2026-01-18 13:59:12.30	162.79	20.25	-40.1	-41.3	21.7	0.00e+00	22	36	0	1156579328	52	6621
2026-01-18 13:59:13.31	162.91	20.13	-40.0	-41.1	21.8	0.00e+00	0	36	0	1158676480	52	6514
2026-01-18 13:59:14.32	163.03	20.01	-40.4	-41.6	21.4	0.00e+00	0	36	0	1159725056	52	6868
2026-01-18 13:59:15.33	163.15	19.89	-40.8	-42.1	21.1	0.00e+00	0	36	0	1161822208	54	6478
2026-01-18 13:59:16.34	163.27	19.78	-40.8	-42.0	21.0	0.00e+00	0	36	0	1163919360	54	6440
2026-01-18 13:59:17.35	163.38	19.66	-40.9	-42.2	20.8	0.00e+00	74	36	0	1166016512	54	6584
2026-01-18 13:59:18.36	163.50	19.55	-40.9	-42.2	20.8	0.00e+00	0	36	0	1168113664	54	6590
2026-01-18 13:59:19.37	163.62	19.43	-40.9	-42.2	20.7	0.00e+00	6	36	0	1170210816	54	6597
2026-01-18 13:59:20.38	163.73	19.32	-41.0	-42.2	20.8	0.00e+00	0	36	0	1171259392	54	6600
2026-01-18 13:59:21.39	163.84	19.20	-40.5	-41.7	21.2	0.00e+00	0	36	0	1173356544	54	6216
2026-01-18 13:59:22.40	163.96	19.09	-40.3	-41.4	21.5	0.00e+00	0	36	0	1175453696	54	6025
2026-01-18 13:59:23.40	164.07	18.97	-40.2	-41.3	21.6	0.00e+00	0	36	0	1177550848	54	5952
2026-01-18 13:59:24.41	164.18	18.86	-40.1	-41.2	21.6	0.00e+00	88	36	0	1179648000	54	5880
2026-01-18 13:59:25.42	164.29	18.75	-40.0	-41.1	21.8	0.00e+00	0	36	0	1180696576	54	5781
2026-01-18 13:59:26.43	164.40	18.64	-39.5	-40.6	22.2	0.00e+00	91	36	0	1182793728	52	6126
2026-01-18 13:59:27.44	164.51	18.52	-39.4	-40.5	22.3	0.00e+00	33	36	0	1184890880	52	6039
2026-01-18 13:59:28.45	164.61	18.41	-39.5	-40.6	22.2	0.00e+00	0	36	0	1186988032	52	6139
2026-01-18 13:59:29.46	164.72	18.30	-39.4	-40.4	22.4	0.00e+00	0	36	0	1189085184	52	6010
2026-01-18 13:59:30.47	164.83	18.19	-39.2	-40.3	22.3	0.00e+00	0	36	0	1190133760	52	5910
2026-01-18 13:59:31.48	164.93	18.08	-39.4	-40.5	22.3	0.00e+00	31	36	0	1192230912	52	6052
2026-01-18 13:59:32.49	165.04	17.97	-39.4	-40.4	22.3	0.00e+00	0	36	0	1194328064	52	6008
2026-01-18 13:59:33.50	165.14	17.86	-39.4	-40.4	22.3	0.00e+00	77	36	0	1196425216	52	6029
2026-01-18 13:59:34.51	165.25	17.75	-39.4	-40.5	22.1	0.00e+00	0	36	0	1198522368	52	6072
2026-01-18 13:59:35.52	165.35	17.64	-39.6	-40.7	22.2	0.00e+00	0	36	0	1199570944	52	6198
2026-01-18 13:59:36.53	165.45	17.54	-39.9	-41.0	21.9	0.00e+00	0	36	0	1201668096	52	6427
2026-01-18 13:59:37.54	165.55	17.43	-39.6	-40.7	22.1	0.00e+00	0	36	0	1203765248	52	6210
2026-01-18 13:59:38.55	165.65	17.32	-39.8	-40.9	22.0	0.00e+00	85	36	0	1205862400	52	6319
2026-01-18 13:59:39.56	165.75	17.21	-39.6	-40.6	22.2	0.00e+00	0	36	0	1207959552	52	6161
2026-01-18 13:59:40.56	165.85	17.11	-39.7	-40.8	22.1	0.00e+00	92	36	0	1209008128	52	6268
2026-01-18 13:59:41.57	165.95	17.00	-39.9	-41.0	21.8	0.00e+00	0	36	0	1211105280	52	6398
2026-01-18 13:59:42.58	166.05	16.90	-39.7	-40.7	22.0	0.00e+00	0	36	0	1213202432	52	6234
2026-01-18 13:59:43.58	166.15	16.79	-39.8	-40.8	22.0	0.00e+00	0	36	0	1215299584	52	6315
2026-01-18 13:59:44.59	166.24	16.69	-39.8	-40.8	22.0	0.00e+00	0	36	0	1217396736	52	6303
