passes_logs/2026/01/18/R4.6S_Anadyr/R4.6S_Anadyr__20260118_024110_FENGYUN_3D_rec.log

#Pass ID: 20260118_024110_FENGYUN 3D
#Satellite: FENGYUN 3D
#Configuration: FENGYUN 3D
#almurnet v.1.7.20251203
#Start time: 2026-01-18 02:41:12

#Version: 2.2.20231116
#Station: R4.6S_Anadyr
#Location: 177.4865 lon 64.73178 lat
#TLE: 1 43010U 17072A   26017.61121112  .00000213  00000+0  12257-3 0  9991
#TLE: 2 43010  98.9934 349.4672 0002374 103.9362 256.2078 14.19696413423628

#Time	Az	El	Level	Level2	SNR	BER	BlckErr	Temp	State	Recorded	gain1	gain2
2026-01-18 02:41:12.44	166.67	0.13	-50.3	-68.0	3.5	3.02e+01	0	28	0	0	60	96983
2026-01-18 02:41:13.45	166.69	0.19	-49.5	-61.6	3.6	8.46e-01	0	30	104	0	60	43555
2026-01-18 02:41:14.46	166.71	0.25	-49.4	-61.5	3.6	8.45e-01	0	30	104	0	60	43040
2026-01-18 02:41:15.47	166.72	0.31	-49.3	-61.4	3.6	8.45e-01	0	30	104	0	60	42595
2026-01-18 02:41:16.48	166.74	0.37	-50.0	-62.1	3.6	8.45e-01	0	30	104	0	60	45968
2026-01-18 02:41:17.49	166.76	0.43	-49.4	-61.5	3.6	8.47e-01	0	30	104	0	60	42727
2026-01-18 02:41:18.50	166.78	0.49	-49.9	-62.1	3.6	8.45e-01	0	30	104	0	60	45956
2026-01-18 02:41:19.51	166.79	0.56	-49.4	-61.5	3.6	8.46e-01	0	30	104	0	60	42716
2026-01-18 02:41:20.52	166.81	0.62	-49.1	-61.2	3.6	8.45e-01	0	30	104	0	60	41728
2026-01-18 02:41:21.53	166.83	0.68	-49.1	-61.2	3.6	8.45e-01	0	30	104	0	60	41637
2026-01-18 02:41:22.54	166.84	0.74	-49.0	-61.1	3.6	8.45e-01	0	30	104	0	60	41106
2026-01-18 02:41:23.55	166.86	0.80	-48.9	-60.9	3.6	8.45e-01	0	30	104	0	60	40205
2026-01-18 02:41:24.56	166.88	0.86	-49.1	-61.2	3.6	8.45e-01	0	30	104	0	60	41306
2026-01-18 02:41:25.57	166.90	0.93	-49.1	-61.2	3.6	8.46e-01	0	30	104	0	60	41486
2026-01-18 02:41:26.58	166.91	0.99	-48.8	-61.0	3.6	8.44e-01	0	30	104	0	60	40349
2026-01-18 02:41:27.59	166.93	1.05	-48.8	-60.9	3.6	8.45e-01	0	30	104	0	60	39950
2026-01-18 02:41:28.60	166.95	1.11	-48.6	-60.7	3.6	8.44e-01	0	30	104	0	60	39079
2026-01-18 02:41:29.61	166.97	1.18	-48.4	-60.6	3.6	8.45e-01	0	30	104	0	60	38904
2026-01-18 02:41:30.62	166.98	1.24	-48.4	-60.6	3.6	8.45e-01	0	30	104	0	60	38526
2026-01-18 02:41:31.63	167.00	1.30	-48.3	-60.3	3.6	8.46e-01	0	30	104	0	60	37557
2026-01-18 02:41:32.64	167.02	1.36	-47.3	-59.5	3.6	8.45e-01	0	30	104	0	60	33962
2026-01-18 02:41:33.65	167.04	1.43	-48.2	-60.2	3.6	8.45e-01	0	30	104	0	60	37008
2026-01-18 02:41:34.66	167.05	1.49	-47.9	-59.9	3.6	8.45e-01	0	30	104	0	60	35888
2026-01-18 02:41:35.67	167.07	1.55	-47.7	-59.8	3.6	8.46e-01	0	30	104	0	60	35429
2026-01-18 02:41:36.68	167.09	1.62	-47.4	-59.5	3.6	8.45e-01	0	30	104	0	60	34032
2026-01-18 02:41:37.69	167.11	1.68	-47.4	-59.1	3.6	8.46e-01	0	30	104	0	60	32642
2026-01-18 02:41:38.70	167.13	1.74	-47.3	-58.9	3.6	8.46e-01	0	30	104	0	60	31883
2026-01-18 02:41:39.70	167.14	1.81	-47.3	-59.1	3.5	8.45e-01	0	30	104	0	60	32564
2026-01-18 02:41:40.71	167.16	1.87	-47.3	-59.1	3.6	8.45e-01	0	30	104	0	60	32580
2026-01-18 02:41:41.73	167.18	1.94	-47.3	-59.2	3.6	8.44e-01	0	30	104	0	60	32951
2026-01-18 02:41:42.74	167.20	2.00	-47.2	-59.3	3.6	8.46e-01	0	30	104	0	60	33301
2026-01-18 02:41:43.75	167.22	2.06	-47.2	-59.3	3.6	8.44e-01	0	30	104	0	60	33216
2026-01-18 02:41:44.76	167.24	2.13	-47.2	-59.2	3.6	8.45e-01	0	30	104	0	60	33117
2026-01-18 02:41:45.77	167.25	2.19	-47.2	-59.2	3.6	8.46e-01	0	30	104	0	60	33122
2026-01-18 02:41:46.78	167.27	2.26	-47.2	-59.1	3.6	8.45e-01	0	30	104	0	60	32769
2026-01-18 02:41:47.79	167.29	2.32	-47.2	-59.0	3.6	8.45e-01	0	30	104	0	60	32283
2026-01-18 02:41:48.80	167.31	2.39	-47.2	-58.7	3.6	8.45e-01	0	30	104	0	60	31270
2026-01-18 02:41:49.81	167.33	2.45	-47.2	-58.2	3.6	8.46e-01	0	30	104	0	60	29538
2026-01-18 02:41:50.82	167.35	2.52	-47.1	-57.8	3.6	8.45e-01	0	30	104	0	60	27991
2026-01-18 02:41:51.83	167.37	2.59	-47.0	-57.2	3.6	8.44e-01	0	30	104	0	60	26264
2026-01-18 02:41:52.83	167.39	2.65	-47.0	-56.9	3.6	8.45e-01	0	30	104	0	60	25343
2026-01-18 02:41:53.85	167.41	2.72	-47.1	-57.2	3.6	8.44e-01	0	30	104	0	60	26205
2026-01-18 02:41:54.86	167.42	2.78	-47.1	-57.7	3.6	8.43e-01	0	30	104	0	60	27632
2026-01-18 02:41:55.87	167.44	2.85	-47.1	-57.4	3.7	8.45e-01	0	30	104	0	60	26721
2026-01-18 02:41:56.88	167.46	2.92	-46.8	-54.2	4.1	8.32e-01	0	30	0	0	60	18523
2026-01-18 02:41:57.89	167.48	2.98	-45.7	-50.0	7.5	2.46e-01	0	30	0	2097152	60	11485
2026-01-18 02:41:58.90	167.50	3.05	-44.6	-47.7	10.1	1.51e-02	0	30	0	7340032	60	8756
2026-01-18 02:41:59.91	167.52	3.12	-43.0	-45.2	12.9	3.72e-04	0	30	0	13631488	60	6580
2026-01-18 02:42:00.91	167.54	3.18	-41.3	-42.8	15.8	1.10e-06	0	30	0	18874368	56	6303
2026-01-18 02:42:01.93	167.56	3.25	-40.4	-41.8	16.4	0.00e+00	0	30	0	25165824	54	6311
2026-01-18 02:42:02.93	167.58	3.32	-38.8	-39.9	18.5	0.00e+00	0	30	0	30408704	52	5658
2026-01-18 02:42:03.95	167.60	3.39	-37.8	-38.8	19.5	0.00e+00	0	30	0	35651584	50	5591
2026-01-18 02:42:04.96	167.62	3.45	-37.2	-38.2	20.1	0.00e+00	0	30	0	41943040	48	5849
2026-01-18 02:42:05.97	167.64	3.52	-37.0	-37.9	20.3	0.00e+00	0	30	0	47185920	48	5681
2026-01-18 02:42:06.98	167.66	3.59	-36.5	-37.4	20.9	0.00e+00	0	30	0	53477376	46	5978
2026-01-18 02:42:07.99	167.68	3.66	-37.1	-38.0	20.1	0.00e+00	0	30	0	58720256	46	6437
2026-01-18 02:42:09.00	167.70	3.73	-37.2	-38.1	20.1	0.00e+00	0	30	0	63963136	48	5784
2026-01-18 02:42:10.01	167.72	3.79	-38.2	-39.2	19.1	0.00e+00	0	30	0	70254592	48	6585
2026-01-18 02:42:11.02	167.74	3.86	-41.3	-42.9	15.3	0.00e+00	0	30	0	75497472	54	7162
2026-01-18 02:42:12.03	167.76	3.93	-40.8	-42.2	17.1	0.00e+00	0	30	0	81788928	54	6546
2026-01-18 02:42:13.04	167.78	4.00	-47.0	-56.5	3.6	3.86e-01	0	30	104	85983232	60	24171
2026-01-18 02:42:14.05	167.80	4.07	-45.0	-48.8	10.0	5.18e-02	0	30	0	85983232	60	9927
2026-01-18 02:42:15.06	167.83	4.14	-46.7	-53.0	5.0	4.59e-02	0	30	0	91226112	60	16090
2026-01-18 02:42:16.07	167.85	4.21	-43.3	-45.5	12.8	3.32e-03	0	30	0	96468992	60	6795
2026-01-18 02:42:17.08	167.87	4.28	-41.8	-43.5	15.1	0.00e+00	0	30	0	101711872	58	6039
2026-01-18 02:42:18.09	167.89	4.35	-41.6	-43.3	15.4	0.00e+00	0	30	0	108003328	56	6635
2026-01-18 02:42:19.10	167.91	4.42	-39.6	-40.7	17.7	0.00e+00	0	30	0	113246208	54	5558
2026-01-18 02:42:20.11	167.93	4.49	-39.2	-40.3	18.2	0.00e+00	0	30	0	119537664	50	6662
2026-01-18 02:42:21.12	167.95	4.56	-39.9	-41.1	17.6	0.00e+00	0	30	0	124780544	50	7332
2026-01-18 02:42:22.13	167.97	4.63	-39.3	-40.4	17.9	0.00e+00	0	31	0	131072000	52	6015
2026-01-18 02:42:23.14	167.99	4.70	-39.5	-40.7	17.8	0.00e+00	0	30	0	136314880	52	6183
2026-01-18 02:42:24.15	168.02	4.77	-40.1	-41.4	17.8	0.00e+00	0	30	0	141557760	52	6724
2026-01-18 02:42:25.16	168.04	4.84	-40.4	-41.7	18.5	0.00e+00	0	30	0	147849216	52	6971
2026-01-18 02:42:26.17	168.06	4.91	-39.5	-40.7	18.2	0.00e+00	0	30	0	153092096	52	6231
2026-01-18 02:42:27.18	168.08	4.99	-38.6	-39.7	18.7	0.00e+00	0	30	0	159383552	50	6208
2026-01-18 02:42:28.19	168.10	5.06	-39.2	-40.4	18.6	0.00e+00	0	30	0	164626432	50	6702
2026-01-18 02:42:29.20	168.12	5.13	-38.1	-39.1	19.3	0.00e+00	0	30	0	169869312	50	5790
2026-01-18 02:42:30.21	168.15	5.20	-39.0	-40.1	18.3	0.00e+00	0	30	0	176160768	50	6523
2026-01-18 02:42:31.22	168.17	5.27	-38.4	-39.5	19.4	0.00e+00	0	30	0	181403648	50	6056
2026-01-18 02:42:32.23	168.19	5.35	-38.9	-40.0	18.5	0.00e+00	0	30	0	187695104	50	6434
2026-01-18 02:42:33.24	168.21	5.42	-37.6	-38.5	19.6	0.00e+00	0	30	0	192937984	48	6088
2026-01-18 02:42:34.25	168.24	5.49	-37.0	-37.9	21.0	0.00e+00	0	30	0	198180864	48	5658
2026-01-18 02:42:35.26	168.26	5.57	-37.1	-38.0	20.9	0.00e+00	0	30	0	204472320	46	6393
2026-01-18 02:42:36.27	168.28	5.64	-36.6	-37.5	21.0	0.00e+00	0	30	0	209715200	46	6102
2026-01-18 02:42:37.28	168.30	5.71	-36.8	-37.6	20.7	0.00e+00	0	30	0	216006656	46	6155
2026-01-18 02:42:38.29	168.33	5.79	-36.1	-36.9	22.0	0.00e+00	0	30	0	221249536	46	5671
2026-01-18 02:42:39.29	168.35	5.86	-36.3	-37.1	22.1	0.00e+00	0	30	0	227540992	46	5801
2026-01-18 02:42:40.30	168.37	5.93	-36.4	-37.2	21.7	0.00e+00	0	30	0	232783872	46	5849
2026-01-18 02:42:41.32	168.40	6.01	-36.2	-37.0	21.6	0.00e+00	0	30	0	239075328	46	5746
2026-01-18 02:42:42.33	168.42	6.08	-35.7	-36.5	22.2	0.00e+00	0	30	0	244318208	46	5417
2026-01-18 02:42:43.34	168.44	6.16	-36.0	-36.8	22.0	0.00e+00	0	30	0	249561088	44	6312
2026-01-18 02:42:44.35	168.47	6.23	-35.6	-36.4	22.3	0.00e+00	0	30	0	255852544	44	5981
2026-01-18 02:42:45.35	168.49	6.31	-36.0	-36.8	21.9	0.00e+00	0	30	0	261095424	44	6277
2026-01-18 02:42:46.36	168.51	6.38	-35.9	-36.7	22.1	0.00e+00	0	30	0	267386880	44	6210
2026-01-18 02:42:47.37	168.54	6.46	-36.3	-37.1	21.6	0.00e+00	0	30	0	272629760	44	6515
2026-01-18 02:42:48.38	168.56	6.53	-35.5	-36.3	22.3	0.00e+00	0	30	0	277872640	44	5905
2026-01-18 02:42:49.39	168.59	6.61	-35.4	-36.1	22.3	0.00e+00	0	30	0	284164096	44	5816
2026-01-18 02:42:50.40	168.61	6.69	-35.5	-36.3	22.6	0.00e+00	0	30	0	289406976	44	5962
2026-01-18 02:42:51.41	168.63	6.76	-35.1	-35.8	22.9	0.00e+00	0	30	0	295698432	44	5626
2026-01-18 02:42:52.42	168.66	6.84	-34.6	-35.4	23.1	0.00e+00	0	31	0	300941312	42	5967
2026-01-18 02:42:53.43	168.68	6.92	-35.2	-35.9	22.7	0.00e+00	0	30	0	306184192	42	6384
2026-01-18 02:42:54.44	168.71	7.00	-35.1	-35.9	22.9	0.00e+00	0	31	0	312475648	42	6348
2026-01-18 02:42:55.45	168.73	7.07	-35.1	-35.8	22.6	0.00e+00	0	30	0	317718528	42	6280
2026-01-18 02:42:56.46	168.76	7.15	-34.9	-35.7	22.9	0.00e+00	0	30	0	324009984	42	6186
2026-01-18 02:42:57.47	168.78	7.23	-34.5	-35.3	23.3	0.00e+00	0	31	0	329252864	42	5902
2026-01-18 02:42:58.48	168.81	7.31	-34.5	-35.3	23.3	0.00e+00	0	30	0	335544320	42	5908
2026-01-18 02:42:59.49	168.83	7.38	-34.1	-34.8	23.7	0.00e+00	0	31	0	340787200	42	5607
2026-01-18 02:43:00.50	168.86	7.46	-34.0	-34.7	23.8	0.00e+00	0	30	0	346030080	42	5533
2026-01-18 02:43:01.51	168.88	7.54	-34.5	-35.2	23.3	0.00e+00	0	30	0	352321536	42	5871
2026-01-18 02:43:02.52	168.91	7.62	-34.2	-34.9	23.8	0.00e+00	0	30	0	357564416	42	5646
2026-01-18 02:43:03.53	168.93	7.70	-34.0	-34.7	23.8	0.00e+00	0	30	0	363855872	42	5537
2026-01-18 02:43:04.54	168.96	7.78	-34.1	-34.8	23.8	0.00e+00	0	31	0	369098752	42	5595
2026-01-18 02:43:05.55	168.98	7.86	-34.3	-35.0	23.7	0.00e+00	0	30	0	374341632	42	5718
2026-01-18 02:43:06.56	169.01	7.94	-33.9	-34.6	23.9	0.00e+00	0	30	0	380633088	42	5498
2026-01-18 02:43:07.57	169.04	8.02	-34.1	-34.8	23.8	0.00e+00	0	30	0	385875968	42	5619
2026-01-18 02:43:08.57	169.06	8.10	-34.5	-35.2	23.4	0.00e+00	0	30	0	392167424	40	6572
2026-01-18 02:43:09.58	169.09	8.18	-34.0	-34.7	24.1	0.00e+00	0	30	0	397410304	42	5544
2026-01-18 02:43:10.59	169.12	8.26	-34.2	-34.9	23.8	0.00e+00	0	30	0	402653184	42	5675
2026-01-18 02:43:11.60	169.14	8.34	-34.3	-35.1	23.7	0.00e+00	0	30	0	408944640	42	5763
2026-01-18 02:43:12.61	169.17	8.43	-34.1	-34.8	23.9	0.00e+00	0	30	0	414187520	42	5590
2026-01-18 02:43:13.63	169.20	8.51	-34.0	-34.7	23.9	0.00e+00	0	30	0	420478976	42	5551
2026-01-18 02:43:14.64	169.22	8.59	-34.2	-34.9	23.8	0.00e+00	0	30	0	425721856	42	5690
2026-01-18 02:43:15.65	169.25	8.67	-33.9	-34.5	24.1	0.00e+00	0	30	0	432013312	40	6103
2026-01-18 02:43:16.65	169.28	8.75	-33.8	-34.5	24.1	0.00e+00	0	30	0	437256192	40	6076
2026-01-18 02:43:17.66	169.30	8.84	-33.9	-34.6	24.1	0.00e+00	0	30	0	443547648	40	6123
2026-01-18 02:43:18.67	169.33	8.92	-34.2	-34.9	23.8	0.00e+00	0	30	0	448790528	40	6357
2026-01-18 02:43:19.68	169.36	9.00	-33.8	-34.5	24.2	0.00e+00	0	30	0	454033408	40	6057
2026-01-18 02:43:20.69	169.39	9.09	-33.8	-34.5	24.1	0.00e+00	0	30	0	460324864	40	6043
2026-01-18 02:43:21.70	169.42	9.17	-34.0	-34.7	23.9	0.00e+00	0	31	0	465567744	40	6234
2026-01-18 02:43:22.71	169.44	9.26	-33.5	-34.1	24.4	0.00e+00	0	30	0	471859200	40	5828
2026-01-18 02:43:23.72	169.47	9.34	-33.9	-34.6	24.2	0.00e+00	0	30	0	477102080	40	6126
2026-01-18 02:43:24.73	169.50	9.43	-33.7	-34.4	24.2	0.00e+00	0	31	0	482344960	40	6009
2026-01-18 02:43:25.74	169.53	9.51	-33.6	-34.3	24.5	0.00e+00	0	31	0	488636416	40	5930
2026-01-18 02:43:26.75	169.56	9.60	-33.6	-34.3	24.5	0.00e+00	0	31	0	493879296	40	5900
2026-01-18 02:43:27.76	169.59	9.68	-33.5	-34.1	24.6	0.00e+00	0	30	0	500170752	40	5807
2026-01-18 02:43:28.77	169.62	9.77	-33.5	-34.2	24.5	0.00e+00	0	31	0	505413632	40	5879
2026-01-18 02:43:29.77	169.64	9.85	-33.4	-34.1	24.7	0.00e+00	0	31	0	510656512	40	5809
2026-01-18 02:43:30.78	169.67	9.94	-33.6	-34.3	24.5	0.00e+00	0	30	0	516947968	40	5904
2026-01-18 02:43:31.79	169.70	10.03	-33.1	-33.8	24.9	0.00e+00	0	31	0	522190848	40	5576
2026-01-18 02:43:32.80	169.73	10.12	-33.3	-34.0	24.8	0.00e+00	0	31	0	528482304	40	5706
2026-01-18 02:43:33.81	169.76	10.20	-33.6	-34.3	24.6	0.00e+00	0	31	0	533725184	40	5912
2026-01-18 02:43:34.82	169.79	10.29	-33.5	-34.2	24.6	0.00e+00	0	30	0	540016640	40	5861
2026-01-18 02:43:35.83	169.82	10.38	-33.5	-34.2	24.7	0.00e+00	0	31	0	545259520	40	5837
2026-01-18 02:43:36.84	169.85	10.47	-33.4	-34.1	24.7	0.00e+00	0	30	0	550502400	40	5791
2026-01-18 02:43:37.85	169.88	10.56	-33.9	-34.5	24.4	0.00e+00	0	31	0	556793856	40	6103
2026-01-18 02:43:38.86	169.91	10.65	-33.2	-33.9	24.9	0.00e+00	0	31	0	562036736	40	5671
2026-01-18 02:43:39.87	169.94	10.74	-33.5	-34.2	24.6	0.00e+00	0	30	0	568328192	40	5880
2026-01-18 02:43:40.88	169.98	10.83	-33.5	-34.2	24.7	0.00e+00	0	30	0	573571072	40	5852
2026-01-18 02:43:41.89	170.01	10.92	-33.8	-34.5	24.4	0.00e+00	0	30	0	578813952	40	6058
2026-01-18 02:43:42.90	170.04	11.01	-33.8	-34.5	24.4	0.00e+00	0	30	0	585105408	40	6100
2026-01-18 02:43:43.91	170.07	11.10	-33.6	-34.3	24.6	0.00e+00	0	30	0	590348288	40	5914
2026-01-18 02:43:44.92	170.10	11.19	-33.5	-34.1	24.8	0.00e+00	0	30	0	596639744	40	5824
2026-01-18 02:43:45.93	170.13	11.28	-33.4	-34.0	24.8	0.00e+00	0	31	0	601882624	40	5754
2026-01-18 02:43:46.94	170.16	11.37	-34.1	-34.8	24.2	0.00e+00	0	30	0	607125504	40	6255
2026-01-18 02:43:47.95	170.20	11.46	-33.4	-34.2	24.7	0.00e+00	0	31	0	613416960	40	5837
2026-01-18 02:43:48.96	170.23	11.56	-33.4	-34.1	24.8	0.00e+00	0	31	0	618659840	40	5772
2026-01-18 02:43:49.97	170.26	11.65	-33.6	-34.3	24.6	0.00e+00	0	31	0	624951296	40	5959
2026-01-18 02:43:50.98	170.29	11.74	-33.4	-34.1	24.6	0.00e+00	0	31	0	630194176	40	5812
2026-01-18 02:43:51.98	170.33	11.83	-33.6	-34.3	24.6	0.00e+00	0	31	0	636485632	40	5956
2026-01-18 02:43:52.99	170.36	11.93	-33.8	-34.5	24.4	0.00e+00	0	30	0	641728512	40	6090
2026-01-18 02:43:54.01	170.39	12.02	-33.5	-34.2	24.7	0.00e+00	0	31	0	648019968	40	5856
2026-01-18 02:43:55.02	170.43	12.12	-33.6	-34.3	24.6	0.00e+00	0	31	0	653262848	40	5945
2026-01-18 02:43:56.03	170.46	12.21	-33.5	-34.2	24.8	0.00e+00	0	30	0	658505728	40	5876
2026-01-18 02:43:57.04	170.49	12.31	-33.6	-34.3	24.8	0.00e+00	0	31	0	664797184	40	5939
2026-01-18 02:43:58.05	170.53	12.40	-33.5	-34.2	24.8	0.00e+00	0	30	0	670040064	40	5887
2026-01-18 02:43:59.05	170.56	12.50	-33.5	-34.2	24.9	0.00e+00	0	30	0	675282944	40	5864
2026-01-18 02:44:00.06	170.60	12.59	-33.6	-34.2	24.7	0.00e+00	0	31	0	681574400	40	5891
2026-01-18 02:44:01.07	170.63	12.69	-33.5	-34.2	24.8	0.00e+00	0	31	0	686817280	40	5878
2026-01-18 02:44:02.08	170.67	12.79	-33.5	-34.2	24.8	0.00e+00	0	31	0	693108736	40	5856
2026-01-18 02:44:03.09	170.70	12.89	-33.4	-34.1	24.9	0.00e+00	0	31	0	698351616	40	5778
2026-01-18 02:44:04.10	170.74	12.98	-33.2	-33.9	25.0	0.00e+00	0	31	0	703594496	40	5643
2026-01-18 02:44:05.11	170.77	13.08	-33.4	-34.1	24.8	0.00e+00	0	31	0	709885952	40	5800
2026-01-18 02:44:06.12	170.81	13.18	-33.4	-34.1	24.8	0.00e+00	0	31	0	715128832	40	5798
2026-01-18 02:44:07.13	170.84	13.28	-33.3	-34.0	24.9	0.00e+00	0	31	0	721420288	40	5717
2026-01-18 02:44:08.14	170.88	13.38	-33.3	-34.0	25.0	0.00e+00	0	31	0	726663168	40	5731
2026-01-18 02:44:09.15	170.91	13.48	-33.4	-34.1	24.8	0.00e+00	0	31	0	732954624	40	5792
2026-01-18 02:44:10.16	170.95	13.58	-33.2	-33.9	25.0	0.00e+00	0	31	0	738197504	40	5688
2026-01-18 02:44:11.17	170.99	13.68	-33.0	-33.7	25.3	0.00e+00	0	31	0	744488960	40	5558
2026-01-18 02:44:12.18	171.03	13.78	-33.1	-33.7	25.2	0.00e+00	0	31	0	749731840	40	5559
2026-01-18 02:44:13.19	171.06	13.88	-32.8	-33.5	25.4	0.00e+00	0	31	0	754974720	38	6075
2026-01-18 02:44:14.20	171.10	13.98	-33.0	-33.6	25.4	0.00e+00	0	31	0	761266176	38	6165
2026-01-18 02:44:15.21	171.14	14.09	-33.0	-33.7	25.2	0.00e+00	0	31	0	766509056	38	6242
2026-01-18 02:44:16.22	171.18	14.19	-32.6	-33.2	25.6	0.00e+00	0	31	0	772800512	38	5885
2026-01-18 02:44:17.23	171.21	14.29	-32.6	-33.2	25.6	0.00e+00	0	31	0	778043392	38	5866
2026-01-18 02:44:18.24	171.25	14.40	-32.5	-33.2	25.7	0.00e+00	0	31	0	783286272	38	5849
2026-01-18 02:44:19.25	171.29	14.50	-32.9	-33.5	25.4	0.00e+00	0	31	0	789577728	38	6101
2026-01-18 02:44:20.26	171.33	14.61	-32.4	-33.1	25.9	0.00e+00	0	31	0	794820608	38	5762
2026-01-18 02:44:21.27	171.37	14.71	-32.3	-32.9	25.9	0.00e+00	0	31	0	801112064	38	5676
2026-01-18 02:44:22.28	171.41	14.82	-32.2	-32.9	25.9	0.00e+00	0	31	0	806354944	38	5664
2026-01-18 02:44:23.29	171.45	14.92	-32.3	-32.9	25.8	0.00e+00	0	31	0	811597824	38	5673
2026-01-18 02:44:24.30	171.49	15.03	-32.6	-33.3	25.5	0.00e+00	0	31	0	817889280	38	5932
2026-01-18 02:44:25.31	171.53	15.13	-32.2	-32.9	26.0	0.00e+00	0	31	0	823132160	38	5652
2026-01-18 02:44:26.32	171.57	15.24	-31.9	-32.5	26.1	0.00e+00	0	31	0	829423616	38	5428
2026-01-18 02:44:27.33	171.61	15.35	-32.0	-32.7	26.1	0.00e+00	0	30	0	834666496	38	5510
2026-01-18 02:44:28.34	171.65	15.46	-31.8	-32.5	26.3	0.00e+00	0	31	0	840957952	38	5400
2026-01-18 02:44:29.35	171.69	15.57	-31.9	-32.6	26.3	0.00e+00	0	31	0	846200832	38	5441
2026-01-18 02:44:30.36	171.73	15.68	-32.1	-32.8	26.1	0.00e+00	0	31	0	852492288	38	5591
2026-01-18 02:44:31.37	171.77	15.78	-32.0	-32.6	26.2	0.00e+00	0	31	0	857735168	38	5485
2026-01-18 02:44:32.38	171.82	15.89	-31.9	-32.6	26.3	0.00e+00	0	30	0	862978048	38	5456
2026-01-18 02:44:33.39	171.86	16.01	-31.9	-32.6	26.4	0.00e+00	0	31	0	869269504	38	5441
2026-01-18 02:44:34.40	171.90	16.12	-31.9	-32.5	26.4	0.00e+00	0	31	0	874512384	38	5423
2026-01-18 02:44:35.41	171.94	16.23	-32.1	-32.7	26.2	0.00e+00	0	31	0	880803840	38	5535
2026-01-18 02:44:36.42	171.99	16.34	-32.0	-32.6	26.3	0.00e+00	0	30	0	886046720	38	5471
2026-01-18 02:44:37.43	172.03	16.45	-31.7	-32.3	26.6	0.00e+00	0	31	0	891289600	38	5288
2026-01-18 02:44:38.44	172.07	16.57	-31.7	-32.3	26.6	0.00e+00	0	31	0	897581056	36	5935
2026-01-18 02:44:39.45	172.12	16.68	-31.6	-32.3	26.6	0.00e+00	0	31	0	902823936	36	5906
2026-01-18 02:44:40.46	172.16	16.79	-31.6	-32.2	26.6	0.00e+00	0	30	0	909115392	36	5875
2026-01-18 02:44:41.47	172.21	16.91	-31.7	-32.3	26.6	0.00e+00	0	31	0	914358272	36	5947
2026-01-18 02:44:42.48	172.25	17.02	-31.5	-32.1	26.7	0.00e+00	0	31	0	919601152	36	5805
2026-01-18 02:44:43.49	172.30	17.14	-31.6	-32.2	26.6	0.00e+00	0	31	0	925892608	36	5896
2026-01-18 02:44:44.50	172.34	17.25	-31.6	-32.2	26.7	0.00e+00	0	31	0	931135488	36	5882
2026-01-18 02:44:45.51	172.39	17.37	-31.7	-32.3	26.6	0.00e+00	0	31	0	937426944	36	5959
2026-01-18 02:44:46.52	172.44	17.49	-31.3	-32.0	26.9	0.00e+00	0	31	0	942669824	36	5714
2026-01-18 02:44:47.53	172.48	17.61	-31.4	-32.0	26.8	0.00e+00	0	31	0	948961280	36	5745
2026-01-18 02:44:48.54	172.53	17.72	-31.4	-32.0	26.8	0.00e+00	0	31	0	954204160	36	5759
2026-01-18 02:44:49.55	172.58	17.84	-31.5	-32.1	26.7	0.00e+00	0	31	0	959447040	36	5816
2026-01-18 02:44:50.56	172.63	17.96	-31.4	-32.0	26.8	0.00e+00	0	31	0	965738496	36	5742
2026-01-18 02:44:51.57	172.67	18.08	-31.4	-32.0	26.7	0.00e+00	0	31	0	970981376	36	5733
2026-01-18 02:44:52.58	172.72	18.20	-31.6	-32.2	26.7	0.00e+00	0	31	0	977272832	36	5882
2026-01-18 02:44:53.59	172.77	18.33	-31.6	-32.3	26.6	0.00e+00	0	31	0	982515712	36	5898
2026-01-18 02:44:54.59	172.82	18.45	-31.6	-32.3	26.8	0.00e+00	0	31	0	987758592	36	5902
2026-01-18 02:44:55.60	172.87	18.57	-31.7	-32.4	26.7	0.00e+00	0	31	0	994050048	36	5983
2026-01-18 02:44:56.61	172.92	18.69	-31.7	-32.4	26.6	0.00e+00	0	31	0	999292928	36	6004
2026-01-18 02:44:57.62	172.97	18.81	-31.9	-32.6	26.5	0.00e+00	0	31	0	1005584384	36	6116
2026-01-18 02:44:58.63	173.02	18.94	-31.6	-32.2	26.8	0.00e+00	0	31	0	1010827264	36	5872
2026-01-18 02:44:59.64	173.07	19.06	-31.7	-32.3	26.7	0.00e+00	0	31	0	1016070144	36	5942
2026-01-18 02:45:00.65	173.12	19.19	-31.8	-32.5	26.8	0.00e+00	0	31	0	1022361600	36	6037
2026-01-18 02:45:01.66	173.17	19.31	-31.4	-32.1	26.9	0.00e+00	0	31	0	1027604480	36	5769
2026-01-18 02:45:02.67	173.23	19.44	-31.3	-31.9	27.0	0.00e+00	0	31	0	1033895936	36	5654
2026-01-18 02:45:03.68	173.28	19.57	-31.0	-31.7	27.1	0.00e+00	0	31	0	1039138816	36	5508
2026-01-18 02:45:04.69	173.33	19.70	-31.0	-31.7	27.1	0.00e+00	0	31	0	1045430272	36	5507
2026-01-18 02:45:05.70	173.38	19.82	-31.0	-31.6	27.2	0.00e+00	0	31	0	1050673152	36	5464
2026-01-18 02:45:06.71	173.44	19.95	-31.0	-31.6	27.2	0.00e+00	0	31	0	1056964608	36	5453
2026-01-18 02:45:07.72	173.49	20.08	-30.8	-31.4	27.3	0.00e+00	0	31	0	1062207488	36	5363
2026-01-18 02:45:08.72	173.55	20.21	-31.0	-31.6	27.2	0.00e+00	0	31	0	1067450368	36	5502
2026-01-18 02:45:09.73	173.60	20.34	-30.9	-31.5	27.3	0.00e+00	0	31	0	1073741824	36	5409
2026-01-18 02:45:10.74	173.66	20.48	-30.8	-31.5	27.3	0.00e+00	0	31	0	1078984704	36	5378
2026-01-18 02:45:11.75	173.71	20.61	-31.0	-31.6	27.2	0.00e+00	0	31	0	1084227584	36	5481
2026-01-18 02:45:12.76	173.77	20.74	-30.9	-31.6	27.3	0.00e+00	0	31	0	1090519040	36	5447
2026-01-18 02:45:13.77	173.83	20.88	-31.0	-31.6	27.2	0.00e+00	0	31	0	1095761920	36	5484
2026-01-18 02:45:14.78	173.88	21.01	-30.9	-31.5	27.2	0.00e+00	0	31	0	1102053376	36	5404
2026-01-18 02:45:15.79	173.94	21.15	-31.0	-31.6	27.1	0.00e+00	0	31	0	1107296256	36	5487
2026-01-18 02:45:16.80	174.00	21.28	-30.9	-31.5	27.3	0.00e+00	0	31	0	1112539136	36	5396
2026-01-18 02:45:17.81	174.06	21.42	-30.9	-31.5	27.3	0.00e+00	0	30	0	1118830592	36	5435
2026-01-18 02:45:18.82	174.12	21.55	-30.9	-31.5	27.3	0.00e+00	0	31	0	1124073472	36	5412
2026-01-18 02:45:19.83	174.18	21.69	-31.0	-31.6	27.3	0.00e+00	0	30	0	1130364928	36	5487
2026-01-18 02:45:20.84	174.24	21.83	-30.7	-31.4	27.4	0.00e+00	0	31	0	1135607808	34	5985
2026-01-18 02:45:21.85	174.30	21.97	-30.7	-31.4	27.4	0.00e+00	0	31	0	1141899264	34	5999
2026-01-18 02:45:22.86	174.36	22.11	-30.6	-31.2	27.4	0.00e+00	0	31	0	1147142144	34	5857
2026-01-18 02:45:23.88	174.42	22.25	-30.6	-31.2	27.6	0.00e+00	0	31	0	1153433600	34	5843
2026-01-18 02:45:24.89	174.49	22.40	-30.5	-31.1	27.6	0.00e+00	0	31	0	1158676480	34	5815
2026-01-18 02:45:25.90	174.55	22.54	-30.4	-31.0	27.7	0.00e+00	0	31	0	1163919360	34	5723
2026-01-18 02:45:26.91	174.61	22.68	-30.5	-31.1	27.5	0.00e+00	0	31	0	1170210816	34	5822
2026-01-18 02:45:27.91	174.68	22.82	-30.4	-31.1	27.6	0.00e+00	0	31	0	1175453696	34	5790
2026-01-18 02:45:28.92	174.74	22.97	-30.3	-30.9	27.8	0.00e+00	0	31	0	1181745152	34	5679
2026-01-18 02:45:29.93	174.81	23.11	-30.1	-30.8	27.9	0.00e+00	0	31	0	1186988032	34	5578
2026-01-18 02:45:30.95	174.87	23.26	-30.1	-30.7	27.9	0.00e+00	0	31	0	1192230912	34	5551
2026-01-18 02:45:31.96	174.94	23.41	-30.1	-30.7	27.9	0.00e+00	0	31	0	1198522368	34	5561
2026-01-18 02:45:32.97	175.00	23.56	-30.3	-30.9	27.8	0.00e+00	0	31	0	1203765248	34	5660
2026-01-18 02:45:33.97	175.07	23.71	-30.3	-30.9	27.8	0.00e+00	0	31	0	1210056704	34	5670
2026-01-18 02:45:34.98	175.14	23.85	-30.3	-31.0	27.8	0.00e+00	0	31	0	1215299584	34	5707
2026-01-18 02:45:35.99	175.21	24.01	-30.2	-30.8	27.9	0.00e+00	0	31	0	1220542464	34	5612
2026-01-18 02:45:37.00	175.28	24.16	-30.2	-30.8	27.9	0.00e+00	0	31	0	1226833920	34	5627
2026-01-18 02:45:38.01	175.35	24.31	-30.2	-30.8	27.7	0.00e+00	0	31	0	1232076800	34	5625
2026-01-18 02:45:39.02	175.42	24.46	-30.3	-30.9	27.9	0.00e+00	0	31	0	1238368256	34	5694
2026-01-18 02:45:40.03	175.49	24.62	-30.2	-30.9	27.9	0.00e+00	0	31	0	1243611136	34	5636
2026-01-18 02:45:41.04	175.56	24.77	-30.2	-30.8	27.9	0.00e+00	0	31	0	1249902592	34	5630
2026-01-18 02:45:42.05	175.63	24.93	-30.0	-30.7	28.0	0.00e+00	0	31	0	1255145472	34	5509
2026-01-18 02:45:43.06	175.71	25.08	-30.2	-30.8	27.9	0.00e+00	0	31	0	1261436928	34	5609
2026-01-18 02:45:44.07	175.78	25.24	-30.1	-30.7	28.0	0.00e+00	0	31	0	1266679808	34	5540
2026-01-18 02:45:45.08	175.86	25.40	-30.2	-30.8	28.0	0.00e+00	0	31	0	1271922688	34	5580
2026-01-18 02:45:46.09	175.93	25.56	-30.0	-30.6	28.0	0.00e+00	0	31	0	1278214144	34	5495
2026-01-18 02:45:47.10	176.01	25.72	-30.0	-30.6	28.0	0.00e+00	0	31	0	1283457024	34	5472
2026-01-18 02:45:48.11	176.08	25.88	-30.0	-30.6	28.0	0.00e+00	0	31	0	1289748480	34	5477
2026-01-18 02:45:49.12	176.16	26.04	-30.0	-30.6	28.1	0.00e+00	0	31	0	1294991360	34	5486
2026-01-18 02:45:50.13	176.24	26.20	-30.0	-30.6	28.1	0.00e+00	0	31	0	1300234240	34	5492
2026-01-18 02:45:51.14	176.32	26.37	-30.0	-30.7	28.1	0.00e+00	0	31	0	1306525696	34	5511
2026-01-18 02:45:52.15	176.40	26.53	-29.9	-30.5	28.2	0.00e+00	0	31	0	1311768576	34	5404
2026-01-18 02:45:53.16	176.48	26.70	-29.7	-30.3	28.3	0.00e+00	0	31	0	1318060032	32	5938
2026-01-18 02:45:54.16	176.56	26.86	-29.8	-30.4	28.3	0.00e+00	0	31	0	1323302912	32	5988
2026-01-18 02:45:55.18	176.64	27.03	-29.8	-30.4	28.2	0.00e+00	0	31	0	1328545792	32	6023
2026-01-18 02:45:56.18	176.73	27.20	-29.7	-30.3	28.3	0.00e+00	0	31	0	1334837248	32	5926
2026-01-18 02:45:57.19	176.81	27.37	-29.6	-30.2	28.4	0.00e+00	0	31	0	1340080128	32	5886
2026-01-18 02:45:58.20	176.89	27.54	-29.9	-30.5	28.2	0.00e+00	0	30	0	1346371584	32	6044
2026-01-18 02:45:59.21	176.98	27.71	-29.6	-30.2	28.3	0.00e+00	0	31	0	1351614464	32	5879
2026-01-18 02:46:00.22	177.07	27.88	-29.8	-30.4	28.1	0.00e+00	0	31	0	1357905920	32	6031
2026-01-18 02:46:01.23	177.15	28.06	-29.8	-30.4	28.2	0.00e+00	0	31	0	1363148800	32	5987
2026-01-18 02:46:02.24	177.24	28.23	-29.9	-30.5	28.2	0.00e+00	0	31	0	1368391680	32	6062
2026-01-18 02:46:03.25	177.33	28.41	-30.0	-30.6	28.0	0.00e+00	0	31	0	1374683136	32	6143
2026-01-18 02:46:04.26	177.42	28.58	-29.9	-30.6	28.1	0.00e+00	0	31	0	1379926016	32	6104
2026-01-18 02:46:05.27	177.51	28.76	-30.0	-30.7	28.1	0.00e+00	0	31	0	1386217472	32	6180
2026-01-18 02:46:06.28	177.61	28.94	-30.0	-30.6	28.1	0.00e+00	0	31	0	1391460352	32	6169
2026-01-18 02:46:07.29	177.70	29.12	-29.8	-30.4	28.2	0.00e+00	0	31	0	1396703232	32	6023
2026-01-18 02:46:08.30	177.79	29.30	-29.7	-30.3	28.3	0.00e+00	0	31	0	1402994688	32	5920
2026-01-18 02:46:09.31	177.89	29.48	-29.6	-30.2	28.3	0.00e+00	0	31	0	1408237568	32	5894
2026-01-18 02:46:10.31	177.98	29.66	-29.6	-30.2	28.4	0.00e+00	0	31	0	1414529024	32	5860
2026-01-18 02:46:11.32	178.08	29.85	-29.7	-30.3	28.2	0.00e+00	0	31	0	1419771904	32	5930
2026-01-18 02:46:12.33	178.18	30.03	-29.7	-30.3	28.3	0.00e+00	0	31	0	1425014784	32	5920
2026-01-18 02:46:13.34	178.28	30.22	-29.8	-30.3	28.2	0.00e+00	0	31	0	1431306240	32	5963
2026-01-18 02:46:14.35	178.38	30.41	-29.6	-30.2	28.3	0.00e+00	0	31	0	1436549120	32	5869
2026-01-18 02:46:15.36	178.48	30.60	-29.7	-30.3	28.3	0.00e+00	0	31	0	1442840576	32	5935
2026-01-18 02:46:16.37	178.58	30.79	-29.6	-30.3	28.5	0.00e+00	0	31	0	1448083456	32	5903
2026-01-18 02:46:17.38	178.69	30.98	-29.5	-30.1	28.5	0.00e+00	0	31	0	1454374912	32	5792
2026-01-18 02:46:18.39	178.79	31.17	-29.5	-30.1	28.6	0.00e+00	0	31	0	1459617792	32	5776
2026-01-18 02:46:19.40	178.90	31.36	-29.6	-30.2	28.4	0.00e+00	0	30	0	1464860672	32	5845
2026-01-18 02:46:20.40	179.01	31.56	-29.8	-30.4	28.3	0.00e+00	0	31	0	1471152128	32	5975
2026-01-18 02:46:21.41	179.12	31.75	-30.0	-30.6	28.2	0.00e+00	0	31	0	1476395008	32	6108
2026-01-18 02:46:22.42	179.23	31.95	-30.0	-30.6	28.1	0.00e+00	0	31	0	1482686464	32	6145
2026-01-18 02:46:23.44	179.34	32.15	-29.9	-30.5	28.3	0.00e+00	0	31	0	1487929344	32	6043
2026-01-18 02:46:24.45	179.45	32.35	-29.8	-30.5	28.2	0.00e+00	0	31	0	1493172224	32	6042
2026-01-18 02:46:25.46	179.57	32.55	-30.0	-30.6	27.9	0.00e+00	0	31	0	1499463680	32	6168
2026-01-18 02:46:26.47	179.68	32.75	-29.7	-30.3	28.4	0.00e+00	0	31	0	1504706560	32	5940
2026-01-18 02:46:27.47	179.80	32.95	-29.9	-30.5	28.3	0.00e+00	0	31	0	1510998016	32	6075
2026-01-18 02:46:28.48	179.92	33.16	-29.6	-30.2	28.3	0.00e+00	0	31	0	1516240896	32	5881
2026-01-18 02:46:29.49	180.04	33.36	-29.6	-30.3	28.4	0.00e+00	0	31	0	1521483776	32	5910
2026-01-18 02:46:30.50	180.16	33.57	-29.9	-30.5	28.2	0.00e+00	0	31	0	1527775232	32	6101
2026-01-18 02:46:31.51	180.28	33.78	-30.1	-30.7	28.2	0.00e+00	0	31	0	1533018112	32	6196
2026-01-18 02:46:32.52	180.40	33.99	-29.7	-30.4	28.3	0.00e+00	0	31	0	1539309568	32	5973
2026-01-18 02:46:33.53	180.53	34.20	-29.7	-30.3	28.4	0.00e+00	0	31	0	1544552448	32	5964
2026-01-18 02:46:34.53	180.66	34.41	-29.8	-30.4	28.4	0.00e+00	0	31	0	1550843904	32	5974
2026-01-18 02:46:35.54	180.78	34.62	-29.6	-30.2	28.4	0.00e+00	0	31	0	1556086784	32	5870
2026-01-18 02:46:36.55	180.92	34.84	-29.4	-30.0	28.6	0.00e+00	0	31	0	1561329664	32	5705
2026-01-18 02:46:37.56	181.05	35.05	-29.5	-30.1	28.6	0.00e+00	0	31	0	1567621120	32	5804
2026-01-18 02:46:38.57	181.18	35.27	-29.5	-30.1	28.6	0.00e+00	0	31	0	1572864000	32	5780
2026-01-18 02:46:39.58	181.32	35.49	-29.3	-30.0	28.6	0.00e+00	0	31	0	1579155456	32	5714
2026-01-18 02:46:40.59	181.46	35.71	-29.2	-29.9	28.7	0.00e+00	0	31	0	1584398336	32	5640
2026-01-18 02:46:41.60	181.59	35.93	-29.2	-29.8	28.8	0.00e+00	0	31	0	1589641216	32	5605
2026-01-18 02:46:42.61	181.74	36.15	-29.2	-29.8	28.6	0.00e+00	0	31	0	1595932672	32	5613
2026-01-18 02:46:43.62	181.88	36.37	-29.3	-29.9	28.7	0.00e+00	0	31	0	1601175552	32	5677
2026-01-18 02:46:44.63	182.02	36.60	-29.2	-29.8	28.7	0.00e+00	0	31	0	1607467008	32	5621
2026-01-18 02:46:45.64	182.17	36.83	-29.3	-29.9	28.6	0.00e+00	0	31	0	1612709888	32	5667
2026-01-18 02:46:46.64	182.32	37.05	-29.4	-30.0	28.7	0.00e+00	0	31	0	1617952768	32	5756
2026-01-18 02:46:47.65	182.47	37.28	-29.4	-30.0	28.6	0.00e+00	0	31	0	1624244224	32	5756
2026-01-18 02:46:48.66	182.62	37.51	-29.5	-30.1	28.5	0.00e+00	0	31	0	1629487104	32	5803
2026-01-18 02:46:49.67	182.78	37.74	-29.5	-30.2	28.5	0.00e+00	0	31	0	1635778560	32	5850
2026-01-18 02:46:50.68	182.94	37.98	-29.6	-30.2	28.5	0.00e+00	0	31	0	1641021440	32	5884
2026-01-18 02:46:51.69	183.10	38.21	-29.9	-30.5	28.2	0.00e+00	0	31	0	1647312896	32	6053
2026-01-18 02:46:52.70	183.26	38.45	-29.8	-30.4	28.2	0.00e+00	0	31	0	1652555776	32	6027
2026-01-18 02:46:53.71	183.42	38.69	-29.6	-30.2	28.5	0.00e+00	0	31	0	1658847232	32	5839
2026-01-18 02:46:54.72	183.59	38.93	-29.4	-30.0	28.7	0.00e+00	0	31	0	1664090112	32	5717
2026-01-18 02:46:55.73	183.76	39.17	-29.2	-29.8	28.7	0.00e+00	0	31	0	1669332992	32	5628
2026-01-18 02:46:56.74	183.93	39.41	-29.3	-29.9	28.6	0.00e+00	0	31	0	1675624448	32	5664
2026-01-18 02:46:57.75	184.10	39.65	-29.5	-30.1	28.6	0.00e+00	0	31	0	1680867328	32	5788
2026-01-18 02:46:58.76	184.28	39.90	-29.7	-30.3	28.4	0.00e+00	0	31	0	1687158784	32	5932
2026-01-18 02:46:59.77	184.46	40.14	-29.8	-30.4	28.2	0.00e+00	0	31	0	1692401664	32	6021
2026-01-18 02:47:00.78	184.64	40.39	-29.8	-30.4	28.3	0.00e+00	0	31	0	1697644544	32	6019
2026-01-18 02:47:01.79	184.83	40.64	-29.7	-30.4	28.3	0.00e+00	0	31	0	1703936000	32	5977
2026-01-18 02:47:02.80	185.01	40.89	-29.5	-30.1	28.6	0.00e+00	0	31	0	1709178880	32	5774
2026-01-18 02:47:03.81	185.20	41.14	-29.3	-29.9	28.6	0.00e+00	0	31	0	1715470336	32	5658
2026-01-18 02:47:04.82	185.40	41.40	-29.0	-29.6	28.8	0.00e+00	0	31	0	1720713216	32	5494
2026-01-18 02:47:05.83	185.59	41.65	-29.4	-30.0	28.7	0.00e+00	0	31	0	1725956096	32	5723
2026-01-18 02:47:06.84	185.79	41.91	-29.4	-30.1	28.6	0.00e+00	0	31	0	1732247552	32	5768
2026-01-18 02:47:07.85	186.00	42.16	-29.7	-30.3	28.4	0.00e+00	0	31	0	1737490432	32	5954
2026-01-18 02:47:08.86	186.20	42.42	-29.9	-30.5	28.3	0.00e+00	0	31	0	1743781888	32	6077
2026-01-18 02:47:09.87	186.41	42.68	-30.2	-30.8	28.0	0.00e+00	0	31	0	1749024768	32	6289
2026-01-18 02:47:10.88	186.62	42.95	-30.2	-30.8	28.0	0.00e+00	0	31	0	1755316224	32	6304
2026-01-18 02:47:11.88	186.84	43.21	-30.1	-30.7	28.0	0.00e+00	0	31	0	1760559104	32	6188
2026-01-18 02:47:12.90	187.06	43.47	-29.8	-30.4	28.2	0.00e+00	0	31	0	1765801984	32	6015
2026-01-18 02:47:13.91	187.28	43.74	-29.5	-30.1	28.5	0.00e+00	0	30	0	1772093440	32	5825
2026-01-18 02:47:14.92	187.51	44.01	-29.7	-30.3	28.5	0.00e+00	0	31	0	1777336320	32	5923
2026-01-18 02:47:15.92	187.73	44.27	-30.1	-30.7	28.1	0.00e+00	0	31	0	1783627776	32	6193
2026-01-18 02:47:16.93	187.97	44.54	-30.3	-30.9	28.0	0.00e+00	0	31	0	1788870656	32	6351
2026-01-18 02:47:17.94	188.21	44.81	-30.3	-31.0	27.8	0.00e+00	0	31	0	1794113536	32	6404
2026-01-18 02:47:18.95	188.45	45.09	-30.0	-30.6	28.1	0.00e+00	0	31	0	1800404992	32	6155
2026-01-18 02:47:19.96	188.69	45.36	-29.9	-30.5	28.3	0.00e+00	0	31	0	1805647872	32	6055
2026-01-18 02:47:20.97	188.94	45.64	-29.8	-30.4	28.4	0.00e+00	0	31	0	1811939328	32	5980
2026-01-18 02:47:21.98	189.20	45.91	-30.0	-30.7	28.2	0.00e+00	0	31	0	1817182208	32	6183
2026-01-18 02:47:23.00	189.46	46.19	-30.3	-31.0	28.1	0.00e+00	0	31	0	1822425088	32	6407
2026-01-18 02:47:24.01	189.72	46.47	-30.4	-31.0	28.0	0.00e+00	0	31	0	1828716544	32	6405
2026-01-18 02:47:25.02	189.99	46.75	-30.3	-30.9	27.9	0.00e+00	0	31	0	1833959424	32	6373
2026-01-18 02:47:26.03	190.27	47.04	-30.1	-30.7	28.1	0.00e+00	0	30	0	1840250880	32	6212
2026-01-18 02:47:27.04	190.54	47.32	-30.2	-30.8	28.1	0.00e+00	0	31	0	1845493760	32	6292
2026-01-18 02:47:28.05	190.83	47.60	-29.9	-30.5	28.3	0.00e+00	0	31	0	1851785216	32	6095
2026-01-18 02:47:29.06	191.12	47.89	-29.9	-30.5	28.3	0.00e+00	0	31	0	1857028096	32	6051
2026-01-18 02:47:30.07	191.41	48.17	-29.9	-30.6	28.4	0.00e+00	0	31	0	1863319552	32	6123
2026-01-18 02:47:31.08	191.71	48.46	-30.0	-30.6	28.3	0.00e+00	0	31	0	1868562432	32	6105
2026-01-18 02:47:32.09	192.01	48.75	-30.0	-30.6	28.2	0.00e+00	0	30	0	1873805312	32	6158
2026-01-18 02:47:33.10	192.32	49.04	-30.3	-30.9	28.1	0.00e+00	0	31	0	1880096768	32	6347
2026-01-18 02:47:34.11	192.64	49.33	-30.5	-31.2	27.8	0.00e+00	0	31	0	1885339648	32	6545
2026-01-18 02:47:35.11	192.96	49.62	-30.4	-31.0	27.9	0.00e+00	0	31	0	1891631104	32	6463
2026-01-18 02:47:36.12	193.28	49.91	-30.5	-31.1	27.9	0.00e+00	0	31	0	1896873984	32	6516
2026-01-18 02:47:37.13	193.62	50.20	-30.7	-31.3	27.9	0.00e+00	0	30	0	1902116864	32	6687
2026-01-18 02:47:38.14	193.96	50.50	-30.4	-31.0	28.0	0.00e+00	0	31	0	1908408320	32	6448
2026-01-18 02:47:39.15	194.31	50.79	-30.2	-30.8	28.1	0.00e+00	0	31	0	1913651200	32	6299
2026-01-18 02:47:40.16	194.66	51.09	-30.5	-31.1	27.9	0.00e+00	0	31	0	1919942656	32	6517
2026-01-18 02:47:41.17	195.02	51.38	-30.8	-31.4	27.5	0.00e+00	0	31	0	1925185536	34	5998
2026-01-18 02:47:42.18	195.39	51.68	-31.1	-31.8	27.5	0.00e+00	0	31	0	1930428416	34	6274
2026-01-18 02:47:43.19	195.77	51.98	-30.8	-31.4	27.6	0.00e+00	0	30	0	1936719872	34	5995
2026-01-18 02:47:44.20	196.15	52.28	-30.8	-31.4	27.6	0.00e+00	0	31	0	1941962752	34	6013
2026-01-18 02:47:45.21	196.54	52.58	-31.1	-31.8	27.4	0.00e+00	0	31	0	1948254208	34	6251
2026-01-18 02:47:46.22	196.94	52.88	-31.1	-31.7	27.5	0.00e+00	0	30	0	1953497088	34	6235
2026-01-18 02:47:47.23	197.35	53.18	-31.1	-31.7	27.3	0.00e+00	0	31	0	1959788544	34	6208
2026-01-18 02:47:48.24	197.76	53.48	-31.0	-31.7	27.4	0.00e+00	0	31	0	1965031424	34	6174
2026-01-18 02:47:49.25	198.18	53.78	-31.0	-31.7	27.4	0.00e+00	0	31	0	1970274304	34	6186
2026-01-18 02:47:50.26	198.62	54.08	-31.1	-31.7	27.4	0.00e+00	0	31	0	1976565760	34	6217
2026-01-18 02:47:51.27	199.06	54.38	-31.1	-31.7	27.5	0.00e+00	0	31	0	1981808640	34	6204
2026-01-18 02:47:52.27	199.50	54.67	-30.4	-31.0	27.9	0.00e+00	0	31	0	1988100096	34	5742
2026-01-18 02:47:53.28	199.96	54.97	-30.6	-31.2	27.8	0.00e+00	0	31	0	1993342976	34	5845
2026-01-18 02:47:54.29	200.43	55.28	-30.9	-31.5	27.5	0.00e+00	0	31	0	1998585856	34	6100
2026-01-18 02:47:55.30	200.91	55.58	-31.2	-31.8	27.3	0.00e+00	0	30	0	2004877312	34	6273
2026-01-18 02:47:56.31	201.41	55.88	-31.2	-31.8	27.3	0.00e+00	0	31	0	2010120192	34	6309
2026-01-18 02:47:57.33	201.91	56.18	-31.2	-31.8	27.5	0.00e+00	0	30	0	2016411648	34	6289
2026-01-18 02:47:58.33	202.42	56.47	-30.9	-31.5	27.6	0.00e+00	0	30	0	2021654528	34	6055
2026-01-18 02:47:59.35	202.95	56.78	-30.7	-31.3	28.0	0.00e+00	0	30	0	2026897408	34	5933
2026-01-18 02:48:00.35	203.47	57.07	-30.9	-31.5	27.7	0.00e+00	0	30	0	2033188864	34	6067
2026-01-18 02:48:01.36	204.02	57.37	-31.3	-31.9	27.3	0.00e+00	0	31	0	2038431744	34	6340
2026-01-18 02:48:02.37	204.58	57.66	-31.5	-32.1	26.9	0.00e+00	0	31	0	2044723200	36	5816
2026-01-18 02:48:03.38	205.15	57.96	-32.1	-32.7	26.9	0.00e+00	0	31	0	2049966080	36	6231
2026-01-18 02:48:04.39	205.73	58.25	-31.2	-31.8	27.5	0.00e+00	0	31	0	2056257536	36	5623
2026-01-18 02:48:05.40	206.32	58.54	-31.5	-32.1	27.4	0.00e+00	0	31	0	2061500416	36	5787
2026-01-18 02:48:06.41	206.93	58.83	-31.1	-31.7	27.5	0.00e+00	0	30	0	2067791872	36	5520
2026-01-18 02:48:07.42	207.55	59.12	-30.9	-31.5	27.6	0.00e+00	0	31	0	2073034752	36	5411
2026-01-18 02:48:08.43	208.19	59.41	-30.2	-30.8	27.9	0.00e+00	0	31	0	2078277632	34	5575
2026-01-18 02:48:09.44	208.84	59.70	-30.3	-30.9	28.0	0.00e+00	0	31	0	2084569088	34	5690
2026-01-18 02:48:10.45	209.50	59.98	-30.3	-30.9	28.0	0.00e+00	0	31	0	2089811968	34	5647
2026-01-18 02:48:11.46	210.18	60.26	-30.5	-31.2	28.0	0.00e+00	0	31	0	2096103424	34	5835
2026-01-18 02:48:12.47	210.87	60.54	-30.2	-30.8	28.1	0.00e+00	0	31	0	2101346304	34	5577
2026-01-18 02:48:13.48	211.58	60.82	-30.1	-30.7	28.2	0.00e+00	0	31	0	2106589184	34	5549
2026-01-18 02:48:14.49	212.30	61.09	-30.1	-30.8	28.0	0.00e+00	0	31	0	2112880640	34	5587
2026-01-18 02:48:15.50	213.04	61.36	-30.0	-30.7	28.1	0.00e+00	0	31	0	2118123520	34	5511
2026-01-18 02:48:16.51	213.80	61.63	-29.7	-30.3	28.3	0.00e+00	0	31	0	2124414976	32	5955
2026-01-18 02:48:17.52	214.57	61.89	-30.0	-30.7	28.3	0.00e+00	0	31	0	2129657856	32	6180
2026-01-18 02:48:18.53	215.36	62.15	-29.9	-30.5	28.4	0.00e+00	0	31	0	2134900736	32	6067
2026-01-18 02:48:19.54	216.16	62.41	-30.2	-30.8	28.2	0.00e+00	0	31	0	2141192192	32	6297
2026-01-18 02:48:20.55	216.99	62.66	-29.9	-30.5	28.3	0.00e+00	0	31	0	2146435072	32	6060
2026-01-18 02:48:21.56	217.83	62.91	-29.7	-30.4	28.5	0.00e+00	0	31	0	2152726528	32	5968
2026-01-18 02:48:22.57	218.68	63.16	-29.4	-30.0	28.6	0.00e+00	0	31	0	2157969408	32	5739
2026-01-18 02:48:23.58	219.56	63.40	-29.4	-30.0	28.7	0.00e+00	0	30	0	2164260864	32	5739
2026-01-18 02:48:24.59	220.45	63.63	-30.0	-30.7	28.4	0.00e+00	0	31	0	2169503744	32	6178
2026-01-18 02:48:25.60	221.36	63.86	-29.7	-30.3	28.4	0.00e+00	0	31	0	2174746624	32	5944
2026-01-18 02:48:26.61	222.29	64.09	-29.5	-30.1	28.6	0.00e+00	0	31	0	2181038080	32	5824
2026-01-18 02:48:27.62	223.23	64.31	-29.4	-30.0	28.8	0.00e+00	0	31	0	2186280960	32	5740
2026-01-18 02:48:28.63	224.20	64.52	-29.5	-30.1	28.5	0.00e+00	0	31	0	2192572416	32	5779
2026-01-18 02:48:29.64	225.18	64.73	-30.0	-30.7	28.2	0.00e+00	0	31	0	2197815296	32	6181
2026-01-18 02:48:30.65	226.18	64.93	-29.7	-30.3	28.5	0.00e+00	0	31	0	2203058176	32	5933
2026-01-18 02:48:31.66	227.20	65.13	-29.2	-29.8	28.9	0.00e+00	0	31	0	2209349632	32	5598
2026-01-18 02:48:32.67	228.23	65.32	-29.5	-30.2	28.7	0.00e+00	0	31	0	2214592512	32	5837
2026-01-18 02:48:33.68	229.28	65.50	-29.6	-30.2	28.6	0.00e+00	0	31	0	2220883968	32	5838
2026-01-18 02:48:34.69	230.35	65.68	-29.5	-30.0	28.7	0.00e+00	0	31	0	2226126848	32	5755
2026-01-18 02:48:35.70	231.44	65.85	-29.7	-30.3	28.6	0.00e+00	0	31	0	2231369728	32	5926
2026-01-18 02:48:36.71	232.54	66.01	-29.9	-30.5	28.5	0.00e+00	0	31	0	2237661184	32	6071
2026-01-18 02:48:37.72	233.66	66.16	-29.4	-30.0	28.8	0.00e+00	0	31	0	2242904064	32	5705
2026-01-18 02:48:38.73	234.79	66.30	-29.6	-30.1	28.8	0.00e+00	0	31	0	2249195520	32	5827
2026-01-18 02:48:39.74	235.94	66.44	-29.7	-30.3	28.6	0.00e+00	0	31	0	2254438400	32	5942
2026-01-18 02:48:40.75	237.10	66.57	-29.7	-30.3	28.9	0.00e+00	0	31	0	2260729856	32	5946
2026-01-18 02:48:41.76	238.28	66.69	-29.9	-30.5	28.8	0.00e+00	0	31	0	2265972736	32	6095
2026-01-18 02:48:42.78	239.48	66.80	-30.2	-30.9	28.6	0.00e+00	0	31	0	2272264192	32	6325
2026-01-18 02:48:43.79	240.68	66.90	-29.9	-30.5	28.8	0.00e+00	0	31	0	2277507072	32	6065
2026-01-18 02:48:44.79	241.88	66.99	-29.8	-30.4	28.7	0.00e+00	0	30	0	2282749952	32	6024
2026-01-18 02:48:45.80	243.10	67.07	-29.6	-30.2	28.7	0.00e+00	0	31	0	2289041408	32	5851
2026-01-18 02:48:46.81	244.33	67.15	-30.2	-30.7	28.7	0.00e+00	0	31	0	2294284288	32	6231
2026-01-18 02:48:47.82	245.57	67.21	-30.0	-30.6	28.5	0.00e+00	0	30	0	2300575744	32	6107
2026-01-18 02:48:48.83	246.81	67.26	-29.6	-30.2	28.7	0.00e+00	0	31	0	2305818624	32	5869
2026-01-18 02:48:49.84	248.07	67.31	-29.7	-30.3	29.0	0.00e+00	0	31	0	2311061504	32	5908
2026-01-18 02:48:50.85	249.32	67.34	-29.3	-29.9	29.1	0.00e+00	0	31	0	2317352960	32	5680
2026-01-18 02:48:51.86	250.58	67.37	-29.3	-29.9	29.0	0.00e+00	0	31	0	2322595840	32	5679
2026-01-18 02:48:52.87	251.84	67.38	-30.1	-30.8	28.8	0.00e+00	0	30	0	2328887296	32	6262
2026-01-18 02:48:53.88	253.11	67.39	-29.7	-30.2	28.8	0.00e+00	0	31	0	2334130176	32	5893
2026-01-18 02:48:54.89	254.37	67.38	-30.0	-30.6	28.6	0.00e+00	0	30	0	2339373056	32	6164
2026-01-18 02:48:55.90	255.63	67.37	-29.9	-30.5	28.5	0.00e+00	0	31	0	2345664512	32	6075
2026-01-18 02:48:56.91	256.89	67.34	-30.0	-30.6	28.6	0.00e+00	0	31	0	2350907392	32	6168
2026-01-18 02:48:57.92	258.15	67.31	-30.4	-31.0	28.4	0.00e+00	0	30	0	2357198848	32	6433
2026-01-18 02:48:58.93	259.40	67.26	-30.6	-31.2	28.3	0.00e+00	0	31	0	2362441728	34	5833
2026-01-18 02:48:59.94	260.64	67.21	-29.9	-30.5	28.1	0.00e+00	0	31	0	2368733184	34	5406
2026-01-18 02:49:00.95	261.88	67.14	-30.2	-30.8	28.2	0.00e+00	0	31	0	2373976064	34	5618
2026-01-18 02:49:01.96	263.11	67.07	-30.0	-30.6	28.4	0.00e+00	0	31	0	2380267520	34	5502
2026-01-18 02:49:02.97	264.33	66.98	-29.5	-30.2	28.8	0.00e+00	0	31	0	2385510400	32	5846
2026-01-18 02:49:03.98	265.54	66.89	-29.9	-30.5	28.9	0.00e+00	0	31	0	2390753280	32	6100
2026-01-18 02:49:04.99	266.74	66.79	-29.9	-30.5	28.8	0.00e+00	0	31	0	2397044736	32	6038
2026-01-18 02:49:06.00	267.93	66.68	-29.9	-30.5	28.7	0.00e+00	0	31	0	2402287616	32	6057
2026-01-18 02:49:07.01	269.10	66.56	-30.3	-31.0	28.5	0.00e+00	0	31	0	2408579072	34	5706
2026-01-18 02:49:08.02	270.26	66.43	-29.8	-30.3	28.6	0.00e+00	0	31	0	2413821952	34	5315
2026-01-18 02:49:09.03	271.41	66.29	-29.7	-30.3	28.8	0.00e+00	0	31	0	2419064832	32	5928
2026-01-18 02:49:10.04	272.54	66.15	-29.9	-30.5	28.6	0.00e+00	0	31	0	2425356288	32	6082
2026-01-18 02:49:11.05	273.66	66.00	-30.2	-30.8	28.5	0.00e+00	0	30	0	2430599168	32	6276
2026-01-18 02:49:12.06	274.76	65.84	-29.8	-30.4	28.5	0.00e+00	0	31	0	2436890624	32	6009
2026-01-18 02:49:13.07	275.84	65.67	-30.0	-30.7	28.7	0.00e+00	0	30	0	2442133504	32	6201
2026-01-18 02:49:14.08	276.91	65.49	-30.2	-30.7	28.5	0.00e+00	0	31	0	2447376384	32	6240
2026-01-18 02:49:15.09	277.96	65.31	-30.1	-30.7	28.4	0.00e+00	0	31	0	2453667840	32	6208
2026-01-18 02:49:16.10	278.99	65.12	-30.0	-30.7	28.5	0.00e+00	0	31	0	2458910720	32	6212
2026-01-18 02:49:17.11	280.01	64.92	-30.4	-31.0	28.5	0.00e+00	0	30	0	2465202176	34	5741
2026-01-18 02:49:18.12	281.00	64.72	-29.8	-30.5	28.3	0.00e+00	0	30	0	2470445056	34	5381
2026-01-18 02:49:19.13	281.98	64.51	-30.6	-31.2	28.2	0.00e+00	0	31	0	2476736512	34	5856
2026-01-18 02:49:20.14	282.94	64.30	-30.2	-30.8	28.3	0.00e+00	0	31	0	2481979392	34	5627
2026-01-18 02:49:21.15	283.89	64.08	-30.8	-31.4	27.8	0.00e+00	0	30	0	2487222272	34	6002
2026-01-18 02:49:22.16	284.81	63.85	-31.4	-32.2	27.9	0.00e+00	0	31	0	2493513728	34	6546
2026-01-18 02:49:23.17	285.72	63.62	-31.8	-32.4	27.6	0.00e+00	0	30	0	2498756608	36	5996
2026-01-18 02:49:24.18	286.61	63.39	-30.8	-31.3	28.2	0.00e+00	0	30	0	2505048064	34	5944
2026-01-18 02:49:25.19	287.48	63.15	-31.0	-31.7	27.9	0.00e+00	0	31	0	2510290944	34	6198
2026-01-18 02:49:26.20	288.34	62.90	-30.6	-31.3	28.1	0.00e+00	0	31	0	2515533824	34	5897
2026-01-18 02:49:27.21	289.18	62.65	-30.9	-31.5	27.8	0.00e+00	0	31	0	2521825280	34	6039
2026-01-18 02:49:28.22	290.00	62.40	-31.4	-32.1	27.6	0.00e+00	0	31	0	2527068160	34	6468
2026-01-18 02:49:29.23	290.80	62.14	-31.3	-31.9	27.5	0.00e+00	0	31	0	2533359616	34	6366
2026-01-18 02:49:30.24	291.59	61.88	-30.1	-30.8	28.3	0.00e+00	0	31	0	2538602496	34	5612
2026-01-18 02:49:31.25	292.36	61.62	-29.5	-30.2	28.5	0.00e+00	0	31	0	2543845376	32	5857
2026-01-18 02:49:32.26	293.11	61.35	-30.3	-31.0	28.3	0.00e+00	0	31	0	2550136832	32	6455
2026-01-18 02:49:33.26	293.84	61.08	-30.5	-31.0	28.3	0.00e+00	0	31	0	2555379712	32	6447
2026-01-18 02:49:34.27	294.56	60.81	-30.9	-31.6	28.1	0.00e+00	0	31	0	2561671168	34	6159
2026-01-18 02:49:35.29	295.28	60.53	-30.3	-31.0	28.1	0.00e+00	0	31	0	2566914048	34	5715
2026-01-18 02:49:36.29	295.96	60.26	-30.3	-30.9	28.3	0.00e+00	0	31	0	2573205504	34	5653
2026-01-18 02:49:37.30	296.64	59.98	-30.3	-30.8	28.3	0.00e+00	0	31	0	2578448384	34	5624
2026-01-18 02:49:38.31	297.30	59.69	-30.5	-31.2	27.9	0.00e+00	0	30	0	2584739840	34	5839
2026-01-18 02:49:39.32	297.95	59.41	-30.7	-31.4	27.6	0.00e+00	0	31	0	2589982720	34	5974
2026-01-18 02:49:40.33	298.58	59.12	-31.0	-31.7	27.5	0.00e+00	0	30	0	2595225600	34	6211
2026-01-18 02:49:41.34	299.20	58.83	-30.9	-31.6	27.7	0.00e+00	0	30	0	2601517056	34	6132
2026-01-18 02:49:42.35	299.81	58.54	-30.8	-31.4	27.7	0.00e+00	0	31	0	2606759936	34	5990
2026-01-18 02:49:43.36	300.40	58.25	-31.0	-31.7	27.6	0.00e+00	0	31	0	2613051392	34	6183
2026-01-18 02:49:44.37	300.98	57.96	-31.1	-31.7	27.5	0.00e+00	0	31	0	2618294272	34	6225
2026-01-18 02:49:45.39	301.56	57.66	-30.9	-31.6	27.4	0.00e+00	0	31	0	2623537152	34	6128
2026-01-18 02:49:46.40	302.11	57.37	-30.8	-31.4	27.5	0.00e+00	0	30	0	2629828608	34	6001
2026-01-18 02:49:47.41	302.66	57.07	-31.2	-31.9	27.4	0.00e+00	0	31	0	2635071488	34	6346
2026-01-18 02:49:48.42	303.19	56.77	-31.2	-31.7	27.6	0.00e+00	0	31	0	2641362944	34	6244
2026-01-18 02:49:49.43	303.71	56.48	-30.9	-31.5	27.5	0.00e+00	0	31	0	2646605824	34	6073
2026-01-18 02:49:50.43	304.22	56.18	-31.2	-31.9	27.2	0.00e+00	0	30	0	2651848704	34	6350
2026-01-18 02:49:51.44	304.72	55.88	-31.1	-31.7	27.3	0.00e+00	0	30	0	2658140160	34	6183
2026-01-18 02:49:52.45	305.20	55.58	-31.0	-31.6	27.4	0.00e+00	0	30	0	2663383040	34	6127
2026-01-18 02:49:53.46	305.68	55.28	-30.9	-31.5	27.6	0.00e+00	0	30	0	2669674496	34	6095
2026-01-18 02:49:54.47	306.15	54.98	-30.8	-31.4	27.5	0.00e+00	0	30	0	2674917376	34	6027
2026-01-18 02:49:55.48	306.61	54.68	-31.0	-31.7	27.5	0.00e+00	0	30	0	2681208832	34	6190
2026-01-18 02:49:56.49	307.06	54.38	-31.2	-31.9	27.3	0.00e+00	0	31	0	2686451712	34	6367
2026-01-18 02:49:57.50	307.50	54.08	-31.8	-32.6	27.1	0.00e+00	0	30	0	2691694592	34	6857
2026-01-18 02:49:58.51	307.93	53.79	-31.6	-32.3	27.2	0.00e+00	0	31	0	2697986048	36	5931
2026-01-18 02:49:59.52	308.36	53.49	-31.4	-32.1	27.3	0.00e+00	0	31	0	2703228928	36	5804
2026-01-18 02:50:00.53	308.77	53.19	-31.1	-31.8	27.4	0.00e+00	0	31	0	2709520384	36	5596
2026-01-18 02:50:01.54	309.18	52.89	-31.0	-31.7	27.7	0.00e+00	0	31	0	2714763264	36	5544
2026-01-18 02:50:02.55	309.57	52.59	-31.0	-31.6	27.8	0.00e+00	0	30	0	2720006144	36	5452
2026-01-18 02:50:03.56	309.96	52.29	-30.9	-31.5	27.7	0.00e+00	0	31	0	2726297600	34	6053
2026-01-18 02:50:04.57	310.35	51.99	-31.0	-31.6	27.7	0.00e+00	0	31	0	2731540480	34	6168
2026-01-18 02:50:05.58	310.72	51.70	-30.6	-31.3	27.8	0.00e+00	0	31	0	2737831936	34	5936
2026-01-18 02:50:06.59	311.09	51.40	-30.5	-31.2	27.8	0.00e+00	0	30	0	2743074816	34	5829
2026-01-18 02:50:07.60	311.45	51.11	-30.8	-31.5	27.8	0.00e+00	0	31	0	2748317696	34	6043
2026-01-18 02:50:08.61	311.80	50.81	-30.6	-31.2	27.7	0.00e+00	0	31	0	2754609152	34	5832
2026-01-18 02:50:09.62	312.15	50.52	-30.6	-31.3	27.7	0.00e+00	0	30	0	2759852032	34	5906
2026-01-18 02:50:10.63	312.49	50.22	-30.8	-31.4	27.3	0.00e+00	0	30	0	2766143488	34	5986
2026-01-18 02:50:11.64	312.82	49.93	-30.7	-31.2	27.3	0.00e+00	0	31	0	2771386368	34	5876
2026-01-18 02:50:12.65	313.15	49.64	-30.9	-31.4	27.7	0.00e+00	0	31	0	2777677824	34	6009
2026-01-18 02:50:13.66	313.47	49.35	-30.4	-31.0	27.9	0.00e+00	0	31	0	2782920704	34	5760
2026-01-18 02:50:14.67	313.79	49.06	-30.4	-31.1	27.9	0.00e+00	0	31	0	2789212160	34	5786
2026-01-18 02:50:15.69	314.10	48.77	-30.5	-31.1	28.0	0.00e+00	0	31	0	2794455040	34	5769
2026-01-18 02:50:16.70	314.40	48.48	-30.6	-31.3	27.7	0.00e+00	0	31	0	2799697920	34	5915
2026-01-18 02:50:17.71	314.70	48.20	-30.6	-31.3	27.9	0.00e+00	0	30	0	2805989376	34	5902
2026-01-18 02:50:18.72	315.00	47.91	-30.9	-31.5	27.7	0.00e+00	0	31	0	2811232256	34	6051
2026-01-18 02:50:19.73	315.28	47.63	-30.5	-31.1	27.8	0.00e+00	0	30	0	2817523712	34	5789
2026-01-18 02:50:20.74	315.57	47.34	-30.6	-31.3	27.8	0.00e+00	0	31	0	2822766592	34	5956
2026-01-18 02:50:21.74	315.84	47.06	-30.8	-31.5	27.6	0.00e+00	0	31	0	2828009472	34	6055
2026-01-18 02:50:22.75	316.11	46.78	-30.5	-31.2	27.8	0.00e+00	0	30	0	2834300928	34	5837
2026-01-18 02:50:23.76	316.38	46.50	-30.3	-30.9	27.9	0.00e+00	0	31	0	2839543808	34	5638
2026-01-18 02:50:24.77	316.64	46.23	-30.3	-31.0	27.9	0.00e+00	0	31	0	2845835264	34	5724
2026-01-18 02:50:25.78	316.90	45.95	-29.9	-30.6	28.3	0.00e+00	0	30	0	2851078144	34	5459
2026-01-18 02:50:26.78	317.16	45.68	-30.6	-31.3	28.3	0.00e+00	0	30	0	2856321024	34	5930
2026-01-18 02:50:27.80	317.41	45.40	-30.4	-31.0	28.3	0.00e+00	0	31	0	2862612480	34	5699
2026-01-18 02:50:28.81	317.65	45.13	-30.2	-30.9	28.2	0.00e+00	0	31	0	2867855360	34	5637
2026-01-18 02:50:29.82	317.90	44.86	-30.3	-30.8	28.2	0.00e+00	0	31	0	2874146816	34	5604
2026-01-18 02:50:30.82	318.13	44.59	-30.4	-31.1	28.2	0.00e+00	0	30	0	2879389696	34	5823
2026-01-18 02:50:31.84	318.37	44.32	-30.7	-31.3	28.2	0.00e+00	0	31	0	2885681152	34	5922
2026-01-18 02:50:32.85	318.60	44.05	-30.1	-30.7	28.3	0.00e+00	0	31	0	2890924032	34	5556
2026-01-18 02:50:33.86	318.82	43.78	-30.7	-31.3	28.3	0.00e+00	0	31	0	2897215488	34	5910
2026-01-18 02:50:34.87	319.05	43.52	-30.5	-31.2	28.4	0.00e+00	0	31	0	2902458368	34	5836
2026-01-18 02:50:35.88	319.26	43.25	-30.2	-30.9	28.4	0.00e+00	0	30	0	2907701248	34	5636
2026-01-18 02:50:36.89	319.48	42.99	-30.1	-30.8	28.2	0.00e+00	0	31	0	2913992704	34	5571
2026-01-18 02:50:37.89	319.69	42.73	-30.4	-30.9	28.3	0.00e+00	0	30	0	2919235584	34	5691
2026-01-18 02:50:38.90	319.90	42.47	-30.3	-30.8	28.3	0.00e+00	0	30	0	2924478464	34	5615
2026-01-18 02:50:39.91	320.10	42.22	-30.0	-30.7	28.3	0.00e+00	0	30	0	2930769920	34	5522
2026-01-18 02:50:40.91	320.30	41.96	-30.2	-30.9	28.2	0.00e+00	0	30	0	2936012800	34	5657
2026-01-18 02:50:41.93	320.51	41.70	-30.5	-31.1	28.2	0.00e+00	0	30	0	2942304256	34	5789
2026-01-18 02:50:42.94	320.70	41.45	-31.1	-31.7	28.0	0.00e+00	0	30	0	2947547136	34	6186
2026-01-18 02:50:43.95	320.89	41.20	-31.1	-31.6	28.0	0.00e+00	0	30	0	2952790016	34	6155
2026-01-18 02:50:44.96	321.09	40.95	-30.7	-31.4	27.8	0.00e+00	0	30	0	2959081472	34	5971
2026-01-18 02:50:45.96	321.27	40.70	-30.4	-31.0	28.1	0.00e+00	0	30	0	2964324352	34	5717
2026-01-18 02:50:46.97	321.46	40.45	-30.9	-31.5	28.1	0.00e+00	0	30	0	2970615808	34	6070
2026-01-18 02:50:47.98	321.64	40.20	-31.2	-31.8	27.5	0.00e+00	0	30	0	2975858688	34	6260
2026-01-18 02:50:48.99	321.82	39.96	-31.2	-31.8	28.3	0.00e+00	0	30	0	2982150144	36	5576
2026-01-18 02:50:50.00	321.99	39.72	-30.2	-30.9	28.0	0.00e+00	0	31	0	2987393024	34	5691
2026-01-18 02:50:51.01	322.17	39.47	-30.4	-31.1	27.9	0.00e+00	0	30	0	2993684480	34	5813
2026-01-18 02:50:52.02	322.34	39.23	-29.9	-30.6	28.3	0.00e+00	0	30	0	2998927360	34	5499
2026-01-18 02:50:53.03	322.51	38.99	-30.6	-31.2	27.9	0.00e+00	0	30	0	3004170240	34	5838
2026-01-18 02:50:54.04	322.67	38.75	-30.0	-30.6	28.4	0.00e+00	0	31	0	3010461696	34	5468
2026-01-18 02:50:55.05	322.84	38.52	-29.7	-30.2	28.6	0.00e+00	0	30	0	3015704576	32	5868
2026-01-18 02:50:56.06	323.00	38.28	-29.6	-30.3	28.6	0.00e+00	0	30	0	3021996032	32	5934
2026-01-18 02:50:57.07	323.16	38.05	-29.8	-30.5	28.6	0.00e+00	0	31	0	3027238912	32	6041
2026-01-18 02:50:58.08	323.32	37.81	-29.6	-30.2	28.7	0.00e+00	0	30	0	3032481792	32	5832
2026-01-18 02:50:59.09	323.47	37.58	-29.9	-30.4	28.7	0.00e+00	0	30	0	3038773248	32	6011
2026-01-18 02:51:00.10	323.63	37.35	-29.9	-30.4	28.6	0.00e+00	0	30	0	3044016128	32	6018
2026-01-18 02:51:01.11	323.78	37.12	-29.6	-30.3	28.7	0.00e+00	0	30	0	3050307584	32	5942
2026-01-18 02:51:02.12	323.93	36.90	-29.6	-30.2	28.7	0.00e+00	0	30	0	3055550464	32	5884
2026-01-18 02:51:03.13	324.07	36.67	-29.9	-30.5	28.3	0.00e+00	0	30	0	3060793344	32	6056
2026-01-18 02:51:04.14	324.22	36.45	-30.2	-30.7	28.3	0.00e+00	0	30	0	3067084800	32	6208
2026-01-18 02:51:05.15	324.36	36.22	-29.8	-30.3	28.5	0.00e+00	0	30	0	3072327680	32	5949
2026-01-18 02:51:06.16	324.50	36.00	-29.8	-30.5	28.4	0.00e+00	0	30	0	3078619136	32	6066
2026-01-18 02:51:07.17	324.64	35.78	-30.2	-31.0	28.2	0.00e+00	0	30	0	3083862016	32	6398
2026-01-18 02:51:08.17	324.78	35.57	-30.2	-30.9	28.3	0.00e+00	0	31	0	3090153472	32	6352
2026-01-18 02:51:09.19	324.92	35.35	-30.2	-30.9	28.4	0.00e+00	0	30	0	3095396352	32	6361
2026-01-18 02:51:10.19	325.05	35.13	-30.0	-30.5	28.5	0.00e+00	0	30	0	3100639232	32	6103
2026-01-18 02:51:11.21	325.18	34.91	-29.9	-30.4	28.4	0.00e+00	0	30	0	3106930688	32	5997
2026-01-18 02:51:12.21	325.31	34.70	-29.9	-30.4	28.3	0.00e+00	0	30	0	3112173568	32	6001
2026-01-18 02:51:13.22	325.44	34.49	-30.2	-30.7	28.3	0.00e+00	0	30	0	3118465024	32	6225
2026-01-18 02:51:14.24	325.57	34.28	-30.0	-30.6	28.2	0.00e+00	0	30	0	3123707904	32	6116
2026-01-18 02:51:15.24	325.70	34.07	-30.3	-30.9	28.3	0.00e+00	0	30	0	3128950784	32	6331
2026-01-18 02:51:16.25	325.82	33.86	-30.3	-30.9	28.3	0.00e+00	0	31	0	3135242240	32	6321
2026-01-18 02:51:17.26	325.94	33.65	-30.4	-30.9	28.1	0.00e+00	0	30	0	3140485120	32	6378
2026-01-18 02:51:18.27	326.07	33.45	-30.8	-31.4	28.2	0.00e+00	0	30	0	3146776576	34	5972
2026-01-18 02:51:19.28	326.19	33.24	-30.2	-30.9	28.1	0.00e+00	0	30	0	3152019456	34	5669
2026-01-18 02:51:20.29	326.30	33.04	-30.3	-30.8	28.4	0.00e+00	0	31	0	3157262336	34	5614
2026-01-18 02:51:21.30	326.42	32.84	-30.3	-31.0	28.3	0.00e+00	0	30	0	3163553792	34	5696
2026-01-18 02:51:22.31	326.54	32.63	-30.0	-30.5	28.2	0.00e+00	0	30	0	3168796672	34	5426
2026-01-18 02:51:23.32	326.65	32.43	-30.1	-30.6	28.1	0.00e+00	0	30	0	3175088128	34	5500
2026-01-18 02:51:24.33	326.76	32.24	-30.9	-31.4	28.1	0.00e+00	0	30	0	3180331008	34	5988
2026-01-18 02:51:25.34	326.88	32.04	-30.3	-30.9	28.2	0.00e+00	0	30	0	3186622464	34	5658
2026-01-18 02:51:26.35	326.99	31.84	-30.5	-31.0	28.0	0.00e+00	0	30	0	3191865344	34	5734
2026-01-18 02:51:27.35	327.09	31.65	-30.4	-31.0	28.1	0.00e+00	0	30	0	3197108224	34	5720
2026-01-18 02:51:28.37	327.20	31.45	-30.6	-31.1	28.1	0.00e+00	0	31	0	3203399680	34	5808
2026-01-18 02:51:29.38	327.31	31.26	-30.4	-31.0	28.0	0.00e+00	0	30	0	3208642560	34	5737
2026-01-18 02:51:30.38	327.41	31.07	-30.9	-31.4	27.9	0.00e+00	0	30	0	3214934016	34	6014
2026-01-18 02:51:31.40	327.52	30.88	-30.6	-31.1	27.9	0.00e+00	0	30	0	3220176896	34	5809
2026-01-18 02:51:32.41	327.62	30.69	-30.5	-31.1	27.9	0.00e+00	0	30	0	3226468352	34	5805
2026-01-18 02:51:33.42	327.72	30.50	-30.6	-31.2	27.8	0.00e+00	0	30	0	3231711232	34	5856
2026-01-18 02:51:34.43	327.83	30.31	-30.9	-31.4	27.9	0.00e+00	0	30	0	3236954112	34	6030
2026-01-18 02:51:35.44	327.93	30.13	-30.7	-31.4	28.0	0.00e+00	0	31	0	3243245568	34	5976
2026-01-18 02:51:36.45	328.02	29.94	-30.5	-31.1	28.0	0.00e+00	0	30	0	3248488448	34	5762
2026-01-18 02:51:37.46	328.12	29.76	-30.7	-31.4	27.7	0.00e+00	0	30	0	3254779904	34	6010
2026-01-18 02:51:38.46	328.22	29.58	-31.4	-32.0	27.7	0.00e+00	0	30	0	3260022784	34	6400
2026-01-18 02:51:39.47	328.31	29.40	-31.0	-31.5	27.5	0.00e+00	0	30	0	3265265664	34	6066
2026-01-18 02:51:40.48	328.41	29.22	-31.5	-32.1	27.2	0.00e+00	0	30	0	3271557120	34	6468
2026-01-18 02:51:41.49	328.50	29.04	-30.3	-30.9	27.9	0.00e+00	0	30	0	3276800000	34	5663
2026-01-18 02:51:42.50	328.59	28.86	-31.0	-31.5	27.6	0.00e+00	0	31	0	3283091456	34	6087
2026-01-18 02:51:43.51	328.68	28.68	-31.0	-31.6	27.4	0.00e+00	0	30	0	3288334336	34	6138
2026-01-18 02:51:44.52	328.77	28.51	-30.4	-31.0	27.8	0.00e+00	0	30	0	3294625792	34	5735
2026-01-18 02:51:45.53	328.86	28.33	-30.7	-31.3	27.7	0.00e+00	0	30	0	3299868672	34	5917
2026-01-18 02:51:46.54	328.95	28.16	-30.4	-31.0	27.9	0.00e+00	0	30	0	3305111552	34	5719
2026-01-18 02:51:47.55	329.04	27.99	-30.4	-30.9	27.8	0.00e+00	0	30	0	3311403008	34	5676
2026-01-18 02:51:48.56	329.13	27.81	-30.4	-31.0	28.0	0.00e+00	0	30	0	3316645888	34	5751
2026-01-18 02:51:49.57	329.21	27.64	-30.4	-31.0	28.0	0.00e+00	0	30	0	3322937344	34	5705
2026-01-18 02:51:50.58	329.30	27.47	-30.3	-30.8	28.1	0.00e+00	0	30	0	3328180224	34	5624
2026-01-18 02:51:51.59	329.38	27.30	-30.2	-30.9	28.0	0.00e+00	0	30	0	3333423104	34	5662
2026-01-18 02:51:52.60	329.47	27.14	-30.1	-30.7	28.1	0.00e+00	0	30	0	3339714560	34	5566
2026-01-18 02:51:53.61	329.55	26.97	-30.1	-30.8	28.1	0.00e+00	0	30	0	3344957440	34	5613
2026-01-18 02:51:54.62	329.63	26.80	-30.3	-31.0	28.1	0.00e+00	0	30	0	3351248896	34	5737
2026-01-18 02:51:55.63	329.71	26.64	-30.4	-31.1	28.2	0.00e+00	0	30	0	3356491776	34	5763
2026-01-18 02:51:56.64	329.79	26.47	-30.3	-30.8	28.1	0.00e+00	0	31	0	3361734656	34	5600
2026-01-18 02:51:57.65	329.87	26.31	-30.2	-30.8	28.2	0.00e+00	0	31	0	3368026112	34	5574
2026-01-18 02:51:58.66	329.95	26.15	-30.5	-31.2	28.2	0.00e+00	0	30	0	3373268992	34	5853
2026-01-18 02:51:59.67	330.03	25.99	-30.1	-30.8	28.1	0.00e+00	0	30	0	3379560448	34	5623
2026-01-18 02:52:00.68	330.11	25.83	-30.1	-30.8	28.0	0.00e+00	0	30	0	3384803328	34	5579
2026-01-18 02:52:01.69	330.18	25.67	-30.2	-30.8	28.0	0.00e+00	0	30	0	3391094784	34	5628
2026-01-18 02:52:02.70	330.26	25.51	-30.3	-30.9	28.0	0.00e+00	0	30	0	3396337664	34	5632
2026-01-18 02:52:03.71	330.33	25.35	-30.4	-30.9	27.9	0.00e+00	0	31	0	3401580544	34	5677
2026-01-18 02:52:04.72	330.41	25.19	-30.5	-31.1	27.8	0.00e+00	0	30	0	3407872000	34	5763
2026-01-18 02:52:05.73	330.48	25.04	-30.8	-31.3	27.9	0.00e+00	0	30	0	3413114880	34	5949
2026-01-18 02:52:06.74	330.55	24.88	-30.3	-31.0	27.9	0.00e+00	0	30	0	3419406336	34	5732
2026-01-18 02:52:07.74	330.63	24.73	-30.4	-31.1	27.8	0.00e+00	0	30	0	3424649216	34	5806
2026-01-18 02:52:08.75	330.70	24.58	-30.7	-31.4	27.7	0.00e+00	0	30	0	3429892096	34	5971
2026-01-18 02:52:09.76	330.77	24.42	-30.6	-31.1	27.5	0.00e+00	0	30	0	3436183552	34	5822
2026-01-18 02:52:10.77	330.84	24.27	-31.3	-31.9	27.6	0.00e+00	0	30	0	3441426432	34	6342
2026-01-18 02:52:11.78	330.91	24.12	-31.2	-31.7	27.4	0.00e+00	0	30	0	3447717888	34	6241
2026-01-18 02:52:12.79	330.98	23.97	-31.9	-32.6	27.0	0.00e+00	0	30	0	3452960768	34	6885
2026-01-18 02:52:13.80	331.05	23.82	-32.2	-32.9	26.9	0.00e+00	0	30	0	3458203648	36	6384
2026-01-18 02:52:14.81	331.11	23.67	-31.4	-32.1	27.1	0.00e+00	0	30	0	3464495104	36	5809
2026-01-18 02:52:15.82	331.18	23.53	-31.6	-32.3	26.8	0.00e+00	0	30	0	3469737984	36	5904
2026-01-18 02:52:16.83	331.25	23.38	-31.5	-32.2	27.3	0.00e+00	0	30	0	3476029440	36	5881
2026-01-18 02:52:17.83	331.31	23.23	-32.1	-32.8	26.9	0.00e+00	0	30	0	3481272320	36	6307
2026-01-18 02:52:18.84	331.38	23.09	-31.9	-32.5	26.5	0.00e+00	0	30	0	3486515200	36	6034
2026-01-18 02:52:19.85	331.44	22.95	-31.8	-32.4	26.8	0.00e+00	0	30	0	3492806656	36	6007
2026-01-18 02:52:20.86	331.51	22.80	-32.1	-32.7	26.7	0.00e+00	0	30	0	3498049536	36	6179
2026-01-18 02:52:21.87	331.57	22.66	-31.9	-32.5	26.6	0.00e+00	0	30	0	3504340992	36	6051
2026-01-18 02:52:22.88	331.64	22.52	-31.3	-31.9	27.1	0.00e+00	0	30	0	3509583872	36	5644
2026-01-18 02:52:23.89	331.70	22.38	-31.7	-32.3	27.0	0.00e+00	0	30	0	3515875328	36	5925
2026-01-18 02:52:24.90	331.76	22.23	-31.3	-31.8	27.2	0.00e+00	0	30	0	3521118208	36	5623
2026-01-18 02:52:25.91	331.82	22.10	-31.8	-32.3	27.0	0.00e+00	0	30	0	3527409664	36	5960
2026-01-18 02:52:26.91	331.88	21.96	-31.6	-32.2	27.1	0.00e+00	0	31	0	3532652544	36	5832
2026-01-18 02:52:27.92	331.94	21.82	-31.2	-31.8	27.2	0.00e+00	0	30	0	3537895424	36	5611
2026-01-18 02:52:28.93	332.00	21.68	-31.5	-32.2	27.1	0.00e+00	0	30	0	3544186880	36	5852
2026-01-18 02:52:29.94	332.06	21.54	-31.5	-32.2	26.9	0.00e+00	0	30	0	3549429760	36	5883
2026-01-18 02:52:30.95	332.12	21.41	-31.5	-32.2	26.9	0.00e+00	0	30	0	3554672640	36	5883
2026-01-18 02:52:31.96	332.18	21.27	-31.4	-32.0	27.1	0.00e+00	0	30	0	3560964096	36	5712
2026-01-18 02:52:32.97	332.24	21.14	-31.6	-32.1	27.0	0.00e+00	0	30	0	3566206976	36	5828
2026-01-18 02:52:33.97	332.30	21.01	-31.6	-32.3	26.9	0.00e+00	0	30	0	3572498432	36	5957
2026-01-18 02:52:34.98	332.35	20.87	-31.5	-32.2	26.8	0.00e+00	0	30	0	3577741312	36	5848
2026-01-18 02:52:35.99	332.41	20.74	-31.3	-31.8	27.0	0.00e+00	0	30	0	3582984192	36	5627
2026-01-18 02:52:37.00	332.47	20.61	-31.3	-31.8	27.0	0.00e+00	0	30	0	3589275648	36	5623
2026-01-18 02:52:38.01	332.52	20.48	-31.3	-31.9	27.0	0.00e+00	0	30	0	3594518528	36	5634
2026-01-18 02:52:39.02	332.58	20.34	-31.1	-31.7	27.1	0.00e+00	0	30	0	3600809984	36	5503
2026-01-18 02:52:40.03	332.63	20.21	-31.2	-31.7	27.1	0.00e+00	0	30	0	3606052864	36	5545
2026-01-18 02:52:41.04	332.69	20.09	-31.2	-31.9	27.1	0.00e+00	0	31	0	3612344320	36	5695
2026-01-18 02:52:42.05	332.74	19.96	-31.2	-31.9	26.9	0.00e+00	0	30	0	3617587200	36	5683
