passes_logs/2026/01/18/R4.6S_Anadyr/R4.6S_Anadyr__20260118_180716_FENGYUN_3D_rec.log

#Pass ID: 20260118_180716_FENGYUN 3D
#Satellite: FENGYUN 3D
#Configuration: FENGYUN 3D
#almurnet v.1.7.20251203
#Start time: 2026-01-18 18:07:19

#Version: 2.2.20231116
#Station: R4.6S_Anadyr
#Location: 177.4865 lon 64.73178 lat
#TLE: 1 43010U 17072A   26017.61121112  .00000213  00000+0  12257-3 0  9991
#TLE: 2 43010  98.9934 349.4672 0002374 103.9362 256.2078 14.19696413423628

#Time	Az	El	Level	Level2	SNR	BER	BlckErr	Temp	State	Recorded	gain1	gain2
2026-01-18 18:07:19.90	24.85	0.20	-49.5	-60.2	3.3	8.39e-01	0	39	0	0	60	37154
2026-01-18 18:07:20.91	24.82	0.26	-49.5	-61.6	3.6	8.46e-01	0	39	104	0	60	43691
2026-01-18 18:07:21.92	24.79	0.32	-49.5	-61.6	3.6	8.45e-01	0	39	104	0	60	43683
2026-01-18 18:07:22.93	24.76	0.38	-49.6	-61.7	3.6	8.46e-01	0	39	104	0	60	43988
2026-01-18 18:07:23.94	24.73	0.44	-49.5	-61.7	3.6	8.45e-01	0	39	104	0	60	43972
2026-01-18 18:07:24.95	24.70	0.50	-49.5	-61.7	3.6	8.46e-01	0	39	104	0	60	44109
2026-01-18 18:07:25.96	24.67	0.56	-49.6	-61.7	3.6	8.45e-01	0	39	104	0	60	43955
2026-01-18 18:07:26.96	24.64	0.62	-49.5	-61.7	3.6	8.46e-01	0	39	104	0	60	43789
2026-01-18 18:07:27.98	24.61	0.68	-49.5	-61.7	3.6	8.46e-01	0	39	104	0	60	43782
2026-01-18 18:07:28.99	24.58	0.74	-49.5	-61.7	3.6	8.46e-01	0	39	104	0	60	43744
2026-01-18 18:07:29.99	24.54	0.80	-49.4	-61.5	3.6	8.46e-01	0	39	104	0	60	43162
2026-01-18 18:07:31.01	24.51	0.86	-49.4	-61.5	3.6	8.45e-01	0	39	104	0	60	43173
2026-01-18 18:07:32.01	24.48	0.92	-49.3	-61.5	3.6	8.44e-01	0	39	104	0	60	42865
2026-01-18 18:07:33.02	24.45	0.98	-49.2	-61.4	3.6	8.45e-01	0	39	104	0	60	42267
2026-01-18 18:07:34.03	24.42	1.04	-49.2	-61.3	3.6	8.45e-01	0	39	104	0	60	42144
2026-01-18 18:07:35.04	24.38	1.10	-49.0	-61.1	3.6	8.46e-01	0	39	104	0	60	40967
2026-01-18 18:07:36.05	24.35	1.16	-48.8	-61.0	3.6	8.45e-01	0	39	104	0	60	40551
2026-01-18 18:07:37.06	24.32	1.22	-48.8	-60.9	3.6	8.44e-01	0	39	104	0	60	40310
2026-01-18 18:07:38.07	24.29	1.28	-48.6	-60.8	3.6	8.46e-01	0	39	104	0	60	39461
2026-01-18 18:07:39.08	24.25	1.34	-48.4	-60.5	3.6	8.45e-01	0	39	104	0	60	38322
2026-01-18 18:07:40.09	24.22	1.40	-48.1	-60.2	3.6	8.45e-01	0	39	104	0	60	37089
2026-01-18 18:07:41.10	24.19	1.47	-47.8	-59.8	3.6	8.45e-01	0	39	104	0	60	35258
2026-01-18 18:07:42.11	24.15	1.53	-47.8	-59.9	3.6	8.46e-01	0	39	104	0	60	35531
2026-01-18 18:07:43.12	24.12	1.59	-47.8	-59.9	3.6	8.45e-01	0	39	104	0	60	35830
2026-01-18 18:07:44.13	24.09	1.65	-47.8	-59.9	3.6	8.44e-01	0	39	104	0	60	35883
2026-01-18 18:07:45.14	24.05	1.71	-47.8	-59.8	3.6	8.44e-01	0	39	104	0	60	35492
2026-01-18 18:07:46.15	24.02	1.77	-47.8	-59.7	3.6	8.46e-01	0	39	104	0	60	35052
2026-01-18 18:07:47.16	23.98	1.84	-47.8	-59.5	3.6	8.45e-01	0	39	104	0	60	34303
2026-01-18 18:07:48.17	23.95	1.90	-47.8	-59.4	3.6	8.44e-01	0	39	104	0	60	33846
2026-01-18 18:07:49.18	23.91	1.96	-47.8	-59.4	3.6	8.46e-01	0	39	104	0	60	33831
2026-01-18 18:07:50.20	23.88	2.02	-47.8	-59.5	3.6	8.45e-01	0	39	104	0	60	34083
2026-01-18 18:07:51.20	23.84	2.09	-47.8	-59.7	3.6	8.45e-01	0	39	104	0	60	34914
2026-01-18 18:07:52.21	23.81	2.15	-47.8	-59.8	3.5	8.46e-01	0	39	104	0	60	35321
2026-01-18 18:07:53.22	23.77	2.21	-47.8	-60.0	3.6	8.45e-01	0	39	104	0	60	35964
2026-01-18 18:07:54.23	23.74	2.27	-47.8	-59.9	3.6	8.45e-01	0	39	104	0	60	35816
2026-01-18 18:07:55.24	23.70	2.34	-47.8	-59.8	3.5	8.46e-01	0	39	104	0	60	35393
2026-01-18 18:07:56.25	23.67	2.40	-47.8	-59.8	3.6	8.45e-01	0	39	104	0	60	35236
2026-01-18 18:07:57.26	23.63	2.46	-47.8	-59.7	3.6	8.45e-01	0	40	104	0	60	35103
2026-01-18 18:07:58.28	23.59	2.53	-47.8	-59.7	3.6	8.45e-01	0	39	104	0	60	35043
2026-01-18 18:07:59.29	23.56	2.59	-47.8	-59.5	3.6	8.45e-01	0	39	104	0	60	34026
2026-01-18 18:08:00.29	23.52	2.65	-47.7	-59.2	3.6	8.45e-01	0	40	104	0	60	32944
2026-01-18 18:08:01.30	23.49	2.72	-47.6	-58.1	3.7	8.46e-01	0	39	104	0	60	29201
2026-01-18 18:08:02.31	23.45	2.78	-47.6	-57.7	3.8	8.44e-01	0	39	104	0	60	27634
2026-01-18 18:08:03.32	23.41	2.85	-47.5	-57.3	3.8	8.43e-01	0	39	104	0	60	26473
2026-01-18 18:08:04.33	23.37	2.91	-47.6	-57.4	3.7	8.44e-01	0	40	104	0	60	26936
2026-01-18 18:08:05.34	23.34	2.97	-47.6	-57.9	3.6	8.45e-01	0	39	104	0	60	28537
2026-01-18 18:08:06.35	23.30	3.04	-47.7	-59.0	3.6	8.46e-01	0	40	104	0	60	32066
2026-01-18 18:08:07.36	23.26	3.10	-47.7	-59.0	3.6	8.45e-01	0	40	104	0	60	32164
2026-01-18 18:08:08.37	23.22	3.17	-47.5	-57.2	3.6	8.45e-01	0	40	104	0	60	26134
2026-01-18 18:08:09.38	23.19	3.23	-47.1	-53.3	5.0	7.85e-01	0	40	0	0	60	16739
2026-01-18 18:08:10.39	23.15	3.30	-46.5	-51.2	6.9	3.60e-01	0	40	0	3145728	60	13135
2026-01-18 18:08:11.40	23.11	3.36	-45.7	-49.4	9.1	5.69e-02	0	40	0	8388608	60	10689
2026-01-18 18:08:12.41	23.07	3.43	-45.2	-48.4	10.1	1.18e-02	0	40	0	14680064	60	9534
2026-01-18 18:08:13.42	23.03	3.49	-44.6	-47.3	11.3	2.43e-03	0	39	0	19922944	60	8424
2026-01-18 18:08:14.43	22.99	3.56	-44.7	-47.6	11.0	2.63e-03	0	40	0	26214400	60	8648
2026-01-18 18:08:15.45	22.95	3.63	-45.5	-48.9	9.4	5.65e-03	0	40	0	31457280	60	10119
2026-01-18 18:08:16.46	22.91	3.69	-43.7	-45.6	16.1	1.95e-01	0	40	0	37748736	60	6900
2026-01-18 18:08:17.47	22.87	3.76	-43.1	-45.4	9.7	0.00e+00	0	40	0	42991616	52	10642
2026-01-18 18:08:18.48	22.83	3.82	-47.1	-54.2	4.7	8.44e-01	0	40	104	44040192	60	18599
2026-01-18 18:08:19.49	22.79	3.89	-39.0	-40.1	18.4	1.84e-02	0	40	104	44040192	54	5147
2026-01-18 18:08:20.50	22.75	3.96	-41.2	-42.6	16.5	1.94e-05	0	40	0	48234496	56	6172
2026-01-18 18:08:21.51	22.71	4.02	-39.9	-41.1	18.1	0.00e+00	0	40	0	54525952	52	6471
2026-01-18 18:08:22.52	22.67	4.09	-38.8	-39.8	18.6	0.00e+00	0	40	0	59768832	50	6269
2026-01-18 18:08:23.53	22.63	4.16	-39.9	-41.1	18.4	0.00e+00	0	40	0	66060288	52	6479
2026-01-18 18:08:24.54	22.59	4.22	-38.2	-39.2	19.9	0.00e+00	0	40	0	71303168	50	5831
2026-01-18 18:08:25.55	22.55	4.29	-38.7	-39.7	19.1	0.00e+00	0	40	0	77594624	50	6184
2026-01-18 18:08:26.56	22.51	4.36	-38.9	-39.9	19.3	0.00e+00	0	40	0	82837504	50	6340
2026-01-18 18:08:27.57	22.47	4.43	-38.4	-39.4	19.8	0.00e+00	0	40	0	89128960	50	6004
2026-01-18 18:08:28.58	22.43	4.49	-37.5	-38.4	20.6	0.00e+00	0	40	0	94371840	48	6020
2026-01-18 18:08:29.59	22.38	4.56	-38.3	-39.2	19.8	0.00e+00	0	40	0	99614720	48	6613
2026-01-18 18:08:30.60	22.34	4.63	-38.0	-38.9	20.2	0.00e+00	0	40	0	105906176	48	6386
2026-01-18 18:08:31.62	22.30	4.70	-38.1	-39.1	19.9	0.00e+00	0	40	0	111149056	48	6499
2026-01-18 18:08:32.63	22.26	4.77	-37.5	-38.4	20.9	0.00e+00	0	40	0	117440512	48	6006
2026-01-18 18:08:33.64	22.21	4.83	-37.6	-38.5	20.6	0.00e+00	0	40	0	122683392	48	6091
2026-01-18 18:08:34.65	22.17	4.90	-37.4	-38.3	20.9	0.00e+00	0	40	0	127926272	48	5936
2026-01-18 18:08:35.66	22.13	4.97	-37.0	-37.9	21.2	0.00e+00	0	40	0	134217728	48	5668
2026-01-18 18:08:36.67	22.08	5.04	-37.2	-38.1	20.8	0.00e+00	0	40	0	139460608	48	5777
2026-01-18 18:08:37.68	22.04	5.11	-37.4	-38.2	21.1	0.00e+00	0	39	0	145752064	48	5895
2026-01-18 18:08:38.69	21.99	5.18	-37.3	-38.1	21.1	0.00e+00	0	40	0	150994944	48	5824
2026-01-18 18:08:39.70	21.95	5.25	-37.1	-38.0	21.3	0.00e+00	0	40	0	156237824	48	5705
2026-01-18 18:08:40.71	21.91	5.32	-37.2	-38.0	21.1	0.00e+00	0	40	0	162529280	48	5739
2026-01-18 18:08:41.72	21.86	5.39	-36.9	-37.7	21.5	0.00e+00	0	40	0	167772160	48	5536
2026-01-18 18:08:42.73	21.82	5.46	-36.9	-37.7	21.5	0.00e+00	0	40	0	174063616	48	5547
2026-01-18 18:08:43.74	21.77	5.53	-36.2	-37.0	22.1	0.00e+00	0	40	0	179306496	46	5751
2026-01-18 18:08:44.75	21.73	5.60	-36.2	-37.0	22.3	0.00e+00	0	40	0	185597952	46	5706
2026-01-18 18:08:45.76	21.68	5.67	-36.1	-36.9	22.2	0.00e+00	0	40	0	190840832	46	5681
2026-01-18 18:08:46.77	21.63	5.74	-36.2	-37.0	22.2	0.00e+00	0	40	0	197132288	46	5760
2026-01-18 18:08:47.78	21.59	5.81	-36.2	-36.9	22.3	0.00e+00	0	40	0	202375168	46	5692
2026-01-18 18:08:48.79	21.54	5.88	-36.0	-36.8	22.5	0.00e+00	0	40	0	207618048	46	5567
2026-01-18 18:08:49.80	21.49	5.95	-36.2	-37.0	22.2	0.00e+00	0	40	0	213909504	46	5743
2026-01-18 18:08:50.81	21.45	6.02	-36.2	-36.9	22.4	0.00e+00	0	40	0	219152384	46	5680
2026-01-18 18:08:51.82	21.40	6.09	-36.2	-37.0	22.4	0.00e+00	0	40	0	225443840	46	5703
2026-01-18 18:08:52.83	21.35	6.17	-36.1	-36.9	22.5	0.00e+00	0	40	0	230686720	46	5673
2026-01-18 18:08:53.84	21.31	6.24	-36.0	-36.8	22.5	0.00e+00	0	40	0	235929600	46	5611
2026-01-18 18:08:54.85	21.26	6.31	-36.3	-37.1	22.4	0.00e+00	0	40	0	242221056	46	5791
2026-01-18 18:08:55.86	21.21	6.38	-35.9	-36.7	22.7	0.00e+00	0	40	0	247463936	46	5520
2026-01-18 18:08:56.87	21.16	6.45	-35.8	-36.5	22.8	0.00e+00	0	40	0	253755392	44	6098
2026-01-18 18:08:57.88	21.11	6.53	-35.8	-36.6	22.8	0.00e+00	0	40	0	258998272	44	6140
2026-01-18 18:08:58.89	21.06	6.60	-35.8	-36.6	22.8	0.00e+00	0	40	0	264241152	44	6157
2026-01-18 18:08:59.90	21.01	6.67	-35.8	-36.6	22.8	0.00e+00	0	40	0	270532608	44	6109
2026-01-18 18:09:00.91	20.96	6.74	-35.6	-36.3	23.0	0.00e+00	0	40	0	275775488	44	5960
2026-01-18 18:09:01.92	20.91	6.82	-35.7	-36.5	22.9	0.00e+00	0	40	0	282066944	44	6055
2026-01-18 18:09:02.93	20.86	6.89	-35.7	-36.5	22.9	0.00e+00	0	40	0	287309824	44	6038
2026-01-18 18:09:03.94	20.81	6.97	-35.7	-36.5	22.9	0.00e+00	0	40	0	293601280	44	6064
2026-01-18 18:09:04.95	20.76	7.04	-35.8	-36.5	22.9	0.00e+00	0	40	0	298844160	44	6073
2026-01-18 18:09:05.96	20.71	7.11	-35.8	-36.6	22.8	0.00e+00	0	40	0	304087040	44	6119
2026-01-18 18:09:06.97	20.66	7.19	-35.7	-36.5	23.0	0.00e+00	0	40	0	310378496	44	6036
2026-01-18 18:09:07.98	20.61	7.26	-35.7	-36.5	22.9	0.00e+00	0	40	0	315621376	44	6063
2026-01-18 18:09:09.00	20.56	7.34	-35.7	-36.5	22.9	0.00e+00	0	40	0	321912832	44	6048
2026-01-18 18:09:10.01	20.51	7.41	-35.8	-36.6	22.9	0.00e+00	0	40	0	327155712	44	6160
2026-01-18 18:09:11.02	20.45	7.49	-35.6	-36.4	23.0	0.00e+00	0	40	0	333447168	44	5994
2026-01-18 18:09:12.03	20.40	7.56	-35.7	-36.4	23.0	0.00e+00	0	40	0	338690048	44	6017
2026-01-18 18:09:13.04	20.35	7.64	-35.7	-36.4	22.9	0.00e+00	0	40	0	343932928	44	6029
2026-01-18 18:09:14.05	20.29	7.71	-35.7	-36.5	23.0	0.00e+00	0	40	0	350224384	44	6058
2026-01-18 18:09:15.06	20.24	7.79	-36.0	-36.8	22.7	0.00e+00	0	40	0	355467264	44	6253
2026-01-18 18:09:16.07	20.19	7.86	-35.6	-36.4	23.1	0.00e+00	0	40	0	361758720	44	6030
2026-01-18 18:09:17.07	20.13	7.94	-35.6	-36.4	23.1	0.00e+00	0	40	0	367001600	44	5997
2026-01-18 18:09:18.08	20.08	8.02	-35.7	-36.4	23.0	0.00e+00	0	40	0	372244480	44	6012
2026-01-18 18:09:19.10	20.02	8.09	-35.7	-36.5	23.0	0.00e+00	0	40	0	378535936	44	6046
2026-01-18 18:09:20.11	19.97	8.17	-35.6	-36.4	23.1	0.00e+00	0	40	0	383778816	44	6002
2026-01-18 18:09:21.11	19.91	8.25	-35.7	-36.5	23.0	0.00e+00	0	40	0	390070272	44	6066
2026-01-18 18:09:22.12	19.86	8.32	-35.5	-36.3	23.2	0.00e+00	0	40	0	395313152	44	5926
2026-01-18 18:09:23.13	19.80	8.40	-35.6	-36.3	23.2	0.00e+00	0	40	0	401604608	44	5953
2026-01-18 18:09:24.14	19.75	8.48	-35.6	-36.4	23.1	0.00e+00	0	40	0	406847488	44	5991
2026-01-18 18:09:25.15	19.69	8.56	-35.5	-36.3	23.3	0.00e+00	0	40	0	412090368	44	5911
2026-01-18 18:09:26.16	19.63	8.63	-35.5	-36.3	23.2	0.00e+00	0	40	0	418381824	44	5927
2026-01-18 18:09:27.17	19.58	8.71	-35.4	-36.1	23.4	0.00e+00	0	40	0	423624704	44	5793
2026-01-18 18:09:28.18	19.52	8.79	-35.4	-36.2	23.4	0.00e+00	0	40	0	429916160	44	5852
2026-01-18 18:09:29.19	19.46	8.87	-35.4	-36.2	23.3	0.00e+00	0	40	0	435159040	44	5848
2026-01-18 18:09:30.20	19.40	8.95	-35.5	-36.3	23.3	0.00e+00	0	40	0	440401920	44	5928
2026-01-18 18:09:31.21	19.34	9.03	-35.6	-36.4	23.2	0.00e+00	0	40	0	446693376	44	5992
2026-01-18 18:09:32.22	19.28	9.11	-35.7	-36.5	23.1	0.00e+00	0	40	0	451936256	44	6045
2026-01-18 18:09:33.23	19.22	9.19	-35.8	-36.5	23.1	0.00e+00	0	40	0	458227712	44	6069
2026-01-18 18:09:34.24	19.16	9.27	-35.3	-36.1	23.5	0.00e+00	0	40	0	463470592	44	5764
2026-01-18 18:09:35.25	19.10	9.35	-35.3	-36.1	23.5	0.00e+00	0	40	0	468713472	44	5775
2026-01-18 18:09:36.26	19.04	9.43	-35.3	-36.1	23.5	0.00e+00	0	40	0	475004928	44	5772
2026-01-18 18:09:37.27	18.98	9.51	-35.3	-36.0	23.6	0.00e+00	0	40	0	480247808	44	5727
2026-01-18 18:09:38.28	18.92	9.59	-35.4	-36.1	23.6	0.00e+00	0	40	0	486539264	44	5808
2026-01-18 18:09:39.29	18.86	9.67	-35.4	-36.2	23.4	0.00e+00	0	40	0	491782144	44	5831
2026-01-18 18:09:40.30	18.80	9.75	-35.3	-36.0	23.5	0.00e+00	0	40	0	498073600	44	5757
2026-01-18 18:09:41.31	18.74	9.83	-35.1	-35.8	23.7	0.00e+00	0	40	0	503316480	44	5625
2026-01-18 18:09:42.32	18.67	9.91	-35.1	-35.8	23.8	0.00e+00	0	40	0	509607936	44	5574
2026-01-18 18:09:43.33	18.61	10.00	-35.1	-35.9	23.7	0.00e+00	0	40	0	514850816	44	5648
2026-01-18 18:09:44.35	18.55	10.08	-35.1	-35.8	23.8	0.00e+00	0	40	0	520093696	44	5602
2026-01-18 18:09:45.36	18.48	10.16	-35.1	-35.8	23.8	0.00e+00	0	40	0	526385152	44	5575
2026-01-18 18:09:46.37	18.42	10.24	-35.0	-35.7	23.9	0.00e+00	0	40	0	531628032	44	5523
2026-01-18 18:09:47.38	18.36	10.33	-34.9	-35.6	24.0	0.00e+00	0	40	0	537919488	44	5470
2026-01-18 18:09:48.39	18.29	10.41	-35.0	-35.7	23.9	0.00e+00	0	40	0	543162368	44	5559
2026-01-18 18:09:49.40	18.23	10.49	-34.8	-35.5	24.1	0.00e+00	0	40	0	548405248	44	5425
2026-01-18 18:09:50.41	18.16	10.58	-34.8	-35.6	24.1	0.00e+00	0	40	0	554696704	44	5444
2026-01-18 18:09:51.42	18.09	10.66	-34.8	-35.5	24.1	0.00e+00	0	40	0	559939584	44	5412
2026-01-18 18:09:52.43	18.03	10.74	-34.8	-35.5	24.1	0.00e+00	0	40	0	566231040	44	5425
2026-01-18 18:09:53.44	17.96	10.83	-34.9	-35.6	24.0	0.00e+00	0	40	0	571473920	44	5483
2026-01-18 18:09:54.45	17.89	10.91	-35.1	-35.9	23.8	0.00e+00	0	40	0	576716800	44	5647
2026-01-18 18:09:55.46	17.83	11.00	-34.8	-35.5	24.1	0.00e+00	0	40	0	583008256	44	5405
2026-01-18 18:09:56.47	17.76	11.08	-34.9	-35.6	24.0	0.00e+00	0	40	0	588251136	44	5458
2026-01-18 18:09:57.48	17.69	11.17	-35.0	-35.7	23.9	0.00e+00	0	40	0	594542592	44	5534
2026-01-18 18:09:58.49	17.62	11.25	-34.8	-35.5	24.1	0.00e+00	0	40	0	599785472	44	5439
2026-01-18 18:09:59.50	17.55	11.34	-34.9	-35.7	24.0	0.00e+00	0	40	0	606076928	44	5512
2026-01-18 18:10:00.52	17.48	11.43	-34.8	-35.6	24.1	0.00e+00	0	40	0	611319808	44	5443
2026-01-18 18:10:01.52	17.41	11.51	-34.9	-35.6	24.1	0.00e+00	0	40	0	617611264	44	5469
2026-01-18 18:10:02.53	17.34	11.60	-34.8	-35.6	24.1	0.00e+00	0	40	0	622854144	44	5446
2026-01-18 18:10:03.54	17.27	11.68	-34.9	-35.6	24.1	0.00e+00	0	40	0	628097024	44	5459
2026-01-18 18:10:04.56	17.20	11.77	-34.9	-35.6	24.1	0.00e+00	0	40	0	634388480	44	5465
2026-01-18 18:10:05.56	17.13	11.86	-35.0	-35.7	24.1	0.00e+00	0	40	0	639631360	44	5534
2026-01-18 18:10:06.58	17.05	11.95	-34.9	-35.7	23.8	0.00e+00	0	40	0	645922816	44	5512
2026-01-18 18:10:07.59	16.98	12.04	-34.9	-35.6	24.2	0.00e+00	0	40	0	651165696	44	5497
2026-01-18 18:10:08.60	16.91	12.12	-34.7	-35.4	24.4	0.00e+00	0	40	0	656408576	42	5992
2026-01-18 18:10:09.61	16.83	12.21	-34.7	-35.4	24.3	0.00e+00	0	40	0	662700032	42	5998
2026-01-18 18:10:10.62	16.76	12.30	-34.6	-35.3	24.5	0.00e+00	0	40	0	667942912	42	5923
2026-01-18 18:10:11.63	16.68	12.39	-34.6	-35.3	24.4	0.00e+00	0	40	0	674234368	42	5915
2026-01-18 18:10:12.64	16.61	12.48	-34.5	-35.2	24.5	0.00e+00	0	40	0	679477248	42	5835
2026-01-18 18:10:13.65	16.53	12.57	-34.4	-35.1	24.6	0.00e+00	0	40	0	684720128	42	5819
2026-01-18 18:10:14.66	16.46	12.66	-34.5	-35.2	24.6	0.00e+00	0	40	0	691011584	42	5845
2026-01-18 18:10:15.67	16.38	12.75	-34.3	-35.0	24.8	0.00e+00	0	40	0	696254464	42	5696
2026-01-18 18:10:16.68	16.30	12.84	-34.1	-34.8	24.9	0.00e+00	0	40	0	702545920	42	5592
2026-01-18 18:10:17.69	16.23	12.93	-34.0	-34.7	25.0	0.00e+00	0	40	0	707788800	42	5523
2026-01-18 18:10:18.70	16.15	13.02	-33.9	-34.6	25.1	0.00e+00	0	40	0	714080256	42	5493
2026-01-18 18:10:19.71	16.07	13.11	-34.1	-34.8	24.9	0.00e+00	0	40	0	719323136	42	5575
2026-01-18 18:10:20.72	15.99	13.20	-33.9	-34.6	25.1	0.00e+00	0	40	0	725614592	42	5453
2026-01-18 18:10:21.73	15.91	13.29	-33.9	-34.6	25.1	0.00e+00	0	40	0	730857472	42	5475
2026-01-18 18:10:22.74	15.83	13.39	-34.1	-34.8	25.0	0.00e+00	0	40	0	736100352	42	5567
2026-01-18 18:10:23.75	15.75	13.48	-33.9	-34.6	25.1	0.00e+00	0	40	0	742391808	42	5487
2026-01-18 18:10:24.76	15.67	13.57	-34.0	-34.7	25.0	0.00e+00	0	40	0	747634688	42	5520
2026-01-18 18:10:25.78	15.59	13.67	-34.1	-34.8	25.0	0.00e+00	0	40	0	753926144	42	5584
2026-01-18 18:10:26.79	15.50	13.76	-33.9	-34.6	25.2	0.00e+00	0	40	0	759169024	42	5453
2026-01-18 18:10:27.80	15.42	13.85	-34.0	-34.7	25.1	0.00e+00	0	40	0	764411904	42	5505
2026-01-18 18:10:28.81	15.34	13.95	-33.9	-34.5	25.2	0.00e+00	0	40	0	770703360	42	5430
2026-01-18 18:10:29.82	15.25	14.04	-33.9	-34.6	25.1	0.00e+00	0	40	0	775946240	42	5445
2026-01-18 18:10:30.83	15.17	14.13	-33.9	-34.5	25.2	0.00e+00	0	40	0	782237696	42	5438
2026-01-18 18:10:31.84	15.08	14.23	-33.9	-34.6	25.1	0.00e+00	0	40	0	787480576	42	5489
2026-01-18 18:10:32.85	15.00	14.32	-34.1	-34.8	25.0	0.00e+00	0	40	0	792723456	42	5581
2026-01-18 18:10:33.86	14.91	14.42	-34.1	-34.8	25.0	0.00e+00	0	40	0	799014912	42	5589
2026-01-18 18:10:34.87	14.82	14.52	-34.1	-34.8	25.0	0.00e+00	0	40	0	804257792	42	5592
2026-01-18 18:10:35.88	14.74	14.61	-34.1	-34.8	25.0	0.00e+00	0	40	0	810549248	42	5612
2026-01-18 18:10:36.89	14.65	14.71	-33.9	-34.5	25.2	0.00e+00	0	40	0	815792128	42	5424
2026-01-18 18:10:37.90	14.56	14.80	-33.6	-34.3	25.4	0.00e+00	0	40	0	822083584	40	5942
2026-01-18 18:10:38.91	14.47	14.90	-33.7	-34.4	25.3	0.00e+00	0	40	0	827326464	40	6004
2026-01-18 18:10:39.92	14.38	15.00	-33.8	-34.5	25.2	0.00e+00	0	40	0	833617920	40	6097
2026-01-18 18:10:40.93	14.29	15.10	-33.6	-34.3	25.5	0.00e+00	0	40	0	838860800	40	5927
2026-01-18 18:10:41.94	14.20	15.19	-33.6	-34.3	25.4	0.00e+00	0	40	0	844103680	40	5902
2026-01-18 18:10:42.95	14.11	15.29	-33.6	-34.3	25.5	0.00e+00	0	40	0	850395136	40	5900
2026-01-18 18:10:43.96	14.02	15.39	-33.7	-34.4	25.4	0.00e+00	0	40	0	855638016	40	5972
2026-01-18 18:10:44.97	13.92	15.49	-33.5	-34.2	25.5	0.00e+00	0	40	0	861929472	40	5829
2026-01-18 18:10:45.98	13.83	15.59	-33.5	-34.2	25.5	0.00e+00	0	40	0	867172352	40	5846
2026-01-18 18:10:46.99	13.74	15.69	-33.5	-34.1	25.6	0.00e+00	0	40	0	872415232	40	5828
2026-01-18 18:10:48.00	13.64	15.79	-33.4	-34.0	25.6	0.00e+00	0	40	0	878706688	40	5746
2026-01-18 18:10:49.01	13.55	15.89	-33.4	-34.0	25.7	0.00e+00	0	40	0	883949568	40	5752
2026-01-18 18:10:50.03	13.45	15.99	-33.3	-34.0	25.7	0.00e+00	0	40	0	890241024	40	5718
2026-01-18 18:10:51.04	13.35	16.09	-33.3	-33.9	25.8	0.00e+00	0	40	0	895483904	40	5677
2026-01-18 18:10:52.05	13.25	16.19	-33.4	-34.0	25.7	0.00e+00	0	40	0	900726784	40	5748
2026-01-18 18:10:53.06	13.16	16.29	-33.2	-33.8	25.8	0.00e+00	0	40	0	907018240	40	5630
2026-01-18 18:10:54.07	13.06	16.39	-33.3	-34.0	25.8	0.00e+00	0	40	0	912261120	40	5703
2026-01-18 18:10:55.08	12.96	16.50	-33.3	-34.0	25.7	0.00e+00	0	40	0	918552576	40	5706
2026-01-18 18:10:56.09	12.86	16.60	-33.3	-33.9	25.7	0.00e+00	0	40	0	923795456	40	5694
2026-01-18 18:10:57.10	12.76	16.70	-33.1	-33.8	25.9	0.00e+00	0	40	0	930086912	40	5572
2026-01-18 18:10:58.11	12.65	16.81	-33.0	-33.6	26.1	0.00e+00	0	40	0	935329792	40	5466
2026-01-18 18:10:59.12	12.55	16.91	-32.9	-33.6	26.0	0.00e+00	0	40	0	941621248	40	5452
2026-01-18 18:11:00.13	12.45	17.01	-32.9	-33.6	26.1	0.00e+00	0	40	0	946864128	40	5446
2026-01-18 18:11:01.14	12.34	17.12	-32.9	-33.6	26.2	0.00e+00	0	40	0	952107008	40	5444
2026-01-18 18:11:02.15	12.24	17.22	-32.9	-33.6	26.1	0.00e+00	0	40	0	958398464	40	5474
2026-01-18 18:11:03.16	12.13	17.33	-33.0	-33.7	26.0	0.00e+00	0	40	0	963641344	40	5513
2026-01-18 18:11:04.17	12.03	17.43	-33.1	-33.8	25.9	0.00e+00	0	40	0	969932800	40	5579
2026-01-18 18:11:05.18	11.92	17.54	-33.1	-33.8	26.0	0.00e+00	0	40	0	975175680	40	5585
2026-01-18 18:11:06.19	11.81	17.64	-33.0	-33.7	26.0	0.00e+00	0	40	0	980418560	40	5523
2026-01-18 18:11:07.20	11.70	17.75	-33.1	-33.8	25.9	0.00e+00	0	40	0	986710016	40	5590
2026-01-18 18:11:08.21	11.59	17.86	-33.2	-33.8	25.9	0.00e+00	0	40	0	991952896	40	5606
2026-01-18 18:11:09.22	11.48	17.96	-33.0	-33.7	25.9	0.00e+00	0	40	0	998244352	40	5517
2026-01-18 18:11:10.23	11.37	18.07	-32.9	-33.5	26.2	0.00e+00	0	40	0	1003487232	40	5413
2026-01-18 18:11:11.24	11.26	18.18	-32.8	-33.5	26.3	0.00e+00	0	40	0	1008730112	40	5380
2026-01-18 18:11:12.25	11.15	18.29	-32.7	-33.3	26.3	0.00e+00	0	40	0	1015021568	38	5938
2026-01-18 18:11:13.26	11.03	18.39	-32.6	-33.2	26.5	0.00e+00	0	40	0	1020264448	38	5852
2026-01-18 18:11:14.27	10.92	18.50	-32.6	-33.2	26.4	0.00e+00	0	40	0	1026555904	38	5854
2026-01-18 18:11:15.28	10.81	18.61	-32.7	-33.3	26.3	0.00e+00	0	40	0	1031798784	38	5922
2026-01-18 18:11:16.29	10.69	18.72	-32.5	-33.1	26.6	0.00e+00	0	40	0	1038090240	38	5797
2026-01-18 18:11:17.30	10.57	18.83	-32.6	-33.3	26.4	0.00e+00	0	40	0	1043333120	38	5902
2026-01-18 18:11:18.31	10.45	18.94	-32.5	-33.2	26.5	0.00e+00	0	40	0	1048576000	38	5845
2026-01-18 18:11:19.32	10.34	19.05	-32.5	-33.2	26.4	0.00e+00	0	40	0	1054867456	38	5861
2026-01-18 18:11:20.33	10.22	19.16	-32.4	-33.1	26.6	0.00e+00	0	40	0	1060110336	38	5763
2026-01-18 18:11:21.34	10.10	19.27	-32.6	-33.2	26.5	0.00e+00	0	40	0	1066401792	38	5875
2026-01-18 18:11:22.35	9.97	19.39	-32.4	-33.1	26.6	0.00e+00	0	40	0	1071644672	38	5768
2026-01-18 18:11:23.36	9.85	19.50	-32.4	-33.0	26.6	0.00e+00	0	40	0	1076887552	38	5748
2026-01-18 18:11:24.37	9.73	19.61	-32.4	-33.0	26.6	0.00e+00	0	40	0	1083179008	38	5757
2026-01-18 18:11:25.38	9.61	19.72	-32.4	-33.0	26.6	0.00e+00	0	40	0	1088421888	38	5760
2026-01-18 18:11:26.39	9.48	19.84	-32.4	-33.0	26.6	0.00e+00	0	40	0	1094713344	38	5753
2026-01-18 18:11:27.40	9.35	19.95	-32.5	-33.2	26.5	0.00e+00	0	40	0	1099956224	38	5868
2026-01-18 18:11:28.41	9.23	20.06	-32.3	-32.9	26.6	0.00e+00	0	40	0	1106247680	38	5673
2026-01-18 18:11:29.42	9.10	20.18	-32.3	-32.9	26.7	0.00e+00	0	40	0	1111490560	38	5690
2026-01-18 18:11:30.43	8.97	20.29	-32.2	-32.8	26.8	0.00e+00	0	40	0	1116733440	38	5618
2026-01-18 18:11:31.44	8.84	20.41	-32.1	-32.7	26.9	0.00e+00	0	40	0	1123024896	38	5551
2026-01-18 18:11:32.45	8.71	20.52	-32.1	-32.7	26.9	0.00e+00	0	40	0	1128267776	38	5552
2026-01-18 18:11:33.46	8.58	20.64	-32.0	-32.7	26.9	0.00e+00	0	40	0	1134559232	38	5527
2026-01-18 18:11:34.47	8.44	20.75	-32.0	-32.6	26.9	0.00e+00	0	40	0	1139802112	38	5486
2026-01-18 18:11:35.48	8.31	20.87	-32.0	-32.7	26.9	0.00e+00	0	40	0	1146093568	38	5520
2026-01-18 18:11:36.49	8.18	20.99	-32.0	-32.6	26.9	0.00e+00	0	40	0	1151336448	38	5486
2026-01-18 18:11:37.51	8.04	21.11	-32.0	-32.7	26.9	0.00e+00	0	40	0	1156579328	38	5521
2026-01-18 18:11:38.52	7.90	21.22	-32.1	-32.7	26.9	0.00e+00	0	40	0	1162870784	38	5529
2026-01-18 18:11:39.53	7.76	21.34	-32.2	-32.8	26.8	0.00e+00	0	40	0	1168113664	38	5609
2026-01-18 18:11:40.54	7.62	21.46	-31.9	-32.5	27.0	0.00e+00	0	40	0	1174405120	38	5438
2026-01-18 18:11:41.55	7.48	21.58	-32.0	-32.7	26.8	0.00e+00	0	40	0	1179648000	38	5512
2026-01-18 18:11:42.56	7.34	21.70	-32.1	-32.7	26.9	0.00e+00	0	40	0	1184890880	38	5547
2026-01-18 18:11:43.57	7.20	21.82	-32.1	-32.7	26.9	0.00e+00	0	40	0	1191182336	38	5553
2026-01-18 18:11:44.58	7.05	21.94	-32.0	-32.6	27.0	0.00e+00	0	40	0	1196425216	38	5476
2026-01-18 18:11:45.59	6.91	22.06	-32.1	-32.8	26.9	0.00e+00	0	40	0	1202716672	38	5580
2026-01-18 18:11:46.60	6.76	22.18	-32.0	-32.6	26.9	0.00e+00	0	40	0	1207959552	38	5481
2026-01-18 18:11:47.61	6.62	22.30	-32.0	-32.6	27.0	0.00e+00	0	40	0	1214251008	38	5484
2026-01-18 18:11:48.62	6.47	22.42	-31.9	-32.6	27.1	0.00e+00	0	40	0	1219493888	38	5442
2026-01-18 18:11:49.63	6.32	22.54	-31.8	-32.4	27.2	0.00e+00	0	40	0	1224736768	38	5365
2026-01-18 18:11:50.64	6.17	22.66	-31.8	-32.5	27.2	0.00e+00	0	40	0	1231028224	36	6035
2026-01-18 18:11:51.66	6.01	22.79	-31.6	-32.2	27.4	0.00e+00	0	40	0	1236271104	36	5870
2026-01-18 18:11:52.67	5.86	22.91	-31.6	-32.3	27.3	0.00e+00	0	40	0	1242562560	36	5903
2026-01-18 18:11:53.68	5.71	23.03	-31.8	-32.4	27.2	0.00e+00	0	40	0	1247805440	36	6025
2026-01-18 18:11:54.69	5.55	23.16	-31.5	-32.1	27.3	0.00e+00	0	40	0	1254096896	36	5827
2026-01-18 18:11:55.70	5.39	23.28	-31.6	-32.2	27.3	0.00e+00	0	40	0	1259339776	36	5892
2026-01-18 18:11:56.71	5.23	23.40	-31.5	-32.1	27.4	0.00e+00	0	40	0	1264582656	36	5825
2026-01-18 18:11:57.72	5.07	23.53	-31.6	-32.2	27.3	0.00e+00	0	40	0	1270874112	36	5862
2026-01-18 18:11:58.73	4.91	23.65	-31.6	-32.2	27.4	0.00e+00	0	40	0	1276116992	36	5877
2026-01-18 18:11:59.74	4.75	23.78	-31.7	-32.3	27.3	0.00e+00	0	40	0	1282408448	36	5923
2026-01-18 18:12:00.76	4.59	23.90	-31.8	-32.4	27.1	0.00e+00	0	40	0	1287651328	36	5984
2026-01-18 18:12:01.77	4.42	24.03	-31.8	-32.4	27.1	0.00e+00	0	40	0	1293942784	36	5992
2026-01-18 18:12:02.77	4.26	24.16	-31.7	-32.4	27.2	0.00e+00	0	40	0	1299185664	36	5979
2026-01-18 18:12:03.79	4.09	24.28	-31.8	-32.4	27.2	0.00e+00	0	40	0	1304428544	36	5971
2026-01-18 18:12:04.80	3.92	24.41	-31.5	-32.1	27.4	0.00e+00	0	40	0	1310720000	36	5811
2026-01-18 18:12:05.81	3.75	24.54	-31.6	-32.2	27.4	0.00e+00	0	40	0	1315962880	36	5847
2026-01-18 18:12:06.82	3.58	24.67	-31.5	-32.2	27.5	0.00e+00	0	40	0	1322254336	36	5830
2026-01-18 18:12:07.83	3.40	24.79	-31.5	-32.1	27.4	0.00e+00	0	40	0	1327497216	36	5801
2026-01-18 18:12:08.83	3.23	24.92	-31.7	-32.3	27.2	0.00e+00	0	40	0	1332740096	36	5907
2026-01-18 18:12:09.84	3.05	25.05	-31.5	-32.2	27.5	0.00e+00	0	40	0	1339031552	36	5831
2026-01-18 18:12:10.85	2.88	25.18	-31.7	-32.4	27.3	0.00e+00	0	40	0	1344274432	36	5975
2026-01-18 18:12:11.86	2.70	25.31	-31.7	-32.4	27.2	0.00e+00	0	40	0	1350565888	36	5983
2026-01-18 18:12:12.87	2.52	25.44	-31.7	-32.3	27.2	0.00e+00	0	40	0	1355808768	36	5929
2026-01-18 18:12:13.88	2.33	25.57	-31.5	-32.2	27.4	0.00e+00	0	40	0	1362100224	36	5829
2026-01-18 18:12:14.90	2.15	25.70	-31.4	-32.0	27.5	0.00e+00	0	40	0	1367343104	36	5755
2026-01-18 18:12:15.90	1.96	25.83	-31.3	-31.9	27.6	0.00e+00	0	40	0	1372585984	36	5691
2026-01-18 18:12:16.91	1.78	25.96	-31.5	-32.1	27.5	0.00e+00	0	40	0	1378877440	36	5780
2026-01-18 18:12:17.92	1.59	26.09	-31.4	-32.0	27.5	0.00e+00	0	40	0	1384120320	36	5737
2026-01-18 18:12:18.93	1.40	26.22	-31.4	-32.0	27.5	0.00e+00	0	40	0	1390411776	36	5746
2026-01-18 18:12:19.94	1.21	26.35	-31.3	-31.9	27.6	0.00e+00	0	40	0	1395654656	36	5663
2026-01-18 18:12:20.96	1.01	26.49	-31.3	-31.9	27.7	0.00e+00	0	40	0	1400897536	36	5653
2026-01-18 18:12:21.96	0.82	26.62	-31.2	-31.9	27.6	0.00e+00	0	40	0	1407188992	36	5650
2026-01-18 18:12:22.97	0.62	26.75	-31.4	-32.0	27.5	0.00e+00	0	40	0	1412431872	36	5745
2026-01-18 18:12:23.98	0.42	26.88	-31.5	-32.1	27.4	0.00e+00	0	40	0	1418723328	36	5776
2026-01-18 18:12:24.99	0.23	27.02	-31.4	-32.0	27.5	0.00e+00	0	40	0	1423966208	36	5758
2026-01-18 18:12:26.00	0.02	27.15	-31.5	-32.1	27.4	0.00e+00	0	40	0	1429209088	36	5784
2026-01-18 18:12:27.01	359.82	27.28	-31.4	-32.1	27.5	0.00e+00	0	40	0	1435500544	36	5764
2026-01-18 18:12:28.02	359.62	27.42	-31.3	-31.9	27.6	0.00e+00	0	40	0	1440743424	36	5680
2026-01-18 18:12:29.03	359.41	27.55	-31.2	-31.8	27.7	0.00e+00	0	40	0	1447034880	36	5621
2026-01-18 18:12:30.04	359.20	27.68	-31.1	-31.7	27.7	0.00e+00	0	40	0	1452277760	36	5534
2026-01-18 18:12:31.05	358.99	27.82	-31.0	-31.5	27.9	0.00e+00	0	40	0	1458569216	36	5431
2026-01-18 18:12:32.06	358.78	27.95	-30.9	-31.5	27.9	0.00e+00	0	40	0	1463812096	36	5414
2026-01-18 18:12:33.07	358.56	28.09	-31.1	-31.7	27.8	0.00e+00	0	40	0	1470103552	36	5548
2026-01-18 18:12:34.08	358.35	28.22	-31.2	-31.8	27.7	0.00e+00	0	40	0	1475346432	36	5616
2026-01-18 18:12:35.09	358.13	28.36	-31.0	-31.6	27.8	0.00e+00	0	40	0	1480589312	36	5468
2026-01-18 18:12:36.10	357.91	28.50	-31.1	-31.6	27.8	0.00e+00	0	40	0	1486880768	36	5495
2026-01-18 18:12:37.11	357.69	28.63	-31.1	-31.7	27.8	0.00e+00	0	40	0	1492123648	36	5526
2026-01-18 18:12:38.12	357.47	28.77	-30.9	-31.6	27.9	0.00e+00	0	40	0	1498415104	36	5451
2026-01-18 18:12:39.13	357.24	28.90	-31.0	-31.7	27.7	0.00e+00	0	40	0	1503657984	36	5505
2026-01-18 18:12:40.14	357.01	29.04	-30.9	-31.5	27.8	0.00e+00	0	40	0	1508900864	36	5387
2026-01-18 18:12:41.15	356.78	29.18	-30.9	-31.6	27.9	0.00e+00	0	40	0	1515192320	36	5445
2026-01-18 18:12:42.16	356.55	29.31	-30.8	-31.4	28.0	0.00e+00	0	40	0	1520435200	36	5360
2026-01-18 18:12:43.17	356.32	29.45	-30.9	-31.6	27.9	0.00e+00	0	40	0	1526726656	36	5443
2026-01-18 18:12:44.18	356.08	29.59	-30.9	-31.6	27.9	0.00e+00	0	40	0	1531969536	36	5465
2026-01-18 18:12:45.19	355.85	29.72	-30.9	-31.5	27.9	0.00e+00	0	40	0	1537212416	36	5435
2026-01-18 18:12:46.20	355.61	29.86	-31.0	-31.6	27.8	0.00e+00	0	40	0	1543503872	36	5440
2026-01-18 18:12:47.21	355.37	30.00	-30.9	-31.5	27.9	0.00e+00	0	40	0	1548746752	36	5437
2026-01-18 18:12:48.22	355.12	30.13	-30.9	-31.5	28.0	0.00e+00	0	40	0	1555038208	36	5392
2026-01-18 18:12:49.23	354.88	30.27	-31.0	-31.6	27.8	0.00e+00	0	40	0	1560281088	36	5465
2026-01-18 18:12:50.24	354.63	30.41	-30.9	-31.5	27.9	0.00e+00	0	40	0	1566572544	36	5419
2026-01-18 18:12:51.25	354.38	30.55	-30.9	-31.5	27.9	0.00e+00	0	40	0	1571815424	36	5417
2026-01-18 18:12:52.26	354.13	30.68	-30.8	-31.4	27.9	0.00e+00	0	40	0	1577058304	36	5371
2026-01-18 18:12:53.27	353.87	30.82	-31.0	-31.6	27.9	0.00e+00	0	40	0	1583349760	36	5477
2026-01-18 18:12:54.28	353.62	30.96	-30.8	-31.4	27.9	0.00e+00	0	40	0	1588592640	36	5371
2026-01-18 18:12:55.29	353.36	31.10	-30.9	-31.5	27.9	0.00e+00	0	40	0	1594884096	36	5420
2026-01-18 18:12:56.30	353.10	31.23	-30.8	-31.4	28.0	0.00e+00	0	40	0	1600126976	36	5359
2026-01-18 18:12:57.31	352.83	31.37	-30.9	-31.4	27.8	0.00e+00	0	40	0	1606418432	36	5373
2026-01-18 18:12:58.32	352.57	31.51	-30.7	-31.3	28.1	0.00e+00	0	40	0	1611661312	34	5930
2026-01-18 18:12:59.34	352.30	31.65	-30.8	-31.4	28.0	0.00e+00	0	40	0	1616904192	34	6016
2026-01-18 18:13:00.35	352.03	31.78	-30.8	-31.4	28.0	0.00e+00	0	40	0	1623195648	34	5994
2026-01-18 18:13:01.36	351.76	31.92	-30.9	-31.6	27.9	0.00e+00	0	40	0	1628438528	34	6111
2026-01-18 18:13:02.37	351.48	32.06	-30.9	-31.5	27.9	0.00e+00	0	40	0	1634729984	34	6085
2026-01-18 18:13:03.38	351.20	32.19	-30.8	-31.4	28.0	0.00e+00	0	40	0	1639972864	34	5982
2026-01-18 18:13:04.39	350.92	32.33	-30.9	-31.5	27.8	0.00e+00	0	40	0	1645215744	34	6094
2026-01-18 18:13:05.40	350.64	32.47	-30.9	-31.5	27.9	0.00e+00	0	40	0	1651507200	34	6046
2026-01-18 18:13:06.41	350.36	32.60	-31.0	-31.6	27.9	0.00e+00	0	40	0	1656750080	34	6135
2026-01-18 18:13:07.42	350.07	32.74	-31.1	-31.7	27.8	0.00e+00	0	40	0	1663041536	34	6236
2026-01-18 18:13:08.43	349.78	32.88	-31.2	-31.8	27.7	0.00e+00	0	40	0	1668284416	34	6291
2026-01-18 18:13:09.45	349.49	33.01	-30.9	-31.5	27.9	0.00e+00	0	40	0	1674575872	34	6100
2026-01-18 18:13:10.45	349.20	33.15	-31.0	-31.6	27.8	0.00e+00	0	40	0	1679818752	34	6152
2026-01-18 18:13:11.47	348.90	33.28	-30.9	-31.5	28.0	0.00e+00	0	40	0	1686110208	34	6084
2026-01-18 18:13:12.48	348.60	33.42	-30.8	-31.4	28.0	0.00e+00	0	40	0	1691353088	34	6025
2026-01-18 18:13:13.49	348.30	33.55	-30.7	-31.3	28.1	0.00e+00	0	40	0	1696595968	34	5947
2026-01-18 18:13:14.50	347.99	33.69	-30.7	-31.4	28.0	0.00e+00	0	40	0	1702887424	34	5977
2026-01-18 18:13:15.51	347.69	33.82	-30.6	-31.3	28.1	0.00e+00	0	40	0	1708130304	34	5901
2026-01-18 18:13:16.52	347.38	33.96	-30.8	-31.4	28.1	0.00e+00	0	40	0	1714421760	34	5991
2026-01-18 18:13:17.53	347.07	34.09	-30.8	-31.3	28.1	0.00e+00	0	40	0	1719664640	34	5963
2026-01-18 18:13:18.54	346.75	34.22	-30.9	-31.5	28.0	0.00e+00	0	40	0	1724907520	34	6055
2026-01-18 18:13:19.55	346.43	34.36	-30.8	-31.4	28.0	0.00e+00	0	40	0	1731198976	34	6026
2026-01-18 18:13:20.56	346.12	34.49	-30.7	-31.3	28.0	0.00e+00	0	40	0	1736441856	34	5959
2026-01-18 18:13:21.57	345.79	34.62	-30.9	-31.4	28.0	0.00e+00	0	40	0	1742733312	34	6030
2026-01-18 18:13:22.58	345.47	34.75	-30.7	-31.3	28.0	0.00e+00	0	40	0	1747976192	34	5950
2026-01-18 18:13:23.60	345.14	34.88	-30.9	-31.5	27.9	0.00e+00	0	40	0	1753219072	34	6058
2026-01-18 18:13:24.60	344.81	35.01	-31.0	-31.6	27.9	0.00e+00	0	40	0	1759510528	34	6126
2026-01-18 18:13:25.61	344.48	35.14	-30.7	-31.3	28.0	0.00e+00	0	40	0	1764753408	34	5930
2026-01-18 18:13:26.62	344.14	35.27	-30.7	-31.4	28.1	0.00e+00	0	40	0	1771044864	34	5973
2026-01-18 18:13:27.63	343.80	35.40	-30.8	-31.4	28.0	0.00e+00	0	40	0	1776287744	34	5995
2026-01-18 18:13:28.64	343.46	35.52	-30.8	-31.4	27.8	0.00e+00	0	40	0	1782579200	34	5966
2026-01-18 18:13:29.65	343.12	35.65	-30.9	-31.5	27.9	0.00e+00	0	40	0	1787822080	34	6051
2026-01-18 18:13:30.67	342.77	35.78	-31.1	-31.7	27.8	0.00e+00	0	40	0	1794113536	34	6206
2026-01-18 18:13:31.68	342.42	35.90	-31.2	-31.8	27.8	0.00e+00	0	40	0	1799356416	34	6297
2026-01-18 18:13:32.68	342.07	36.03	-31.3	-32.0	27.5	0.00e+00	0	40	0	1804599296	34	6412
2026-01-18 18:13:33.70	341.72	36.15	-31.0	-31.6	28.0	0.00e+00	0	40	0	1810890752	34	6146
2026-01-18 18:13:34.71	341.36	36.28	-31.0	-31.6	27.8	0.00e+00	0	40	0	1816133632	34	6145
2026-01-18 18:13:35.71	341.00	36.40	-31.0	-31.7	27.9	0.00e+00	0	40	0	1822425088	34	6186
2026-01-18 18:13:36.72	340.64	36.52	-31.1	-31.7	27.9	0.00e+00	0	40	0	1827667968	34	6193
2026-01-18 18:13:37.74	340.27	36.64	-31.1	-31.7	27.9	0.00e+00	0	40	0	1832910848	34	6209
2026-01-18 18:13:38.75	339.90	36.76	-30.8	-31.4	28.1	0.00e+00	0	40	0	1839202304	34	6018
2026-01-18 18:13:39.75	339.54	36.88	-30.9	-31.5	28.0	0.00e+00	0	40	0	1844445184	34	6048
2026-01-18 18:13:40.77	339.16	37.00	-30.6	-31.2	28.2	0.00e+00	0	40	0	1850736640	34	5879
2026-01-18 18:13:41.78	338.78	37.12	-30.7	-31.2	28.1	0.00e+00	0	40	0	1855979520	34	5892
2026-01-18 18:13:42.79	338.40	37.23	-30.6	-31.2	28.3	0.00e+00	0	40	0	1861222400	34	5861
2026-01-18 18:13:43.79	338.03	37.34	-30.9	-31.5	28.0	0.00e+00	0	40	0	1867513856	34	6043
2026-01-18 18:13:44.80	337.64	37.46	-31.0	-31.6	27.9	0.00e+00	0	40	0	1872756736	34	6144
2026-01-18 18:13:45.81	337.25	37.57	-31.0	-31.6	28.0	0.00e+00	0	40	0	1879048192	34	6140
2026-01-18 18:13:46.82	336.87	37.68	-30.8	-31.4	28.0	0.00e+00	0	40	0	1884291072	34	5992
2026-01-18 18:13:47.83	336.47	37.79	-30.9	-31.5	28.0	0.00e+00	0	40	0	1890582528	34	6073
2026-01-18 18:13:48.84	336.08	37.90	-30.9	-31.5	28.0	0.00e+00	0	40	0	1895825408	34	6073
2026-01-18 18:13:49.85	335.68	38.01	-30.8	-31.3	28.1	0.00e+00	0	40	0	1901068288	34	5947
2026-01-18 18:13:50.86	335.28	38.12	-30.8	-31.4	28.1	0.00e+00	0	40	0	1907359744	34	6024
2026-01-18 18:13:51.87	334.88	38.22	-30.9	-31.5	28.0	0.00e+00	0	40	0	1912602624	34	6095
2026-01-18 18:13:52.88	334.47	38.33	-30.9	-31.5	28.0	0.00e+00	0	40	0	1918894080	34	6043
2026-01-18 18:13:53.89	334.06	38.43	-30.9	-31.5	28.0	0.00e+00	0	41	0	1924136960	34	6079
2026-01-18 18:13:54.90	333.65	38.53	-30.9	-31.5	28.0	0.00e+00	0	40	0	1929379840	34	6092
2026-01-18 18:13:55.92	333.23	38.63	-31.0	-31.6	27.9	0.00e+00	0	40	0	1935671296	34	6122
2026-01-18 18:13:56.92	332.82	38.73	-31.0	-31.7	28.0	0.00e+00	0	40	0	1940914176	34	6196
2026-01-18 18:13:57.94	332.40	38.83	-30.9	-31.5	28.0	0.00e+00	0	40	0	1947205632	34	6053
2026-01-18 18:13:58.95	331.98	38.93	-31.0	-31.6	28.0	0.00e+00	0	40	0	1952448512	34	6140
2026-01-18 18:13:59.96	331.55	39.02	-30.9	-31.6	28.0	0.00e+00	0	40	0	1957691392	34	6122
2026-01-18 18:14:00.97	331.13	39.11	-31.0	-31.7	27.9	0.00e+00	0	40	0	1963982848	34	6188
2026-01-18 18:14:01.98	330.70	39.20	-31.0	-31.6	28.0	0.00e+00	0	40	0	1969225728	34	6136
2026-01-18 18:14:02.99	330.27	39.29	-30.8	-31.4	28.2	0.00e+00	0	40	0	1975517184	34	6027
2026-01-18 18:14:04.00	329.84	39.38	-30.7	-31.3	28.2	0.00e+00	0	40	0	1980760064	34	5910
2026-01-18 18:14:05.01	329.40	39.47	-30.6	-31.2	28.2	0.00e+00	0	40	0	1987051520	34	5887
2026-01-18 18:14:06.01	328.97	39.55	-30.8	-31.5	28.1	0.00e+00	0	40	0	1992294400	34	6047
2026-01-18 18:14:07.02	328.53	39.64	-31.0	-31.6	27.9	0.00e+00	0	40	0	1998585856	34	6135
2026-01-18 18:14:08.03	328.08	39.72	-30.7	-31.3	28.2	0.00e+00	0	40	0	2003828736	34	5936
2026-01-18 18:14:09.05	327.63	39.80	-30.6	-31.2	28.2	0.00e+00	0	40	0	2009071616	34	5884
2026-01-18 18:14:10.06	327.19	39.87	-30.6	-31.2	28.2	0.00e+00	0	40	0	2015363072	34	5863
2026-01-18 18:14:11.07	326.74	39.95	-31.0	-31.6	27.9	0.00e+00	0	40	0	2020605952	34	6147
2026-01-18 18:14:12.08	326.29	40.02	-31.0	-31.7	28.0	0.00e+00	0	40	0	2026897408	34	6175
2026-01-18 18:14:13.09	325.83	40.10	-30.9	-31.5	28.1	0.00e+00	0	40	0	2032140288	34	6060
2026-01-18 18:14:14.10	325.38	40.17	-31.0	-31.6	28.0	0.00e+00	0	40	0	2037383168	34	6131
2026-01-18 18:14:15.11	324.92	40.23	-31.1	-31.7	27.9	0.00e+00	0	40	0	2043674624	34	6189
2026-01-18 18:14:16.12	324.46	40.30	-30.8	-31.4	28.1	0.00e+00	0	40	0	2048917504	34	5994
2026-01-18 18:14:17.13	324.00	40.37	-30.6	-31.3	28.2	0.00e+00	0	40	0	2055208960	34	5921
2026-01-18 18:14:18.14	323.54	40.43	-30.6	-31.2	28.3	0.00e+00	0	40	0	2060451840	34	5859
2026-01-18 18:14:19.15	323.07	40.49	-30.7	-31.3	28.2	0.00e+00	0	40	0	2065694720	34	5903
2026-01-18 18:14:20.16	322.61	40.55	-30.5	-31.1	28.4	0.00e+00	0	40	0	2071986176	34	5791
2026-01-18 18:14:21.17	322.14	40.60	-30.4	-31.0	28.4	0.00e+00	0	40	0	2077229056	34	5728
2026-01-18 18:14:22.18	321.67	40.66	-30.4	-31.0	28.5	0.00e+00	0	40	0	2083520512	34	5712
2026-01-18 18:14:23.19	321.20	40.71	-30.4	-31.0	28.4	0.00e+00	0	40	0	2088763392	34	5699
2026-01-18 18:14:24.20	320.73	40.76	-30.5	-31.0	28.3	0.00e+00	0	40	0	2095054848	34	5753
2026-01-18 18:14:25.21	320.25	40.81	-30.5	-31.1	28.4	0.00e+00	0	40	0	2100297728	34	5764
2026-01-18 18:14:26.22	319.78	40.85	-30.6	-31.2	28.3	0.00e+00	0	40	0	2106589184	34	5855
2026-01-18 18:14:27.23	319.30	40.89	-30.6	-31.2	28.3	0.00e+00	0	40	0	2111832064	34	5831
2026-01-18 18:14:28.24	318.82	40.94	-30.7	-31.2	28.2	0.00e+00	0	40	0	2117074944	34	5896
2026-01-18 18:14:29.25	318.34	40.97	-30.8	-31.5	28.1	0.00e+00	0	40	0	2123366400	34	6035
2026-01-18 18:14:30.26	317.86	41.01	-30.7	-31.4	28.2	0.00e+00	0	40	0	2128609280	34	5983
2026-01-18 18:14:31.28	317.38	41.05	-30.7	-31.3	28.2	0.00e+00	0	40	0	2134900736	34	5936
2026-01-18 18:14:32.29	316.89	41.08	-30.7	-31.3	28.2	0.00e+00	0	40	0	2140143616	34	5950
2026-01-18 18:14:33.30	316.41	41.11	-30.6	-31.2	28.3	0.00e+00	0	40	0	2145386496	34	5873
2026-01-18 18:14:34.31	315.93	41.14	-30.7	-31.3	28.3	0.00e+00	0	40	0	2151677952	34	5908
2026-01-18 18:14:35.32	315.44	41.16	-30.6	-31.1	28.3	0.00e+00	0	40	0	2156920832	34	5811
2026-01-18 18:14:36.33	314.96	41.18	-30.7	-31.4	28.2	0.00e+00	0	40	0	2163212288	34	5972
2026-01-18 18:14:37.34	314.47	41.20	-30.9	-31.5	28.0	0.00e+00	0	40	0	2168455168	34	6055
2026-01-18 18:14:38.35	313.98	41.22	-30.9	-31.5	28.1	0.00e+00	0	40	0	2173698048	34	6098
2026-01-18 18:14:39.36	313.49	41.24	-30.6	-31.2	28.3	0.00e+00	0	40	0	2179989504	34	5831
2026-01-18 18:14:40.37	313.01	41.25	-30.7	-31.3	28.3	0.00e+00	0	40	0	2185232384	34	5936
2026-01-18 18:14:41.38	312.52	41.26	-30.8	-31.4	28.2	0.00e+00	0	40	0	2191523840	34	6018
2026-01-18 18:14:42.39	312.03	41.27	-30.6	-31.2	28.2	0.00e+00	0	40	0	2196766720	34	5873
2026-01-18 18:14:43.40	311.54	41.28	-30.7	-31.3	28.1	0.00e+00	0	40	0	2203058176	34	5960
2026-01-18 18:14:44.41	311.05	41.28	-30.7	-31.3	28.2	0.00e+00	0	40	0	2208301056	34	5922
2026-01-18 18:14:45.42	310.56	41.28	-31.0	-31.6	28.0	0.00e+00	0	40	0	2214592512	34	6162
2026-01-18 18:14:46.43	310.07	41.28	-31.0	-31.7	27.9	0.00e+00	0	40	0	2219835392	34	6209
2026-01-18 18:14:47.44	309.58	41.28	-30.8	-31.5	28.1	0.00e+00	0	40	0	2225078272	34	6061
2026-01-18 18:14:48.45	309.09	41.28	-30.6	-31.2	28.3	0.00e+00	0	41	0	2231369728	34	5883
2026-01-18 18:14:49.47	308.60	41.27	-30.6	-31.3	28.2	0.00e+00	0	40	0	2236612608	34	5904
2026-01-18 18:14:50.48	308.11	41.26	-30.9	-31.5	28.0	0.00e+00	0	40	0	2242904064	34	6070
2026-01-18 18:14:51.49	307.62	41.25	-30.9	-31.5	27.8	0.00e+00	0	40	0	2248146944	34	6089
2026-01-18 18:14:52.50	307.14	41.23	-30.8	-31.4	28.1	0.00e+00	0	40	0	2253389824	34	6001
2026-01-18 18:14:53.51	306.65	41.21	-30.5	-31.0	28.0	0.00e+00	0	40	0	2259681280	34	5761
2026-01-18 18:14:54.52	306.16	41.19	-30.6	-31.2	28.1	0.00e+00	0	40	0	2264924160	34	5878
2026-01-18 18:14:55.53	305.67	41.17	-30.9	-31.5	27.8	0.00e+00	0	40	0	2271215616	34	6067
2026-01-18 18:14:56.54	305.19	41.15	-31.0	-31.6	27.9	0.00e+00	0	40	0	2276458496	34	6168
2026-01-18 18:14:57.55	304.70	41.12	-30.6	-31.3	28.2	0.00e+00	0	40	0	2281701376	34	5926
2026-01-18 18:14:58.56	304.22	41.09	-30.8	-31.3	28.2	0.00e+00	0	40	0	2287992832	34	5954
2026-01-18 18:14:59.57	303.74	41.06	-30.9	-31.5	28.1	0.00e+00	0	41	0	2293235712	34	6075
2026-01-18 18:15:00.58	303.25	41.03	-30.9	-31.6	28.1	0.00e+00	0	40	0	2299527168	34	6134
2026-01-18 18:15:01.59	302.77	40.99	-31.0	-31.6	27.9	0.00e+00	0	40	0	2304770048	34	6156
2026-01-18 18:15:02.60	302.29	40.96	-30.8	-31.4	28.1	0.00e+00	0	40	0	2311061504	34	6024
2026-01-18 18:15:03.61	301.81	40.92	-30.8	-31.3	28.1	0.00e+00	0	40	0	2316304384	34	5949
2026-01-18 18:15:04.62	301.34	40.87	-30.7	-31.4	28.2	0.00e+00	0	40	0	2322595840	34	5966
2026-01-18 18:15:05.63	300.86	40.83	-30.7	-31.4	28.2	0.00e+00	0	40	0	2327838720	34	5997
2026-01-18 18:15:06.63	300.39	40.78	-30.6	-31.2	28.3	0.00e+00	0	40	0	2333081600	34	5878
2026-01-18 18:15:07.64	299.92	40.73	-30.6	-31.2	28.3	0.00e+00	0	40	0	2339373056	34	5850
2026-01-18 18:15:08.65	299.44	40.68	-30.4	-31.0	28.4	0.00e+00	0	40	0	2344615936	34	5733
2026-01-18 18:15:09.66	298.97	40.63	-30.4	-31.0	28.5	0.00e+00	0	40	0	2350907392	34	5740
2026-01-18 18:15:10.67	298.50	40.57	-30.4	-31.0	28.4	0.00e+00	0	40	0	2356150272	34	5760
2026-01-18 18:15:11.68	298.04	40.52	-30.5	-31.1	28.3	0.00e+00	0	40	0	2361393152	34	5819
2026-01-18 18:15:12.70	297.57	40.46	-30.5	-31.0	28.4	0.00e+00	0	40	0	2367684608	34	5757
2026-01-18 18:15:13.70	297.11	40.40	-30.6	-31.2	28.3	0.00e+00	0	40	0	2372927488	34	5837
2026-01-18 18:15:14.71	296.64	40.33	-30.8	-31.4	28.1	0.00e+00	0	40	0	2379218944	34	6027
2026-01-18 18:15:15.73	296.18	40.27	-31.0	-31.6	28.0	0.00e+00	0	40	0	2384461824	34	6167
2026-01-18 18:15:16.73	295.72	40.20	-31.0	-31.6	28.0	0.00e+00	0	40	0	2389704704	34	6164
2026-01-18 18:15:17.75	295.26	40.13	-30.9	-31.5	28.1	0.00e+00	0	40	0	2395996160	34	6078
2026-01-18 18:15:18.76	294.81	40.06	-30.7	-31.3	28.2	0.00e+00	0	40	0	2401239040	34	5946
2026-01-18 18:15:19.77	294.36	39.99	-30.6	-31.1	28.3	0.00e+00	0	40	0	2407530496	34	5802
2026-01-18 18:15:20.78	293.91	39.91	-30.7	-31.3	28.1	0.00e+00	0	40	0	2412773376	34	5949
2026-01-18 18:15:21.79	293.46	39.83	-30.4	-31.0	28.4	0.00e+00	0	40	0	2419064832	34	5758
2026-01-18 18:15:22.80	293.01	39.76	-30.3	-30.9	28.5	0.00e+00	0	40	0	2424307712	34	5632
2026-01-18 18:15:23.81	292.57	39.68	-30.3	-30.9	28.4	0.00e+00	0	40	0	2429550592	34	5677
2026-01-18 18:15:24.82	292.12	39.59	-30.3	-30.8	28.5	0.00e+00	0	40	0	2435842048	34	5611
2026-01-18 18:15:25.83	291.68	39.51	-30.4	-31.1	28.3	0.00e+00	0	40	0	2441084928	34	5795
2026-01-18 18:15:26.84	291.25	39.42	-30.6	-31.1	28.2	0.00e+00	0	40	0	2447376384	34	5795
2026-01-18 18:15:27.85	290.81	39.34	-30.7	-31.4	28.2	0.00e+00	0	40	0	2452619264	34	5984
2026-01-18 18:15:28.86	290.38	39.25	-30.8	-31.5	28.1	0.00e+00	0	40	0	2457862144	34	6078
2026-01-18 18:15:29.87	289.95	39.16	-31.0	-31.5	28.0	0.00e+00	0	40	0	2464153600	34	6070
2026-01-18 18:15:30.88	289.52	39.06	-30.8	-31.4	28.1	0.00e+00	0	40	0	2469396480	34	6016
2026-01-18 18:15:31.90	289.09	38.97	-30.7	-31.3	28.2	0.00e+00	0	40	0	2475687936	34	5900
2026-01-18 18:15:32.91	288.67	38.87	-30.6	-31.3	28.3	0.00e+00	0	40	0	2480930816	34	5946
2026-01-18 18:15:33.92	288.25	38.78	-30.3	-30.9	28.5	0.00e+00	0	40	0	2487222272	34	5663
2026-01-18 18:15:34.93	287.83	38.68	-30.2	-30.8	28.5	0.00e+00	0	40	0	2492465152	34	5602
2026-01-18 18:15:35.94	287.41	38.58	-30.2	-30.8	28.6	0.00e+00	0	40	0	2497708032	34	5578
2026-01-18 18:15:36.95	287.00	38.48	-30.3	-30.9	28.4	0.00e+00	0	40	0	2503999488	34	5663
2026-01-18 18:15:37.96	286.59	38.38	-30.4	-31.0	28.3	0.00e+00	0	40	0	2509242368	34	5761
2026-01-18 18:15:38.97	286.18	38.27	-30.4	-31.0	28.5	0.00e+00	0	40	0	2515533824	34	5708
2026-01-18 18:15:39.98	285.78	38.17	-30.3	-30.9	28.5	0.00e+00	0	40	0	2520776704	34	5632
2026-01-18 18:15:40.99	285.37	38.06	-30.3	-30.8	28.5	0.00e+00	0	40	0	2527068160	34	5609
2026-01-18 18:15:42.00	284.97	37.95	-30.4	-31.0	28.4	0.00e+00	0	40	0	2532311040	34	5703
2026-01-18 18:15:43.01	284.58	37.84	-30.6	-31.2	28.2	0.00e+00	0	40	0	2537553920	34	5896
2026-01-18 18:15:44.02	284.18	37.73	-30.6	-31.3	28.3	0.00e+00	0	40	0	2543845376	34	5899
2026-01-18 18:15:45.03	283.79	37.62	-30.5	-31.0	28.4	0.00e+00	0	40	0	2549088256	34	5758
2026-01-18 18:15:46.04	283.40	37.51	-30.5	-31.2	28.3	0.00e+00	0	40	0	2555379712	34	5836
2026-01-18 18:15:47.05	283.02	37.40	-30.5	-31.1	28.3	0.00e+00	0	40	0	2560622592	34	5805
2026-01-18 18:15:48.06	282.63	37.28	-30.3	-30.9	28.5	0.00e+00	0	40	0	2566914048	34	5689
2026-01-18 18:15:49.07	282.25	37.17	-30.3	-31.0	28.4	0.00e+00	0	40	0	2572156928	34	5699
2026-01-18 18:15:50.08	281.87	37.05	-30.4	-30.9	28.4	0.00e+00	0	40	0	2577399808	34	5681
2026-01-18 18:15:51.09	281.50	36.93	-30.4	-31.0	28.3	0.00e+00	0	40	0	2583691264	34	5709
2026-01-18 18:15:52.10	281.12	36.81	-30.5	-31.1	28.3	0.00e+00	0	40	0	2588934144	34	5806
2026-01-18 18:15:53.12	280.75	36.69	-30.5	-31.0	28.3	0.00e+00	0	40	0	2595225600	34	5745
2026-01-18 18:15:54.12	280.39	36.57	-30.6	-31.3	28.3	0.00e+00	0	40	0	2600468480	34	5914
2026-01-18 18:15:55.13	280.02	36.45	-30.6	-31.3	28.3	0.00e+00	0	40	0	2605711360	34	5925
2026-01-18 18:15:56.15	279.66	36.33	-30.6	-31.2	28.1	0.00e+00	0	40	0	2612002816	34	5864
2026-01-18 18:15:57.16	279.30	36.20	-30.7	-31.3	28.2	0.00e+00	0	40	0	2617245696	34	5964
2026-01-18 18:15:58.17	278.94	36.08	-30.7	-31.2	28.2	0.00e+00	0	40	0	2623537152	34	5854
2026-01-18 18:15:59.18	278.59	35.95	-30.6	-31.2	28.3	0.00e+00	0	40	0	2628780032	34	5893
2026-01-18 18:16:00.19	278.24	35.83	-30.6	-31.2	28.2	0.00e+00	0	40	0	2635071488	34	5849
2026-01-18 18:16:01.20	277.89	35.70	-30.7	-31.2	28.2	0.00e+00	0	40	0	2640314368	34	5859
2026-01-18 18:16:02.21	277.54	35.58	-30.5	-31.0	28.4	0.00e+00	0	40	0	2645557248	34	5726
2026-01-18 18:16:03.22	277.20	35.45	-30.4	-31.0	28.4	0.00e+00	0	40	0	2651848704	34	5755
2026-01-18 18:16:04.23	276.86	35.32	-30.6	-31.1	28.2	0.00e+00	0	40	0	2657091584	34	5811
2026-01-18 18:16:05.24	276.52	35.19	-30.7	-31.2	28.3	0.00e+00	0	40	0	2663383040	34	5880
2026-01-18 18:16:06.25	276.19	35.06	-30.4	-31.0	28.4	0.00e+00	0	40	0	2668625920	34	5757
2026-01-18 18:16:07.26	275.85	34.93	-30.3	-30.9	28.5	0.00e+00	0	40	0	2674917376	34	5667
2026-01-18 18:16:08.28	275.52	34.80	-30.4	-31.0	28.3	0.00e+00	0	40	0	2680160256	34	5721
2026-01-18 18:16:09.29	275.19	34.67	-30.2	-30.8	28.6	0.00e+00	0	40	0	2685403136	34	5601
2026-01-18 18:16:10.30	274.87	34.54	-30.3	-31.0	28.5	0.00e+00	0	40	0	2691694592	34	5710
2026-01-18 18:16:11.31	274.55	34.40	-30.4	-31.0	28.4	0.00e+00	0	40	0	2696937472	34	5743
2026-01-18 18:16:12.32	274.23	34.27	-30.3	-30.9	28.5	0.00e+00	0	40	0	2703228928	34	5643
2026-01-18 18:16:13.33	273.91	34.14	-30.2	-30.8	28.6	0.00e+00	0	40	0	2708471808	34	5587
2026-01-18 18:16:14.34	273.60	34.00	-30.5	-31.1	28.3	0.00e+00	0	40	0	2713714688	34	5799
2026-01-18 18:16:15.35	273.29	33.87	-30.3	-30.8	28.4	0.00e+00	0	40	0	2720006144	34	5612
2026-01-18 18:16:16.36	272.98	33.74	-30.2	-30.8	28.5	0.00e+00	0	40	0	2725249024	34	5588
2026-01-18 18:16:17.37	272.67	33.60	-30.3	-30.8	28.5	0.00e+00	0	40	0	2731540480	34	5584
2026-01-18 18:16:18.38	272.37	33.47	-30.1	-30.6	28.5	0.00e+00	0	40	0	2736783360	34	5502
2026-01-18 18:16:19.39	272.07	33.33	-30.4	-31.1	28.4	0.00e+00	0	40	0	2743074816	34	5798
2026-01-18 18:16:20.40	271.77	33.20	-30.4	-30.9	28.4	0.00e+00	0	40	0	2748317696	34	5671
2026-01-18 18:16:21.41	271.47	33.06	-30.5	-31.1	28.2	0.00e+00	0	40	0	2754609152	34	5771
2026-01-18 18:16:22.42	271.18	32.92	-30.6	-31.1	28.1	0.00e+00	0	40	0	2759852032	34	5804
2026-01-18 18:16:23.43	270.89	32.79	-30.6	-31.2	28.1	0.00e+00	0	40	0	2765094912	34	5896
2026-01-18 18:16:24.44	270.60	32.65	-30.5	-31.1	28.1	0.00e+00	0	40	0	2771386368	34	5769
2026-01-18 18:16:25.45	270.32	32.51	-30.6	-31.2	28.0	0.00e+00	0	40	0	2776629248	34	5869
2026-01-18 18:16:26.46	270.03	32.38	-30.6	-31.3	28.1	0.00e+00	0	40	0	2781872128	34	5948
2026-01-18 18:16:27.47	269.75	32.24	-30.7	-31.2	27.8	0.00e+00	0	40	0	2788163584	34	5885
2026-01-18 18:16:28.48	269.47	32.10	-30.6	-31.2	28.2	0.00e+00	0	41	0	2793406464	34	5887
2026-01-18 18:16:29.49	269.19	31.97	-30.8	-31.4	28.0	0.00e+00	0	41	0	2799697920	34	5969
2026-01-18 18:16:30.50	268.92	31.83	-30.9	-31.6	27.7	0.00e+00	0	40	0	2804940800	34	6144
2026-01-18 18:16:31.51	268.65	31.69	-30.9	-31.4	27.9	0.00e+00	0	40	0	2811232256	34	5991
2026-01-18 18:16:32.52	268.38	31.55	-30.9	-31.6	28.0	0.00e+00	0	40	0	2816475136	34	6120
2026-01-18 18:16:33.53	268.11	31.42	-30.8	-31.5	28.0	0.00e+00	0	40	0	2821718016	34	6062
2026-01-18 18:16:34.54	267.85	31.28	-30.7	-31.4	28.1	0.00e+00	0	40	0	2828009472	34	5987
2026-01-18 18:16:35.55	267.58	31.14	-30.7	-31.2	27.9	0.00e+00	0	40	0	2833252352	34	5873
2026-01-18 18:16:36.56	267.32	31.00	-30.9	-31.5	27.8	0.00e+00	0	40	0	2839543808	34	6068
2026-01-18 18:16:37.58	267.06	30.86	-30.9	-31.4	27.9	0.00e+00	0	40	0	2844786688	34	5985
2026-01-18 18:16:38.59	266.81	30.72	-31.0	-31.5	27.8	0.00e+00	0	40	0	2851078144	34	6078
2026-01-18 18:16:39.60	266.55	30.59	-30.9	-31.4	27.8	0.00e+00	0	40	0	2856321024	34	6031
2026-01-18 18:16:40.60	266.30	30.45	-31.0	-31.7	27.8	0.00e+00	0	40	0	2861563904	34	6197
2026-01-18 18:16:41.62	266.05	30.31	-31.0	-31.6	27.8	0.00e+00	0	40	0	2867855360	34	6111
2026-01-18 18:16:42.63	265.80	30.17	-31.1	-31.6	27.7	0.00e+00	0	40	0	2873098240	34	6138
2026-01-18 18:16:43.64	265.56	30.04	-31.1	-31.7	27.7	0.00e+00	0	40	0	2879389696	34	6177
2026-01-18 18:16:44.65	265.32	29.90	-31.2	-31.9	27.6	0.00e+00	0	40	0	2884632576	34	6357
2026-01-18 18:16:45.66	265.07	29.76	-31.4	-32.0	27.5	0.00e+00	0	40	0	2889875456	34	6411
2026-01-18 18:16:46.67	264.84	29.62	-31.4	-31.9	27.5	0.00e+00	0	40	0	2896166912	34	6385
2026-01-18 18:16:47.68	264.60	29.49	-31.3	-31.9	27.6	0.00e+00	0	40	0	2901409792	34	6337
2026-01-18 18:16:48.69	264.36	29.35	-31.2	-31.7	27.5	0.00e+00	0	40	0	2907701248	34	6206
2026-01-18 18:16:49.70	264.13	29.21	-31.2	-31.7	27.6	0.00e+00	0	40	0	2912944128	34	6244
2026-01-18 18:16:50.71	263.90	29.07	-31.0	-31.6	27.7	0.00e+00	0	41	0	2918187008	34	6131
2026-01-18 18:16:51.72	263.67	28.94	-31.0	-31.5	27.7	0.00e+00	0	41	0	2924478464	34	6096
2026-01-18 18:16:52.73	263.44	28.80	-31.0	-31.7	27.7	0.00e+00	0	41	0	2929721344	34	6180
2026-01-18 18:16:53.74	263.22	28.66	-31.0	-31.6	27.8	0.00e+00	0	40	0	2936012800	34	6170
2026-01-18 18:16:54.75	263.00	28.53	-31.0	-31.7	27.7	0.00e+00	0	41	0	2941255680	34	6193
2026-01-18 18:16:55.76	262.77	28.39	-31.0	-31.6	27.7	0.00e+00	0	41	0	2947547136	34	6115
2026-01-18 18:16:56.77	262.55	28.26	-31.0	-31.7	27.7	0.00e+00	0	41	0	2952790016	34	6184
2026-01-18 18:16:57.78	262.34	28.12	-31.1	-31.8	27.7	0.00e+00	0	41	0	2959081472	34	6251
2026-01-18 18:16:58.79	262.12	27.98	-31.2	-31.8	27.5	0.00e+00	0	41	0	2964324352	34	6288
2026-01-18 18:16:59.80	261.91	27.85	-31.1	-31.7	27.6	0.00e+00	0	40	0	2969567232	34	6174
2026-01-18 18:17:00.81	261.70	27.71	-31.1	-31.7	27.7	0.00e+00	0	41	0	2975858688	34	6194
2026-01-18 18:17:01.82	261.49	27.58	-31.2	-31.7	27.6	0.00e+00	0	40	0	2981101568	34	6207
2026-01-18 18:17:02.83	261.28	27.44	-31.2	-31.8	27.7	0.00e+00	0	41	0	2987393024	34	6302
2026-01-18 18:17:03.84	261.07	27.31	-31.3	-32.0	27.5	0.00e+00	0	40	0	2992635904	34	6399
2026-01-18 18:17:04.85	260.87	27.18	-31.2	-31.9	27.5	0.00e+00	0	40	0	2997878784	34	6365
2026-01-18 18:17:05.86	260.66	27.04	-31.2	-31.9	27.5	0.00e+00	0	40	0	3004170240	34	6372
2026-01-18 18:17:06.87	260.46	26.91	-31.4	-32.0	27.5	0.00e+00	0	41	0	3009413120	34	6433
2026-01-18 18:17:07.88	260.26	26.77	-31.2	-31.9	27.5	0.00e+00	0	41	0	3015704576	34	6343
2026-01-18 18:17:08.90	260.06	26.64	-31.4	-31.9	27.3	0.00e+00	0	41	0	3020947456	34	6384
2026-01-18 18:17:09.91	259.87	26.51	-31.3	-31.9	27.5	0.00e+00	0	40	0	3026190336	34	6321
2026-01-18 18:17:10.92	259.67	26.37	-31.6	-32.1	27.2	0.00e+00	0	40	0	3032481792	34	6524
2026-01-18 18:17:11.93	259.48	26.24	-31.4	-31.9	27.4	0.00e+00	0	40	0	3037724672	34	6388
2026-01-18 18:17:12.94	259.29	26.11	-31.6	-32.1	27.3	0.00e+00	0	40	0	3044016128	34	6516
2026-01-18 18:17:13.95	259.10	25.98	-31.6	-32.3	27.2	0.00e+00	0	41	0	3049259008	34	6632
2026-01-18 18:17:14.96	258.91	25.85	-31.7	-32.3	27.2	0.00e+00	0	41	0	3055550464	36	5907
2026-01-18 18:17:15.97	258.72	25.72	-31.5	-32.2	27.3	0.00e+00	0	41	0	3060793344	36	5887
2026-01-18 18:17:16.98	258.54	25.59	-31.5	-32.0	27.3	0.00e+00	0	40	0	3067084800	36	5752
2026-01-18 18:17:17.99	258.35	25.45	-31.5	-32.2	27.3	0.00e+00	0	40	0	3072327680	36	5860
2026-01-18 18:17:19.00	258.17	25.32	-31.6	-32.1	27.3	0.00e+00	0	40	0	3077570560	36	5800
2026-01-18 18:17:20.01	257.99	25.19	-31.7	-32.4	27.2	0.00e+00	0	40	0	3083862016	36	5991
2026-01-18 18:17:21.02	257.81	25.07	-31.8	-32.5	27.1	0.00e+00	0	40	0	3089104896	36	6049
2026-01-18 18:17:22.03	257.63	24.94	-31.9	-32.6	27.0	0.00e+00	0	40	0	3095396352	36	6108
2026-01-18 18:17:23.04	257.46	24.81	-31.7	-32.4	27.1	0.00e+00	0	40	0	3100639232	36	5988
2026-01-18 18:17:24.05	257.28	24.68	-31.6	-32.3	27.3	0.00e+00	0	40	0	3105882112	36	5923
2026-01-18 18:17:25.06	257.11	24.55	-31.5	-32.2	27.3	0.00e+00	0	40	0	3112173568	36	5853
2026-01-18 18:17:26.07	256.94	24.42	-31.6	-32.2	27.3	0.00e+00	0	41	0	3117416448	36	5880
2026-01-18 18:17:27.08	256.77	24.29	-31.7	-32.4	27.1	0.00e+00	0	40	0	3123707904	36	5973
2026-01-18 18:17:28.09	256.60	24.17	-31.7	-32.4	27.1	0.00e+00	0	40	0	3128950784	36	5980
2026-01-18 18:17:29.10	256.43	24.04	-31.6	-32.2	27.2	0.00e+00	0	40	0	3134193664	36	5844
2026-01-18 18:17:30.11	256.26	23.91	-31.8	-32.4	27.1	0.00e+00	0	40	0	3140485120	36	5975
2026-01-18 18:17:31.12	256.10	23.79	-31.6	-32.3	27.2	0.00e+00	0	40	0	3145728000	36	5964
2026-01-18 18:17:32.13	255.94	23.66	-31.6	-32.2	27.2	0.00e+00	0	40	0	3152019456	36	5841
2026-01-18 18:17:33.14	255.77	23.54	-31.6	-32.1	27.2	0.00e+00	0	40	0	3157262336	36	5808
2026-01-18 18:17:34.15	255.61	23.41	-31.5	-32.1	27.3	0.00e+00	0	40	0	3163553792	36	5771
2026-01-18 18:17:35.16	255.45	23.29	-31.6	-32.2	27.2	0.00e+00	0	40	0	3168796672	36	5834
2026-01-18 18:17:36.17	255.29	23.16	-31.4	-32.0	27.4	0.00e+00	0	40	0	3175088128	36	5703
2026-01-18 18:17:37.18	255.14	23.04	-31.4	-32.1	27.3	0.00e+00	0	40	0	3180331008	36	5814
2026-01-18 18:17:38.19	254.98	22.92	-31.6	-32.2	27.2	0.00e+00	0	40	0	3185573888	36	5831
2026-01-18 18:17:39.20	254.83	22.79	-31.8	-32.3	27.2	0.00e+00	0	40	0	3191865344	36	5940
2026-01-18 18:17:40.21	254.67	22.67	-31.5	-32.2	27.3	0.00e+00	0	40	0	3197108224	36	5878
2026-01-18 18:17:41.22	254.52	22.55	-31.6	-32.3	27.3	0.00e+00	0	40	0	3203399680	36	5921
2026-01-18 18:17:42.23	254.37	22.42	-31.5	-32.2	27.3	0.00e+00	0	40	0	3208642560	36	5860
2026-01-18 18:17:43.24	254.22	22.30	-31.5	-32.2	27.3	0.00e+00	0	40	0	3213885440	36	5877
2026-01-18 18:17:44.25	254.07	22.18	-31.7	-32.2	27.1	0.00e+00	0	40	0	3220176896	36	5886
2026-01-18 18:17:45.26	253.93	22.06	-31.8	-32.3	27.1	0.00e+00	0	40	0	3225419776	36	5940
2026-01-18 18:17:46.27	253.78	21.94	-31.8	-32.3	27.0	0.00e+00	0	40	0	3231711232	36	5930
2026-01-18 18:17:47.29	253.63	21.82	-31.8	-32.4	27.1	0.00e+00	0	40	0	3236954112	36	5968
2026-01-18 18:17:48.30	253.49	21.70	-31.9	-32.6	27.0	0.00e+00	0	41	0	3242196992	36	6140
2026-01-18 18:17:49.31	253.35	21.58	-32.0	-32.6	26.9	0.00e+00	0	40	0	3248488448	36	6165
2026-01-18 18:17:50.32	253.20	21.46	-32.0	-32.6	26.9	0.00e+00	0	40	0	3253731328	36	6121
2026-01-18 18:17:51.33	253.06	21.34	-32.0	-32.5	27.0	0.00e+00	0	40	0	3260022784	36	6101
2026-01-18 18:17:52.34	252.92	21.22	-32.1	-32.8	26.8	0.00e+00	0	40	0	3265265664	36	6283
2026-01-18 18:17:53.35	252.79	21.10	-32.2	-32.7	26.8	0.00e+00	0	40	0	3271557120	36	6225
2026-01-18 18:17:54.36	252.65	20.99	-32.1	-32.8	26.8	0.00e+00	0	41	0	3276800000	36	6276
2026-01-18 18:17:55.37	252.51	20.87	-32.1	-32.6	26.8	0.00e+00	0	40	0	3283091456	36	6152
2026-01-18 18:17:56.38	252.38	20.75	-32.1	-32.7	26.8	0.00e+00	0	40	0	3288334336	36	6176
2026-01-18 18:17:57.39	252.24	20.63	-32.0	-32.5	26.8	0.00e+00	0	40	0	3293577216	36	6085
2026-01-18 18:17:58.40	252.11	20.52	-32.1	-32.6	26.9	0.00e+00	0	40	0	3299868672	36	6159
2026-01-18 18:17:59.41	251.98	20.40	-32.1	-32.7	26.8	0.00e+00	0	40	0	3305111552	36	6176
2026-01-18 18:18:00.42	251.85	20.29	-32.1	-32.8	26.8	0.00e+00	0	41	0	3311403008	36	6262
2026-01-18 18:18:01.43	251.72	20.17	-32.0	-32.7	26.9	0.00e+00	0	41	0	3316645888	36	6225
2026-01-18 18:18:02.44	251.59	20.06	-32.1	-32.8	26.8	0.00e+00	0	40	0	3321888768	36	6301
2026-01-18 18:18:03.45	251.46	19.94	-32.1	-32.9	26.8	0.00e+00	0	40	0	3328180224	36	6324
2026-01-18 18:18:04.46	251.33	19.83	-32.4	-33.0	26.6	0.00e+00	0	40	0	3333423104	36	6399
2026-01-18 18:18:05.47	251.21	19.71	-32.2	-32.7	26.8	0.00e+00	0	40	0	3339714560	36	6245
2026-01-18 18:18:06.48	251.08	19.60	-32.4	-33.0	26.5	0.00e+00	0	40	0	3344957440	36	6396
2026-01-18 18:18:07.50	250.96	19.49	-32.2	-32.8	26.7	0.00e+00	0	40	0	3350200320	36	6267
2026-01-18 18:18:08.51	250.83	19.38	-32.3	-33.0	26.6	0.00e+00	0	40	0	3356491776	36	6428
2026-01-18 18:18:09.52	250.71	19.26	-32.3	-32.9	26.7	0.00e+00	0	40	0	3361734656	36	6348
2026-01-18 18:18:10.53	250.59	19.15	-32.4	-32.9	26.6	0.00e+00	0	40	0	3368026112	36	6386
2026-01-18 18:18:11.54	250.47	19.04	-32.5	-33.0	26.5	0.00e+00	0	40	0	3373268992	36	6443
2026-01-18 18:18:12.55	250.35	18.93	-32.6	-33.3	26.4	0.00e+00	0	40	0	3379560448	36	6652
2026-01-18 18:18:13.56	250.23	18.82	-32.6	-33.2	26.4	0.00e+00	0	40	0	3384803328	36	6549
2026-01-18 18:18:14.57	250.11	18.71	-32.4	-33.1	26.5	0.00e+00	0	40	0	3391094784	36	6536
2026-01-18 18:18:15.58	250.00	18.60	-32.5	-33.2	26.5	0.00e+00	0	40	0	3396337664	36	6587
2026-01-18 18:18:16.59	249.88	18.49	-32.5	-33.0	26.4	0.00e+00	0	40	0	3401580544	36	6460
2026-01-18 18:18:17.60	249.76	18.38	-32.4	-33.0	26.5	0.00e+00	0	40	0	3407872000	36	6443
2026-01-18 18:18:18.61	249.65	18.27	-32.4	-33.1	26.6	0.00e+00	0	41	0	3413114880	36	6511
2026-01-18 18:18:19.62	249.54	18.16	-32.5	-33.2	26.5	0.00e+00	0	40	0	3419406336	36	6610
2026-01-18 18:18:20.63	249.42	18.05	-32.4	-32.9	26.5	0.00e+00	0	41	0	3424649216	36	6362
2026-01-18 18:18:21.64	249.31	17.95	-32.4	-33.0	26.5	0.00e+00	0	41	0	3429892096	36	6415
2026-01-18 18:18:22.65	249.20	17.84	-32.5	-33.1	26.5	0.00e+00	0	40	0	3436183552	36	6471
2026-01-18 18:18:23.66	249.09	17.73	-32.7	-33.2	26.3	0.00e+00	0	41	0	3441426432	36	6597
2026-01-18 18:18:24.67	248.98	17.62	-32.7	-33.4	26.4	0.00e+00	0	40	0	3447717888	36	6709
2026-01-18 18:18:25.69	248.87	17.52	-32.8	-33.4	26.2	0.00e+00	0	40	0	3452960768	38	6015
2026-01-18 18:18:26.69	248.76	17.41	-32.8	-33.5	26.2	0.00e+00	0	40	0	3458203648	38	6075
2026-01-18 18:18:27.71	248.65	17.30	-33.0	-33.7	26.1	0.00e+00	0	41	0	3464495104	38	6221
2026-01-18 18:18:28.71	248.55	17.20	-33.1	-33.8	26.0	0.00e+00	0	40	0	3469737984	38	6284
2026-01-18 18:18:29.72	248.44	17.10	-33.1	-33.8	26.0	0.00e+00	0	41	0	3476029440	38	6281
2026-01-18 18:18:30.73	248.34	16.99	-33.1	-33.7	26.0	0.00e+00	0	40	0	3481272320	38	6174
2026-01-18 18:18:31.74	248.23	16.89	-33.2	-33.8	25.9	0.00e+00	0	40	0	3487563776	38	6248
2026-01-18 18:18:32.75	248.13	16.78	-33.1	-33.8	25.9	0.00e+00	0	40	0	3492806656	38	6292
2026-01-18 18:18:33.77	248.03	16.68	-33.2	-33.9	25.9	0.00e+00	0	41	0	3499098112	38	6342
2026-01-18 18:18:34.78	247.92	16.57	-33.3	-33.9	25.8	0.00e+00	0	40	0	3504340992	38	6364
2026-01-18 18:18:35.79	247.82	16.47	-33.3	-33.9	25.7	0.00e+00	0	40	0	3509583872	38	6363
2026-01-18 18:18:36.80	247.72	16.37	-33.7	-34.4	25.5	0.00e+00	0	41	0	3515875328	38	6752
2026-01-18 18:18:37.81	247.62	16.27	-33.3	-33.8	25.7	0.00e+00	0	40	0	3521118208	40	5621
2026-01-18 18:18:38.82	247.52	16.17	-33.2	-33.8	25.8	0.00e+00	0	41	0	3527409664	40	5580
2026-01-18 18:18:39.83	247.42	16.06	-33.3	-33.9	25.8	0.00e+00	0	41	0	3532652544	40	5637
2026-01-18 18:18:40.84	247.33	15.96	-33.4	-34.0	25.7	0.00e+00	0	41	0	3537895424	40	5699
2026-01-18 18:18:41.85	247.23	15.86	-33.4	-34.0	25.7	0.00e+00	0	40	0	3544186880	40	5724
2026-01-18 18:18:42.86	247.13	15.76	-33.2	-33.8	25.9	0.00e+00	0	41	0	3549429760	40	5591
2026-01-18 18:18:43.87	247.04	15.66	-33.4	-34.0	25.7	0.00e+00	0	41	0	3555721216	40	5721
2026-01-18 18:18:44.88	246.94	15.56	-33.4	-34.0	25.6	0.00e+00	0	40	0	3560964096	40	5712
2026-01-18 18:18:45.89	246.85	15.46	-33.4	-34.0	25.6	0.00e+00	0	40	0	3566206976	40	5708
2026-01-18 18:18:46.90	246.75	15.36	-33.4	-34.0	25.7	0.00e+00	0	41	0	3572498432	40	5704
2026-01-18 18:18:47.91	246.66	15.26	-33.4	-34.0	25.6	0.00e+00	0	40	0	3577741312	40	5726
2026-01-18 18:18:48.93	246.57	15.16	-33.5	-34.1	25.6	0.00e+00	0	40	0	3584032768	40	5772
2026-01-18 18:18:49.94	246.48	15.07	-33.5	-34.1	25.5	0.00e+00	0	40	0	3589275648	40	5816
2026-01-18 18:18:50.95	246.38	14.97	-33.5	-34.1	25.5	0.00e+00	0	40	0	3595567104	40	5809
2026-01-18 18:18:51.96	246.29	14.87	-33.6	-34.2	25.4	0.00e+00	0	41	0	3600809984	40	5841
2026-01-18 18:18:52.97	246.20	14.77	-33.7	-34.4	25.4	0.00e+00	0	40	0	3606052864	40	5987
2026-01-18 18:18:53.98	246.11	14.68	-33.8	-34.5	25.3	0.00e+00	0	41	0	3612344320	40	6096
