passes_logs/2026/01/18/R4.6S_Anadyr/R4.6S_Anadyr__20260118_204639_NOAA_20_JPSS-1_rec.log

#Pass ID: 20260118_204639_NOAA 20 (JPSS-1)
#Satellite: NOAA 20 (JPSS-1)
#Configuration: NOAA 20
#almurnet v.1.7.20251203
#Start time: 2026-01-18 20:46:41

#Version: 2.2.20231116
#Station: R4.6S_Anadyr
#Location: 177.4865 lon 64.73178 lat
#TLE: 1 43013U 17073A   26017.93796159  .00000077  00000+0  57252-4 0  9992
#TLE: 2 43013  98.7639 318.8464 0001390  34.9771 325.1496 14.19536703423157

#Time	Az	El	Level	Level2	SNR	BER	BlckErr	Temp	State	Recorded	gain1	gain2
2026-01-18 20:46:41.05	76.62	0.07	-49.4	-64.4	3.5	1.51e+00	0	38	0	0	60	60036
2026-01-18 20:46:42.06	76.55	0.12	-49.5	-64.6	3.6	1.51e+00	0	39	104	0	60	61687
2026-01-18 20:46:43.07	76.48	0.17	-49.4	-64.7	3.6	1.51e+00	0	39	104	0	60	62168
2026-01-18 20:46:44.08	76.41	0.22	-49.4	-64.6	3.6	1.51e+00	0	39	104	0	60	61678
2026-01-18 20:46:45.08	76.34	0.27	-49.4	-64.6	3.6	1.51e+00	0	39	104	0	60	61480
2026-01-18 20:46:46.09	76.27	0.33	-49.4	-64.6	3.6	1.51e+00	0	39	104	0	60	61457
2026-01-18 20:46:47.10	76.20	0.38	-49.4	-64.6	3.5	1.51e+00	0	39	104	0	60	61273
2026-01-18 20:46:48.10	76.13	0.43	-49.4	-64.6	3.6	1.51e+00	0	39	104	0	60	61551
2026-01-18 20:46:49.11	76.06	0.48	-49.4	-64.6	3.6	1.51e+00	0	39	104	0	60	61558
2026-01-18 20:46:50.12	75.99	0.53	-49.4	-64.7	3.6	1.51e+00	0	39	104	0	60	61815
2026-01-18 20:46:51.13	75.92	0.58	-49.4	-64.7	3.6	1.51e+00	0	39	104	0	60	61838
2026-01-18 20:46:52.15	75.84	0.63	-49.4	-64.7	3.6	1.51e+00	0	39	104	0	60	61813
2026-01-18 20:46:53.16	75.77	0.69	-49.4	-64.7	3.6	1.51e+00	0	40	104	0	60	61747
2026-01-18 20:46:54.17	75.70	0.74	-49.4	-64.6	3.6	1.51e+00	0	39	104	0	60	61424
2026-01-18 20:46:55.18	75.62	0.79	-49.4	-64.6	3.6	1.51e+00	0	40	104	0	60	61550
2026-01-18 20:46:56.18	75.55	0.84	-49.4	-64.6	3.6	1.51e+00	0	40	104	0	60	61379
2026-01-18 20:46:57.19	75.48	0.89	-49.4	-64.6	3.6	1.51e+00	0	40	104	0	60	61289
2026-01-18 20:46:58.20	75.40	0.94	-49.1	-64.6	3.6	1.51e+00	0	40	104	0	60	61516
2026-01-18 20:46:59.22	75.33	1.00	-49.2	-64.5	3.6	1.51e+00	0	40	104	0	60	60674
2026-01-18 20:47:00.23	75.25	1.05	-48.9	-64.4	3.6	1.51e+00	0	40	104	0	60	60027
2026-01-18 20:47:01.23	75.18	1.10	-48.1	-64.4	3.6	1.51e+00	0	40	104	0	60	59679
2026-01-18 20:47:02.25	75.10	1.15	-49.0	-64.1	3.6	1.51e+00	0	40	104	0	60	57940
2026-01-18 20:47:03.26	75.03	1.20	-48.4	-64.1	3.6	1.51e+00	0	40	104	0	60	57793
2026-01-18 20:47:04.26	74.95	1.26	-48.5	-63.8	3.6	1.51e+00	0	40	104	0	60	55665
2026-01-18 20:47:05.27	74.88	1.31	-48.3	-63.5	3.6	1.51e+00	0	40	104	0	60	54024
2026-01-18 20:47:06.28	74.80	1.36	-47.4	-62.6	3.6	1.51e+00	0	40	104	0	60	49011
2026-01-18 20:47:07.29	74.73	1.41	-47.3	-62.6	3.6	1.51e+00	0	40	104	0	60	48750
2026-01-18 20:47:08.30	74.65	1.46	-47.3	-62.6	3.6	1.51e+00	0	40	104	0	60	48688
2026-01-18 20:47:09.31	74.57	1.52	-47.3	-62.5	3.6	1.51e+00	0	40	104	0	60	48359
2026-01-18 20:47:10.32	74.49	1.57	-47.3	-62.5	3.6	1.51e+00	0	40	104	0	60	48370
2026-01-18 20:47:11.33	74.42	1.62	-47.3	-62.6	3.6	1.51e+00	0	40	104	0	60	48916
2026-01-18 20:47:12.34	74.34	1.67	-47.3	-62.6	3.6	1.51e+00	0	40	104	0	60	48512
2026-01-18 20:47:13.35	74.26	1.73	-47.3	-62.6	3.6	1.51e+00	0	40	104	0	60	48695
2026-01-18 20:47:14.36	74.18	1.78	-47.3	-62.6	3.6	1.51e+00	0	40	104	0	60	48692
2026-01-18 20:47:15.37	74.10	1.83	-47.3	-62.6	3.6	1.51e+00	0	40	104	0	60	48570
2026-01-18 20:47:16.38	74.02	1.88	-47.3	-62.6	3.6	1.51e+00	0	40	104	0	60	48805
2026-01-18 20:47:17.38	73.95	1.94	-47.3	-62.5	3.6	1.51e+00	0	40	104	0	60	48376
2026-01-18 20:47:18.39	73.87	1.99	-47.3	-62.4	3.6	1.51e+00	0	40	104	0	60	47924
2026-01-18 20:47:19.40	73.79	2.04	-47.3	-62.3	3.6	1.51e+00	0	40	104	0	60	46846
2026-01-18 20:47:20.41	73.71	2.10	-47.3	-62.3	3.6	1.51e+00	0	40	104	0	60	47000
2026-01-18 20:47:21.42	73.63	2.15	-47.3	-62.0	3.6	1.51e+00	0	40	104	0	60	45522
2026-01-18 20:47:22.43	73.55	2.20	-47.3	-62.2	3.6	1.51e+00	0	40	104	0	60	46610
2026-01-18 20:47:23.44	73.46	2.25	-47.3	-62.4	3.6	1.51e+00	0	40	104	0	60	47632
2026-01-18 20:47:24.45	73.38	2.31	-47.3	-62.5	3.6	1.51e+00	0	40	104	0	60	48245
2026-01-18 20:47:25.46	73.30	2.36	-47.3	-62.5	3.6	1.51e+00	0	40	104	0	60	48455
2026-01-18 20:47:26.47	73.22	2.41	-47.3	-62.4	3.6	1.51e+00	0	40	104	0	60	47552
2026-01-18 20:47:27.48	73.14	2.47	-47.3	-62.2	3.6	1.51e+00	0	40	104	0	60	46722
2026-01-18 20:47:28.49	73.05	2.52	-47.3	-62.4	3.6	1.51e+00	0	40	104	0	60	47400
2026-01-18 20:47:29.50	72.97	2.57	-47.3	-62.5	3.6	1.51e+00	0	40	104	0	60	48069
2026-01-18 20:47:30.51	72.89	2.63	-47.3	-62.2	3.6	1.51e+00	0	40	104	0	60	46385
2026-01-18 20:47:31.52	72.80	2.68	-47.2	-61.5	3.6	1.51e+00	0	40	104	0	60	42722
2026-01-18 20:47:32.53	72.72	2.73	-47.2	-61.0	3.6	1.51e+00	0	40	104	0	60	40571
2026-01-18 20:47:33.54	72.64	2.79	-47.2	-61.1	3.6	1.51e+00	0	40	104	0	60	40814
2026-01-18 20:47:34.55	72.55	2.84	-47.2	-61.6	3.5	1.51e+00	0	40	104	0	60	43353
2026-01-18 20:47:35.56	72.47	2.89	-47.2	-61.6	3.6	1.51e+00	0	40	104	0	60	43687
2026-01-18 20:47:36.57	72.38	2.95	-47.1	-58.9	4.1	1.50e+00	0	40	104	0	60	31806
2026-01-18 20:47:37.58	72.30	3.00	-46.9	-55.5	5.4	6.19e-01	91	40	0	1048576	60	21649
2026-01-18 20:47:38.59	72.21	3.05	-46.4	-52.8	8.2	1.35e-01	0	40	0	3145728	60	15710
2026-01-18 20:47:39.60	72.12	3.11	-46.0	-51.1	8.5	2.08e-02	92	40	0	4194304	60	12999
2026-01-18 20:47:40.60	72.04	3.16	-47.5	-61.4	3.6	1.41e+00	0	40	104	5242880	60	42496
2026-01-18 20:47:41.61	71.95	3.21	-45.7	-51.0	5.5	1.50e+00	0	40	104	5242880	60	12812
2026-01-18 20:47:42.62	71.86	3.27	-43.4	-45.9	16.0	1.25e-01	91	40	104	5242880	60	7110
2026-01-18 20:47:43.63	71.78	3.32	-46.6	-54.8	4.6	0.00e+00	92	40	0	6291456	60	19898
2026-01-18 20:47:44.63	71.69	3.38	-46.4	-53.4	5.2	1.51e+00	0	40	104	6291456	60	16866
2026-01-18 20:47:45.65	71.60	3.43	-43.5	-46.1	15.5	7.00e-07	0	40	104	6291456	60	7292
2026-01-18 20:47:46.66	71.51	3.48	-43.3	-45.6	16.3	0.00e+00	91	40	0	7340032	60	6919
2026-01-18 20:47:47.66	71.43	3.54	-42.9	-45.0	16.6	0.00e+00	4	40	0	9437184	60	6420
2026-01-18 20:47:48.68	71.34	3.59	-43.5	-46.0	16.1	0.00e+00	92	40	0	11534336	60	7213
2026-01-18 20:47:49.68	71.25	3.65	-43.3	-45.6	16.2	0.00e+00	50	40	0	13631488	60	6925
2026-01-18 20:47:50.69	71.16	3.70	-43.2	-45.4	16.6	0.00e+00	92	40	0	14680064	60	6730
2026-01-18 20:47:51.70	71.07	3.75	-43.1	-45.4	16.7	0.00e+00	92	40	0	16777216	60	6700
2026-01-18 20:47:52.71	70.98	3.81	-43.0	-45.2	16.8	0.00e+00	92	40	0	18874368	60	6594
2026-01-18 20:47:53.72	70.89	3.86	-43.2	-45.5	16.5	0.00e+00	92	40	0	20971520	60	6801
2026-01-18 20:47:54.73	70.79	3.92	-42.8	-45.0	16.9	0.00e+00	5	40	0	23068672	60	6394
2026-01-18 20:47:55.74	70.70	3.97	-43.2	-45.5	16.5	0.00e+00	92	40	0	25165824	60	6799
2026-01-18 20:47:56.75	70.61	4.03	-42.8	-44.9	17.2	0.00e+00	0	40	0	26214400	60	6335
2026-01-18 20:47:57.76	70.52	4.08	-42.9	-44.9	17.2	0.00e+00	91	40	0	28311552	60	6381
2026-01-18 20:47:58.77	70.43	4.14	-42.8	-44.8	17.2	0.00e+00	92	40	0	30408704	58	7032
2026-01-18 20:47:59.78	70.33	4.19	-42.9	-45.0	17.0	0.00e+00	92	40	0	32505856	58	7242
2026-01-18 20:48:00.79	70.24	4.24	-42.9	-45.0	17.0	0.00e+00	90	40	0	34603008	58	7188
2026-01-18 20:48:01.79	70.15	4.30	-42.8	-44.8	17.2	0.00e+00	0	40	0	35651584	58	7041
2026-01-18 20:48:02.80	70.05	4.35	-42.9	-44.9	17.1	0.00e+00	92	40	0	37748736	58	7126
2026-01-18 20:48:03.81	69.96	4.41	-42.9	-45.0	17.0	0.00e+00	0	40	0	39845888	58	7221
2026-01-18 20:48:04.82	69.86	4.46	-42.9	-45.0	17.1	0.00e+00	92	40	0	41943040	58	7197
2026-01-18 20:48:05.83	69.77	4.52	-42.9	-45.0	17.0	0.00e+00	92	40	0	44040192	58	7246
2026-01-18 20:48:06.84	69.67	4.57	-42.7	-44.8	17.3	0.00e+00	92	40	0	45088768	58	7041
2026-01-18 20:48:07.85	69.58	4.63	-43.0	-45.2	16.9	0.00e+00	92	40	0	47185920	58	7414
2026-01-18 20:48:08.86	69.48	4.68	-43.1	-45.4	16.8	0.00e+00	70	40	0	49283072	58	7524
2026-01-18 20:48:09.87	69.38	4.74	-42.8	-45.0	17.1	0.00e+00	91	40	0	51380224	58	7231
2026-01-18 20:48:10.88	69.29	4.79	-43.0	-45.1	17.1	0.00e+00	21	40	0	53477376	58	7330
2026-01-18 20:48:11.89	69.19	4.85	-42.8	-44.8	17.4	0.00e+00	92	40	0	54525952	58	7058
2026-01-18 20:48:12.90	69.09	4.90	-43.0	-45.1	17.1	0.00e+00	92	40	0	56623104	58	7298
2026-01-18 20:48:13.91	68.99	4.96	-43.2	-45.3	16.9	0.00e+00	92	40	0	58720256	58	7479
2026-01-18 20:48:14.92	68.90	5.01	-43.1	-45.2	17.1	0.00e+00	92	40	0	60817408	58	7344
2026-01-18 20:48:15.93	68.80	5.07	-43.0	-45.0	17.2	0.00e+00	89	40	0	62914560	58	7176
2026-01-18 20:48:16.94	68.70	5.12	-42.9	-44.9	17.3	0.00e+00	92	40	0	63963136	58	7118
2026-01-18 20:48:17.95	68.60	5.18	-42.8	-44.8	17.4	0.00e+00	0	40	0	66060288	58	7068
2026-01-18 20:48:18.96	68.50	5.23	-42.8	-44.7	17.4	0.00e+00	92	40	0	68157440	58	6963
2026-01-18 20:48:19.97	68.40	5.29	-42.8	-44.8	17.5	0.00e+00	0	40	0	70254592	58	7031
2026-01-18 20:48:20.98	68.30	5.34	-42.7	-44.6	17.6	0.00e+00	92	40	0	72351744	58	6915
2026-01-18 20:48:21.99	68.20	5.40	-42.8	-44.7	17.6	0.00e+00	92	40	0	73400320	58	6962
2026-01-18 20:48:23.00	68.09	5.45	-42.6	-44.5	17.7	0.00e+00	92	40	0	75497472	58	6833
2026-01-18 20:48:24.01	67.99	5.51	-42.7	-44.6	17.7	0.00e+00	92	40	0	77594624	58	6889
2026-01-18 20:48:25.02	67.89	5.56	-42.8	-44.8	17.5	0.00e+00	11	40	0	79691776	58	7037
2026-01-18 20:48:26.03	67.79	5.62	-42.9	-44.9	17.6	0.00e+00	91	40	0	81788928	58	7118
2026-01-18 20:48:27.03	67.68	5.67	-42.8	-44.7	17.7	0.00e+00	5	40	0	82837504	58	6935
2026-01-18 20:48:28.04	67.58	5.73	-42.8	-44.8	17.5	0.00e+00	92	40	0	84934656	58	7039
2026-01-18 20:48:29.05	67.48	5.79	-43.0	-44.9	17.4	0.00e+00	92	40	0	87031808	58	7159
2026-01-18 20:48:30.06	67.37	5.84	-43.2	-45.2	17.2	0.00e+00	92	40	0	89128960	58	7414
2026-01-18 20:48:31.07	67.27	5.90	-43.1	-45.2	17.1	0.00e+00	92	40	0	91226112	58	7398
2026-01-18 20:48:32.08	67.16	5.95	-42.9	-44.8	17.6	0.00e+00	9	40	0	93323264	58	7044
2026-01-18 20:48:33.09	67.06	6.01	-42.7	-44.6	17.8	0.00e+00	92	40	0	94371840	58	6868
2026-01-18 20:48:34.10	66.95	6.06	-42.7	-44.6	17.7	0.00e+00	20	40	0	96468992	58	6869
2026-01-18 20:48:35.11	66.84	6.12	-42.6	-44.5	18.0	0.00e+00	92	40	0	98566144	58	6777
2026-01-18 20:48:36.12	66.74	6.17	-42.4	-44.2	18.2	0.00e+00	92	40	0	100663296	58	6552
2026-01-18 20:48:37.13	66.63	6.23	-42.5	-44.3	18.0	0.00e+00	92	40	0	102760448	58	6691
2026-01-18 20:48:38.14	66.52	6.29	-42.4	-44.2	18.2	0.00e+00	90	40	0	103809024	58	6614
2026-01-18 20:48:39.15	66.41	6.34	-42.4	-44.2	18.3	0.00e+00	0	40	0	105906176	58	6555
2026-01-18 20:48:40.16	66.31	6.40	-42.3	-44.1	18.3	0.00e+00	92	40	0	108003328	58	6521
2026-01-18 20:48:41.17	66.20	6.45	-42.2	-44.0	18.4	0.00e+00	67	40	0	110100480	58	6408
2026-01-18 20:48:42.18	66.09	6.51	-42.2	-43.9	18.5	0.00e+00	92	40	0	112197632	58	6351
2026-01-18 20:48:43.19	65.98	6.57	-42.2	-43.8	18.7	0.00e+00	68	40	0	113246208	58	6300
2026-01-18 20:48:44.20	65.87	6.62	-42.1	-43.8	18.7	0.00e+00	92	40	0	115343360	58	6258
2026-01-18 20:48:45.22	65.76	6.68	-42.1	-43.8	18.7	0.00e+00	92	40	0	117440512	58	6268
2026-01-18 20:48:46.23	65.64	6.73	-42.1	-43.7	18.7	0.00e+00	18	40	0	119537664	58	6231
2026-01-18 20:48:47.23	65.53	6.79	-41.9	-43.5	19.0	0.00e+00	91	40	0	121634816	58	6083
2026-01-18 20:48:48.24	65.42	6.84	-41.9	-43.5	19.0	0.00e+00	65	40	0	122683392	58	6086
2026-01-18 20:48:49.25	65.31	6.90	-42.0	-43.6	18.9	0.00e+00	91	40	0	124780544	58	6138
2026-01-18 20:48:50.26	65.20	6.96	-42.0	-43.6	18.9	0.00e+00	0	40	0	126877696	58	6134
2026-01-18 20:48:51.27	65.08	7.01	-41.9	-43.5	19.0	0.00e+00	92	40	0	128974848	58	6049
2026-01-18 20:48:52.28	64.97	7.07	-41.9	-43.5	19.0	0.00e+00	92	40	0	131072000	58	6080
2026-01-18 20:48:53.29	64.85	7.12	-42.1	-43.7	18.9	0.00e+00	92	40	0	132120576	58	6189
2026-01-18 20:48:54.30	64.74	7.18	-41.9	-43.5	19.1	0.00e+00	92	40	0	134217728	58	6089
2026-01-18 20:48:55.31	64.62	7.24	-41.8	-43.3	19.2	0.00e+00	6	40	0	136314880	56	6637
2026-01-18 20:48:56.32	64.51	7.29	-41.9	-43.4	19.1	0.00e+00	92	40	0	138412032	56	6726
2026-01-18 20:48:57.33	64.39	7.35	-41.7	-43.1	19.0	0.00e+00	0	40	0	140509184	56	6534
2026-01-18 20:48:58.34	64.28	7.41	-41.8	-43.3	19.3	0.00e+00	92	40	0	141557760	56	6688
2026-01-18 20:48:59.35	64.16	7.46	-41.8	-43.4	19.2	0.00e+00	90	40	0	143654912	56	6719
2026-01-18 20:49:00.36	64.04	7.52	-41.7	-43.2	19.4	0.00e+00	89	40	0	145752064	56	6611
2026-01-18 20:49:01.37	63.92	7.57	-41.6	-43.1	19.5	0.00e+00	92	40	0	147849216	56	6484
2026-01-18 20:49:02.38	63.81	7.63	-41.7	-43.2	19.5	0.00e+00	66	40	0	149946368	56	6572
2026-01-18 20:49:03.39	63.69	7.69	-41.5	-42.9	19.7	0.00e+00	90	40	0	150994944	56	6356
2026-01-18 20:49:04.40	63.57	7.74	-41.6	-43.0	19.6	0.00e+00	73	40	0	153092096	56	6451
2026-01-18 20:49:05.41	63.45	7.80	-41.5	-42.9	19.7	0.00e+00	91	40	0	155189248	56	6375
2026-01-18 20:49:06.42	63.33	7.85	-41.4	-42.8	19.8	0.00e+00	0	40	0	157286400	56	6311
2026-01-18 20:49:07.42	63.21	7.91	-41.5	-43.0	19.7	0.00e+00	0	40	0	159383552	56	6404
2026-01-18 20:49:08.43	63.09	7.97	-41.5	-42.9	19.8	0.00e+00	91	40	0	161480704	56	6361
2026-01-18 20:49:09.44	62.96	8.02	-41.5	-42.9	19.8	0.00e+00	80	40	0	162529280	56	6323
2026-01-18 20:49:10.45	62.84	8.08	-41.4	-42.8	19.9	0.00e+00	92	40	0	164626432	56	6284
2026-01-18 20:49:11.46	62.72	8.13	-41.4	-42.8	19.8	0.00e+00	16	40	0	166723584	56	6304
2026-01-18 20:49:12.47	62.60	8.19	-41.5	-42.9	19.8	0.00e+00	92	40	0	168820736	56	6344
2026-01-18 20:49:13.48	62.47	8.25	-41.5	-43.0	19.7	0.00e+00	0	40	0	170917888	56	6395
2026-01-18 20:49:14.49	62.35	8.30	-41.6	-43.0	19.7	0.00e+00	79	40	0	171966464	56	6412
2026-01-18 20:49:15.50	62.22	8.36	-41.4	-42.7	19.9	0.00e+00	92	40	0	174063616	56	6244
2026-01-18 20:49:16.51	62.10	8.42	-41.5	-42.9	19.8	0.00e+00	47	40	0	176160768	56	6368
2026-01-18 20:49:17.52	61.97	8.47	-41.6	-43.1	19.6	0.00e+00	91	40	0	178257920	56	6472
2026-01-18 20:49:18.53	61.85	8.53	-41.8	-43.3	19.4	0.00e+00	0	40	0	180355072	56	6684
2026-01-18 20:49:19.53	61.72	8.58	-41.7	-43.2	19.5	0.00e+00	92	40	0	181403648	56	6602
2026-01-18 20:49:20.54	61.60	8.64	-41.6	-43.1	19.6	0.00e+00	6	40	0	183500800	56	6520
2026-01-18 20:49:21.55	61.47	8.70	-41.6	-43.1	19.7	0.00e+00	91	40	0	185597952	56	6491
2026-01-18 20:49:22.56	61.34	8.75	-41.6	-43.1	19.7	0.00e+00	91	40	0	187695104	56	6468
2026-01-18 20:49:23.57	61.21	8.81	-41.7	-43.2	19.6	0.00e+00	65	40	0	189792256	56	6549
2026-01-18 20:49:24.58	61.08	8.86	-41.6	-43.1	19.7	0.00e+00	92	40	0	190840832	56	6479
2026-01-18 20:49:25.59	60.95	8.92	-41.5	-43.0	19.9	0.00e+00	65	40	0	192937984	56	6397
2026-01-18 20:49:26.60	60.82	8.98	-41.6	-43.0	19.8	0.00e+00	92	40	0	195035136	56	6420
2026-01-18 20:49:27.61	60.69	9.03	-41.5	-42.9	19.9	0.00e+00	13	40	0	197132288	56	6353
2026-01-18 20:49:28.62	60.56	9.09	-41.3	-42.7	20.0	0.00e+00	92	40	0	199229440	56	6213
2026-01-18 20:49:29.63	60.43	9.14	-41.3	-42.6	20.1	0.00e+00	0	40	0	200278016	56	6154
2026-01-18 20:49:30.64	60.30	9.20	-41.3	-42.7	20.1	0.00e+00	68	40	0	202375168	56	6191
2026-01-18 20:49:31.65	60.16	9.26	-41.2	-42.6	20.1	0.00e+00	90	40	0	204472320	56	6131
2026-01-18 20:49:32.66	60.03	9.31	-41.1	-42.5	20.3	0.00e+00	12	40	0	206569472	56	6043
2026-01-18 20:49:33.67	59.90	9.37	-41.2	-42.6	20.2	0.00e+00	92	40	0	208666624	56	6127
2026-01-18 20:49:34.68	59.76	9.42	-41.2	-42.6	20.2	0.00e+00	14	40	0	209715200	56	6109
2026-01-18 20:49:35.69	59.63	9.48	-41.0	-42.3	20.5	0.00e+00	92	40	0	211812352	56	5928
2026-01-18 20:49:36.70	59.49	9.53	-41.0	-42.3	20.5	0.00e+00	0	40	0	213909504	56	5926
2026-01-18 20:49:37.71	59.36	9.59	-41.1	-42.4	20.5	0.00e+00	92	40	0	216006656	56	5977
2026-01-18 20:49:38.72	59.22	9.65	-41.1	-42.4	20.3	0.00e+00	92	40	0	218103808	56	6027
2026-01-18 20:49:39.73	59.08	9.70	-41.0	-42.3	20.5	0.00e+00	6	40	0	219152384	56	5959
2026-01-18 20:49:40.74	58.95	9.76	-41.0	-42.3	20.5	0.00e+00	91	40	0	221249536	56	5937
2026-01-18 20:49:41.75	58.81	9.81	-41.1	-42.4	20.5	0.00e+00	6	40	0	223346688	56	5981
2026-01-18 20:49:42.75	58.67	9.87	-41.1	-42.4	20.4	0.00e+00	92	40	0	225443840	56	6007
2026-01-18 20:49:43.76	58.53	9.92	-41.2	-42.5	20.3	0.00e+00	0	40	0	227540992	56	6098
2026-01-18 20:49:44.77	58.39	9.98	-41.2	-42.5	20.3	0.00e+00	90	40	0	229638144	56	6081
2026-01-18 20:49:45.78	58.25	10.03	-41.2	-42.5	20.3	0.00e+00	91	40	0	230686720	56	6095
2026-01-18 20:49:46.79	58.11	10.09	-41.1	-42.4	20.4	0.00e+00	74	40	0	232783872	56	5998
2026-01-18 20:49:47.80	57.97	10.15	-41.1	-42.4	20.4	0.00e+00	90	40	0	234881024	56	6026
2026-01-18 20:49:48.81	57.83	10.20	-41.2	-42.6	20.3	0.00e+00	0	40	0	236978176	56	6125
2026-01-18 20:49:49.82	57.69	10.26	-41.3	-42.6	20.3	0.00e+00	92	40	0	239075328	56	6144
2026-01-18 20:49:50.83	57.54	10.31	-41.3	-42.7	20.3	0.00e+00	8	40	0	240123904	56	6174
2026-01-18 20:49:51.83	57.40	10.37	-41.3	-42.7	20.2	0.00e+00	92	40	0	242221056	56	6194
2026-01-18 20:49:52.85	57.26	10.42	-41.3	-42.7	20.1	0.00e+00	0	40	0	244318208	56	6187
2026-01-18 20:49:53.85	57.11	10.48	-41.5	-42.9	20.0	0.00e+00	6	40	0	246415360	56	6360
2026-01-18 20:49:54.86	56.97	10.53	-41.4	-42.7	20.1	0.00e+00	92	40	0	247463936	56	6235
2026-01-18 20:49:55.87	56.82	10.59	-41.4	-42.7	20.2	0.00e+00	2	40	0	249561088	56	6206
2026-01-18 20:49:56.88	56.68	10.64	-41.3	-42.6	20.3	0.00e+00	91	40	0	251658240	56	6124
2026-01-18 20:49:57.89	56.53	10.70	-41.3	-42.6	20.3	0.00e+00	7	40	0	253755392	56	6125
2026-01-18 20:49:58.90	56.38	10.75	-41.1	-42.4	20.5	0.00e+00	90	40	0	255852544	56	5978
2026-01-18 20:49:59.91	56.23	10.81	-41.1	-42.4	20.5	0.00e+00	2	40	0	257949696	56	6020
2026-01-18 20:50:00.92	56.09	10.86	-41.2	-42.5	20.4	0.00e+00	92	40	0	258998272	56	6061
2026-01-18 20:50:01.93	55.94	10.92	-41.2	-42.5	20.4	0.00e+00	91	40	0	261095424	56	6098
2026-01-18 20:50:02.94	55.79	10.97	-41.3	-42.7	20.2	0.00e+00	0	40	0	263192576	56	6187
2026-01-18 20:50:03.95	55.64	11.02	-41.3	-42.6	20.2	0.00e+00	92	40	0	265289728	56	6166
2026-01-18 20:50:04.96	55.49	11.08	-41.3	-42.7	20.2	0.00e+00	0	40	0	267386880	56	6189
2026-01-18 20:50:05.96	55.34	11.13	-41.4	-42.7	20.2	0.00e+00	92	40	0	268435456	56	6209
2026-01-18 20:50:06.97	55.18	11.19	-41.4	-42.8	20.0	0.00e+00	74	40	0	270532608	56	6260
2026-01-18 20:50:07.98	55.03	11.24	-41.5	-42.8	20.1	0.00e+00	92	40	0	272629760	56	6305
2026-01-18 20:50:08.99	54.88	11.29	-41.2	-42.5	20.5	0.00e+00	22	40	0	274726912	56	6034
2026-01-18 20:50:10.00	54.73	11.35	-41.2	-42.5	20.4	0.00e+00	70	40	0	276824064	56	6100
2026-01-18 20:50:11.01	54.57	11.40	-41.3	-42.6	20.3	0.00e+00	91	40	0	277872640	56	6136
2026-01-18 20:50:12.02	54.42	11.46	-41.2	-42.5	20.4	0.00e+00	74	40	0	279969792	56	6053
2026-01-18 20:50:13.03	54.26	11.51	-41.2	-42.5	20.5	0.00e+00	92	40	0	282066944	56	6087
2026-01-18 20:50:14.04	54.11	11.56	-40.9	-42.1	20.9	0.00e+00	76	40	0	284164096	56	5809
2026-01-18 20:50:15.05	53.95	11.62	-40.9	-42.2	20.8	0.00e+00	90	40	0	286261248	56	5861
2026-01-18 20:50:16.06	53.79	11.67	-40.8	-42.1	20.8	0.00e+00	67	40	0	287309824	56	5764
2026-01-18 20:50:17.07	53.63	11.72	-40.9	-42.1	20.9	0.00e+00	2	40	0	289406976	56	5800
2026-01-18 20:50:18.08	53.48	11.78	-40.9	-42.1	20.9	0.00e+00	92	40	0	291504128	56	5801
2026-01-18 20:50:19.09	53.32	11.83	-40.7	-41.9	21.0	0.00e+00	0	40	0	293601280	56	5664
2026-01-18 20:50:20.10	53.16	11.88	-40.6	-41.8	21.0	0.00e+00	90	40	0	295698432	54	6285
2026-01-18 20:50:21.11	53.00	11.94	-40.5	-41.7	21.1	0.00e+00	7	40	0	296747008	54	6184
2026-01-18 20:50:22.12	52.84	11.99	-40.6	-41.8	21.1	0.00e+00	92	40	0	298844160	54	6262
2026-01-18 20:50:23.13	52.68	12.04	-40.2	-41.3	21.5	0.00e+00	2	40	0	300941312	54	5940
2026-01-18 20:50:24.14	52.52	12.10	-40.1	-41.2	21.5	0.00e+00	92	40	0	303038464	54	5895
2026-01-18 20:50:25.15	52.35	12.15	-40.1	-41.3	21.6	0.00e+00	90	40	0	305135616	54	5910
2026-01-18 20:50:26.16	52.19	12.20	-40.0	-41.1	21.6	0.00e+00	0	40	0	306184192	54	5792
2026-01-18 20:50:27.17	52.03	12.25	-40.1	-41.2	21.7	0.00e+00	90	40	0	308281344	54	5850
2026-01-18 20:50:28.18	51.86	12.30	-39.8	-40.9	21.9	0.00e+00	0	40	0	310378496	54	5667
2026-01-18 20:50:29.19	51.70	12.36	-39.8	-40.9	21.8	0.00e+00	92	40	0	312475648	54	5657
2026-01-18 20:50:30.20	51.53	12.41	-39.8	-40.9	22.0	0.00e+00	0	40	0	314572800	52	6318
2026-01-18 20:50:31.21	51.37	12.46	-39.9	-41.0	21.9	0.00e+00	89	40	0	315621376	52	6393
2026-01-18 20:50:32.21	51.20	12.51	-39.8	-40.9	22.0	0.00e+00	90	40	0	317718528	52	6339
2026-01-18 20:50:33.22	51.04	12.56	-39.7	-40.7	22.1	0.00e+00	75	40	0	319815680	52	6229
2026-01-18 20:50:34.23	50.87	12.61	-39.7	-40.8	22.1	0.00e+00	92	40	0	321912832	52	6272
2026-01-18 20:50:35.24	50.70	12.67	-39.6	-40.7	22.1	0.00e+00	0	40	0	324009984	52	6204
2026-01-18 20:50:36.25	50.53	12.72	-39.6	-40.6	22.3	0.00e+00	91	40	0	326107136	52	6158
2026-01-18 20:50:37.26	50.36	12.77	-39.7	-40.7	22.2	0.00e+00	10	40	0	327155712	52	6228
2026-01-18 20:50:38.27	50.19	12.82	-39.6	-40.6	22.1	0.00e+00	92	40	0	329252864	52	6162
2026-01-18 20:50:39.28	50.02	12.87	-39.7	-40.7	22.2	0.00e+00	0	40	0	331350016	52	6221
2026-01-18 20:50:40.29	49.85	12.92	-39.6	-40.7	22.1	0.00e+00	92	40	0	333447168	52	6188
2026-01-18 20:50:41.30	49.68	12.97	-39.5	-40.6	22.2	0.00e+00	92	40	0	335544320	52	6128
2026-01-18 20:50:42.31	49.51	13.02	-39.4	-40.5	22.3	0.00e+00	0	40	0	336592896	52	6040
2026-01-18 20:50:43.32	49.33	13.07	-39.5	-40.5	22.4	0.00e+00	91	40	0	338690048	52	6071
2026-01-18 20:50:44.33	49.16	13.12	-39.4	-40.5	22.4	0.00e+00	2	40	0	340787200	52	6059
2026-01-18 20:50:45.34	48.99	13.17	-39.4	-40.4	22.4	0.00e+00	92	40	0	342884352	52	6023
2026-01-18 20:50:46.35	48.81	13.22	-39.3	-40.3	22.5	0.00e+00	0	40	0	344981504	52	5923
2026-01-18 20:50:47.36	48.64	13.27	-39.1	-40.1	22.8	0.00e+00	91	40	0	346030080	52	5816
2026-01-18 20:50:48.37	48.46	13.32	-39.1	-40.1	22.7	0.00e+00	90	40	0	348127232	52	5763
2026-01-18 20:50:49.38	48.28	13.37	-39.1	-40.1	22.8	0.00e+00	73	40	0	350224384	52	5798
2026-01-18 20:50:50.39	48.11	13.42	-39.0	-40.0	22.8	0.00e+00	92	40	0	352321536	52	5724
2026-01-18 20:50:51.40	47.93	13.47	-38.8	-39.8	23.0	0.00e+00	0	40	0	354418688	52	5610
2026-01-18 20:50:52.41	47.75	13.52	-38.9	-39.9	22.9	0.00e+00	92	40	0	355467264	52	5650
2026-01-18 20:50:53.42	47.57	13.56	-38.9	-39.9	23.0	0.00e+00	75	40	0	357564416	52	5651
2026-01-18 20:50:54.43	47.39	13.61	-38.8	-39.7	23.0	0.00e+00	92	40	0	359661568	50	6239
2026-01-18 20:50:55.44	47.21	13.66	-38.7	-39.7	23.0	0.00e+00	32	40	0	361758720	50	6203
2026-01-18 20:50:56.45	47.03	13.71	-38.6	-39.5	23.2	0.00e+00	74	40	0	363855872	50	6102
2026-01-18 20:50:57.46	46.85	13.76	-38.6	-39.6	23.1	0.00e+00	92	40	0	364904448	50	6112
2026-01-18 20:50:58.47	46.67	13.80	-38.6	-39.5	22.8	0.00e+00	0	40	0	367001600	50	6076
2026-01-18 20:50:59.47	46.49	13.85	-38.6	-39.5	23.2	0.00e+00	92	40	0	369098752	50	6071
2026-01-18 20:51:00.48	46.31	13.90	-38.6	-39.6	23.2	0.00e+00	6	40	0	371195904	50	6104
2026-01-18 20:51:01.49	46.12	13.94	-38.7	-39.6	23.2	0.00e+00	92	40	0	373293056	50	6169
2026-01-18 20:51:02.50	45.94	13.99	-38.6	-39.6	23.2	0.00e+00	0	40	0	374341632	50	6114
2026-01-18 20:51:03.51	45.75	14.04	-38.7	-39.7	23.0	0.00e+00	0	40	0	376438784	50	6207
2026-01-18 20:51:04.52	45.57	14.08	-38.9	-39.8	22.9	0.00e+00	92	40	0	378535936	50	6317
2026-01-18 20:51:05.53	45.38	14.13	-38.8	-39.8	23.0	0.00e+00	0	40	0	380633088	50	6252
2026-01-18 20:51:06.54	45.20	14.18	-38.9	-39.9	22.9	0.00e+00	92	40	0	382730240	50	6323
2026-01-18 20:51:07.55	45.01	14.22	-38.9	-39.9	22.9	0.00e+00	5	40	0	383778816	50	6373
2026-01-18 20:51:08.56	44.82	14.27	-38.9	-39.9	22.9	0.00e+00	92	40	0	385875968	50	6352
2026-01-18 20:51:09.57	44.63	14.31	-39.1	-40.1	22.7	0.00e+00	0	40	0	387973120	50	6478
2026-01-18 20:51:10.58	44.44	14.36	-39.1	-40.1	22.7	0.00e+00	0	40	0	390070272	50	6482
2026-01-18 20:51:11.58	44.26	14.40	-39.1	-40.1	22.7	0.00e+00	92	40	0	392167424	50	6532
2026-01-18 20:51:12.59	44.07	14.45	-39.2	-40.3	22.4	0.00e+00	75	40	0	394264576	50	6618
2026-01-18 20:51:13.60	43.88	14.49	-39.1	-40.1	22.7	0.00e+00	92	40	0	395313152	50	6530
2026-01-18 20:51:14.61	43.68	14.53	-39.1	-40.1	22.7	0.00e+00	73	40	0	397410304	50	6518
2026-01-18 20:51:15.62	43.49	14.58	-39.2	-40.2	22.7	0.00e+00	92	40	0	399507456	50	6556
2026-01-18 20:51:16.63	43.30	14.62	-39.0	-40.0	22.8	0.00e+00	13	40	0	401604608	50	6440
2026-01-18 20:51:17.64	43.11	14.66	-39.1	-40.1	22.8	0.00e+00	92	40	0	403701760	50	6482
2026-01-18 20:51:18.65	42.91	14.71	-39.1	-40.0	22.7	0.00e+00	34	40	0	404750336	50	6455
2026-01-18 20:51:19.66	42.72	14.75	-39.0	-39.9	22.9	0.00e+00	74	40	0	406847488	50	6372
2026-01-18 20:51:20.67	42.53	14.79	-38.9	-39.9	22.9	0.00e+00	92	40	0	408944640	50	6327
2026-01-18 20:51:21.68	42.33	14.84	-39.0	-40.0	22.9	0.00e+00	6	40	0	411041792	50	6392
2026-01-18 20:51:22.69	42.14	14.88	-39.1	-40.1	22.8	0.00e+00	92	40	0	413138944	50	6484
2026-01-18 20:51:23.70	41.94	14.92	-39.0	-39.9	22.9	0.00e+00	14	40	0	414187520	50	6364
2026-01-18 20:51:24.71	41.74	14.96	-38.9	-39.9	22.9	0.00e+00	92	40	0	416284672	50	6361
2026-01-18 20:51:25.72	41.55	15.00	-39.0	-40.0	22.8	0.00e+00	0	40	0	418381824	50	6409
2026-01-18 20:51:26.73	41.35	15.04	-38.8	-39.7	22.8	0.00e+00	6	40	0	420478976	50	6225
2026-01-18 20:51:27.74	41.15	15.08	-38.7	-39.7	23.2	0.00e+00	92	40	0	422576128	50	6174
2026-01-18 20:51:28.74	40.95	15.12	-38.7	-39.7	23.1	0.00e+00	0	40	0	423624704	50	6184
2026-01-18 20:51:29.76	40.75	15.16	-38.7	-39.6	23.2	0.00e+00	92	40	0	425721856	50	6159
2026-01-18 20:51:30.76	40.55	15.20	-38.6	-39.6	23.2	0.00e+00	0	40	0	427819008	50	6121
2026-01-18 20:51:31.77	40.35	15.24	-38.5	-39.5	23.3	0.00e+00	92	40	0	429916160	50	6044
2026-01-18 20:51:32.78	40.15	15.28	-38.7	-39.6	23.2	0.00e+00	55	40	0	432013312	50	6139
2026-01-18 20:51:33.79	39.95	15.32	-38.7	-39.6	23.3	0.00e+00	91	40	0	433061888	50	6136
2026-01-18 20:51:34.80	39.75	15.36	-38.6	-39.5	23.3	0.00e+00	90	40	0	435159040	50	6065
2026-01-18 20:51:35.81	39.54	15.40	-38.6	-39.6	23.3	0.00e+00	76	40	0	437256192	50	6118
2026-01-18 20:51:36.83	39.34	15.44	-38.5	-39.4	23.4	0.00e+00	90	40	0	439353344	50	6003
2026-01-18 20:51:37.84	39.14	15.47	-38.5	-39.4	23.3	0.00e+00	6	40	0	441450496	50	6016
2026-01-18 20:51:38.85	38.93	15.51	-38.5	-39.4	23.3	0.00e+00	92	40	0	442499072	50	6021
2026-01-18 20:51:39.86	38.73	15.55	-38.5	-39.5	22.4	0.00e+00	7	40	0	444596224	50	6036
2026-01-18 20:51:40.87	38.52	15.59	-38.5	-39.4	23.2	0.00e+00	55	40	0	446693376	50	6015
2026-01-18 20:51:41.87	38.32	15.62	-38.4	-39.4	23.4	0.00e+00	34	40	0	448790528	50	5973
2026-01-18 20:51:42.88	38.11	15.66	-38.4	-39.3	23.5	0.00e+00	0	40	0	450887680	50	5912
2026-01-18 20:51:43.89	37.91	15.69	-38.4	-39.3	23.5	0.00e+00	92	40	0	451936256	50	5947
2026-01-18 20:51:44.90	37.70	15.73	-38.3	-39.2	23.6	0.00e+00	5	40	0	454033408	50	5846
2026-01-18 20:51:45.91	37.49	15.76	-38.3	-39.2	23.5	0.00e+00	90	40	0	456130560	50	5848
2026-01-18 20:51:46.92	37.28	15.80	-38.3	-39.3	23.5	0.00e+00	2	40	0	458227712	50	5897
2026-01-18 20:51:47.93	37.07	15.83	-38.3	-39.2	23.6	0.00e+00	92	40	0	460324864	50	5867
2026-01-18 20:51:48.94	36.86	15.87	-38.3	-39.2	23.6	0.00e+00	0	40	0	462422016	50	5884
2026-01-18 20:51:49.95	36.65	15.90	-38.3	-39.2	23.6	0.00e+00	0	40	0	463470592	50	5835
2026-01-18 20:51:50.96	36.44	15.94	-38.3	-39.2	23.6	0.00e+00	90	40	0	465567744	50	5851
2026-01-18 20:51:51.97	36.23	15.97	-38.4	-39.3	23.5	0.00e+00	0	40	0	467664896	50	5925
2026-01-18 20:51:52.97	36.02	16.00	-38.5	-39.4	23.4	0.00e+00	89	40	0	469762048	50	5974
2026-01-18 20:51:53.99	35.81	16.03	-38.5	-39.4	23.3	0.00e+00	70	40	0	471859200	50	6033
2026-01-18 20:51:55.00	35.60	16.07	-38.5	-39.5	23.3	0.00e+00	4	40	0	472907776	50	6057
2026-01-18 20:51:56.01	35.39	16.10	-38.5	-39.4	23.4	0.00e+00	0	40	0	475004928	50	6012
2026-01-18 20:51:57.01	35.18	16.13	-38.5	-39.5	23.4	0.00e+00	6	40	0	477102080	50	6050
2026-01-18 20:51:58.02	34.96	16.16	-38.6	-39.5	23.3	0.00e+00	92	40	0	479199232	50	6072
2026-01-18 20:51:59.03	34.75	16.19	-38.7	-39.6	23.2	0.00e+00	75	40	0	481296384	50	6152
2026-01-18 20:52:00.04	34.53	16.22	-38.7	-39.6	23.3	0.00e+00	92	40	0	482344960	50	6140
2026-01-18 20:52:01.05	34.32	16.25	-38.7	-39.6	23.2	0.00e+00	75	40	0	484442112	50	6165
2026-01-18 20:52:02.06	34.10	16.28	-38.6	-39.5	23.4	0.00e+00	74	40	0	486539264	50	6058
2026-01-18 20:52:03.07	33.89	16.31	-38.6	-39.6	23.3	0.00e+00	0	40	0	488636416	50	6116
2026-01-18 20:52:04.08	33.67	16.34	-38.6	-39.5	23.2	0.00e+00	6	40	0	490733568	50	6094
2026-01-18 20:52:05.09	33.46	16.37	-38.6	-39.6	23.3	0.00e+00	91	40	0	491782144	50	6117
2026-01-18 20:52:06.10	33.24	16.39	-38.6	-39.5	23.3	0.00e+00	6	40	0	493879296	50	6057
2026-01-18 20:52:07.11	33.02	16.42	-38.6	-39.5	23.3	0.00e+00	91	40	0	495976448	50	6064
2026-01-18 20:52:08.12	32.81	16.45	-38.6	-39.5	23.3	0.00e+00	0	40	0	498073600	50	6097
2026-01-18 20:52:09.13	32.59	16.48	-38.7	-39.6	23.3	0.00e+00	92	40	0	500170752	50	6171
2026-01-18 20:52:10.14	32.37	16.50	-38.6	-39.5	23.3	0.00e+00	0	40	0	501219328	50	6102
2026-01-18 20:52:11.15	32.15	16.53	-38.5	-39.4	23.4	0.00e+00	0	40	0	503316480	50	6011
2026-01-18 20:52:12.16	31.93	16.55	-38.8	-39.7	23.2	0.00e+00	0	40	0	505413632	50	6215
2026-01-18 20:52:13.17	31.71	16.58	-38.8	-39.8	23.1	0.00e+00	0	40	0	507510784	50	6257
2026-01-18 20:52:14.18	31.49	16.60	-38.9	-39.9	22.9	0.00e+00	91	40	0	509607936	50	6322
2026-01-18 20:52:15.19	31.27	16.63	-39.1	-40.1	22.9	0.00e+00	0	40	0	510656512	50	6491
2026-01-18 20:52:16.20	31.05	16.65	-39.1	-40.0	22.9	0.00e+00	91	40	0	512753664	50	6454
2026-01-18 20:52:17.21	30.83	16.68	-39.2	-40.2	22.7	0.00e+00	0	40	0	514850816	50	6560
2026-01-18 20:52:18.22	30.61	16.70	-39.3	-40.3	22.6	0.00e+00	0	40	0	516947968	50	6668
2026-01-18 20:52:19.23	30.39	16.72	-39.6	-40.6	22.4	0.00e+00	0	40	0	519045120	50	6888
2026-01-18 20:52:20.24	30.16	16.74	-39.7	-40.7	22.3	0.00e+00	5	40	0	520093696	50	6993
2026-01-18 20:52:21.24	29.94	16.77	-39.3	-40.3	22.6	0.00e+00	88	40	0	522190848	50	6679
2026-01-18 20:52:22.26	29.72	16.79	-39.2	-40.1	22.8	0.00e+00	5	40	0	524288000	50	6528
2026-01-18 20:52:23.27	29.50	16.81	-39.1	-40.1	22.8	0.00e+00	91	40	0	526385152	50	6508
2026-01-18 20:52:24.28	29.27	16.83	-39.0	-40.0	22.9	0.00e+00	4	40	0	528482304	50	6418
2026-01-18 20:52:25.28	29.05	16.85	-39.1	-40.0	22.9	0.00e+00	23	40	0	530579456	50	6462
2026-01-18 20:52:26.30	28.83	16.87	-39.0	-39.9	23.0	0.00e+00	0	40	0	531628032	50	6365
2026-01-18 20:52:27.30	28.60	16.89	-38.9	-39.8	23.0	0.00e+00	0	40	0	533725184	50	6310
2026-01-18 20:52:28.31	28.38	16.91	-38.8	-39.8	23.1	0.00e+00	90	40	0	535822336	50	6281
2026-01-18 20:52:29.32	28.16	16.93	-38.8	-39.7	23.1	0.00e+00	0	40	0	537919488	50	6240
2026-01-18 20:52:30.33	27.93	16.95	-38.9	-39.9	23.0	0.00e+00	92	40	0	540016640	50	6328
2026-01-18 20:52:31.34	27.71	16.96	-39.0	-40.0	22.8	0.00e+00	0	40	0	541065216	50	6398
2026-01-18 20:52:32.35	27.48	16.98	-39.2	-40.2	22.7	0.00e+00	13	40	0	543162368	50	6549
2026-01-18 20:52:33.36	27.25	17.00	-39.3	-40.3	22.7	0.00e+00	0	40	0	545259520	50	6619
2026-01-18 20:52:34.37	27.03	17.01	-39.3	-40.3	22.7	0.00e+00	0	40	0	547356672	50	6642
2026-01-18 20:52:35.38	26.80	17.03	-39.2	-40.2	22.7	0.00e+00	0	40	0	549453824	50	6595
2026-01-18 20:52:36.39	26.58	17.04	-39.3	-40.3	22.6	0.00e+00	0	40	0	550502400	50	6644
2026-01-18 20:52:37.40	26.35	17.06	-39.4	-40.4	22.6	0.00e+00	90	40	0	552599552	50	6712
2026-01-18 20:52:38.41	26.12	17.07	-39.4	-40.4	22.6	0.00e+00	5	40	0	554696704	50	6742
2026-01-18 20:52:39.42	25.89	17.09	-39.5	-40.6	22.4	0.00e+00	92	40	0	556793856	50	6864
2026-01-18 20:52:40.43	25.67	17.10	-39.5	-40.5	22.4	0.00e+00	74	40	0	558891008	50	6803
2026-01-18 20:52:41.44	25.44	17.11	-39.5	-40.5	22.5	0.00e+00	7	40	0	559939584	50	6808
2026-01-18 20:52:42.45	25.21	17.13	-39.4	-40.4	22.6	0.00e+00	0	40	0	562036736	50	6721
2026-01-18 20:52:43.46	24.98	17.14	-39.2	-40.2	22.7	0.00e+00	2	40	0	564133888	50	6599
2026-01-18 20:52:44.47	24.76	17.15	-39.4	-40.4	22.5	0.00e+00	92	40	0	566231040	50	6767
2026-01-18 20:52:45.48	24.53	17.16	-39.5	-40.5	22.4	0.00e+00	5	40	0	568328192	50	6835
2026-01-18 20:52:46.49	24.30	17.17	-39.7	-40.7	22.3	0.00e+00	91	40	0	569376768	50	6979
2026-01-18 20:52:47.50	24.07	17.18	-39.7	-40.7	22.2	0.00e+00	5	40	0	571473920	50	6986
2026-01-18 20:52:48.51	23.84	17.19	-39.7	-40.8	22.3	0.00e+00	5	40	0	573571072	52	6256
2026-01-18 20:52:49.52	23.61	17.20	-39.5	-40.5	22.4	0.00e+00	6	40	0	575668224	52	6088
2026-01-18 20:52:50.52	23.39	17.21	-39.5	-40.6	22.4	0.00e+00	0	40	0	577765376	52	6117
2026-01-18 20:52:51.53	23.16	17.22	-39.5	-40.5	22.5	0.00e+00	0	40	0	578813952	52	6060
2026-01-18 20:52:52.54	22.93	17.23	-39.6	-40.6	22.4	0.00e+00	6	40	0	580911104	52	6128
2026-01-18 20:52:53.56	22.70	17.24	-39.5	-40.6	22.4	0.00e+00	92	40	0	583008256	52	6112
2026-01-18 20:52:54.56	22.47	17.24	-39.6	-40.7	22.3	0.00e+00	6	40	0	585105408	52	6180
2026-01-18 20:52:55.57	22.24	17.25	-39.6	-40.6	22.4	0.00e+00	76	40	0	587202560	52	6157
2026-01-18 20:52:56.58	22.01	17.26	-39.4	-40.4	22.6	0.00e+00	74	40	0	588251136	52	6002
2026-01-18 20:52:57.59	21.78	17.26	-39.3	-40.3	22.7	0.00e+00	4	40	0	590348288	52	5914
2026-01-18 20:52:58.60	21.55	17.27	-39.4	-40.4	22.6	0.00e+00	0	40	0	592445440	52	5975
2026-01-18 20:52:59.61	21.32	17.27	-39.3	-40.3	22.7	0.00e+00	75	40	0	594542592	52	5909
2026-01-18 20:53:00.62	21.09	17.28	-39.5	-40.5	22.4	0.00e+00	92	40	0	596639744	52	6054
2026-01-18 20:53:01.63	20.86	17.28	-39.5	-40.5	22.4	0.00e+00	9	40	0	598736896	52	6089
2026-01-18 20:53:02.63	20.63	17.28	-39.5	-40.5	22.4	0.00e+00	92	40	0	599785472	52	6100
2026-01-18 20:53:03.64	20.40	17.29	-39.5	-40.5	22.4	0.00e+00	75	40	0	601882624	52	6100
2026-01-18 20:53:04.65	20.17	17.29	-39.5	-40.6	22.4	0.00e+00	10	40	0	603979776	52	6113
2026-01-18 20:53:05.66	19.94	17.29	-39.6	-40.7	22.3	0.00e+00	0	40	0	606076928	52	6177
2026-01-18 20:53:06.67	19.71	17.29	-39.5	-40.5	22.5	0.00e+00	6	40	0	608174080	52	6099
2026-01-18 20:53:07.68	19.48	17.29	-39.6	-40.6	22.4	0.00e+00	90	40	0	609222656	52	6135
2026-01-18 20:53:08.69	19.25	17.29	-39.5	-40.5	22.5	0.00e+00	11	40	0	611319808	52	6095
2026-01-18 20:53:09.70	19.02	17.29	-39.6	-40.6	22.4	0.00e+00	92	40	0	613416960	52	6129
2026-01-18 20:53:10.71	18.79	17.29	-39.4	-40.4	22.5	0.00e+00	0	40	0	615514112	52	6015
2026-01-18 20:53:11.72	18.56	17.29	-39.4	-40.4	22.6	0.00e+00	6	40	0	617611264	52	6013
2026-01-18 20:53:12.73	18.33	17.29	-39.3	-40.3	22.3	0.00e+00	5	40	0	618659840	52	5940
2026-01-18 20:53:13.74	18.10	17.29	-39.3	-40.3	22.5	0.00e+00	7	40	0	620756992	52	5913
2026-01-18 20:53:14.75	17.87	17.29	-39.3	-40.3	22.7	0.00e+00	0	40	0	622854144	52	5919
2026-01-18 20:53:15.76	17.64	17.28	-39.2	-40.2	22.5	0.00e+00	6	40	0	624951296	52	5886
2026-01-18 20:53:16.77	17.41	17.28	-39.3	-40.2	22.7	0.00e+00	92	40	0	627048448	52	5893
2026-01-18 20:53:17.78	17.18	17.28	-39.4	-40.4	22.6	0.00e+00	75	40	0	628097024	52	5969
2026-01-18 20:53:18.79	16.95	17.27	-39.4	-40.4	22.5	0.00e+00	91	40	0	630194176	52	5979
2026-01-18 20:53:19.80	16.72	17.27	-39.5	-40.5	22.5	0.00e+00	69	40	0	632291328	52	6045
2026-01-18 20:53:20.81	16.49	17.26	-39.5	-40.5	22.5	0.00e+00	0	40	0	634388480	52	6062
2026-01-18 20:53:21.82	16.26	17.26	-39.2	-40.2	22.7	0.00e+00	66	40	0	636485632	52	5870
2026-01-18 20:53:22.83	16.03	17.25	-39.3	-40.2	22.8	0.00e+00	5	40	0	637534208	52	5889
2026-01-18 20:53:23.83	15.80	17.25	-39.1	-40.1	22.8	0.00e+00	92	40	0	639631360	52	5809
2026-01-18 20:53:24.84	15.57	17.24	-39.1	-40.0	22.9	0.00e+00	76	40	0	641728512	52	5747
2026-01-18 20:53:25.85	15.34	17.23	-39.1	-40.1	22.8	0.00e+00	90	40	0	643825664	52	5787
2026-01-18 20:53:26.86	15.11	17.22	-39.0	-40.0	22.9	0.00e+00	2	40	0	645922816	52	5710
2026-01-18 20:53:27.87	14.88	17.21	-39.1	-40.1	23.0	0.00e+00	2	40	0	646971392	52	5771
2026-01-18 20:53:28.88	14.65	17.21	-39.2	-40.2	22.7	0.00e+00	6	40	0	649068544	52	5862
2026-01-18 20:53:29.89	14.42	17.20	-39.0	-39.9	23.0	0.00e+00	0	40	0	651165696	52	5687
2026-01-18 20:53:30.90	14.20	17.19	-39.1	-40.1	22.9	0.00e+00	91	40	0	653262848	52	5793
2026-01-18 20:53:31.90	13.97	17.18	-38.9	-39.8	23.2	0.00e+00	0	40	0	655360000	52	5609
2026-01-18 20:53:32.92	13.74	17.16	-38.9	-39.9	23.1	0.00e+00	92	40	0	656408576	52	5637
2026-01-18 20:53:33.92	13.51	17.15	-38.9	-39.9	23.0	0.00e+00	0	40	0	658505728	52	5644
2026-01-18 20:53:34.93	13.29	17.14	-38.9	-39.8	23.0	0.00e+00	0	40	0	660602880	52	5611
2026-01-18 20:53:35.94	13.06	17.13	-39.0	-40.0	22.9	0.00e+00	0	40	0	662700032	52	5728
2026-01-18 20:53:36.95	12.83	17.12	-38.9	-39.8	23.1	0.00e+00	0	40	0	664797184	52	5615
2026-01-18 20:53:37.96	12.60	17.10	-39.0	-40.0	22.9	0.00e+00	0	40	0	666894336	52	5703
2026-01-18 20:53:38.97	12.37	17.09	-39.0	-40.0	22.9	0.00e+00	3	40	0	667942912	52	5733
2026-01-18 20:53:39.98	12.15	17.08	-38.6	-39.6	23.3	0.00e+00	92	40	0	670040064	50	6123
2026-01-18 20:53:40.99	11.92	17.06	-38.6	-39.5	23.3	0.00e+00	0	40	0	672137216	50	6102
2026-01-18 20:53:42.00	11.69	17.05	-38.4	-39.4	23.5	0.00e+00	92	40	0	674234368	50	5968
2026-01-18 20:53:43.01	11.47	17.03	-38.3	-39.2	23.6	0.00e+00	75	40	0	675282944	50	5871
2026-01-18 20:53:44.02	11.24	17.02	-38.3	-39.2	23.6	0.00e+00	75	40	0	677380096	50	5849
2026-01-18 20:53:45.03	11.02	17.00	-38.2	-39.1	23.8	0.00e+00	41	40	0	679477248	50	5771
2026-01-18 20:53:46.04	10.79	16.98	-38.2	-39.1	23.7	0.00e+00	6	40	0	681574400	50	5810
2026-01-18 20:53:47.05	10.56	16.97	-38.3	-39.2	23.7	0.00e+00	92	40	0	683671552	50	5831
2026-01-18 20:53:48.06	10.34	16.95	-38.1	-39.0	23.8	0.00e+00	75	40	0	684720128	50	5703
2026-01-18 20:53:49.07	10.11	16.93	-38.2	-39.1	23.7	0.00e+00	92	40	0	686817280	50	5797
2026-01-18 20:53:50.08	9.89	16.91	-38.3	-39.2	23.7	0.00e+00	4	40	0	688914432	50	5851
2026-01-18 20:53:51.09	9.67	16.89	-38.3	-39.2	23.6	0.00e+00	6	40	0	691011584	50	5892
2026-01-18 20:53:52.09	9.44	16.87	-38.4	-39.4	23.5	0.00e+00	7	40	0	693108736	50	5970
2026-01-18 20:53:53.10	9.22	16.85	-38.5	-39.4	23.5	0.00e+00	2	40	0	695205888	50	6027
2026-01-18 20:53:54.11	9.00	16.83	-38.5	-39.4	23.5	0.00e+00	91	40	0	696254464	50	5974
2026-01-18 20:53:55.12	8.77	16.81	-38.4	-39.3	23.5	0.00e+00	0	40	0	698351616	50	5959
2026-01-18 20:53:56.13	8.55	16.79	-38.4	-39.3	23.5	0.00e+00	92	40	0	700448768	50	5964
2026-01-18 20:53:57.14	8.33	16.77	-38.6	-39.5	23.3	0.00e+00	0	40	0	702545920	50	6078
2026-01-18 20:53:58.15	8.11	16.75	-38.6	-39.5	23.2	0.00e+00	91	40	0	704643072	50	6094
2026-01-18 20:53:59.16	7.88	16.73	-38.6	-39.5	23.3	0.00e+00	75	40	0	705691648	50	6067
2026-01-18 20:54:00.17	7.66	16.70	-38.6	-39.6	23.4	0.00e+00	0	40	0	707788800	50	6111
2026-01-18 20:54:01.18	7.44	16.68	-38.8	-39.8	23.2	0.00e+00	74	40	0	709885952	50	6262
2026-01-18 20:54:02.19	7.22	16.66	-38.8	-39.7	23.2	0.00e+00	2	40	0	711983104	50	6229
2026-01-18 20:54:03.20	7.00	16.63	-38.8	-39.8	23.1	0.00e+00	90	40	0	714080256	50	6261
2026-01-18 20:54:04.21	6.78	16.61	-38.9	-39.9	23.1	0.00e+00	71	40	0	715128832	50	6332
2026-01-18 20:54:05.22	6.56	16.58	-38.9	-39.8	23.1	0.00e+00	92	40	0	717225984	50	6302
2026-01-18 20:54:06.23	6.34	16.56	-38.9	-39.8	23.0	0.00e+00	11	40	0	719323136	50	6306
2026-01-18 20:54:07.24	6.12	16.53	-38.8	-39.8	23.1	0.00e+00	69	40	0	721420288	50	6280
2026-01-18 20:54:08.25	5.90	16.51	-38.8	-39.8	23.1	0.00e+00	63	40	0	723517440	50	6262
2026-01-18 20:54:09.26	5.69	16.48	-38.9	-39.8	23.1	0.00e+00	2	40	0	724566016	50	6305
2026-01-18 20:54:10.27	5.47	16.45	-38.8	-39.8	23.1	0.00e+00	90	40	0	726663168	50	6271
2026-01-18 20:54:11.28	5.25	16.43	-39.0	-40.0	23.0	0.00e+00	0	40	0	728760320	50	6439
2026-01-18 20:54:12.29	5.03	16.40	-39.1	-40.1	22.9	0.00e+00	90	40	0	730857472	50	6478
2026-01-18 20:54:13.30	4.82	16.37	-39.2	-40.2	22.8	0.00e+00	2	40	0	732954624	50	6562
2026-01-18 20:54:14.31	4.60	16.34	-39.3	-40.3	22.7	0.00e+00	0	40	0	734003200	50	6627
2026-01-18 20:54:15.32	4.38	16.32	-39.3	-40.3	22.6	0.00e+00	0	40	0	736100352	50	6686
2026-01-18 20:54:16.33	4.17	16.29	-39.3	-40.3	22.6	0.00e+00	0	40	0	738197504	50	6674
2026-01-18 20:54:17.33	3.96	16.26	-39.3	-40.3	22.6	0.00e+00	92	40	0	740294656	50	6631
2026-01-18 20:54:18.34	3.74	16.23	-39.2	-40.2	22.7	0.00e+00	0	40	0	742391808	50	6614
2026-01-18 20:54:19.36	3.53	16.20	-39.4	-40.4	22.5	0.00e+00	92	40	0	743440384	50	6713
2026-01-18 20:54:20.37	3.31	16.17	-39.3	-40.3	22.7	0.00e+00	73	40	0	745537536	50	6627
2026-01-18 20:54:21.38	3.10	16.14	-39.4	-40.4	22.5	0.00e+00	76	40	0	747634688	50	6733
2026-01-18 20:54:22.39	2.89	16.10	-39.4	-40.3	22.6	0.00e+00	0	40	0	749731840	50	6692
2026-01-18 20:54:23.40	2.67	16.07	-39.3	-40.3	22.7	0.00e+00	0	40	0	751828992	50	6625
2026-01-18 20:54:24.41	2.46	16.04	-39.3	-40.3	22.7	0.00e+00	0	40	0	752877568	50	6635
2026-01-18 20:54:25.42	2.25	16.01	-39.4	-40.4	22.6	0.00e+00	7	40	0	754974720	50	6705
2026-01-18 20:54:26.42	2.04	15.98	-39.1	-40.1	22.8	0.00e+00	92	40	0	757071872	50	6503
2026-01-18 20:54:27.43	1.83	15.94	-39.2	-40.2	22.7	0.00e+00	0	40	0	759169024	50	6576
2026-01-18 20:54:28.44	1.62	15.91	-39.0	-39.9	23.0	0.00e+00	66	40	0	761266176	50	6364
2026-01-18 20:54:29.45	1.41	15.88	-38.8	-39.8	23.1	0.00e+00	7	40	0	763363328	50	6283
2026-01-18 20:54:30.46	1.20	15.84	-38.9	-39.8	23.1	0.00e+00	74	40	0	764411904	50	6293
2026-01-18 20:54:31.47	0.99	15.81	-38.8	-39.7	23.2	0.00e+00	9	40	0	766509056	50	6203
2026-01-18 20:54:32.48	0.79	15.77	-38.7	-39.6	23.2	0.00e+00	13	40	0	768606208	50	6157
2026-01-18 20:54:33.49	0.58	15.74	-38.9	-39.8	22.9	0.00e+00	92	40	0	770703360	50	6297
2026-01-18 20:54:34.50	0.37	15.70	-38.9	-39.9	22.8	0.00e+00	0	40	0	772800512	50	6335
2026-01-18 20:54:35.51	0.17	15.67	-38.9	-39.8	23.0	0.00e+00	42	40	0	773849088	50	6307
2026-01-18 20:54:36.52	359.96	15.63	-39.0	-39.9	22.8	0.00e+00	6	40	0	775946240	50	6390
2026-01-18 20:54:37.53	359.75	15.59	-38.9	-39.9	22.7	0.00e+00	5	40	0	778043392	50	6346
2026-01-18 20:54:38.53	359.55	15.56	-38.9	-39.9	22.7	0.00e+00	7	40	0	780140544	50	6359
2026-01-18 20:54:39.55	359.34	15.52	-39.1	-40.1	22.8	0.00e+00	0	40	0	782237696	50	6468
2026-01-18 20:54:40.55	359.14	15.48	-39.1	-40.1	22.7	0.00e+00	92	40	0	783286272	50	6491
2026-01-18 20:54:41.57	358.94	15.45	-39.2	-40.2	22.5	0.00e+00	4	40	0	785383424	50	6603
2026-01-18 20:54:42.57	358.74	15.41	-39.3	-40.3	22.6	0.00e+00	90	40	0	787480576	50	6633
2026-01-18 20:54:43.58	358.53	15.37	-39.2	-40.2	22.7	0.00e+00	72	40	0	789577728	50	6547
2026-01-18 20:54:44.59	358.33	15.33	-39.0	-40.0	22.8	0.00e+00	5	40	0	791674880	50	6448
2026-01-18 20:54:45.61	358.13	15.29	-39.0	-40.0	22.9	0.00e+00	68	40	0	792723456	50	6396
2026-01-18 20:54:46.61	357.93	15.25	-38.8	-39.8	23.0	0.00e+00	13	40	0	794820608	50	6248
2026-01-18 20:54:47.62	357.73	15.21	-38.8	-39.8	23.0	0.00e+00	0	40	0	796917760	50	6256
2026-01-18 20:54:48.63	357.53	15.17	-38.8	-39.8	23.0	0.00e+00	74	40	0	799014912	50	6271
2026-01-18 20:54:49.64	357.33	15.13	-38.9	-39.9	22.9	0.00e+00	92	40	0	801112064	50	6357
2026-01-18 20:54:50.65	357.13	15.09	-39.0	-39.9	22.8	0.00e+00	16	40	0	802160640	50	6377
2026-01-18 20:54:51.66	356.93	15.05	-39.1	-40.1	22.6	0.00e+00	16	40	0	804257792	50	6529
2026-01-18 20:54:52.67	356.74	15.01	-39.3	-40.3	22.6	0.00e+00	6	40	0	806354944	50	6625
2026-01-18 20:54:53.68	356.54	14.97	-39.3	-40.3	22.6	0.00e+00	7	40	0	808452096	50	6676
2026-01-18 20:54:54.69	356.34	14.93	-39.5	-40.5	22.3	0.00e+00	0	40	0	810549248	50	6798
2026-01-18 20:54:55.70	356.15	14.89	-39.6	-40.7	22.2	0.00e+00	7	40	0	811597824	50	6942
2026-01-18 20:54:56.71	355.95	14.85	-39.5	-40.6	22.3	0.00e+00	90	40	0	813694976	50	6881
2026-01-18 20:54:57.72	355.76	14.80	-39.6	-40.7	22.2	0.00e+00	0	40	0	815792128	50	6951
2026-01-18 20:54:58.73	355.56	14.76	-39.5	-40.6	22.4	0.00e+00	92	40	0	817889280	50	6849
2026-01-18 20:54:59.73	355.37	14.72	-39.3	-40.2	22.6	0.00e+00	0	40	0	819986432	50	6611
2026-01-18 20:55:00.75	355.17	14.68	-39.2	-40.2	22.6	0.00e+00	0	40	0	821035008	50	6602
2026-01-18 20:55:01.75	354.98	14.63	-39.3	-40.4	22.5	0.00e+00	5	40	0	823132160	50	6700
2026-01-18 20:55:02.76	354.79	14.59	-39.2	-40.2	22.6	0.00e+00	74	40	0	825229312	50	6581
2026-01-18 20:55:03.77	354.60	14.55	-39.4	-40.4	22.5	0.00e+00	58	40	0	827326464	50	6704
2026-01-18 20:55:04.78	354.41	14.50	-39.6	-40.6	22.3	0.00e+00	0	40	0	829423616	50	6884
2026-01-18 20:55:05.79	354.22	14.46	-39.7	-40.7	22.2	0.00e+00	89	40	0	831520768	50	6967
2026-01-18 20:55:06.80	354.03	14.41	-39.7	-40.7	22.2	0.00e+00	0	40	0	832569344	50	6970
2026-01-18 20:55:07.81	353.84	14.37	-39.7	-40.7	22.2	0.00e+00	15	40	0	834666496	50	6986
2026-01-18 20:55:08.82	353.65	14.32	-39.7	-40.8	22.2	0.00e+00	14	40	0	836763648	50	7020
2026-01-18 20:55:09.83	353.46	14.28	-39.7	-40.7	22.1	0.00e+00	71	40	0	838860800	50	6969
2026-01-18 20:55:10.84	353.28	14.23	-39.6	-40.6	22.2	0.00e+00	65	40	0	840957952	50	6910
2026-01-18 20:55:11.85	353.09	14.19	-39.7	-40.8	22.1	0.00e+00	15	40	0	842006528	50	7015
2026-01-18 20:55:12.86	352.90	14.14	-39.8	-40.8	22.1	0.00e+00	92	40	0	844103680	50	7056
2026-01-18 20:55:13.87	352.72	14.10	-39.8	-40.9	22.1	0.00e+00	9	40	0	846200832	52	6332
2026-01-18 20:55:14.88	352.53	14.05	-39.9	-41.0	22.0	0.00e+00	92	40	0	848297984	52	6445
2026-01-18 20:55:15.89	352.35	14.00	-39.9	-41.0	21.9	0.00e+00	0	40	0	850395136	52	6416
2026-01-18 20:55:16.90	352.16	13.96	-40.0	-41.1	21.9	0.00e+00	9	40	0	851443712	52	6470
2026-01-18 20:55:17.91	351.98	13.91	-40.0	-41.1	21.8	0.00e+00	7	40	0	853540864	52	6515
2026-01-18 20:55:18.92	351.80	13.86	-40.0	-41.1	21.8	0.00e+00	2	40	0	855638016	52	6483
2026-01-18 20:55:19.93	351.62	13.82	-40.2	-41.3	21.7	0.00e+00	92	40	0	857735168	52	6639
2026-01-18 20:55:20.94	351.44	13.77	-40.2	-41.3	21.7	0.00e+00	0	40	0	859832320	52	6643
2026-01-18 20:55:21.95	351.25	13.72	-40.3	-41.4	21.5	0.00e+00	91	40	0	860880896	52	6763
2026-01-18 20:55:22.96	351.07	13.67	-40.5	-41.7	21.4	0.00e+00	0	40	0	862978048	52	6934
2026-01-18 20:55:23.97	350.89	13.63	-40.6	-41.8	21.3	0.00e+00	73	40	0	865075200	52	7018
2026-01-18 20:55:24.98	350.72	13.58	-40.7	-42.0	21.1	0.00e+00	0	40	0	867172352	52	7171
2026-01-18 20:55:25.99	350.54	13.53	-40.8	-42.0	20.9	0.00e+00	74	40	0	869269504	54	6404
2026-01-18 20:55:27.00	350.36	13.48	-41.0	-42.3	20.7	0.00e+00	73	40	0	870318080	54	6617
2026-01-18 20:55:28.01	350.18	13.43	-41.1	-42.4	20.6	0.00e+00	8	40	0	872415232	54	6693
2026-01-18 20:55:29.02	350.00	13.38	-41.1	-42.4	20.8	0.00e+00	92	40	0	874512384	54	6711
2026-01-18 20:55:30.03	349.83	13.33	-40.9	-42.2	20.6	0.00e+00	8	40	0	876609536	54	6548
2026-01-18 20:55:31.04	349.65	13.28	-41.1	-42.4	20.6	0.00e+00	0	40	0	878706688	54	6702
2026-01-18 20:55:32.05	349.48	13.23	-41.0	-42.2	20.7	0.00e+00	11	40	0	879755264	54	6585
2026-01-18 20:55:33.06	349.30	13.19	-41.1	-42.4	20.7	0.00e+00	0	40	0	881852416	54	6747
2026-01-18 20:55:34.07	349.13	13.14	-40.9	-42.2	20.6	0.00e+00	73	40	0	883949568	54	6561
2026-01-18 20:55:35.08	348.96	13.09	-41.2	-42.5	20.4	0.00e+00	0	40	0	886046720	54	6846
2026-01-18 20:55:36.09	348.78	13.04	-41.3	-42.7	20.2	0.00e+00	92	40	0	888143872	54	6950
2026-01-18 20:55:37.10	348.61	12.99	-41.7	-43.1	20.0	0.00e+00	2	40	0	889192448	54	7257
2026-01-18 20:55:38.11	348.44	12.94	-42.0	-43.4	19.9	0.00e+00	90	40	0	891289600	56	6749
2026-01-18 20:55:39.12	348.27	12.88	-41.9	-43.3	19.7	0.00e+00	0	40	0	893386752	56	6672
2026-01-18 20:55:40.13	348.10	12.83	-41.7	-43.1	20.0	0.00e+00	2	40	0	895483904	56	6471
2026-01-18 20:55:41.14	347.93	12.78	-41.6	-43.0	20.1	0.00e+00	0	40	0	897581056	56	6419
2026-01-18 20:55:42.15	347.76	12.73	-41.6	-43.0	20.1	0.00e+00	2	40	0	899678208	56	6415
2026-01-18 20:55:43.16	347.59	12.68	-41.7	-43.0	20.1	0.00e+00	91	40	0	900726784	56	6461
2026-01-18 20:55:44.17	347.42	12.63	-41.7	-43.1	19.9	0.00e+00	73	40	0	902823936	56	6496
2026-01-18 20:55:45.18	347.26	12.58	-41.9	-43.4	19.7	0.00e+00	92	40	0	904921088	56	6709
2026-01-18 20:55:46.19	347.09	12.53	-41.8	-43.2	19.5	0.00e+00	2	40	0	907018240	56	6599
2026-01-18 20:55:47.20	346.92	12.48	-41.9	-43.3	19.7	0.00e+00	0	40	0	909115392	56	6687
2026-01-18 20:55:48.22	346.76	12.42	-42.0	-43.4	19.6	0.00e+00	73	40	0	910163968	56	6732
2026-01-18 20:55:49.22	346.59	12.37	-42.1	-43.6	19.5	0.00e+00	73	40	0	912261120	56	6890
2026-01-18 20:55:50.23	346.43	12.32	-42.0	-43.5	19.5	0.00e+00	75	40	0	914358272	56	6814
2026-01-18 20:55:51.25	346.26	12.27	-42.4	-43.9	19.3	0.00e+00	75	40	0	916455424	56	7160
2026-01-18 20:55:52.25	346.10	12.22	-42.1	-43.6	19.6	0.00e+00	92	40	0	918552576	56	6866
2026-01-18 20:55:53.27	345.94	12.16	-42.2	-43.6	19.4	0.00e+00	0	40	0	919601152	56	6925
2026-01-18 20:55:54.27	345.78	12.11	-42.2	-43.7	19.4	0.00e+00	0	40	0	921698304	56	6971
2026-01-18 20:55:55.28	345.62	12.06	-42.5	-44.0	18.9	0.00e+00	0	40	0	923795456	56	7229
2026-01-18 20:55:56.29	345.46	12.01	-42.6	-44.2	19.2	0.00e+00	0	40	0	925892608	56	7340
2026-01-18 20:55:57.30	345.30	11.95	-42.5	-44.0	19.1	0.00e+00	0	40	0	927989760	56	7246
2026-01-18 20:55:58.31	345.14	11.90	-42.5	-44.1	18.8	0.00e+00	0	40	0	929038336	56	7281
2026-01-18 20:55:59.32	344.98	11.85	-42.5	-44.1	19.1	0.00e+00	92	40	0	931135488	56	7304
2026-01-18 20:56:00.33	344.82	11.79	-42.3	-43.8	19.3	0.00e+00	0	40	0	933232640	56	7070
2026-01-18 20:56:01.34	344.66	11.74	-42.3	-43.8	19.4	0.00e+00	92	40	0	935329792	56	7060
2026-01-18 20:56:02.35	344.50	11.69	-42.2	-43.7	19.2	0.00e+00	0	40	0	937426944	56	6956
2026-01-18 20:56:03.36	344.35	11.63	-42.1	-43.6	19.4	0.00e+00	0	40	0	939524096	56	6905
2026-01-18 20:56:04.37	344.19	11.58	-41.7	-43.1	19.9	0.00e+00	0	40	0	940572672	56	6496
2026-01-18 20:56:05.38	344.04	11.53	-41.4	-42.7	20.2	0.00e+00	68	40	0	942669824	56	6223
2026-01-18 20:56:06.39	343.88	11.47	-41.3	-42.7	20.3	0.00e+00	92	40	0	944766976	56	6177
2026-01-18 20:56:07.40	343.73	11.42	-41.1	-42.4	20.5	0.00e+00	0	40	0	946864128	56	6025
2026-01-18 20:56:08.41	343.57	11.37	-41.2	-42.6	20.5	0.00e+00	92	40	0	948961280	56	6110
2026-01-18 20:56:09.42	343.42	11.31	-41.2	-42.5	20.4	0.00e+00	15	40	0	950009856	56	6064
2026-01-18 20:56:10.43	343.27	11.26	-41.2	-42.5	20.5	0.00e+00	2	40	0	952107008	56	6060
2026-01-18 20:56:11.44	343.11	11.20	-40.9	-42.1	20.8	0.00e+00	0	40	0	954204160	56	5804
2026-01-18 20:56:12.45	342.96	11.15	-40.9	-42.2	20.8	0.00e+00	72	40	0	956301312	56	5847
2026-01-18 20:56:13.46	342.81	11.10	-41.0	-42.2	20.7	0.00e+00	71	40	0	957349888	56	5873
2026-01-18 20:56:14.47	342.66	11.04	-40.9	-42.2	20.8	0.00e+00	6	40	0	959447040	56	5856
2026-01-18 20:56:15.47	342.51	10.99	-40.8	-42.0	21.0	0.00e+00	92	40	0	961544192	56	5746
2026-01-18 20:56:16.49	342.36	10.93	-40.6	-41.8	21.1	0.00e+00	6	40	0	963641344	54	6253
2026-01-18 20:56:17.50	342.21	10.88	-40.5	-41.7	21.1	0.00e+00	71	40	0	965738496	54	6215
2026-01-18 20:56:18.51	342.07	10.82	-40.5	-41.7	21.1	0.00e+00	5	40	0	967835648	54	6242
2026-01-18 20:56:19.52	341.92	10.77	-40.6	-41.8	21.0	0.00e+00	5	40	0	968884224	54	6304
2026-01-18 20:56:20.53	341.77	10.71	-40.7	-41.9	21.0	0.00e+00	0	40	0	970981376	54	6371
2026-01-18 20:56:21.53	341.63	10.66	-40.6	-41.8	21.0	0.00e+00	0	40	0	973078528	54	6299
2026-01-18 20:56:22.54	341.48	10.61	-40.6	-41.8	21.0	0.00e+00	92	40	0	975175680	54	6291
2026-01-18 20:56:23.55	341.34	10.55	-40.7	-41.9	21.0	0.00e+00	0	40	0	977272832	54	6360
2026-01-18 20:56:24.56	341.19	10.50	-40.5	-41.8	21.0	0.00e+00	89	40	0	978321408	54	6268
2026-01-18 20:56:25.57	341.05	10.44	-40.3	-41.5	21.2	0.00e+00	0	40	0	980418560	54	6079
2026-01-18 20:56:26.58	340.90	10.39	-40.4	-41.6	21.1	0.00e+00	0	40	0	982515712	54	6145
2026-01-18 20:56:27.59	340.76	10.33	-40.2	-41.3	21.4	0.00e+00	0	40	0	984612864	54	5963
2026-01-18 20:56:28.60	340.62	10.28	-40.1	-41.2	21.5	0.00e+00	0	40	0	986710016	54	5862
2026-01-18 20:56:29.61	340.48	10.22	-40.2	-41.4	21.3	0.00e+00	92	40	0	987758592	54	5982
2026-01-18 20:56:30.62	340.33	10.16	-40.0	-41.1	21.6	0.00e+00	70	40	0	989855744	54	5801
2026-01-18 20:56:31.62	340.19	10.11	-39.9	-41.0	21.7	0.00e+00	91	40	0	991952896	54	5732
2026-01-18 20:56:32.63	340.05	10.05	-39.9	-41.0	21.7	0.00e+00	71	40	0	994050048	54	5744
2026-01-18 20:56:33.64	339.91	10.00	-39.8	-40.9	21.9	0.00e+00	0	40	0	996147200	52	6331
2026-01-18 20:56:34.65	339.77	9.94	-39.7	-40.8	21.9	0.00e+00	67	40	0	997195776	52	6277
2026-01-18 20:56:35.66	339.64	9.89	-39.7	-40.8	21.8	0.00e+00	22	40	0	999292928	52	6309
2026-01-18 20:56:36.67	339.50	9.83	-39.7	-40.8	21.9	0.00e+00	50	40	0	1001390080	52	6260
2026-01-18 20:56:37.68	339.36	9.78	-39.7	-40.8	21.9	0.00e+00	6	40	0	1003487232	52	6309
2026-01-18 20:56:38.69	339.22	9.72	-39.6	-40.7	21.9	0.00e+00	91	40	0	1005584384	52	6205
2026-01-18 20:56:39.70	339.09	9.67	-39.7	-40.8	21.9	0.00e+00	16	40	0	1006632960	52	6246
2026-01-18 20:56:40.71	338.95	9.61	-39.5	-40.6	22.1	0.00e+00	0	40	0	1008730112	52	6111
2026-01-18 20:56:41.72	338.82	9.56	-39.6	-40.6	22.0	0.00e+00	0	40	0	1010827264	52	6164
2026-01-18 20:56:42.73	338.68	9.50	-39.5	-40.6	22.1	0.00e+00	6	40	0	1012924416	52	6147
2026-01-18 20:56:43.74	338.55	9.44	-39.5	-40.6	22.0	0.00e+00	0	40	0	1015021568	52	6131
2026-01-18 20:56:44.75	338.41	9.39	-39.6	-40.7	22.0	0.00e+00	7	40	0	1016070144	52	6204
2026-01-18 20:56:45.76	338.28	9.33	-39.5	-40.5	22.0	0.00e+00	91	40	0	1018167296	52	6102
2026-01-18 20:56:46.77	338.15	9.28	-39.5	-40.6	22.0	0.00e+00	72	40	0	1020264448	52	6116
2026-01-18 20:56:47.78	338.01	9.22	-39.4	-40.5	22.0	0.00e+00	90	40	0	1022361600	52	6053
2026-01-18 20:56:48.79	337.88	9.16	-39.5	-40.6	22.0	0.00e+00	0	40	0	1024458752	52	6118
2026-01-18 20:56:49.80	337.75	9.11	-39.6	-40.7	22.1	0.00e+00	64	40	0	1025507328	52	6191
2026-01-18 20:56:50.81	337.62	9.05	-39.4	-40.5	21.9	0.00e+00	0	40	0	1027604480	52	6071
2026-01-18 20:56:51.82	337.49	9.00	-39.6	-40.7	21.9	0.00e+00	10	40	0	1029701632	52	6209
2026-01-18 20:56:52.83	337.36	8.94	-39.5	-40.5	22.1	0.00e+00	92	40	0	1031798784	52	6083
2026-01-18 20:56:53.84	337.23	8.89	-39.5	-40.5	21.7	0.00e+00	10	40	0	1033895936	52	6087
2026-01-18 20:56:54.85	337.10	8.83	-39.7	-40.7	21.9	0.00e+00	92	40	0	1035993088	52	6238
2026-01-18 20:56:55.86	336.97	8.77	-39.5	-40.6	22.0	0.00e+00	12	40	0	1037041664	52	6122
2026-01-18 20:56:56.87	336.84	8.72	-39.7	-40.8	21.9	0.00e+00	0	40	0	1039138816	52	6246
2026-01-18 20:56:57.88	336.72	8.66	-39.6	-40.7	21.9	0.00e+00	2	40	0	1041235968	52	6228
2026-01-18 20:56:58.89	336.59	8.61	-39.7	-40.8	21.8	0.00e+00	16	40	0	1043333120	52	6247
2026-01-18 20:56:59.90	336.46	8.55	-39.6	-40.7	21.8	0.00e+00	91	40	0	1045430272	52	6237
2026-01-18 20:57:00.91	336.34	8.49	-39.7	-40.8	21.8	0.00e+00	11	40	0	1046478848	52	6259
2026-01-18 20:57:01.91	336.21	8.44	-39.7	-40.8	21.8	0.00e+00	90	40	0	1048576000	52	6305
2026-01-18 20:57:02.92	336.09	8.38	-39.8	-41.0	21.6	0.00e+00	0	40	0	1050673152	52	6410
2026-01-18 20:57:03.93	335.97	8.33	-39.7	-40.9	21.7	0.00e+00	92	40	0	1052770304	52	6319
2026-01-18 20:57:04.94	335.84	8.27	-39.8	-40.9	21.7	0.00e+00	0	40	0	1054867456	52	6341
2026-01-18 20:57:05.95	335.72	8.21	-40.0	-41.1	21.5	0.00e+00	0	40	0	1055916032	52	6519
2026-01-18 20:57:06.96	335.60	8.16	-40.0	-41.1	21.4	0.00e+00	66	40	0	1058013184	52	6531
2026-01-18 20:57:07.97	335.47	8.10	-40.0	-41.2	21.4	0.00e+00	0	40	0	1060110336	52	6585
2026-01-18 20:57:08.98	335.35	8.05	-40.1	-41.3	21.3	0.00e+00	92	40	0	1062207488	52	6649
2026-01-18 20:57:09.99	335.23	7.99	-40.2	-41.4	21.2	0.00e+00	71	40	0	1064304640	52	6716
2026-01-18 20:57:11.00	335.11	7.93	-40.2	-41.4	21.1	0.00e+00	92	40	0	1065353216	52	6753
2026-01-18 20:57:12.01	334.99	7.88	-40.3	-41.5	21.0	0.00e+00	12	40	0	1067450368	52	6797
2026-01-18 20:57:13.02	334.87	7.82	-40.2	-41.3	21.2	2.20e-06	64	40	0	1069547520	52	6692
2026-01-18 20:57:14.03	334.75	7.76	-40.3	-41.5	21.1	0.00e+00	59	40	0	1071644672	52	6775
2026-01-18 20:57:15.04	334.63	7.71	-40.3	-41.5	21.0	0.00e+00	0	40	0	1073741824	52	6840
2026-01-18 20:57:16.05	334.51	7.65	-40.5	-41.7	20.9	0.00e+00	91	40	0	1074790400	52	6960
2026-01-18 20:57:17.06	334.39	7.60	-40.4	-41.6	21.0	0.00e+00	70	40	0	1076887552	52	6888
2026-01-18 20:57:18.07	334.28	7.54	-40.2	-41.4	21.1	0.00e+00	92	40	0	1078984704	52	6725
2026-01-18 20:57:19.08	334.16	7.48	-40.1	-41.3	21.1	0.00e+00	12	40	0	1081081856	52	6663
2026-01-18 20:57:20.09	334.04	7.43	-40.0	-41.1	21.4	0.00e+00	0	40	0	1083179008	52	6535
2026-01-18 20:57:21.10	333.93	7.37	-40.1	-41.3	21.3	0.00e+00	2	40	0	1084227584	52	6627
2026-01-18 20:57:22.10	333.81	7.32	-40.2	-41.4	21.2	0.00e+00	17	40	0	1086324736	52	6709
2026-01-18 20:57:23.11	333.70	7.26	-40.1	-41.3	21.2	0.00e+00	92	40	0	1088421888	52	6654
2026-01-18 20:57:24.12	333.58	7.21	-40.2	-41.3	21.2	0.00e+00	2	40	0	1090519040	52	6673
2026-01-18 20:57:25.13	333.47	7.15	-40.2	-41.4	21.1	0.00e+00	92	40	0	1092616192	52	6745
2026-01-18 20:57:26.14	333.35	7.09	-40.3	-41.5	20.9	0.00e+00	0	40	0	1093664768	52	6836
2026-01-18 20:57:27.15	333.24	7.04	-40.4	-41.6	20.9	0.00e+00	90	40	0	1095761920	52	6877
2026-01-18 20:57:28.16	333.13	6.98	-40.3	-41.5	21.0	0.00e+00	0	40	0	1097859072	52	6848
2026-01-18 20:57:29.17	333.01	6.93	-40.4	-41.7	20.9	0.00e+00	0	40	0	1099956224	52	6949
2026-01-18 20:57:30.18	332.90	6.87	-40.6	-41.9	20.6	0.00e+00	0	40	0	1102053376	52	7102
2026-01-18 20:57:31.19	332.79	6.81	-40.7	-42.0	20.6	0.00e+00	0	40	0	1104150528	52	7188
2026-01-18 20:57:32.19	332.68	6.76	-40.7	-42.0	20.5	0.00e+00	91	40	0	1105199104	54	6407
2026-01-18 20:57:33.20	332.57	6.70	-40.8	-42.1	20.4	0.00e+00	71	40	0	1107296256	54	6502
2026-01-18 20:57:34.21	332.46	6.65	-40.9	-42.2	20.3	0.00e+00	92	40	0	1109393408	54	6614
2026-01-18 20:57:35.22	332.35	6.59	-40.8	-42.2	20.4	0.00e+00	11	40	0	1111490560	54	6542
2026-01-18 20:57:36.23	332.24	6.54	-40.8	-42.1	20.3	0.00e+00	11	40	0	1113587712	54	6512
2026-01-18 20:57:37.24	332.13	6.48	-40.9	-42.3	20.2	0.00e+00	58	40	0	1114636288	54	6631
2026-01-18 20:57:38.25	332.02	6.42	-40.9	-42.2	20.3	0.00e+00	0	40	0	1116733440	54	6595
2026-01-18 20:57:39.26	331.91	6.37	-40.9	-42.2	20.3	0.00e+00	92	40	0	1118830592	54	6557
2026-01-18 20:57:40.27	331.80	6.31	-40.9	-42.3	20.1	0.00e+00	2	40	0	1120927744	54	6646
2026-01-18 20:57:41.28	331.70	6.26	-41.1	-42.4	20.1	0.00e+00	92	40	0	1123024896	54	6763
2026-01-18 20:57:42.29	331.59	6.20	-41.0	-42.4	20.0	0.00e+00	0	40	0	1124073472	54	6719
2026-01-18 20:57:43.30	331.48	6.15	-41.3	-42.7	19.8	0.00e+00	2	40	0	1126170624	54	6959
2026-01-18 20:57:44.31	331.38	6.09	-41.2	-42.6	19.8	0.00e+00	12	40	0	1128267776	54	6853
2026-01-18 20:57:45.32	331.27	6.03	-41.3	-42.7	19.7	0.00e+00	0	40	0	1130364928	54	6978
2026-01-18 20:57:46.33	331.17	5.98	-41.3	-42.7	19.7	0.00e+00	92	40	0	1132462080	54	6949
2026-01-18 20:57:47.34	331.06	5.92	-41.3	-42.8	19.6	0.00e+00	0	40	0	1133510656	54	7021
2026-01-18 20:57:48.35	330.96	5.87	-41.5	-43.0	19.4	0.00e+00	92	40	0	1135607808	54	7213
2026-01-18 20:57:49.36	330.85	5.81	-41.5	-42.9	19.5	0.00e+00	0	40	0	1137704960	54	7150
2026-01-18 20:57:50.37	330.75	5.76	-41.7	-43.2	19.3	0.00e+00	34	40	0	1139802112	54	7357
2026-01-18 20:57:51.38	330.65	5.70	-41.7	-43.2	19.1	0.00e+00	0	40	0	1141899264	54	7418
2026-01-18 20:57:52.39	330.54	5.65	-41.9	-43.4	19.2	0.00e+00	69	40	0	1142947840	56	6762
2026-01-18 20:57:53.40	330.44	5.59	-41.8	-43.4	19.2	0.00e+00	0	40	0	1145044992	56	6728
2026-01-18 20:57:54.41	330.34	5.54	-41.6	-43.1	19.4	0.00e+00	0	40	0	1147142144	56	6484
2026-01-18 20:57:55.42	330.24	5.48	-41.7	-43.3	19.2	0.00e+00	92	40	0	1149239296	56	6623
2026-01-18 20:57:56.43	330.14	5.43	-41.9	-43.4	19.0	0.00e+00	68	40	0	1151336448	56	6751
2026-01-18 20:57:57.44	330.04	5.37	-41.8	-43.4	19.1	0.00e+00	93	40	0	1152385024	56	6714
2026-01-18 20:57:58.45	329.94	5.31	-41.8	-43.3	19.2	0.00e+00	67	40	0	1154482176	56	6682
2026-01-18 20:57:59.46	329.84	5.26	-41.8	-43.4	19.2	0.00e+00	11	40	0	1156579328	56	6694
2026-01-18 20:58:00.47	329.74	5.20	-41.7	-43.3	19.3	0.00e+00	0	40	0	1158676480	56	6639
2026-01-18 20:58:01.48	329.64	5.15	-41.9	-43.5	18.9	0.00e+00	19	40	0	1160773632	56	6818
2026-01-18 20:58:02.49	329.54	5.09	-42.0	-43.6	18.9	0.00e+00	92	40	0	1161822208	56	6890
2026-01-18 20:58:03.50	329.44	5.04	-42.0	-43.6	18.9	0.00e+00	0	40	0	1163919360	56	6852
2026-01-18 20:58:04.51	329.34	4.98	-42.1	-43.7	18.8	0.00e+00	90	40	0	1166016512	56	6970
2026-01-18 20:58:05.52	329.24	4.93	-42.3	-44.0	18.5	0.00e+00	0	40	0	1168113664	56	7216
2026-01-18 20:58:06.53	329.15	4.87	-42.4	-44.1	18.2	0.00e+00	6	40	0	1170210816	56	7324
2026-01-18 20:58:07.54	329.05	4.82	-42.4	-44.1	18.3	0.00e+00	0	40	0	1172307968	56	7265
2026-01-18 20:58:08.55	328.95	4.76	-42.4	-44.1	18.4	0.00e+00	0	40	0	1173356544	56	7295
2026-01-18 20:58:09.55	328.86	4.71	-42.0	-43.6	18.8	0.00e+00	0	40	0	1175453696	56	6894
2026-01-18 20:58:10.56	328.76	4.66	-42.1	-43.7	18.8	0.00e+00	0	40	0	1177550848	56	6975
2026-01-18 20:58:11.57	328.67	4.60	-42.6	-44.3	18.1	0.00e+00	90	40	0	1179648000	56	7502
2026-01-18 20:58:12.58	328.57	4.55	-42.3	-44.0	18.3	0.00e+00	0	40	0	1181745152	56	7210
2026-01-18 20:58:13.59	328.48	4.49	-42.4	-44.2	18.3	0.00e+00	66	40	0	1182793728	56	7360
2026-01-18 20:58:14.60	328.38	4.44	-42.3	-44.0	18.3	0.00e+00	67	40	0	1184890880	56	7233
2026-01-18 20:58:15.61	328.29	4.38	-42.6	-44.3	18.1	0.00e+00	67	40	0	1186988032	56	7508
2026-01-18 20:58:16.62	328.19	4.33	-42.3	-44.1	18.4	0.00e+00	0	40	0	1189085184	56	7261
2026-01-18 20:58:17.63	328.10	4.27	-42.3	-44.1	18.4	0.00e+00	0	40	0	1191182336	56	7261
2026-01-18 20:58:18.64	328.01	4.22	-42.4	-44.2	18.0	0.00e+00	92	40	0	1192230912	56	7369
