passes_logs/2026/01/18/R4.6S_Anadyr/R4.6S_Anadyr__20260118_042309_FENGYUN_3D_rec.log

#Pass ID: 20260118_042309_FENGYUN 3D
#Satellite: FENGYUN 3D
#Configuration: FENGYUN 3D
#almurnet v.1.7.20251203
#Start time: 2026-01-18 04:23:11

#Version: 2.2.20231116
#Station: R4.6S_Anadyr
#Location: 177.4865 lon 64.73178 lat
#TLE: 1 43010U 17072A   26017.61121112  .00000213  00000+0  12257-3 0  9991
#TLE: 2 43010  98.9934 349.4672 0002374 103.9362 256.2078 14.19696413423628

#Time	Az	El	Level	Level2	SNR	BER	BlckErr	Temp	State	Recorded	gain1	gain2
2026-01-18 04:23:11.03	211.45	0.10	-50.7	-68.5	3.5	3.02e+01	0	25	0	0	60	101839
2026-01-18 04:23:12.04	211.52	0.15	-50.1	-62.2	3.6	8.45e-01	0	26	104	0	60	46456
2026-01-18 04:23:13.05	211.59	0.21	-49.7	-61.8	3.6	8.47e-01	0	27	104	0	60	44679
2026-01-18 04:23:14.06	211.65	0.26	-50.1	-62.4	3.6	8.44e-01	0	27	104	0	60	47571
2026-01-18 04:23:15.07	211.72	0.31	-49.8	-62.0	3.6	8.45e-01	0	27	104	0	60	45569
2026-01-18 04:23:16.08	211.79	0.36	-50.2	-62.2	3.6	8.46e-01	0	27	104	0	60	46804
2026-01-18 04:23:17.09	211.86	0.42	-50.1	-62.3	3.6	8.45e-01	0	27	104	0	60	47037
2026-01-18 04:23:18.10	211.93	0.47	-49.7	-61.9	3.6	8.46e-01	0	27	104	0	60	45089
2026-01-18 04:23:19.11	212.00	0.52	-49.3	-61.5	3.6	8.44e-01	0	27	104	0	60	42715
2026-01-18 04:23:20.12	212.07	0.57	-49.0	-61.1	3.6	8.46e-01	0	27	104	0	60	40956
2026-01-18 04:23:21.13	212.14	0.63	-48.8	-60.9	3.6	8.46e-01	0	27	104	0	60	40169
2026-01-18 04:23:22.13	212.21	0.68	-48.7	-60.9	3.6	8.46e-01	0	27	104	0	60	39998
2026-01-18 04:23:23.14	212.28	0.73	-49.0	-61.0	3.6	8.45e-01	0	27	104	0	60	40741
2026-01-18 04:23:24.15	212.35	0.78	-49.0	-61.1	3.6	8.44e-01	0	27	104	0	60	40886
2026-01-18 04:23:25.16	212.42	0.84	-48.7	-61.0	3.6	8.45e-01	0	27	104	0	60	40453
2026-01-18 04:23:26.17	212.49	0.89	-48.8	-61.0	3.6	8.45e-01	0	27	104	0	60	40603
2026-01-18 04:23:27.18	212.56	0.94	-48.7	-60.9	3.6	8.44e-01	0	27	104	0	60	39897
2026-01-18 04:23:28.19	212.63	0.99	-48.4	-60.7	3.6	8.46e-01	0	27	104	0	60	39246
2026-01-18 04:23:29.20	212.71	1.05	-48.5	-60.6	3.6	8.46e-01	0	27	104	0	60	38948
2026-01-18 04:23:30.21	212.78	1.10	-48.6	-60.6	3.6	8.46e-01	0	27	104	0	60	38837
2026-01-18 04:23:31.22	212.85	1.15	-48.3	-60.5	3.6	8.46e-01	0	27	104	0	60	38342
2026-01-18 04:23:32.23	212.92	1.21	-48.2	-60.3	3.6	8.45e-01	0	27	104	0	60	37536
2026-01-18 04:23:33.24	213.00	1.26	-48.1	-60.2	3.6	8.46e-01	0	27	104	0	60	37176
2026-01-18 04:23:34.25	213.07	1.31	-47.8	-60.0	3.6	8.45e-01	0	27	104	0	60	36013
2026-01-18 04:23:35.26	213.14	1.37	-47.6	-59.6	3.6	8.45e-01	0	27	104	0	60	34415
2026-01-18 04:23:36.27	213.22	1.42	-47.3	-59.2	3.6	8.44e-01	0	27	104	0	60	33043
2026-01-18 04:23:37.28	213.29	1.47	-47.3	-59.3	3.6	8.46e-01	0	27	104	0	60	33474
2026-01-18 04:23:38.29	213.36	1.53	-47.3	-59.3	3.6	8.45e-01	0	27	104	0	60	33419
2026-01-18 04:23:39.30	213.44	1.58	-47.2	-59.4	3.6	8.44e-01	0	27	104	0	60	33612
2026-01-18 04:23:40.31	213.51	1.64	-47.2	-59.3	3.6	8.45e-01	0	27	104	0	60	33435
2026-01-18 04:23:41.32	213.59	1.69	-47.2	-59.2	3.6	8.45e-01	0	27	104	0	60	33152
2026-01-18 04:23:42.33	213.66	1.74	-47.2	-59.3	3.6	8.45e-01	0	27	104	0	60	33392
2026-01-18 04:23:43.34	213.74	1.80	-47.2	-59.2	3.5	8.46e-01	0	27	104	0	60	33079
2026-01-18 04:23:44.35	213.81	1.85	-47.2	-59.3	3.6	8.46e-01	0	27	104	0	60	33312
2026-01-18 04:23:45.36	213.89	1.91	-47.2	-59.2	3.6	8.45e-01	0	27	104	0	60	33072
2026-01-18 04:23:46.36	213.96	1.96	-47.2	-59.1	3.5	8.45e-01	0	27	104	0	60	32568
2026-01-18 04:23:47.38	214.04	2.01	-47.1	-59.1	3.6	8.46e-01	0	27	104	0	60	32415
2026-01-18 04:23:48.39	214.12	2.07	-47.1	-59.0	3.6	8.46e-01	0	27	104	0	60	32401
2026-01-18 04:23:49.40	214.19	2.12	-47.1	-59.1	3.6	8.45e-01	0	27	104	0	60	32675
2026-01-18 04:23:50.41	214.27	2.18	-47.1	-59.1	3.6	8.45e-01	0	27	104	0	60	32628
2026-01-18 04:23:51.42	214.35	2.23	-47.1	-59.1	3.6	8.46e-01	0	27	104	0	60	32697
2026-01-18 04:23:52.42	214.43	2.29	-47.2	-59.1	3.6	8.45e-01	0	27	104	0	60	32566
2026-01-18 04:23:53.43	214.50	2.34	-47.2	-59.2	3.6	8.45e-01	0	27	104	0	60	32857
2026-01-18 04:23:54.44	214.58	2.39	-47.2	-59.2	3.6	8.44e-01	0	27	104	0	60	32859
2026-01-18 04:23:55.45	214.66	2.45	-47.1	-58.5	3.6	8.46e-01	0	27	104	0	60	30409
2026-01-18 04:23:56.46	214.74	2.50	-47.0	-57.3	3.6	8.45e-01	0	27	104	0	60	26554
2026-01-18 04:23:57.47	214.82	2.56	-46.9	-56.4	3.7	8.42e-01	0	27	104	0	60	23945
2026-01-18 04:23:58.48	214.90	2.61	-46.9	-55.7	3.6	8.40e-01	0	27	0	0	60	22082
2026-01-18 04:23:59.49	214.98	2.67	-47.0	-57.7	3.6	8.43e-01	0	27	104	0	60	27714
2026-01-18 04:24:00.50	215.06	2.72	-47.1	-57.8	3.6	8.45e-01	0	27	104	0	60	27953
2026-01-18 04:24:01.51	215.14	2.78	-46.6	-54.1	5.2	8.42e-01	0	27	104	0	60	18346
2026-01-18 04:24:02.52	215.22	2.83	-45.0	-48.6	10.3	4.21e-02	0	27	0	2097152	60	9680
2026-01-18 04:24:03.53	215.30	2.89	-42.9	-45.1	13.7	8.17e-04	0	27	0	7340032	60	6468
2026-01-18 04:24:04.54	215.38	2.94	-41.2	-42.8	15.5	2.20e-06	0	27	0	13631488	56	6247
2026-01-18 04:24:05.55	215.46	3.00	-39.4	-40.6	17.7	0.00e+00	0	27	0	18874368	52	6167
2026-01-18 04:24:06.55	215.54	3.05	-39.1	-40.2	17.9	0.00e+00	0	27	0	25165824	52	5894
2026-01-18 04:24:07.56	215.62	3.11	-38.4	-39.4	18.7	0.00e+00	0	27	0	30408704	50	6009
2026-01-18 04:24:08.57	215.71	3.17	-38.6	-39.8	18.6	0.00e+00	0	27	0	35651584	50	6250
2026-01-18 04:24:09.58	215.79	3.22	-37.3	-38.2	19.7	0.00e+00	0	27	0	41943040	50	5204
2026-01-18 04:24:10.59	215.87	3.28	-47.0	-55.5	5.3	8.44e-01	0	27	104	42991616	60	21462
2026-01-18 04:24:11.60	215.95	3.33	-46.0	-51.9	9.9	8.43e-01	0	27	104	42991616	60	14211
2026-01-18 04:24:12.61	216.04	3.39	-37.9	-38.9	19.4	0.00e+00	0	27	0	47185920	48	6368
2026-01-18 04:24:13.62	216.12	3.44	-38.6	-39.7	19.3	5.72e-05	0	27	0	52428800	54	4930
2026-01-18 04:24:14.63	216.21	3.50	-41.7	-43.4	15.3	2.63e-05	0	27	0	58720256	58	5967
2026-01-18 04:24:15.64	216.29	3.56	-39.2	-40.3	18.0	0.00e+00	0	27	0	63963136	50	6656
2026-01-18 04:24:16.65	216.38	3.61	-39.3	-40.4	17.9	0.00e+00	0	27	0	70254592	50	6732
2026-01-18 04:24:17.66	216.46	3.67	-38.4	-39.4	18.9	0.00e+00	0	27	0	75497472	50	5999
2026-01-18 04:24:18.67	216.55	3.73	-37.7	-38.6	19.7	0.00e+00	0	27	0	80740352	50	5488
2026-01-18 04:24:19.68	216.63	3.78	-37.7	-38.6	20.1	0.00e+00	0	27	0	87031808	48	6145
2026-01-18 04:24:20.69	216.72	3.84	-36.6	-37.5	21.1	0.00e+00	0	27	0	92274688	46	6037
2026-01-18 04:24:21.70	216.80	3.89	-37.4	-38.4	20.3	0.00e+00	0	27	0	98566144	46	6708
2026-01-18 04:24:22.71	216.89	3.95	-37.1	-38.0	20.3	0.00e+00	0	27	0	103809024	46	6433
2026-01-18 04:24:23.72	216.98	4.01	-37.4	-38.3	20.5	0.00e+00	0	27	0	109051904	46	6651
2026-01-18 04:24:24.73	217.06	4.06	-37.1	-38.1	20.4	0.00e+00	0	27	0	115343360	46	6468
2026-01-18 04:24:25.74	217.15	4.12	-36.9	-37.8	21.0	0.00e+00	0	27	0	120586240	46	6272
2026-01-18 04:24:26.75	217.24	4.18	-36.7	-37.6	20.9	0.00e+00	0	27	0	126877696	46	6118
2026-01-18 04:24:27.76	217.33	4.23	-36.8	-37.7	20.8	0.00e+00	0	27	0	132120576	46	6243
2026-01-18 04:24:28.77	217.42	4.29	-36.6	-37.5	21.1	0.00e+00	0	27	0	138412032	46	6043
2026-01-18 04:24:29.78	217.50	4.35	-36.6	-37.4	20.9	0.00e+00	0	27	0	143654912	46	6026
2026-01-18 04:24:30.79	217.59	4.40	-36.6	-37.5	21.1	0.00e+00	0	27	0	148897792	46	6048
2026-01-18 04:24:31.80	217.68	4.46	-35.7	-36.5	21.8	0.00e+00	0	27	0	155189248	46	5394
2026-01-18 04:24:32.81	217.77	4.52	-36.3	-37.2	21.1	0.00e+00	0	27	0	160432128	44	6564
2026-01-18 04:24:33.82	217.86	4.58	-36.4	-37.2	21.3	0.00e+00	0	27	0	166723584	44	6605
2026-01-18 04:24:34.83	217.95	4.63	-36.2	-37.0	21.5	0.00e+00	0	27	0	171966464	44	6413
2026-01-18 04:24:35.84	218.04	4.69	-36.1	-36.9	21.6	0.00e+00	0	27	0	177209344	44	6353
2026-01-18 04:24:36.85	218.14	4.75	-35.8	-36.6	21.9	0.00e+00	0	27	0	183500800	44	6157
2026-01-18 04:24:37.86	218.23	4.81	-35.7	-36.6	21.9	0.00e+00	0	27	0	188743680	44	6116
2026-01-18 04:24:38.86	218.32	4.86	-35.7	-36.5	21.8	0.00e+00	0	27	0	195035136	44	6100
2026-01-18 04:24:39.87	218.41	4.92	-35.5	-36.3	22.1	0.00e+00	0	27	0	200278016	44	5927
2026-01-18 04:24:40.89	218.50	4.98	-35.7	-36.5	22.0	0.00e+00	0	27	0	205520896	44	6050
2026-01-18 04:24:41.89	218.60	5.04	-35.2	-36.0	22.5	0.00e+00	0	27	0	211812352	44	5732
2026-01-18 04:24:42.90	218.69	5.09	-35.4	-36.3	22.3	0.00e+00	0	27	0	217055232	44	5899
2026-01-18 04:24:43.91	218.78	5.15	-35.6	-36.4	22.1	0.00e+00	0	27	0	223346688	44	5983
2026-01-18 04:24:44.92	218.88	5.21	-35.3	-36.1	22.3	0.00e+00	0	27	0	228589568	44	5794
2026-01-18 04:24:45.93	218.97	5.27	-35.0	-35.8	22.6	0.00e+00	0	27	0	234881024	44	5590
2026-01-18 04:24:46.94	219.07	5.33	-35.0	-35.7	22.7	0.00e+00	0	27	0	240123904	44	5557
2026-01-18 04:24:47.95	219.16	5.38	-35.1	-35.9	22.5	0.00e+00	0	27	0	246415360	44	5684
2026-01-18 04:24:48.96	219.26	5.44	-35.2	-36.0	22.5	0.00e+00	0	27	0	251658240	44	5714
2026-01-18 04:24:49.97	219.35	5.50	-35.1	-35.9	22.5	0.00e+00	0	27	0	256901120	44	5674
2026-01-18 04:24:50.98	219.45	5.56	-35.2	-36.0	22.4	0.00e+00	0	27	0	263192576	44	5717
2026-01-18 04:24:51.99	219.54	5.62	-35.7	-36.5	22.1	0.00e+00	0	27	0	268435456	44	6058
2026-01-18 04:24:53.00	219.64	5.67	-35.4	-36.2	22.4	0.00e+00	0	27	0	274726912	44	5844
2026-01-18 04:24:54.01	219.74	5.73	-35.5	-36.3	22.3	0.00e+00	0	27	0	279969792	44	5903
2026-01-18 04:24:55.01	219.83	5.79	-35.3	-36.0	22.5	0.00e+00	0	27	0	285212672	44	5760
2026-01-18 04:24:56.03	219.93	5.85	-35.7	-36.5	22.2	0.00e+00	0	27	0	291504128	44	6087
2026-01-18 04:24:57.04	220.03	5.91	-35.5	-36.3	22.2	0.00e+00	0	27	0	296747008	44	5911
2026-01-18 04:24:58.05	220.13	5.97	-35.3	-36.0	22.5	0.00e+00	0	27	0	303038464	44	5753
2026-01-18 04:24:59.06	220.23	6.03	-35.5	-36.3	22.4	0.00e+00	0	27	0	308281344	44	5900
2026-01-18 04:25:00.07	220.33	6.09	-35.1	-35.9	22.6	0.00e+00	0	27	0	313524224	44	5661
2026-01-18 04:25:01.08	220.43	6.14	-35.1	-35.9	22.7	0.00e+00	0	27	0	319815680	44	5638
2026-01-18 04:25:02.09	220.53	6.20	-35.4	-36.2	22.5	0.00e+00	0	28	0	325058560	44	5831
2026-01-18 04:25:03.09	220.63	6.26	-35.6	-36.3	22.3	0.00e+00	0	27	0	331350016	44	5961
2026-01-18 04:25:04.10	220.73	6.32	-35.3	-36.1	22.5	0.00e+00	0	27	0	336592896	44	5794
2026-01-18 04:25:05.11	220.83	6.38	-35.4	-36.2	22.4	0.00e+00	0	28	0	342884352	44	5867
2026-01-18 04:25:06.12	220.93	6.44	-35.3	-36.0	22.6	0.00e+00	0	27	0	348127232	44	5756
2026-01-18 04:25:07.13	221.04	6.50	-35.7	-36.5	22.1	0.00e+00	0	28	0	353370112	44	6091
2026-01-18 04:25:08.14	221.14	6.56	-35.4	-36.2	22.4	0.00e+00	0	28	0	359661568	44	5830
2026-01-18 04:25:09.15	221.24	6.62	-35.5	-36.3	22.3	0.00e+00	0	27	0	364904448	44	5898
2026-01-18 04:25:10.16	221.34	6.68	-35.8	-36.6	22.0	0.00e+00	0	28	0	371195904	44	6133
2026-01-18 04:25:11.17	221.45	6.74	-35.1	-35.9	22.7	0.00e+00	0	27	0	376438784	44	5648
2026-01-18 04:25:12.18	221.55	6.80	-35.2	-36.0	22.6	0.00e+00	0	27	0	381681664	44	5735
2026-01-18 04:25:13.18	221.66	6.85	-35.0	-35.7	22.9	0.00e+00	0	27	0	387973120	44	5565
2026-01-18 04:25:14.19	221.76	6.91	-35.3	-36.1	22.5	0.00e+00	0	28	0	393216000	44	5791
2026-01-18 04:25:15.20	221.87	6.97	-35.1	-35.9	22.7	0.00e+00	0	27	0	399507456	44	5662
2026-01-18 04:25:16.21	221.97	7.03	-35.1	-35.9	22.7	0.00e+00	0	27	0	404750336	44	5667
2026-01-18 04:25:17.22	222.08	7.09	-35.0	-35.7	22.7	0.00e+00	0	28	0	409993216	44	5565
2026-01-18 04:25:18.23	222.19	7.15	-35.2	-36.0	22.5	0.00e+00	0	28	0	416284672	44	5730
2026-01-18 04:25:19.24	222.29	7.21	-35.2	-36.0	22.5	0.00e+00	0	28	0	421527552	44	5736
2026-01-18 04:25:20.25	222.40	7.27	-35.5	-36.3	22.3	0.00e+00	0	27	0	427819008	44	5920
2026-01-18 04:25:21.26	222.51	7.33	-35.4	-36.2	22.3	0.00e+00	0	27	0	433061888	44	5893
2026-01-18 04:25:22.27	222.62	7.39	-35.6	-36.4	22.2	0.00e+00	0	27	0	439353344	44	5992
2026-01-18 04:25:23.28	222.73	7.45	-35.3	-36.1	22.4	0.00e+00	0	27	0	444596224	44	5815
2026-01-18 04:25:24.29	222.84	7.51	-36.1	-36.9	21.7	0.00e+00	0	28	0	449839104	44	6359
2026-01-18 04:25:25.30	222.95	7.58	-35.6	-36.4	22.2	0.00e+00	0	28	0	456130560	44	5992
2026-01-18 04:25:26.31	223.06	7.64	-36.0	-36.9	21.8	0.00e+00	0	27	0	461373440	44	6319
2026-01-18 04:25:27.32	223.17	7.70	-35.4	-36.2	22.5	0.00e+00	0	27	0	467664896	44	5846
2026-01-18 04:25:28.33	223.28	7.76	-35.2	-36.0	22.6	0.00e+00	0	27	0	472907776	44	5744
2026-01-18 04:25:29.34	223.39	7.82	-35.3	-36.0	22.6	0.00e+00	0	28	0	478150656	44	5751
2026-01-18 04:25:30.35	223.50	7.88	-34.9	-35.7	22.9	0.00e+00	0	27	0	484442112	44	5528
2026-01-18 04:25:31.35	223.61	7.94	-34.9	-35.7	22.8	0.00e+00	0	28	0	489684992	44	5550
2026-01-18 04:25:32.36	223.72	8.00	-35.2	-36.0	22.6	0.00e+00	0	28	0	495976448	44	5730
2026-01-18 04:25:33.38	223.84	8.06	-35.0	-35.8	22.9	0.00e+00	0	28	0	501219328	44	5616
2026-01-18 04:25:34.39	223.95	8.12	-35.1	-35.9	22.7	0.00e+00	0	28	0	506462208	44	5656
2026-01-18 04:25:35.39	224.07	8.18	-35.1	-35.8	22.9	0.00e+00	0	28	0	512753664	44	5604
2026-01-18 04:25:36.40	224.18	8.24	-35.2	-36.0	22.9	0.00e+00	0	28	0	517996544	44	5697
2026-01-18 04:25:37.41	224.30	8.30	-35.2	-35.9	22.9	0.00e+00	0	28	0	524288000	44	5678
2026-01-18 04:25:38.42	224.41	8.36	-35.2	-36.0	22.8	0.00e+00	0	28	0	529530880	44	5734
2026-01-18 04:25:39.43	224.53	8.43	-35.4	-36.1	22.7	0.00e+00	0	28	0	535822336	44	5828
2026-01-18 04:25:40.44	224.64	8.49	-35.4	-36.1	22.7	0.00e+00	0	28	0	541065216	44	5827
2026-01-18 04:25:41.45	224.76	8.55	-35.3	-36.1	22.7	0.00e+00	0	28	0	547356672	44	5808
2026-01-18 04:25:42.46	224.88	8.61	-35.1	-35.9	22.8	0.00e+00	0	27	0	552599552	44	5666
2026-01-18 04:25:43.47	225.00	8.67	-35.2	-36.0	22.7	0.00e+00	0	27	0	557842432	44	5720
2026-01-18 04:25:44.48	225.11	8.73	-35.2	-36.0	22.7	0.00e+00	0	28	0	564133888	44	5734
2026-01-18 04:25:45.49	225.23	8.79	-35.0	-35.8	23.0	0.00e+00	0	28	0	569376768	44	5575
2026-01-18 04:25:46.50	225.35	8.85	-35.2	-36.0	22.8	0.00e+00	0	27	0	575668224	44	5702
2026-01-18 04:25:47.51	225.47	8.92	-35.2	-35.9	22.8	0.00e+00	0	27	0	580911104	44	5659
2026-01-18 04:25:48.52	225.59	8.98	-34.9	-35.7	23.1	0.00e+00	0	28	0	586153984	44	5545
2026-01-18 04:25:49.53	225.71	9.04	-35.0	-35.7	23.1	0.00e+00	0	28	0	592445440	44	5562
2026-01-18 04:25:50.54	225.84	9.10	-34.9	-35.7	23.1	0.00e+00	0	28	0	597688320	44	5510
2026-01-18 04:25:51.55	225.96	9.16	-34.9	-35.6	23.1	0.00e+00	0	27	0	603979776	44	5486
2026-01-18 04:25:52.56	226.08	9.22	-35.0	-35.8	23.0	0.00e+00	0	28	0	609222656	44	5573
2026-01-18 04:25:53.57	226.20	9.29	-35.0	-35.8	23.0	0.00e+00	0	28	0	614465536	44	5597
2026-01-18 04:25:54.58	226.33	9.35	-35.0	-35.7	23.1	0.00e+00	0	28	0	620756992	44	5539
2026-01-18 04:25:55.59	226.45	9.41	-35.1	-35.9	22.9	0.00e+00	0	28	0	625999872	44	5666
2026-01-18 04:25:56.60	226.57	9.47	-35.3	-36.1	22.8	0.00e+00	0	28	0	632291328	44	5787
2026-01-18 04:25:57.61	226.70	9.53	-35.2	-36.0	22.9	0.00e+00	0	28	0	637534208	44	5701
2026-01-18 04:25:58.62	226.82	9.59	-35.3	-36.1	22.8	0.00e+00	0	28	0	643825664	44	5775
2026-01-18 04:25:59.63	226.95	9.66	-35.4	-36.1	22.6	0.00e+00	0	28	0	649068544	44	5819
2026-01-18 04:26:00.64	227.08	9.72	-35.5	-36.3	22.7	0.00e+00	0	28	0	654311424	44	5898
2026-01-18 04:26:01.65	227.20	9.78	-35.5	-36.3	22.8	0.00e+00	0	28	0	660602880	44	5899
2026-01-18 04:26:02.66	227.33	9.84	-35.6	-36.4	22.7	0.00e+00	0	28	0	665845760	44	6019
2026-01-18 04:26:03.67	227.46	9.90	-35.8	-36.6	22.4	0.00e+00	0	28	0	672137216	44	6130
2026-01-18 04:26:04.67	227.59	9.97	-35.5	-36.3	22.7	0.00e+00	0	28	0	677380096	44	5940
2026-01-18 04:26:05.68	227.72	10.03	-35.8	-36.6	22.5	0.00e+00	0	28	0	682622976	44	6119
2026-01-18 04:26:06.69	227.84	10.09	-35.3	-36.1	22.8	0.00e+00	0	28	0	688914432	44	5782
2026-01-18 04:26:07.71	227.98	10.15	-35.4	-36.2	22.7	0.00e+00	0	28	0	694157312	44	5854
2026-01-18 04:26:08.71	228.11	10.21	-35.4	-36.2	22.8	0.00e+00	0	28	0	700448768	44	5829
2026-01-18 04:26:09.72	228.24	10.28	-35.4	-36.1	22.8	0.00e+00	0	28	0	705691648	44	5805
2026-01-18 04:26:10.73	228.37	10.34	-35.4	-36.1	22.8	0.00e+00	0	28	0	710934528	44	5816
2026-01-18 04:26:11.74	228.50	10.40	-35.3	-36.0	23.0	0.00e+00	0	27	0	717225984	44	5760
2026-01-18 04:26:12.75	228.63	10.46	-35.1	-35.8	23.2	0.00e+00	0	28	0	722468864	44	5614
2026-01-18 04:26:13.76	228.77	10.53	-35.1	-35.8	23.2	0.00e+00	0	28	0	728760320	44	5601
2026-01-18 04:26:14.77	228.90	10.59	-35.0	-35.8	23.2	0.00e+00	0	28	0	734003200	44	5569
2026-01-18 04:26:15.78	229.03	10.65	-35.3	-36.0	23.0	0.00e+00	0	28	0	740294656	44	5736
2026-01-18 04:26:16.79	229.17	10.71	-35.2	-35.9	23.2	0.00e+00	0	27	0	745537536	44	5676
2026-01-18 04:26:17.80	229.31	10.78	-35.3	-36.0	23.1	0.00e+00	0	28	0	751828992	44	5735
2026-01-18 04:26:18.80	229.44	10.84	-35.4	-36.1	22.7	0.00e+00	0	28	0	757071872	44	5827
2026-01-18 04:26:19.81	229.58	10.90	-35.6	-36.4	22.7	0.00e+00	0	27	0	762314752	44	5979
2026-01-18 04:26:20.82	229.71	10.96	-35.8	-36.6	22.5	0.00e+00	0	28	0	768606208	44	6132
2026-01-18 04:26:21.83	229.85	11.02	-35.4	-36.2	22.9	0.00e+00	0	28	0	773849088	44	5843
2026-01-18 04:26:22.84	229.99	11.09	-35.6	-36.3	22.7	0.00e+00	0	28	0	779091968	44	5960
2026-01-18 04:26:23.85	230.13	11.15	-35.5	-36.3	22.8	0.00e+00	0	28	0	785383424	44	5903
2026-01-18 04:26:24.86	230.27	11.21	-35.4	-36.2	22.8	0.00e+00	0	28	0	790626304	44	5872
2026-01-18 04:26:25.87	230.41	11.27	-35.3	-36.0	22.9	0.00e+00	0	28	0	796917760	44	5756
2026-01-18 04:26:26.88	230.55	11.34	-35.3	-36.0	23.0	0.00e+00	0	28	0	802160640	44	5734
2026-01-18 04:26:27.89	230.69	11.40	-35.2	-36.0	23.0	0.00e+00	0	28	0	807403520	44	5735
2026-01-18 04:26:28.90	230.83	11.46	-35.1	-35.9	23.2	0.00e+00	0	28	0	813694976	44	5638
2026-01-18 04:26:29.91	230.97	11.52	-35.1	-35.9	23.2	0.00e+00	0	28	0	818937856	44	5643
2026-01-18 04:26:30.92	231.12	11.59	-35.2	-36.0	23.1	0.00e+00	0	28	0	825229312	44	5715
2026-01-18 04:26:31.93	231.26	11.65	-35.1	-35.8	23.1	0.00e+00	0	28	0	830472192	44	5603
2026-01-18 04:26:32.94	231.41	11.71	-34.9	-35.6	23.3	0.00e+00	0	28	0	836763648	44	5502
2026-01-18 04:26:33.94	231.55	11.77	-34.9	-35.7	23.2	0.00e+00	0	28	0	842006528	44	5511
2026-01-18 04:26:34.96	231.70	11.84	-35.0	-35.8	23.3	0.00e+00	0	28	0	848297984	44	5576
2026-01-18 04:26:35.97	231.84	11.90	-35.1	-35.8	23.2	0.00e+00	0	28	0	853540864	44	5611
2026-01-18 04:26:36.98	231.99	11.96	-34.9	-35.6	23.3	0.00e+00	0	28	0	858783744	44	5470
2026-01-18 04:26:37.99	232.13	12.03	-34.8	-35.5	23.4	0.00e+00	0	28	0	865075200	42	6091
2026-01-18 04:26:39.00	232.28	12.09	-34.7	-35.5	23.5	0.00e+00	0	28	0	870318080	42	6040
2026-01-18 04:26:40.01	232.43	12.15	-34.7	-35.5	23.5	0.00e+00	0	28	0	876609536	42	6051
2026-01-18 04:26:41.02	232.58	12.21	-34.9	-35.6	23.4	0.00e+00	0	28	0	881852416	42	6162
2026-01-18 04:26:42.02	232.73	12.27	-35.0	-35.7	23.5	0.00e+00	0	28	0	887095296	42	6228
2026-01-18 04:26:43.03	232.88	12.34	-34.9	-35.6	23.5	0.00e+00	0	28	0	893386752	42	6148
2026-01-18 04:26:44.04	233.03	12.40	-34.7	-35.5	23.6	0.00e+00	0	27	0	898629632	42	6056
2026-01-18 04:26:45.05	233.18	12.46	-34.6	-35.3	23.8	0.00e+00	0	28	0	904921088	42	5914
2026-01-18 04:26:46.06	233.33	12.52	-34.6	-35.3	23.8	0.00e+00	0	28	0	910163968	42	5923
2026-01-18 04:26:47.07	233.49	12.59	-34.4	-35.2	23.9	0.00e+00	0	28	0	915406848	42	5838
2026-01-18 04:26:48.08	233.64	12.65	-34.4	-35.1	23.9	0.00e+00	0	28	0	921698304	42	5796
2026-01-18 04:26:49.09	233.79	12.71	-34.6	-35.3	23.9	0.00e+00	0	28	0	926941184	42	5918
2026-01-18 04:26:50.10	233.95	12.77	-34.4	-35.2	23.8	0.00e+00	0	28	0	933232640	42	5846
2026-01-18 04:26:51.11	234.10	12.84	-34.4	-35.1	23.9	0.00e+00	0	28	0	938475520	42	5796
2026-01-18 04:26:52.12	234.26	12.90	-34.3	-35.0	23.9	0.00e+00	0	28	0	944766976	42	5760
2026-01-18 04:26:53.13	234.41	12.96	-34.2	-34.9	24.0	0.00e+00	0	28	0	950009856	42	5688
2026-01-18 04:26:54.14	234.57	13.02	-34.2	-34.9	24.0	0.00e+00	0	27	0	955252736	42	5688
2026-01-18 04:26:55.15	234.73	13.09	-34.2	-34.9	24.0	0.00e+00	0	28	0	961544192	42	5663
2026-01-18 04:26:56.16	234.89	13.15	-34.2	-35.0	24.0	0.00e+00	0	28	0	966787072	42	5702
2026-01-18 04:26:57.17	235.05	13.21	-34.0	-34.7	24.1	0.00e+00	0	28	0	973078528	42	5525
2026-01-18 04:26:58.18	235.21	13.27	-33.9	-34.7	24.2	0.00e+00	0	28	0	978321408	42	5512
2026-01-18 04:26:59.18	235.36	13.33	-33.9	-34.7	24.3	0.00e+00	0	28	0	983564288	42	5507
2026-01-18 04:27:00.20	235.53	13.40	-33.8	-34.5	24.4	0.00e+00	0	28	0	989855744	42	5413
2026-01-18 04:27:01.20	235.69	13.46	-33.7	-34.5	24.5	0.00e+00	0	28	0	995098624	40	6049
2026-01-18 04:27:02.21	235.85	13.52	-33.6	-34.3	24.6	0.00e+00	0	28	0	1001390080	40	5939
2026-01-18 04:27:03.22	236.01	13.58	-33.7	-34.4	24.6	0.00e+00	0	27	0	1006632960	40	5987
2026-01-18 04:27:04.23	236.18	13.64	-33.6	-34.3	24.6	0.00e+00	0	28	0	1011875840	40	5902
2026-01-18 04:27:05.24	236.34	13.70	-33.8	-34.5	24.5	0.00e+00	0	28	0	1018167296	40	6092
2026-01-18 04:27:06.25	236.51	13.77	-33.8	-34.5	24.4	0.00e+00	0	28	0	1023410176	40	6042
2026-01-18 04:27:07.26	236.67	13.83	-33.8	-34.5	24.4	0.00e+00	0	28	0	1029701632	40	6041
2026-01-18 04:27:08.27	236.84	13.89	-33.7	-34.5	24.5	0.00e+00	0	28	0	1034944512	40	6043
2026-01-18 04:27:09.28	237.00	13.95	-33.6	-34.3	24.6	0.00e+00	0	28	0	1041235968	40	5901
2026-01-18 04:27:10.29	237.17	14.01	-33.6	-34.3	24.7	0.00e+00	0	28	0	1046478848	40	5908
2026-01-18 04:27:11.30	237.34	14.07	-33.7	-34.4	24.6	0.00e+00	0	28	0	1052770304	40	6014
2026-01-18 04:27:12.31	237.51	14.13	-33.6	-34.3	24.6	0.00e+00	0	28	0	1058013184	40	5914
2026-01-18 04:27:13.32	237.68	14.19	-33.6	-34.3	24.7	0.00e+00	0	28	0	1063256064	40	5918
2026-01-18 04:27:14.33	237.85	14.26	-33.6	-34.3	24.7	0.00e+00	0	28	0	1069547520	40	5910
2026-01-18 04:27:15.34	238.02	14.32	-33.5	-34.2	24.8	0.00e+00	0	28	0	1074790400	40	5849
2026-01-18 04:27:16.35	238.19	14.38	-33.2	-33.9	24.9	0.00e+00	0	28	0	1081081856	40	5685
2026-01-18 04:27:17.36	238.36	14.44	-33.2	-33.9	25.1	0.00e+00	0	27	0	1086324736	40	5649
2026-01-18 04:27:18.37	238.54	14.50	-32.9	-33.6	25.3	0.00e+00	0	28	0	1091567616	40	5467
2026-01-18 04:27:19.38	238.71	14.56	-32.9	-33.5	25.3	0.00e+00	0	28	0	1097859072	40	5432
2026-01-18 04:27:20.39	238.88	14.62	-32.8	-33.4	25.5	0.00e+00	0	28	0	1103101952	38	6027
2026-01-18 04:27:21.40	239.06	14.68	-32.8	-33.4	25.4	0.00e+00	0	28	0	1109393408	38	6032
2026-01-18 04:27:22.40	239.23	14.74	-32.7	-33.4	25.5	0.00e+00	0	28	0	1114636288	38	5991
2026-01-18 04:27:23.41	239.41	14.80	-32.9	-33.6	25.2	0.00e+00	0	28	0	1119879168	38	6136
2026-01-18 04:27:24.42	239.59	14.86	-33.0	-33.7	25.2	0.00e+00	0	28	0	1126170624	38	6182
2026-01-18 04:27:25.43	239.77	14.92	-32.8	-33.4	25.4	0.00e+00	0	28	0	1131413504	38	6021
2026-01-18 04:27:26.44	239.94	14.98	-32.8	-33.5	25.3	0.00e+00	0	28	0	1137704960	38	6038
2026-01-18 04:27:27.45	240.12	15.04	-32.6	-33.3	25.6	0.00e+00	0	28	0	1142947840	38	5919
2026-01-18 04:27:28.46	240.30	15.10	-32.5	-33.1	25.6	0.00e+00	0	28	0	1149239296	38	5820
2026-01-18 04:27:29.47	240.48	15.16	-32.6	-33.3	25.6	0.00e+00	0	28	0	1154482176	38	5944
2026-01-18 04:27:30.48	240.66	15.22	-32.5	-33.1	25.8	0.00e+00	0	28	0	1159725056	38	5820
2026-01-18 04:27:31.49	240.85	15.28	-32.4	-33.1	25.8	0.00e+00	0	27	0	1166016512	38	5809
2026-01-18 04:27:32.50	241.03	15.34	-32.3	-33.0	25.8	0.00e+00	0	28	0	1171259392	38	5737
2026-01-18 04:27:33.51	241.21	15.40	-32.4	-33.1	25.8	0.00e+00	0	28	0	1177550848	38	5778
2026-01-18 04:27:34.52	241.40	15.46	-32.3	-33.0	25.9	0.00e+00	0	28	0	1182793728	38	5703
2026-01-18 04:27:35.53	241.58	15.52	-32.2	-32.8	26.0	0.00e+00	0	28	0	1188036608	38	5629
2026-01-18 04:27:36.54	241.77	15.57	-32.3	-32.9	25.9	0.00e+00	0	28	0	1194328064	38	5682
2026-01-18 04:27:37.55	241.95	15.63	-32.4	-33.1	25.8	0.00e+00	0	28	0	1199570944	38	5780
2026-01-18 04:27:38.56	242.14	15.69	-32.4	-33.1	25.8	0.00e+00	0	28	0	1205862400	38	5783
2026-01-18 04:27:39.57	242.33	15.75	-32.5	-33.2	25.8	0.00e+00	0	28	0	1211105280	38	5844
2026-01-18 04:27:40.58	242.52	15.81	-32.4	-33.1	25.8	0.00e+00	0	28	0	1216348160	38	5796
2026-01-18 04:27:41.59	242.71	15.87	-32.2	-32.9	25.9	0.00e+00	0	28	0	1222639616	38	5655
2026-01-18 04:27:42.60	242.90	15.92	-32.3	-32.9	25.9	0.00e+00	0	28	0	1227882496	38	5681
2026-01-18 04:27:43.60	243.08	15.98	-32.3	-33.0	25.9	0.00e+00	0	28	0	1234173952	38	5704
2026-01-18 04:27:44.61	243.28	16.04	-32.0	-32.7	26.0	0.00e+00	0	28	0	1239416832	38	5508
2026-01-18 04:27:45.62	243.47	16.10	-32.1	-32.8	26.0	0.00e+00	0	28	0	1245708288	38	5568
2026-01-18 04:27:46.63	243.66	16.15	-32.4	-33.1	25.7	0.00e+00	0	28	0	1250951168	38	5799
2026-01-18 04:27:47.64	243.85	16.21	-32.5	-33.2	25.9	0.00e+00	0	28	0	1257242624	38	5843
2026-01-18 04:27:48.65	244.05	16.27	-32.4	-33.0	25.9	0.00e+00	0	28	0	1262485504	38	5759
2026-01-18 04:27:49.66	244.24	16.32	-32.5	-33.2	25.7	0.00e+00	0	28	0	1267728384	38	5846
2026-01-18 04:27:50.67	244.44	16.38	-32.4	-33.1	25.8	0.00e+00	0	28	0	1274019840	38	5763
2026-01-18 04:27:51.67	244.63	16.43	-32.1	-32.8	26.0	0.00e+00	0	28	0	1279262720	38	5591
2026-01-18 04:27:52.68	244.83	16.49	-32.1	-32.8	25.9	0.00e+00	0	28	0	1284505600	38	5599
2026-01-18 04:27:53.70	245.03	16.55	-32.3	-32.9	26.0	0.00e+00	0	28	0	1290797056	38	5687
2026-01-18 04:27:54.70	245.23	16.60	-31.9	-32.6	26.2	0.00e+00	0	28	0	1296039936	38	5453
2026-01-18 04:27:55.71	245.42	16.66	-31.9	-32.6	26.1	0.00e+00	0	28	0	1302331392	38	5458
2026-01-18 04:27:56.72	245.62	16.71	-32.2	-32.9	26.1	0.00e+00	0	28	0	1307574272	38	5662
2026-01-18 04:27:57.73	245.82	16.77	-32.3	-32.9	25.7	0.00e+00	0	28	0	1312817152	38	5662
2026-01-18 04:27:58.74	246.03	16.82	-31.9	-32.6	26.3	0.00e+00	0	28	0	1319108608	38	5460
2026-01-18 04:27:59.75	246.23	16.88	-32.2	-32.9	25.9	0.00e+00	0	28	0	1324351488	38	5649
2026-01-18 04:28:00.76	246.43	16.93	-32.3	-33.0	26.0	0.00e+00	0	28	0	1330642944	38	5725
2026-01-18 04:28:01.77	246.63	16.99	-31.9	-32.6	26.2	0.00e+00	0	28	0	1335885824	38	5473
2026-01-18 04:28:02.79	246.84	17.04	-32.0	-32.7	26.2	0.00e+00	0	28	0	1342177280	38	5504
2026-01-18 04:28:03.80	247.04	17.09	-32.0	-32.7	26.2	0.00e+00	0	28	0	1347420160	38	5519
2026-01-18 04:28:04.80	247.25	17.15	-31.9	-32.5	26.3	0.00e+00	0	28	0	1353711616	38	5406
2026-01-18 04:28:05.81	247.45	17.20	-31.9	-32.5	26.4	0.00e+00	0	28	0	1358954496	38	5433
2026-01-18 04:28:06.82	247.66	17.25	-31.9	-32.5	26.3	0.00e+00	0	28	0	1364197376	38	5434
2026-01-18 04:28:07.83	247.87	17.31	-31.9	-32.5	26.4	0.00e+00	0	28	0	1370488832	38	5430
2026-01-18 04:28:08.84	248.08	17.36	-31.7	-32.4	26.5	0.00e+00	0	28	0	1375731712	36	5967
2026-01-18 04:28:09.84	248.28	17.41	-32.0	-32.6	26.2	0.00e+00	0	28	0	1382023168	36	6135
2026-01-18 04:28:10.85	248.49	17.46	-31.9	-32.5	26.3	0.00e+00	0	28	0	1387266048	36	6073
2026-01-18 04:28:11.86	248.70	17.52	-32.0	-32.7	26.3	0.00e+00	0	28	0	1392508928	36	6206
2026-01-18 04:28:12.87	248.91	17.57	-32.0	-32.7	26.3	0.00e+00	0	28	0	1398800384	36	6185
2026-01-18 04:28:13.88	249.13	17.62	-32.0	-32.7	26.3	0.00e+00	0	28	0	1404043264	36	6219
2026-01-18 04:28:14.89	249.34	17.67	-32.1	-32.7	26.2	0.00e+00	0	28	0	1409286144	36	6234
2026-01-18 04:28:15.90	249.55	17.72	-32.2	-32.8	26.2	0.00e+00	0	28	0	1415577600	36	6297
2026-01-18 04:28:16.91	249.77	17.77	-31.9	-32.6	26.3	0.00e+00	0	28	0	1420820480	36	6120
2026-01-18 04:28:17.92	249.98	17.82	-31.9	-32.6	26.4	0.00e+00	0	28	0	1427111936	36	6111
2026-01-18 04:28:18.93	250.20	17.87	-31.8	-32.4	26.5	0.00e+00	0	28	0	1432354816	36	6018
2026-01-18 04:28:19.94	250.41	17.92	-31.7	-32.3	26.5	0.00e+00	0	28	0	1438646272	36	5954
2026-01-18 04:28:20.95	250.63	17.97	-31.7	-32.4	26.5	0.00e+00	0	28	0	1443889152	36	5969
2026-01-18 04:28:21.96	250.85	18.02	-31.7	-32.3	26.5	0.00e+00	0	28	0	1450180608	36	5921
2026-01-18 04:28:22.97	251.06	18.07	-31.6	-32.2	26.5	0.00e+00	0	28	0	1455423488	36	5886
2026-01-18 04:28:23.98	251.28	18.12	-31.6	-32.3	26.6	0.00e+00	0	28	0	1460666368	36	5936
2026-01-18 04:28:24.98	251.50	18.16	-31.7	-32.3	26.5	0.00e+00	0	28	0	1466957824	36	5942
2026-01-18 04:28:25.99	251.72	18.21	-31.6	-32.3	26.5	0.00e+00	0	28	0	1472200704	36	5915
2026-01-18 04:28:27.00	251.94	18.26	-31.6	-32.2	26.6	0.00e+00	0	28	0	1478492160	36	5864
2026-01-18 04:28:28.01	252.16	18.31	-31.5	-32.1	26.6	0.00e+00	0	28	0	1483735040	36	5806
2026-01-18 04:28:29.02	252.38	18.35	-31.4	-32.0	26.6	0.00e+00	0	28	0	1488977920	36	5757
2026-01-18 04:28:30.03	252.61	18.40	-31.4	-32.1	26.7	0.00e+00	0	28	0	1495269376	36	5763
2026-01-18 04:28:31.04	252.83	18.44	-31.3	-32.0	26.8	0.00e+00	0	28	0	1500512256	36	5711
2026-01-18 04:28:32.05	253.05	18.49	-31.2	-31.9	26.8	0.00e+00	0	28	0	1506803712	36	5649
2026-01-18 04:28:33.06	253.28	18.54	-31.3	-31.9	26.9	0.00e+00	0	28	0	1512046592	36	5647
2026-01-18 04:28:34.07	253.50	18.58	-31.3	-31.9	26.8	0.00e+00	0	28	0	1517289472	36	5690
2026-01-18 04:28:35.08	253.73	18.63	-31.4	-32.0	26.8	0.00e+00	0	28	0	1523580928	36	5724
2026-01-18 04:28:36.09	253.96	18.67	-31.4	-32.0	26.8	0.00e+00	0	28	0	1528823808	36	5749
2026-01-18 04:28:37.10	254.18	18.71	-31.6	-32.2	26.6	0.00e+00	0	28	0	1535115264	36	5864
2026-01-18 04:28:38.11	254.41	18.76	-31.5	-32.2	26.7	0.00e+00	0	28	0	1540358144	36	5850
2026-01-18 04:28:39.12	254.64	18.80	-31.6	-32.2	26.6	0.00e+00	0	28	0	1546649600	36	5886
2026-01-18 04:28:40.13	254.87	18.84	-31.5	-32.2	26.6	0.00e+00	0	28	0	1551892480	36	5835
2026-01-18 04:28:41.14	255.10	18.89	-31.5	-32.1	26.6	0.00e+00	0	28	0	1558183936	36	5803
2026-01-18 04:28:42.15	255.33	18.93	-31.4	-32.1	26.7	0.00e+00	0	28	0	1563426816	36	5765
2026-01-18 04:28:43.16	255.56	18.97	-31.4	-32.1	26.7	0.00e+00	0	28	0	1568669696	36	5782
2026-01-18 04:28:44.17	255.79	19.01	-31.3	-31.9	26.8	0.00e+00	0	28	0	1574961152	36	5673
2026-01-18 04:28:45.18	256.02	19.05	-31.3	-31.9	26.7	0.00e+00	0	28	0	1580204032	36	5693
2026-01-18 04:28:46.19	256.26	19.09	-31.4	-32.1	26.6	0.00e+00	0	28	0	1586495488	36	5785
2026-01-18 04:28:47.20	256.49	19.13	-31.5	-32.2	26.5	0.00e+00	0	28	0	1591738368	36	5884
2026-01-18 04:28:48.21	256.72	19.17	-31.6	-32.2	26.6	0.00e+00	0	28	0	1596981248	36	5861
2026-01-18 04:28:49.23	256.96	19.21	-31.5	-32.1	26.6	0.00e+00	0	28	0	1603272704	36	5803
2026-01-18 04:28:50.24	257.20	19.25	-31.4	-32.0	26.6	0.00e+00	0	28	0	1608515584	36	5755
2026-01-18 04:28:51.25	257.43	19.29	-31.2	-31.9	26.8	0.00e+00	0	28	0	1614807040	36	5668
2026-01-18 04:28:52.26	257.67	19.33	-31.4	-32.0	26.8	0.00e+00	0	28	0	1620049920	36	5720
2026-01-18 04:28:53.26	257.90	19.37	-31.5	-32.1	26.7	0.00e+00	0	28	0	1625292800	36	5786
2026-01-18 04:28:54.27	258.14	19.41	-31.3	-32.0	26.8	0.00e+00	0	28	0	1631584256	36	5720
2026-01-18 04:28:55.29	258.38	19.44	-31.3	-32.0	26.7	0.00e+00	0	28	0	1636827136	36	5723
2026-01-18 04:28:56.29	258.62	19.48	-31.2	-31.9	26.9	0.00e+00	0	28	0	1643118592	36	5653
2026-01-18 04:28:57.30	258.85	19.52	-31.3	-31.9	26.7	0.00e+00	0	28	0	1648361472	36	5652
2026-01-18 04:28:58.31	259.09	19.55	-31.1	-31.8	26.9	0.00e+00	0	28	0	1654652928	36	5600
2026-01-18 04:28:59.32	259.33	19.59	-31.1	-31.8	26.9	0.00e+00	0	28	0	1659895808	36	5568
2026-01-18 04:29:00.33	259.58	19.62	-31.1	-31.7	27.0	0.00e+00	0	28	0	1665138688	36	5548
2026-01-18 04:29:01.34	259.82	19.66	-31.1	-31.8	26.9	0.00e+00	0	28	0	1671430144	36	5578
2026-01-18 04:29:02.35	260.06	19.69	-31.1	-31.8	27.0	0.00e+00	0	28	0	1676673024	36	5576
2026-01-18 04:29:03.36	260.30	19.72	-31.1	-31.7	26.9	0.00e+00	0	28	0	1682964480	36	5560
2026-01-18 04:29:04.37	260.54	19.76	-31.1	-31.7	27.0	0.00e+00	0	28	0	1688207360	36	5556
2026-01-18 04:29:05.38	260.79	19.79	-31.1	-31.7	27.0	0.00e+00	0	28	0	1693450240	36	5528
2026-01-18 04:29:06.39	261.03	19.82	-30.9	-31.5	27.1	0.00e+00	0	28	0	1699741696	36	5439
2026-01-18 04:29:07.40	261.28	19.85	-31.0	-31.6	27.1	0.00e+00	0	28	0	1704984576	36	5499
2026-01-18 04:29:08.41	261.52	19.88	-30.7	-31.3	27.2	0.00e+00	0	28	0	1711276032	34	5946
2026-01-18 04:29:09.42	261.77	19.91	-30.8	-31.5	27.1	0.00e+00	0	28	0	1716518912	34	6056
2026-01-18 04:29:10.43	262.01	19.94	-30.8	-31.4	27.1	0.00e+00	0	28	0	1721761792	34	6011
2026-01-18 04:29:11.44	262.26	19.97	-30.9	-31.5	27.0	0.00e+00	0	28	0	1728053248	34	6092
2026-01-18 04:29:12.44	262.50	20.00	-30.9	-31.4	27.1	0.00e+00	0	28	0	1733296128	34	6033
2026-01-18 04:29:13.46	262.75	20.03	-31.2	-31.9	26.7	0.00e+00	0	28	0	1739587584	34	6319
2026-01-18 04:29:14.47	263.00	20.06	-31.2	-31.8	26.8	0.00e+00	0	28	0	1744830464	34	6308
2026-01-18 04:29:15.47	263.24	20.09	-31.0	-31.6	27.0	0.00e+00	0	28	0	1751121920	34	6129
2026-01-18 04:29:16.48	263.49	20.11	-31.0	-31.7	26.9	0.00e+00	0	28	0	1756364800	34	6199
2026-01-18 04:29:17.49	263.74	20.14	-31.1	-31.7	26.9	0.00e+00	0	28	0	1762656256	34	6230
2026-01-18 04:29:18.50	263.99	20.17	-31.0	-31.7	27.0	0.00e+00	0	28	0	1767899136	34	6175
2026-01-18 04:29:19.51	264.24	20.19	-31.0	-31.7	27.0	0.00e+00	0	28	0	1773142016	34	6198
2026-01-18 04:29:20.52	264.49	20.22	-31.0	-31.7	26.9	0.00e+00	0	28	0	1779433472	34	6190
2026-01-18 04:29:21.53	264.74	20.24	-31.2	-31.9	26.9	0.00e+00	0	28	0	1784676352	34	6318
2026-01-18 04:29:22.54	264.99	20.27	-31.2	-31.8	26.9	0.00e+00	0	28	0	1789919232	34	6308
2026-01-18 04:29:23.55	265.24	20.29	-31.1	-31.7	26.9	0.00e+00	0	28	0	1796210688	34	6238
2026-01-18 04:29:24.56	265.49	20.31	-31.0	-31.7	27.0	0.00e+00	0	28	0	1801453568	34	6200
2026-01-18 04:29:25.57	265.75	20.34	-31.1	-31.8	27.0	0.00e+00	0	28	0	1807745024	34	6265
2026-01-18 04:29:26.58	266.00	20.36	-31.0	-31.6	27.0	0.00e+00	0	28	0	1812987904	34	6147
2026-01-18 04:29:27.59	266.25	20.38	-31.2	-31.9	26.8	0.00e+00	0	28	0	1818230784	34	6339
2026-01-18 04:29:28.60	266.50	20.40	-31.3	-31.9	26.8	0.00e+00	0	28	0	1824522240	34	6352
2026-01-18 04:29:29.61	266.76	20.42	-31.5	-32.1	26.7	0.00e+00	0	28	0	1829765120	34	6502
2026-01-18 04:29:30.62	267.01	20.44	-31.4	-32.0	26.7	0.00e+00	0	28	0	1836056576	34	6455
2026-01-18 04:29:31.63	267.27	20.46	-31.2	-31.9	26.9	0.00e+00	0	28	0	1841299456	34	6326
2026-01-18 04:29:32.64	267.52	20.48	-31.0	-31.7	26.9	0.00e+00	0	28	0	1847590912	34	6212
2026-01-18 04:29:33.65	267.77	20.50	-31.1	-31.7	26.9	0.00e+00	0	28	0	1852833792	34	6216
2026-01-18 04:29:34.66	268.03	20.51	-31.2	-31.8	26.8	0.00e+00	0	28	0	1859125248	34	6281
2026-01-18 04:29:35.67	268.28	20.53	-31.2	-31.8	26.8	0.00e+00	0	28	0	1864368128	34	6286
2026-01-18 04:29:36.68	268.54	20.55	-30.9	-31.5	27.0	0.00e+00	0	28	0	1869611008	34	6080
2026-01-18 04:29:37.69	268.80	20.56	-31.1	-31.8	26.8	0.00e+00	0	28	0	1875902464	34	6259
2026-01-18 04:29:38.69	269.05	20.58	-30.9	-31.5	27.0	0.00e+00	0	28	0	1881145344	34	6103
2026-01-18 04:29:39.70	269.30	20.59	-31.2	-31.9	26.8	0.00e+00	0	28	0	1887436800	34	6318
2026-01-18 04:29:40.71	269.56	20.61	-31.2	-31.8	26.9	0.00e+00	0	28	0	1892679680	34	6290
2026-01-18 04:29:41.72	269.82	20.62	-31.2	-31.8	26.8	0.00e+00	0	28	0	1897922560	34	6301
2026-01-18 04:29:42.73	270.07	20.64	-30.8	-31.4	27.2	0.00e+00	0	28	0	1904214016	34	6001
2026-01-18 04:29:43.75	270.33	20.65	-30.9	-31.5	27.1	0.00e+00	0	28	0	1909456896	34	6042
2026-01-18 04:29:44.75	270.59	20.66	-30.8	-31.5	27.2	0.00e+00	0	28	0	1915748352	34	6038
2026-01-18 04:29:45.76	270.85	20.67	-30.8	-31.4	27.1	0.00e+00	0	28	0	1920991232	34	6015
2026-01-18 04:29:46.77	271.10	20.68	-31.0	-31.6	27.0	0.00e+00	0	28	0	1926234112	34	6155
2026-01-18 04:29:47.78	271.36	20.69	-30.8	-31.4	27.1	0.00e+00	0	28	0	1932525568	34	6011
2026-01-18 04:29:48.79	271.62	20.70	-30.9	-31.5	27.1	0.00e+00	0	28	0	1937768448	34	6034
2026-01-18 04:29:49.80	271.88	20.71	-30.9	-31.5	27.3	0.00e+00	0	28	0	1944059904	34	6044
2026-01-18 04:29:50.81	272.14	20.72	-30.8	-31.4	27.3	0.00e+00	0	28	0	1949302784	34	5985
2026-01-18 04:29:51.81	272.39	20.73	-30.8	-31.3	27.3	0.00e+00	0	28	0	1955594240	34	5957
2026-01-18 04:29:52.82	272.65	20.74	-30.8	-31.4	27.2	0.00e+00	0	28	0	1960837120	34	5985
2026-01-18 04:29:53.83	272.91	20.74	-31.0	-31.5	27.2	0.00e+00	0	28	0	1966080000	34	6098
2026-01-18 04:29:54.84	273.17	20.75	-30.8	-31.4	27.2	0.00e+00	0	28	0	1972371456	34	6025
2026-01-18 04:29:55.85	273.43	20.76	-30.9	-31.5	27.0	0.00e+00	0	28	0	1977614336	34	6084
2026-01-18 04:29:56.86	273.68	20.76	-31.0	-31.6	27.2	0.00e+00	0	28	0	1983905792	34	6154
2026-01-18 04:29:57.87	273.94	20.77	-31.0	-31.7	27.3	0.00e+00	0	28	0	1989148672	34	6185
2026-01-18 04:29:58.88	274.20	20.77	-30.8	-31.4	27.1	0.00e+00	0	28	0	1994391552	34	6029
2026-01-18 04:29:59.89	274.46	20.77	-31.0	-31.6	27.1	0.00e+00	0	28	0	2000683008	34	6140
2026-01-18 04:30:00.90	274.72	20.78	-31.0	-31.6	27.1	0.00e+00	0	28	0	2005925888	34	6167
2026-01-18 04:30:01.91	274.98	20.78	-31.0	-31.6	27.1	0.00e+00	0	28	0	2012217344	34	6119
2026-01-18 04:30:02.92	275.24	20.78	-31.1	-31.7	27.1	0.00e+00	0	28	0	2017460224	34	6208
2026-01-18 04:30:03.93	275.50	20.78	-31.1	-31.7	27.0	0.00e+00	0	28	0	2022703104	34	6229
2026-01-18 04:30:04.94	275.76	20.78	-31.2	-31.9	26.9	0.00e+00	0	28	0	2028994560	34	6337
2026-01-18 04:30:05.95	276.02	20.78	-31.0	-31.6	27.0	0.00e+00	0	28	0	2034237440	34	6168
2026-01-18 04:30:06.96	276.28	20.78	-31.0	-31.6	27.0	0.00e+00	0	28	0	2040528896	34	6151
2026-01-18 04:30:07.97	276.53	20.78	-31.0	-31.6	27.0	0.00e+00	0	28	0	2045771776	34	6155
2026-01-18 04:30:08.98	276.79	20.78	-31.0	-31.6	27.1	0.00e+00	0	28	0	2052063232	34	6152
2026-01-18 04:30:09.99	277.05	20.78	-31.0	-31.7	27.2	0.00e+00	0	28	0	2057306112	34	6177
2026-01-18 04:30:11.00	277.31	20.77	-31.0	-31.7	27.2	0.00e+00	0	28	0	2063597568	34	6174
2026-01-18 04:30:12.01	277.57	20.77	-31.0	-31.7	27.1	0.00e+00	0	28	0	2068840448	34	6182
2026-01-18 04:30:13.02	277.83	20.77	-31.2	-31.8	26.9	0.00e+00	0	28	0	2074083328	34	6304
2026-01-18 04:30:14.03	278.09	20.76	-31.1	-31.7	27.0	0.00e+00	0	28	0	2080374784	34	6198
2026-01-18 04:30:15.04	278.35	20.76	-31.2	-31.9	26.9	0.00e+00	0	28	0	2085617664	34	6322
2026-01-18 04:30:16.05	278.61	20.75	-31.2	-31.9	26.8	0.00e+00	0	28	0	2091909120	34	6325
2026-01-18 04:30:17.05	278.86	20.74	-31.0	-31.7	27.1	0.00e+00	0	28	0	2097152000	34	6217
2026-01-18 04:30:18.07	279.12	20.74	-31.0	-31.6	27.0	0.00e+00	0	28	0	2102394880	34	6137
2026-01-18 04:30:19.08	279.38	20.73	-31.1	-31.7	26.9	0.00e+00	0	28	0	2108686336	34	6201
2026-01-18 04:30:20.08	279.64	20.72	-31.0	-31.7	26.9	0.00e+00	0	27	0	2113929216	34	6211
2026-01-18 04:30:21.09	279.90	20.71	-30.9	-31.5	26.9	0.00e+00	0	28	0	2120220672	34	6098
2026-01-18 04:30:22.10	280.15	20.70	-31.0	-31.6	27.1	0.00e+00	0	28	0	2125463552	34	6111
2026-01-18 04:30:23.11	280.41	20.69	-31.0	-31.6	27.0	0.00e+00	0	28	0	2130706432	34	6152
2026-01-18 04:30:24.12	280.67	20.68	-31.2	-31.7	26.9	0.00e+00	0	28	0	2136997888	34	6239
2026-01-18 04:30:25.13	280.93	20.67	-31.3	-31.9	26.9	0.00e+00	0	28	0	2142240768	34	6328
2026-01-18 04:30:26.14	281.18	20.66	-31.4	-32.0	26.9	0.00e+00	0	28	0	2148532224	34	6455
2026-01-18 04:30:27.15	281.44	20.65	-31.1	-31.7	27.0	0.00e+00	0	28	0	2153775104	34	6236
2026-01-18 04:30:28.16	281.70	20.64	-31.0	-31.6	27.1	0.00e+00	0	28	0	2160066560	34	6171
2026-01-18 04:30:29.16	281.95	20.62	-30.9	-31.5	27.1	0.00e+00	0	28	0	2165309440	34	6087
2026-01-18 04:30:30.18	282.21	20.61	-30.7	-31.4	27.3	0.00e+00	0	28	0	2170552320	34	5990
2026-01-18 04:30:31.19	282.47	20.59	-30.8	-31.5	27.2	0.00e+00	0	28	0	2176843776	34	6034
2026-01-18 04:30:32.20	282.72	20.58	-30.7	-31.3	27.3	0.00e+00	0	28	0	2182086656	34	5949
2026-01-18 04:30:33.21	282.98	20.56	-30.8	-31.4	27.4	0.00e+00	0	28	0	2188378112	34	6002
2026-01-18 04:30:34.21	283.23	20.55	-30.7	-31.4	27.4	0.00e+00	0	28	0	2193620992	34	5981
2026-01-18 04:30:35.22	283.48	20.53	-30.9	-31.5	27.3	0.00e+00	0	28	0	2198863872	34	6074
2026-01-18 04:30:36.23	283.74	20.51	-31.0	-31.6	27.1	0.00e+00	0	28	0	2205155328	34	6144
2026-01-18 04:30:37.24	283.99	20.50	-31.1	-31.8	27.0	0.00e+00	0	28	0	2210398208	34	6268
2026-01-18 04:30:38.25	284.25	20.48	-31.3	-32.0	27.0	0.00e+00	0	28	0	2216689664	34	6393
2026-01-18 04:30:39.26	284.50	20.46	-31.2	-31.9	27.0	0.00e+00	0	28	0	2221932544	34	6343
2026-01-18 04:30:40.27	284.76	20.44	-31.3	-31.9	27.1	0.00e+00	0	28	0	2227175424	34	6376
2026-01-18 04:30:41.28	285.01	20.42	-31.5	-32.1	26.9	0.00e+00	0	28	0	2233466880	34	6516
2026-01-18 04:30:42.29	285.26	20.40	-31.6	-32.3	26.7	0.00e+00	0	28	0	2238709760	34	6643
2026-01-18 04:30:43.30	285.51	20.38	-31.9	-32.5	26.6	0.00e+00	0	28	0	2245001216	36	6072
2026-01-18 04:30:44.31	285.77	20.36	-31.8	-32.4	26.8	0.00e+00	0	28	0	2250244096	36	6031
2026-01-18 04:30:45.32	286.02	20.34	-31.8	-32.5	26.5	0.00e+00	0	28	0	2256535552	36	6082
2026-01-18 04:30:46.33	286.27	20.31	-32.2	-32.8	26.5	0.00e+00	0	28	0	2261778432	36	6297
2026-01-18 04:30:47.34	286.52	20.29	-32.0	-32.7	26.6	0.00e+00	0	28	0	2267021312	36	6244
2026-01-18 04:30:48.35	286.77	20.27	-31.9	-32.5	26.7	0.00e+00	0	28	0	2273312768	36	6086
2026-01-18 04:30:49.36	287.02	20.24	-32.0	-32.7	26.6	0.00e+00	0	28	0	2278555648	36	6221
2026-01-18 04:30:50.37	287.27	20.22	-32.1	-32.8	26.5	0.00e+00	0	28	0	2284847104	36	6265
2026-01-18 04:30:51.38	287.52	20.19	-31.5	-32.1	26.9	0.00e+00	0	28	0	2290089984	36	5804
2026-01-18 04:30:52.39	287.77	20.17	-31.5	-32.2	26.8	0.00e+00	0	28	0	2295332864	36	5845
2026-01-18 04:30:53.40	288.02	20.14	-31.5	-32.1	26.8	0.00e+00	0	28	0	2301624320	36	5812
2026-01-18 04:30:54.41	288.27	20.11	-31.7	-32.3	26.7	0.00e+00	0	28	0	2306867200	36	5900
2026-01-18 04:30:55.42	288.52	20.09	-31.7	-32.3	26.6	0.00e+00	0	28	0	2313158656	36	5948
2026-01-18 04:30:56.43	288.76	20.06	-32.0	-32.7	26.4	0.00e+00	0	28	0	2318401536	36	6230
2026-01-18 04:30:57.44	289.01	20.03	-32.0	-32.6	26.3	0.00e+00	0	28	0	2323644416	36	6172
2026-01-18 04:30:58.45	289.26	20.00	-31.8	-32.5	26.5	0.00e+00	0	28	0	2329935872	36	6052
2026-01-18 04:30:59.46	289.50	19.97	-31.5	-32.2	26.7	0.00e+00	0	28	0	2335178752	36	5838
2026-01-18 04:31:00.47	289.75	19.94	-31.5	-32.1	26.8	0.00e+00	0	28	0	2341470208	36	5792
2026-01-18 04:31:01.48	289.99	19.91	-32.0	-32.7	26.8	0.00e+00	0	28	0	2346713088	36	6220
2026-01-18 04:31:02.49	290.24	19.88	-32.0	-32.6	26.9	0.00e+00	0	28	0	2353004544	36	6109
2026-01-18 04:31:03.50	290.48	19.85	-32.0	-32.7	27.0	0.00e+00	0	28	0	2358247424	36	6181
2026-01-18 04:31:04.51	290.73	19.82	-31.7	-32.4	27.0	0.00e+00	0	28	0	2364538880	36	5968
2026-01-18 04:31:05.52	290.97	19.79	-32.0	-32.7	26.8	0.00e+00	0	28	0	2369781760	36	6180
2026-01-18 04:31:06.53	291.21	19.76	-31.7	-32.4	26.9	0.00e+00	0	27	0	2375024640	36	5990
2026-01-18 04:31:07.54	291.46	19.72	-32.1	-32.6	26.7	0.00e+00	0	28	0	2381316096	36	6142
2026-01-18 04:31:08.55	291.70	19.69	-31.9	-32.5	26.7	0.00e+00	0	28	0	2386558976	36	6075
2026-01-18 04:31:09.56	291.94	19.66	-32.1	-32.7	26.7	0.00e+00	0	28	0	2392850432	36	6244
2026-01-18 04:31:10.57	292.18	19.62	-31.5	-32.3	26.9	0.00e+00	0	28	0	2398093312	36	5902
2026-01-18 04:31:11.58	292.42	19.59	-31.5	-32.2	26.8	0.00e+00	0	28	0	2403336192	36	5866
2026-01-18 04:31:12.59	292.66	19.55	-31.5	-32.1	26.7	0.00e+00	0	28	0	2409627648	36	5786
2026-01-18 04:31:13.60	292.90	19.52	-31.7	-32.3	26.8	0.00e+00	0	28	0	2414870528	36	5962
2026-01-18 04:31:14.61	293.14	19.48	-31.7	-32.3	26.7	0.00e+00	0	28	0	2421161984	36	5919
2026-01-18 04:31:15.62	293.37	19.45	-31.9	-32.6	26.6	0.00e+00	0	28	0	2426404864	36	6166
2026-01-18 04:31:16.63	293.61	19.41	-31.9	-32.6	26.6	0.00e+00	0	28	0	2431647744	36	6122
2026-01-18 04:31:17.63	293.85	19.37	-32.2	-32.9	26.5	0.00e+00	0	28	0	2437939200	36	6356
2026-01-18 04:31:18.65	294.09	19.33	-32.1	-32.7	26.5	0.00e+00	0	28	0	2443182080	36	6203
2026-01-18 04:31:19.66	294.32	19.30	-31.7	-32.4	26.8	0.00e+00	0	28	0	2449473536	36	5965
2026-01-18 04:31:20.67	294.56	19.26	-31.7	-32.3	26.6	0.00e+00	0	28	0	2454716416	36	5935
2026-01-18 04:31:21.68	294.79	19.22	-32.0	-32.6	26.6	0.00e+00	0	28	0	2461007872	36	6161
2026-01-18 04:31:22.69	295.02	19.18	-32.0	-32.6	26.6	0.00e+00	0	28	0	2466250752	36	6143
2026-01-18 04:31:23.70	295.26	19.14	-32.0	-32.6	26.5	0.00e+00	0	28	0	2472542208	36	6120
2026-01-18 04:31:24.71	295.49	19.10	-31.7	-32.4	26.7	0.00e+00	0	28	0	2477785088	36	5994
2026-01-18 04:31:25.72	295.72	19.06	-31.7	-32.4	26.7	0.00e+00	0	28	0	2483027968	36	5979
2026-01-18 04:31:26.72	295.95	19.02	-31.8	-32.4	26.6	0.00e+00	0	28	0	2489319424	36	6014
2026-01-18 04:31:27.73	296.18	18.98	-31.7	-32.4	26.6	0.00e+00	0	28	0	2494562304	36	5990
2026-01-18 04:31:28.74	296.41	18.93	-31.8	-32.5	26.5	0.00e+00	0	28	0	2500853760	36	6063
2026-01-18 04:31:29.75	296.64	18.89	-31.9	-32.6	26.4	0.00e+00	0	28	0	2506096640	36	6124
2026-01-18 04:31:30.76	296.87	18.85	-32.1	-32.8	26.5	0.00e+00	0	28	0	2511339520	36	6266
2026-01-18 04:31:31.77	297.10	18.81	-32.0	-32.6	26.4	0.00e+00	0	28	0	2517630976	36	6149
2026-01-18 04:31:32.78	297.33	18.76	-32.2	-32.8	26.4	0.00e+00	0	28	0	2522873856	36	6314
2026-01-18 04:31:33.79	297.56	18.72	-32.2	-32.9	26.5	0.00e+00	0	28	0	2528116736	36	6319
2026-01-18 04:31:34.80	297.78	18.68	-32.1	-32.8	26.7	0.00e+00	0	28	0	2534408192	36	6280
2026-01-18 04:31:35.81	298.01	18.63	-32.3	-33.0	26.7	0.00e+00	0	28	0	2539651072	36	6459
2026-01-18 04:31:36.81	298.23	18.59	-32.2	-32.9	26.7	0.00e+00	0	28	0	2545942528	36	6318
2026-01-18 04:31:37.83	298.46	18.54	-32.2	-32.9	26.5	0.00e+00	0	28	0	2551185408	36	6341
2026-01-18 04:31:38.84	298.68	18.50	-32.5	-33.2	26.3	0.00e+00	0	28	0	2557476864	36	6587
2026-01-18 04:31:39.84	298.90	18.45	-32.4	-33.1	26.3	0.00e+00	0	28	0	2562719744	36	6533
2026-01-18 04:31:40.86	299.13	18.41	-32.2	-32.9	26.5	0.00e+00	0	28	0	2569011200	36	6363
2026-01-18 04:31:41.87	299.35	18.36	-32.5	-33.2	26.4	0.00e+00	0	28	0	2574254080	36	6601
2026-01-18 04:31:42.88	299.57	18.31	-32.7	-33.4	26.3	0.00e+00	0	28	0	2579496960	38	5966
2026-01-18 04:31:43.89	299.79	18.27	-32.6	-33.3	26.4	0.00e+00	0	28	0	2585788416	38	5922
2026-01-18 04:31:44.90	300.01	18.22	-32.5	-33.2	26.6	0.00e+00	0	28	0	2591031296	38	5854
2026-01-18 04:31:45.91	300.23	18.17	-32.4	-33.0	26.6	0.00e+00	0	28	0	2597322752	38	5748
2026-01-18 04:31:46.92	300.45	18.12	-32.5	-33.1	26.5	0.00e+00	0	28	0	2602565632	38	5823
2026-01-18 04:31:47.93	300.67	18.08	-32.6	-33.2	26.5	0.00e+00	0	28	0	2607808512	38	5840
2026-01-18 04:31:48.94	300.88	18.03	-32.7	-33.3	26.3	0.00e+00	0	28	0	2614099968	38	5949
2026-01-18 04:31:49.95	301.10	17.98	-33.1	-33.8	26.4	0.00e+00	0	28	0	2619342848	38	6261
2026-01-18 04:31:50.96	301.32	17.93	-32.9	-33.6	26.4	0.00e+00	0	28	0	2625634304	38	6162
2026-01-18 04:31:51.97	301.53	17.88	-32.5	-33.1	26.5	0.00e+00	0	28	0	2630877184	38	5774
2026-01-18 04:31:52.98	301.75	17.83	-32.9	-33.5	26.5	0.00e+00	0	28	0	2636120064	38	6052
2026-01-18 04:31:53.99	301.96	17.78	-32.2	-33.0	26.5	0.00e+00	0	28	0	2642411520	38	5696
2026-01-18 04:31:55.00	302.17	17.73	-32.5	-33.1	26.5	0.00e+00	0	28	0	2647654400	38	5803
2026-01-18 04:31:56.01	302.39	17.68	-32.4	-33.0	26.4	0.00e+00	0	28	0	2653945856	38	5744
2026-01-18 04:31:57.02	302.60	17.63	-32.6	-33.2	26.4	0.00e+00	0	28	0	2659188736	38	5856
2026-01-18 04:31:58.03	302.81	17.58	-32.3	-33.0	26.3	0.00e+00	0	28	0	2665480192	38	5729
2026-01-18 04:31:59.04	303.02	17.53	-32.4	-33.1	26.2	0.00e+00	0	28	0	2670723072	38	5811
2026-01-18 04:32:00.05	303.23	17.48	-32.3	-32.9	26.2	0.00e+00	0	28	0	2677014528	38	5679
2026-01-18 04:32:01.06	303.44	17.42	-32.7	-33.4	26.0	0.00e+00	0	28	0	2682257408	38	5980
2026-01-18 04:32:02.07	303.65	17.37	-32.5	-33.2	26.1	0.00e+00	0	28	0	2687500288	38	5842
2026-01-18 04:32:03.08	303.85	17.32	-32.7	-33.4	25.7	0.00e+00	0	28	0	2693791744	38	6005
2026-01-18 04:32:04.09	304.06	17.27	-32.7	-33.4	25.8	0.00e+00	0	28	0	2699034624	38	5975
2026-01-18 04:32:05.10	304.27	17.22	-32.8	-33.5	25.9	0.00e+00	0	28	0	2705326080	38	6041
2026-01-18 04:32:06.10	304.47	17.16	-32.8	-33.4	25.9	0.00e+00	0	28	0	2710568960	38	6019
2026-01-18 04:32:07.12	304.68	17.11	-32.2	-32.9	26.4	0.00e+00	0	28	0	2715811840	38	5674
2026-01-18 04:32:08.13	304.88	17.06	-32.2	-32.8	26.3	0.00e+00	0	28	0	2722103296	38	5619
2026-01-18 04:32:09.14	305.08	17.00	-32.1	-32.7	26.3	0.00e+00	0	28	0	2727346176	38	5551
2026-01-18 04:32:10.15	305.29	16.95	-32.3	-32.9	26.2	0.00e+00	0	28	0	2733637632	38	5639
2026-01-18 04:32:11.16	305.49	16.89	-32.4	-33.2	26.0	0.00e+00	0	28	0	2738880512	38	5835
2026-01-18 04:32:12.17	305.69	16.84	-32.5	-33.3	25.9	0.00e+00	0	28	0	2744123392	38	5898
2026-01-18 04:32:13.18	305.89	16.79	-32.7	-33.5	25.7	0.00e+00	0	28	0	2750414848	38	6051
2026-01-18 04:32:14.19	306.09	16.73	-33.0	-33.6	25.7	0.00e+00	0	28	0	2755657728	38	6167
2026-01-18 04:32:15.20	306.29	16.68	-32.9	-33.6	25.6	0.00e+00	0	28	0	2761949184	38	6138
2026-01-18 04:32:16.21	306.49	16.62	-32.9	-33.5	25.8	0.00e+00	0	28	0	2767192064	38	6055
2026-01-18 04:32:17.22	306.68	16.57	-32.7	-33.3	25.8	0.00e+00	0	28	0	2773483520	38	5933
2026-01-18 04:32:18.23	306.88	16.51	-33.0	-33.7	25.7	0.00e+00	0	28	0	2778726400	38	6180
2026-01-18 04:32:19.24	307.08	16.45	-33.0	-33.7	25.8	0.00e+00	0	28	0	2785017856	38	6177
2026-01-18 04:32:20.25	307.27	16.40	-32.8	-33.5	26.0	0.00e+00	0	28	0	2790260736	38	6053
2026-01-18 04:32:21.26	307.47	16.34	-32.7	-33.3	26.0	0.00e+00	0	28	0	2795503616	38	5904
2026-01-18 04:32:22.28	307.66	16.29	-32.8	-33.5	25.9	0.00e+00	0	28	0	2801795072	38	6069
2026-01-18 04:32:23.28	307.86	16.23	-32.6	-33.3	25.9	0.00e+00	0	28	0	2807037952	38	5937
2026-01-18 04:32:24.29	308.05	16.17	-32.7	-33.3	26.0	0.00e+00	0	28	0	2813329408	38	5921
2026-01-18 04:32:25.31	308.24	16.12	-32.8	-33.4	26.1	0.00e+00	0	28	0	2818572288	38	5987
2026-01-18 04:32:26.31	308.43	16.06	-33.1	-33.7	25.8	0.00e+00	0	28	0	2823815168	38	6179
2026-01-18 04:32:27.33	308.62	16.00	-33.3	-34.0	25.8	0.00e+00	0	28	0	2830106624	38	6409
2026-01-18 04:32:28.34	308.81	15.94	-33.2	-33.9	25.9	0.00e+00	0	28	0	2835349504	38	6343
2026-01-18 04:32:29.35	309.00	15.89	-33.3	-34.0	25.8	0.00e+00	0	28	0	2841640960	38	6432
2026-01-18 04:32:30.36	309.19	15.83	-32.9	-33.6	25.9	0.00e+00	0	28	0	2846883840	38	6106
2026-01-18 04:32:31.37	309.38	15.77	-33.0	-33.7	25.7	0.00e+00	0	28	0	2852126720	38	6197
2026-01-18 04:32:32.38	309.57	15.71	-33.2	-33.9	25.5	0.00e+00	0	28	0	2858418176	38	6381
2026-01-18 04:32:33.39	309.75	15.66	-33.0	-33.7	25.7	0.00e+00	0	28	0	2863661056	38	6184
2026-01-18 04:32:34.40	309.94	15.60	-33.6	-34.3	25.7	0.00e+00	0	28	0	2869952512	40	5932
2026-01-18 04:32:35.41	310.12	15.54	-33.4	-34.1	25.7	0.00e+00	0	28	0	2875195392	40	5795
2026-01-18 04:32:36.42	310.31	15.48	-33.1	-33.7	25.5	0.00e+00	0	28	0	2881486848	40	5531
2026-01-18 04:32:37.43	310.49	15.42	-33.4	-34.1	25.5	0.00e+00	0	28	0	2886729728	40	5791
2026-01-18 04:32:38.44	310.67	15.36	-32.9	-33.6	25.7	0.00e+00	0	27	0	2891972608	40	5451
2026-01-18 04:32:39.45	310.86	15.30	-33.4	-34.1	25.5	0.00e+00	0	28	0	2898264064	40	5825
2026-01-18 04:32:40.46	311.04	15.25	-33.1	-33.8	25.5	0.00e+00	0	28	0	2903506944	40	5576
2026-01-18 04:32:41.47	311.22	15.19	-33.3	-34.0	25.4	0.00e+00	0	28	0	2909798400	40	5757
2026-01-18 04:32:42.48	311.40	15.13	-33.6	-34.2	25.4	0.00e+00	0	28	0	2915041280	40	5854
2026-01-18 04:32:43.48	311.57	15.07	-33.4	-34.2	25.3	0.00e+00	0	28	0	2920284160	40	5832
2026-01-18 04:32:44.50	311.76	15.01	-33.2	-34.0	25.2	0.00e+00	0	28	0	2926575616	40	5698
2026-01-18 04:32:45.51	311.93	14.95	-33.4	-34.2	25.1	0.00e+00	0	28	0	2931818496	40	5872
2026-01-18 04:32:46.51	312.11	14.89	-33.3	-33.9	25.2	0.00e+00	0	28	0	2938109952	40	5653
2026-01-18 04:32:47.52	312.28	14.83	-33.0	-33.8	25.4	0.00e+00	0	28	0	2943352832	40	5607
2026-01-18 04:32:48.53	312.46	14.77	-32.9	-33.5	25.5	0.00e+00	0	27	0	2948595712	40	5392
2026-01-18 04:32:49.54	312.64	14.71	-32.8	-33.4	25.2	0.00e+00	0	28	0	2954887168	40	5368
2026-01-18 04:32:50.55	312.81	14.65	-32.7	-33.4	25.7	0.00e+00	0	28	0	2960130048	38	6006
2026-01-18 04:32:51.56	312.98	14.59	-32.7	-33.4	25.5	0.00e+00	0	28	0	2966421504	38	6001
2026-01-18 04:32:52.57	313.16	14.53	-32.8	-33.3	25.5	0.00e+00	0	28	0	2971664384	38	5964
2026-01-18 04:32:53.58	313.33	14.47	-32.7	-33.4	25.5	0.00e+00	0	28	0	2977955840	38	6032
2026-01-18 04:32:54.60	313.50	14.41	-32.8	-33.6	25.4	0.00e+00	0	28	0	2983198720	38	6105
2026-01-18 04:32:55.60	313.67	14.35	-32.9	-33.5	25.5	0.00e+00	0	28	0	2989490176	38	6054
2026-01-18 04:32:56.61	313.84	14.29	-32.8	-33.4	25.6	0.00e+00	0	28	0	2994733056	38	6008
2026-01-18 04:32:57.62	314.01	14.23	-33.0	-33.7	25.4	0.00e+00	0	28	0	2999975936	38	6222
2026-01-18 04:32:58.63	314.18	14.17	-33.4	-34.0	25.4	0.00e+00	0	27	0	3006267392	38	6399
2026-01-18 04:32:59.64	314.35	14.11	-33.6	-34.2	25.1	0.00e+00	0	28	0	3011510272	38	6602
2026-01-18 04:33:00.65	314.52	14.05	-33.5	-34.1	25.2	0.00e+00	0	28	0	3017801728	40	5776
2026-01-18 04:33:01.66	314.68	13.99	-33.6	-34.4	25.1	0.00e+00	0	27	0	3023044608	40	5974
2026-01-18 04:33:02.67	314.85	13.92	-33.3	-33.9	25.5	0.00e+00	0	28	0	3028287488	40	5631
2026-01-18 04:33:03.68	315.02	13.86	-33.3	-34.0	25.5	0.00e+00	0	28	0	3034578944	40	5754
2026-01-18 04:33:04.69	315.18	13.80	-33.0	-33.7	25.4	0.00e+00	0	28	0	3039821824	40	5512
2026-01-18 04:33:05.70	315.35	13.74	-33.0	-33.7	25.5	0.00e+00	0	28	0	3046113280	40	5520
2026-01-18 04:33:06.71	315.51	13.68	-33.1	-33.7	25.5	0.00e+00	0	27	0	3051356160	40	5548
2026-01-18 04:33:07.72	315.67	13.62	-33.5	-34.3	25.3	0.00e+00	0	28	0	3056599040	40	5909
2026-01-18 04:33:08.73	315.84	13.56	-33.5	-34.1	25.3	0.00e+00	0	28	0	3062890496	40	5788
2026-01-18 04:33:09.74	316.00	13.50	-33.5	-34.3	25.3	0.00e+00	0	28	0	3068133376	40	5911
2026-01-18 04:33:10.75	316.16	13.43	-33.7	-34.3	25.0	0.00e+00	0	27	0	3074424832	40	5932
2026-01-18 04:33:11.76	316.32	13.37	-33.7	-34.4	25.1	0.00e+00	0	28	0	3079667712	40	5967
2026-01-18 04:33:12.77	316.48	13.31	-34.0	-34.6	25.0	0.00e+00	0	28	0	3085959168	40	6127
2026-01-18 04:33:13.77	316.64	13.25	-33.6	-34.2	25.1	0.00e+00	0	28	0	3091202048	40	5883
2026-01-18 04:33:14.78	316.79	13.19	-33.4	-34.1	25.1	0.00e+00	0	28	0	3096444928	40	5818
2026-01-18 04:33:15.79	316.95	13.13	-33.4	-34.1	25.1	0.00e+00	0	28	0	3102736384	40	5827
2026-01-18 04:33:16.80	317.11	13.07	-33.6	-34.2	25.0	0.00e+00	0	28	0	3107979264	40	5858
2026-01-18 04:33:17.81	317.27	13.00	-33.6	-34.3	25.0	0.00e+00	0	28	0	3114270720	40	5940
2026-01-18 04:33:18.82	317.42	12.94	-33.7	-34.5	25.0	0.00e+00	0	28	0	3119513600	40	6040
2026-01-18 04:33:19.83	317.58	12.88	-33.9	-34.5	24.8	0.00e+00	0	28	0	3124756480	40	6095
2026-01-18 04:33:20.84	317.73	12.82	-33.8	-34.6	24.8	0.00e+00	0	28	0	3131047936	40	6107
2026-01-18 04:33:21.85	317.89	12.76	-33.9	-34.6	24.7	0.00e+00	0	28	0	3136290816	40	6146
2026-01-18 04:33:22.86	318.04	12.70	-33.8	-34.5	24.8	0.00e+00	0	28	0	3142582272	40	6070
2026-01-18 04:33:23.87	318.19	12.63	-34.0	-34.8	24.8	0.00e+00	0	27	0	3147825152	40	6271
2026-01-18 04:33:24.88	318.35	12.57	-33.9	-34.6	25.0	0.00e+00	0	28	0	3153068032	40	6145
2026-01-18 04:33:25.89	318.50	12.51	-34.2	-34.9	24.9	0.00e+00	0	27	0	3159359488	40	6318
2026-01-18 04:33:26.90	318.65	12.45	-34.0	-34.8	24.9	0.00e+00	0	28	0	3164602368	40	6291
2026-01-18 04:33:27.91	318.80	12.39	-33.4	-34.2	25.0	0.00e+00	0	28	0	3170893824	40	5838
2026-01-18 04:33:28.92	318.95	12.32	-33.3	-33.9	25.1	0.00e+00	0	28	0	3176136704	40	5667
2026-01-18 04:33:29.93	319.10	12.26	-33.2	-33.8	25.1	0.00e+00	0	28	0	3182428160	40	5597
2026-01-18 04:33:30.94	319.25	12.20	-33.3	-33.9	25.1	0.00e+00	0	28	0	3187671040	40	5680
2026-01-18 04:33:31.95	319.39	12.14	-33.3	-34.1	25.1	0.00e+00	0	27	0	3193962496	40	5771
2026-01-18 04:33:32.97	319.54	12.08	-33.6	-34.2	25.1	0.00e+00	0	27	0	3199205376	40	5894
2026-01-18 04:33:33.98	319.69	12.01	-33.7	-34.5	25.1	0.00e+00	0	28	0	3204448256	40	6062
2026-01-18 04:33:34.98	319.83	11.95	-33.5	-34.1	25.0	0.00e+00	0	27	0	3210739712	40	5820
2026-01-18 04:33:35.99	319.98	11.89	-33.5	-34.1	25.0	0.00e+00	0	28	0	3215982592	40	5827
2026-01-18 04:33:37.00	320.12	11.83	-33.7	-34.4	24.9	0.00e+00	0	28	0	3222274048	40	5996
2026-01-18 04:33:38.01	320.27	11.77	-34.1	-34.9	24.8	0.00e+00	0	28	0	3227516928	40	6336
2026-01-18 04:33:39.02	320.41	11.70	-34.0	-34.7	25.0	0.00e+00	0	28	0	3232759808	40	6223
2026-01-18 04:33:40.03	320.56	11.64	-34.0	-34.7	24.9	0.00e+00	0	27	0	3239051264	40	6185
2026-01-18 04:33:41.04	320.70	11.58	-33.7	-34.5	24.8	0.00e+00	0	27	0	3244294144	40	6066
2026-01-18 04:33:42.05	320.84	11.52	-33.6	-34.4	24.8	0.00e+00	0	28	0	3250585600	40	5973
2026-01-18 04:33:43.06	320.98	11.46	-33.6	-34.3	24.8	0.00e+00	0	28	0	3255828480	40	5938
2026-01-18 04:33:44.07	321.12	11.39	-33.5	-34.2	24.9	0.00e+00	0	28	0	3261071360	40	5875
2026-01-18 04:33:45.08	321.26	11.33	-33.8	-34.4	24.8	0.00e+00	0	28	0	3267362816	40	5985
2026-01-18 04:33:46.09	321.40	11.27	-33.9	-34.6	24.7	0.00e+00	0	28	0	3272605696	40	6145
2026-01-18 04:33:47.10	321.54	11.21	-33.9	-34.6	24.7	0.00e+00	0	28	0	3278897152	40	6148
2026-01-18 04:33:48.11	321.68	11.15	-34.1	-34.9	24.6	0.00e+00	0	28	0	3284140032	40	6333
2026-01-18 04:33:49.12	321.82	11.08	-34.1	-34.8	24.5	0.00e+00	0	27	0	3290431488	40	6316
2026-01-18 04:33:50.12	321.96	11.02	-34.2	-34.8	24.5	0.00e+00	0	28	0	3295674368	40	6294
2026-01-18 04:33:51.14	322.09	10.96	-34.2	-34.9	24.4	0.00e+00	0	28	0	3300917248	42	5634
2026-01-18 04:33:52.15	322.23	10.90	-34.3	-35.0	24.4	0.00e+00	0	27	0	3307208704	42	5711
2026-01-18 04:33:53.16	322.37	10.84	-34.3	-35.0	24.3	0.00e+00	0	27	0	3312451584	42	5705
2026-01-18 04:33:54.16	322.50	10.77	-34.3	-35.0	24.3	0.00e+00	0	28	0	3318743040	42	5704
2026-01-18 04:33:55.17	322.63	10.71	-34.5	-35.2	24.4	0.00e+00	0	28	0	3323985920	42	5884
2026-01-18 04:33:56.19	322.77	10.65	-34.8	-35.6	24.3	0.00e+00	0	28	0	3329228800	42	6106
2026-01-18 04:33:57.20	322.90	10.59	-34.8	-35.6	24.2	0.00e+00	0	28	0	3335520256	42	6107
2026-01-18 04:33:58.20	323.04	10.53	-34.3	-35.1	24.3	0.00e+00	0	28	0	3340763136	42	5808
2026-01-18 04:33:59.22	323.17	10.46	-34.5	-35.2	24.2	0.00e+00	0	28	0	3347054592	42	5833
2026-01-18 04:34:00.22	323.30	10.40	-34.6	-35.4	24.2	0.00e+00	0	28	0	3352297472	42	5981
2026-01-18 04:34:01.23	323.43	10.34	-34.5	-35.1	24.0	0.00e+00	0	28	0	3357540352	42	5818
2026-01-18 04:34:02.24	323.56	10.28	-34.4	-35.2	24.2	0.00e+00	0	28	0	3363831808	42	5839
2026-01-18 04:34:03.25	323.69	10.22	-34.2	-34.9	24.3	0.00e+00	0	28	0	3369074688	42	5682
2026-01-18 04:34:04.26	323.82	10.16	-34.3	-35.0	24.3	0.00e+00	0	28	0	3375366144	42	5750
2026-01-18 04:34:05.27	323.95	10.09	-34.3	-34.9	24.0	0.00e+00	0	28	0	3380609024	42	5658
2026-01-18 04:34:06.28	324.08	10.03	-34.5	-35.3	23.8	0.00e+00	0	27	0	3386900480	42	5935
2026-01-18 04:34:07.29	324.21	9.97	-34.6	-35.4	23.9	0.00e+00	0	27	0	3392143360	42	5980
2026-01-18 04:34:08.30	324.34	9.91	-34.8	-35.4	23.8	0.00e+00	0	27	0	3398434816	42	6019
2026-01-18 04:34:09.31	324.46	9.85	-34.4	-35.0	24.0	0.00e+00	0	27	0	3403677696	42	5736
2026-01-18 04:34:10.32	324.59	9.79	-34.6	-35.2	23.9	0.00e+00	0	28	0	3408920576	42	5871
2026-01-18 04:34:11.33	324.72	9.73	-34.7	-35.4	23.6	0.00e+00	0	27	0	3415212032	42	6000
2026-01-18 04:34:12.34	324.84	9.66	-34.8	-35.5	23.4	0.00e+00	0	28	0	3420454912	42	6100
2026-01-18 04:34:13.35	324.97	9.60	-34.9	-35.6	23.5	0.00e+00	0	28	0	3426746368	42	6157
2026-01-18 04:34:14.36	325.09	9.54	-34.9	-35.6	23.2	0.00e+00	0	27	0	3431989248	42	6160
2026-01-18 04:34:15.37	325.22	9.48	-35.2	-36.0	23.3	0.00e+00	0	28	0	3437232128	42	6402
2026-01-18 04:34:16.38	325.34	9.42	-34.6	-35.4	23.6	0.00e+00	0	28	0	3443523584	42	6023
2026-01-18 04:34:17.39	325.46	9.36	-34.7	-35.6	23.6	0.00e+00	0	27	0	3448766464	42	6113
2026-01-18 04:34:18.40	325.59	9.30	-34.7	-35.5	23.6	0.00e+00	0	27	0	3455057920	42	6088
2026-01-18 04:34:19.40	325.71	9.24	-34.6	-35.2	23.8	0.00e+00	0	27	0	3460300800	42	5872
2026-01-18 04:34:20.41	325.83	9.17	-34.3	-35.0	23.8	0.00e+00	0	27	0	3465543680	42	5702
2026-01-18 04:34:21.42	325.95	9.11	-34.8	-35.6	23.6	0.00e+00	0	27	0	3471835136	42	6146
2026-01-18 04:34:22.43	326.07	9.05	-34.8	-35.4	23.6	0.00e+00	0	28	0	3477078016	42	6020
2026-01-18 04:34:23.45	326.19	8.99	-35.0	-35.8	23.3	0.00e+00	0	27	0	3483369472	42	6260
2026-01-18 04:34:24.46	326.31	8.93	-34.4	-35.0	23.8	0.00e+00	0	28	0	3488612352	42	5728
2026-01-18 04:34:25.47	326.43	8.87	-34.7	-35.5	23.6	0.00e+00	0	28	0	3494903808	42	6065
2026-01-18 04:34:26.47	326.55	8.81	-34.8	-35.6	23.6	0.00e+00	0	28	0	3500146688	42	6120
2026-01-18 04:34:27.48	326.67	8.75	-34.9	-35.6	23.6	0.00e+00	0	28	0	3505389568	42	6144
2026-01-18 04:34:28.49	326.79	8.69	-34.6	-35.4	23.7	0.00e+00	0	27	0	3511681024	42	6019
2026-01-18 04:34:29.50	326.90	8.63	-34.9	-35.7	23.4	0.00e+00	0	28	0	3516923904	42	6175
2026-01-18 04:34:30.51	327.02	8.57	-34.8	-35.5	23.5	0.00e+00	0	28	0	3523215360	42	6044
2026-01-18 04:34:31.51	327.14	8.51	-34.8	-35.6	23.5	0.00e+00	0	28	0	3528458240	42	6115
2026-01-18 04:34:32.52	327.25	8.45	-34.9	-35.7	23.6	0.00e+00	0	28	0	3533701120	42	6206
2026-01-18 04:34:33.53	327.37	8.39	-35.1	-35.9	23.3	0.00e+00	0	28	0	3539992576	42	6359
2026-01-18 04:34:34.54	327.48	8.32	-34.8	-35.7	23.4	0.00e+00	0	28	0	3545235456	42	6187
2026-01-18 04:34:35.55	327.60	8.26	-34.6	-35.3	23.6	0.00e+00	0	27	0	3551526912	42	5917
2026-01-18 04:34:36.56	327.71	8.20	-34.8	-35.7	23.3	0.00e+00	0	28	0	3556769792	42	6180
2026-01-18 04:34:37.57	327.83	8.14	-34.9	-35.5	23.5	0.00e+00	0	28	0	3562012672	42	6100
2026-01-18 04:34:38.58	327.94	8.08	-35.0	-35.7	23.2	0.00e+00	0	28	0	3568304128	42	6193
2026-01-18 04:34:39.59	328.05	8.02	-34.8	-35.6	23.5	0.00e+00	0	28	0	3573547008	42	6120
2026-01-18 04:34:40.60	328.16	7.96	-34.8	-35.6	23.4	0.00e+00	0	28	0	3579838464	42	6127
2026-01-18 04:34:41.61	328.28	7.90	-34.7	-35.4	23.4	0.00e+00	0	27	0	3585081344	42	5982
