passes_logs/2026/01/18/R4.6S_Anadyr/R4.6S_Anadyr__20260118_231407_NOAA_21_JPSS-2_rec.log

#Pass ID: 20260118_231407_NOAA 21 (JPSS-2)
#Satellite: NOAA 21 (JPSS-2)
#Configuration: NOAA-21
#almurnet v.1.7.20251203
#Start time: 2026-01-18 23:14:11

#Version: 2.2.20231116
#Station: R4.6S_Anadyr
#Location: 177.4865 lon 64.73178 lat
#TLE: 1 54234U 22150A   26018.60745868  .00000048  00000+0  43754-4 0  9997
#TLE: 2 54234  98.7503 319.4636 0000607 264.0480  96.0627 14.19535445165329

#Time	Az	El	Level	Level2	SNR	BER	BlckErr	Temp	State	Recorded	gain1	gain2
2026-01-18 23:14:11.37	132.10	0.26	-50.4	-51.9	5.7	0.00e+00	0	38	0	0	60	48295
2026-01-18 23:14:12.34	132.07	0.31	-50.3	-63.2	3.5	1.52e+00	0	39	104	0	60	50772
2026-01-18 23:14:13.32	132.05	0.37	-50.2	-63.1	3.5	1.52e+00	0	39	104	0	60	50322
2026-01-18 23:14:14.30	132.03	0.43	-50.3	-63.2	3.5	1.52e+00	0	39	104	0	60	50531
2026-01-18 23:14:15.27	132.00	0.49	-50.3	-63.1	3.5	1.52e+00	0	39	104	0	60	50322
2026-01-18 23:14:16.25	131.98	0.55	-50.3	-63.2	3.5	1.52e+00	0	39	104	0	60	50684
2026-01-18 23:14:17.22	131.96	0.61	-50.3	-63.2	3.5	1.51e+00	0	39	104	0	60	50543
2026-01-18 23:14:18.20	131.93	0.67	-50.3	-63.2	3.5	1.52e+00	0	39	104	0	60	50557
2026-01-18 23:14:19.18	131.91	0.73	-50.3	-63.1	3.5	1.52e+00	0	39	104	0	60	50388
2026-01-18 23:14:20.16	131.89	0.78	-50.3	-63.1	3.5	1.52e+00	0	39	104	0	60	50308
2026-01-18 23:14:21.14	131.86	0.84	-50.2	-63.1	3.5	1.52e+00	0	40	104	0	60	50046
2026-01-18 23:14:22.12	131.84	0.90	-50.2	-63.0	3.5	1.52e+00	0	40	104	0	60	49831
2026-01-18 23:14:23.09	131.81	0.96	-50.0	-63.0	3.5	1.52e+00	0	40	104	0	60	49400
2026-01-18 23:14:24.07	131.79	1.02	-49.3	-63.0	3.5	1.52e+00	0	40	104	0	60	49426
2026-01-18 23:14:25.05	131.76	1.08	-50.0	-62.9	3.5	1.52e+00	0	40	104	0	60	48936
2026-01-18 23:14:26.03	131.74	1.14	-50.0	-62.9	3.5	1.52e+00	0	40	104	0	60	48829
2026-01-18 23:14:27.01	131.71	1.20	-49.9	-62.8	3.5	1.51e+00	0	40	104	0	60	48428
2026-01-18 23:14:27.98	131.69	1.26	-49.7	-62.7	3.5	1.52e+00	0	40	104	0	60	47982
2026-01-18 23:14:28.96	131.66	1.32	-49.5	-62.6	3.5	1.52e+00	0	40	104	0	60	47369
2026-01-18 23:14:29.93	131.64	1.38	-49.5	-62.5	3.5	1.52e+00	0	40	104	0	60	46991
2026-01-18 23:14:30.91	131.61	1.44	-49.5	-62.3	3.5	1.52e+00	0	40	104	0	60	45896
2026-01-18 23:14:31.89	131.59	1.50	-48.7	-62.1	3.5	1.52e+00	0	40	104	0	60	44597
2026-01-18 23:14:32.87	131.56	1.56	-48.8	-61.8	3.5	1.52e+00	0	40	104	0	60	42989
2026-01-18 23:14:33.84	131.54	1.62	-48.3	-61.4	3.5	1.51e+00	0	40	104	0	60	41192
2026-01-18 23:14:34.82	131.51	1.68	-48.4	-61.4	3.5	1.51e+00	0	40	104	0	60	41214
2026-01-18 23:14:35.79	131.49	1.74	-48.4	-61.4	3.5	1.52e+00	0	40	104	0	60	41288
2026-01-18 23:14:36.77	131.46	1.81	-48.4	-61.4	3.5	1.52e+00	0	40	104	0	60	41146
2026-01-18 23:14:37.75	131.43	1.87	-48.4	-61.3	3.5	1.52e+00	0	40	104	0	60	40815
2026-01-18 23:14:38.73	131.41	1.93	-48.4	-61.3	3.5	1.52e+00	0	40	104	0	60	40709
2026-01-18 23:14:39.70	131.38	1.99	-48.4	-61.2	3.5	1.51e+00	0	40	104	0	60	40455
2026-01-18 23:14:40.68	131.36	2.05	-48.3	-61.2	3.5	1.52e+00	0	40	104	0	60	40521
2026-01-18 23:14:41.66	131.33	2.11	-48.4	-61.3	3.5	1.52e+00	0	40	104	0	60	40574
2026-01-18 23:14:42.64	131.30	2.18	-48.4	-61.3	3.5	1.52e+00	0	40	104	0	60	40918
2026-01-18 23:14:43.62	131.28	2.24	-48.4	-61.3	3.5	1.52e+00	0	40	104	0	60	40963
2026-01-18 23:14:44.59	131.25	2.30	-48.4	-61.4	3.5	1.52e+00	0	40	104	0	60	41432
2026-01-18 23:14:45.57	131.22	2.36	-48.3	-61.4	3.5	1.52e+00	0	40	104	0	60	41217
2026-01-18 23:14:46.55	131.19	2.42	-48.3	-61.3	3.5	1.52e+00	0	40	104	0	60	40859
2026-01-18 23:14:47.53	131.17	2.49	-48.4	-61.3	3.5	1.52e+00	0	40	104	0	60	40990
2026-01-18 23:14:48.50	131.14	2.55	-48.4	-61.3	3.5	1.52e+00	0	40	104	0	60	40664
2026-01-18 23:14:49.48	131.11	2.61	-48.3	-61.2	3.5	1.52e+00	0	40	104	0	60	40217
2026-01-18 23:14:50.45	131.08	2.67	-48.3	-61.0	3.5	1.52e+00	0	40	104	0	60	39436
2026-01-18 23:14:51.43	131.06	2.74	-48.3	-60.7	3.5	1.52e+00	0	40	104	0	60	38015
2026-01-18 23:14:52.41	131.03	2.80	-48.3	-60.3	3.5	1.51e+00	0	40	104	0	60	36331
2026-01-18 23:14:53.39	131.00	2.86	-48.2	-59.6	3.6	1.51e+00	0	40	104	0	60	33708
2026-01-18 23:14:54.37	130.97	2.93	-48.2	-59.4	3.7	1.50e+00	0	40	104	0	60	32607
2026-01-18 23:14:55.34	130.94	2.99	-48.2	-59.8	3.5	1.51e+00	0	40	104	0	60	34209
2026-01-18 23:14:56.32	130.92	3.06	-48.3	-60.3	3.5	1.51e+00	0	40	104	0	60	36164
2026-01-18 23:14:57.30	130.89	3.12	-48.3	-60.8	3.5	1.52e+00	0	40	104	0	60	38373
2026-01-18 23:14:58.28	130.86	3.18	-48.3	-61.1	3.5	1.52e+00	0	40	104	0	60	39892
2026-01-18 23:14:59.25	130.83	3.25	-48.2	-59.7	3.6	1.51e+00	0	40	104	0	60	33862
2026-01-18 23:15:00.23	130.80	3.31	-47.9	-57.0	3.7	1.18e+00	0	40	104	0	60	24822
2026-01-18 23:15:01.21	130.77	3.38	-47.3	-53.5	6.7	3.67e-01	123	40	0	0	60	16587
2026-01-18 23:15:02.19	130.74	3.44	-46.4	-50.8	9.5	2.94e-02	122	40	0	3145728	60	12106
2026-01-18 23:15:03.17	130.71	3.51	-45.9	-49.7	10.7	3.75e-03	123	40	0	6291456	60	10765
2026-01-18 23:15:04.15	130.68	3.57	-45.0	-48.1	12.5	5.73e-04	122	40	0	9437184	60	8870
2026-01-18 23:15:05.12	130.65	3.64	-44.7	-47.5	13.1	1.22e-05	122	40	0	12582912	60	8320
2026-01-18 23:15:06.10	130.62	3.70	-44.2	-46.8	13.7	1.29e-05	123	40	0	15728640	60	7690
2026-01-18 23:15:07.08	130.59	3.77	-48.7	-61.9	3.5	1.52e+00	0	40	104	16777216	60	43897
2026-01-18 23:15:08.06	130.56	3.83	-42.2	-44.6	5.1	1.49e+00	0	40	104	16777216	60	5986
2026-01-18 23:15:09.03	130.53	3.90	-48.3	-60.9	3.5	1.23e+00	0	40	104	16777216	60	39049
2026-01-18 23:15:10.01	130.50	3.96	-48.6	-61.1	3.5	1.51e+00	0	40	104	16777216	60	39951
2026-01-18 23:15:10.99	130.47	4.03	-45.6	-49.5	11.3	1.41e+00	0	40	104	16777216	60	10442
2026-01-18 23:15:11.97	130.44	4.09	-41.9	-43.7	17.0	7.00e-07	122	40	0	16777216	58	6037
2026-01-18 23:15:12.95	130.41	4.16	-42.5	-44.6	16.1	0.00e+00	121	40	0	19922944	56	7526
2026-01-18 23:15:13.93	130.38	4.23	-42.0	-43.9	17.0	0.00e+00	123	40	0	23068672	58	6154
2026-01-18 23:15:14.90	130.35	4.29	-41.6	-43.3	17.6	0.00e+00	121	40	0	26214400	56	6462
2026-01-18 23:15:15.88	130.32	4.36	-41.4	-43.0	17.3	0.00e+00	120	40	0	29360128	56	6250
2026-01-18 23:15:16.86	130.28	4.43	-41.4	-43.0	17.6	0.00e+00	121	40	0	32505856	56	6256
2026-01-18 23:15:17.84	130.25	4.49	-40.5	-41.9	18.6	0.00e+00	124	40	0	35651584	54	6153
2026-01-18 23:15:18.82	130.22	4.56	-40.1	-41.4	19.0	0.00e+00	122	40	0	38797312	54	5834
2026-01-18 23:15:19.80	130.19	4.63	-39.8	-41.2	19.5	0.00e+00	122	40	0	41943040	54	5679
2026-01-18 23:15:20.77	130.16	4.70	-40.2	-41.5	19.0	0.00e+00	122	40	0	45088768	52	6645
2026-01-18 23:15:21.75	130.12	4.76	-39.5	-40.7	19.9	0.00e+00	121	40	0	48234496	52	6035
2026-01-18 23:15:22.72	130.09	4.83	-40.8	-42.2	18.4	0.00e+00	123	40	0	50331648	52	7157
2026-01-18 23:15:23.71	130.06	4.90	-39.6	-40.8	19.7	0.00e+00	123	40	0	53477376	52	6105
2026-01-18 23:15:24.69	130.03	4.97	-39.8	-41.1	19.7	0.00e+00	121	40	0	56623104	52	6305
2026-01-18 23:15:25.67	129.99	5.04	-40.2	-41.5	19.4	0.00e+00	121	40	0	59768832	52	6632
2026-01-18 23:15:26.65	129.96	5.11	-39.8	-41.1	19.5	0.00e+00	123	40	0	62914560	52	6324
2026-01-18 23:15:27.62	129.93	5.17	-40.7	-42.2	18.8	0.00e+00	122	40	0	66060288	54	6361
2026-01-18 23:15:28.60	129.89	5.24	-39.9	-41.2	19.6	0.00e+00	122	40	0	69206016	52	6411
2026-01-18 23:15:29.57	129.86	5.31	-39.7	-41.0	19.9	0.00e+00	122	40	0	72351744	52	6215
2026-01-18 23:15:30.55	129.83	5.38	-39.6	-40.9	19.9	0.00e+00	122	40	0	75497472	52	6195
2026-01-18 23:15:31.53	129.79	5.45	-39.4	-40.7	20.1	0.00e+00	119	40	0	78643200	52	6017
2026-01-18 23:15:32.51	129.76	5.52	-39.4	-40.7	20.2	0.00e+00	123	40	0	81788928	52	6004
2026-01-18 23:15:33.48	129.72	5.59	-39.5	-40.7	20.1	0.00e+00	121	40	0	84934656	52	6034
2026-01-18 23:15:34.46	129.69	5.66	-39.1	-40.3	20.5	0.00e+00	121	40	0	87031808	52	5782
2026-01-18 23:15:35.44	129.65	5.73	-39.7	-40.9	19.9	0.00e+00	126	40	0	90177536	52	6182
2026-01-18 23:15:36.42	129.62	5.80	-39.3	-40.5	20.4	0.00e+00	120	40	0	93323264	52	5912
2026-01-18 23:15:37.40	129.58	5.87	-39.0	-40.2	20.7	0.00e+00	123	40	0	96468992	52	5676
2026-01-18 23:15:38.38	129.55	5.94	-39.1	-40.3	20.6	0.00e+00	124	40	0	99614720	52	5735
2026-01-18 23:15:39.35	129.51	6.01	-39.5	-40.7	20.0	0.00e+00	122	40	0	102760448	52	6054
2026-01-18 23:15:40.33	129.48	6.08	-39.0	-40.1	20.9	0.00e+00	120	40	0	105906176	52	5642
2026-01-18 23:15:41.31	129.44	6.15	-39.3	-40.5	20.3	0.00e+00	122	40	0	109051904	50	6623
2026-01-18 23:15:42.28	129.41	6.22	-38.9	-40.0	20.8	0.00e+00	123	40	0	112197632	50	6275
2026-01-18 23:15:43.26	129.37	6.30	-39.0	-40.1	20.6	0.00e+00	122	40	0	115343360	50	6331
2026-01-18 23:15:44.24	129.33	6.37	-39.4	-40.6	20.2	0.00e+00	123	40	0	118489088	50	6715
2026-01-18 23:15:45.22	129.30	6.44	-39.1	-40.3	20.5	0.00e+00	123	40	0	120586240	50	6468
2026-01-18 23:15:46.20	129.26	6.51	-39.2	-40.4	20.4	0.00e+00	120	40	0	123731968	50	6512
2026-01-18 23:15:47.18	129.22	6.58	-39.4	-40.7	20.0	0.00e+00	119	40	0	126877696	50	6732
2026-01-18 23:15:48.15	129.19	6.66	-39.3	-40.6	20.3	0.00e+00	120	40	0	130023424	50	6663
2026-01-18 23:15:49.13	129.15	6.73	-39.0	-40.2	20.7	0.00e+00	123	40	0	133169152	50	6389
2026-01-18 23:15:50.11	129.11	6.80	-39.3	-40.5	20.3	0.00e+00	123	40	0	136314880	50	6643
2026-01-18 23:15:51.09	129.07	6.87	-38.8	-40.1	20.8	0.00e+00	123	41	0	139460608	50	6278
2026-01-18 23:15:52.07	129.03	6.95	-38.8	-40.1	20.7	0.00e+00	126	41	0	142606336	50	6283
2026-01-18 23:15:53.04	129.00	7.02	-38.9	-40.2	20.6	0.00e+00	123	40	0	145752064	50	6372
2026-01-18 23:15:54.02	128.96	7.09	-38.6	-39.8	21.0	0.00e+00	123	40	0	148897792	50	6092
2026-01-18 23:15:55.00	128.92	7.17	-38.8	-40.0	20.8	0.00e+00	123	40	0	152043520	50	6267
2026-01-18 23:15:55.98	128.88	7.24	-38.8	-40.0	20.8	0.00e+00	122	40	0	155189248	50	6272
2026-01-18 23:15:56.96	128.84	7.32	-38.5	-39.6	21.1	0.00e+00	124	40	0	157286400	50	5991
2026-01-18 23:15:57.94	128.80	7.39	-38.3	-39.5	21.3	0.00e+00	122	40	0	160432128	50	5866
2026-01-18 23:15:58.92	128.76	7.47	-38.4	-39.6	21.1	0.00e+00	120	40	0	163577856	50	5934
2026-01-18 23:15:59.90	128.72	7.54	-38.2	-39.3	21.4	0.00e+00	120	40	0	166723584	50	5790
2026-01-18 23:16:00.88	128.68	7.62	-38.4	-39.6	21.1	0.00e+00	121	40	0	169869312	50	5937
2026-01-18 23:16:01.86	128.64	7.69	-38.5	-39.7	21.1	0.00e+00	122	41	0	173015040	50	6008
2026-01-18 23:16:02.84	128.60	7.77	-38.5	-39.6	21.3	0.00e+00	119	41	0	176160768	50	5946
2026-01-18 23:16:03.81	128.56	7.84	-38.5	-39.6	21.3	0.00e+00	121	41	0	179306496	50	5979
2026-01-18 23:16:04.79	128.52	7.92	-38.2	-39.3	21.6	0.00e+00	121	41	0	182452224	50	5776
2026-01-18 23:16:05.77	128.48	7.99	-38.3	-39.4	21.5	0.00e+00	120	41	0	185597952	50	5819
2026-01-18 23:16:06.75	128.44	8.07	-38.3	-39.3	21.6	0.00e+00	119	41	0	188743680	50	5777
2026-01-18 23:16:07.72	128.40	8.15	-38.3	-39.3	21.5	0.00e+00	122	40	0	190840832	50	5783
2026-01-18 23:16:08.70	128.36	8.22	-38.2	-39.2	21.6	0.00e+00	121	40	0	193986560	50	5714
2026-01-18 23:16:09.68	128.31	8.30	-38.1	-39.2	21.6	0.00e+00	121	41	0	197132288	50	5718
2026-01-18 23:16:10.66	128.27	8.38	-38.0	-39.1	21.8	0.00e+00	123	41	0	200278016	50	5634
2026-01-18 23:16:11.63	128.23	8.45	-38.1	-39.1	21.8	0.00e+00	122	41	0	203423744	50	5651
2026-01-18 23:16:12.61	128.19	8.53	-38.1	-39.2	21.7	0.00e+00	123	41	0	206569472	50	5687
2026-01-18 23:16:13.59	128.14	8.61	-38.0	-39.0	21.9	0.00e+00	120	41	0	209715200	50	5582
2026-01-18 23:16:14.56	128.10	8.69	-38.1	-39.1	21.8	0.00e+00	124	40	0	212860928	50	5651
2026-01-18 23:16:15.54	128.06	8.77	-38.0	-39.1	21.9	0.00e+00	123	41	0	216006656	50	5595
2026-01-18 23:16:16.52	128.01	8.84	-37.9	-39.0	22.0	0.00e+00	122	40	0	219152384	50	5532
2026-01-18 23:16:17.50	127.97	8.92	-37.7	-38.8	22.1	0.00e+00	122	40	0	222298112	50	5420
2026-01-18 23:16:18.48	127.92	9.00	-37.8	-38.9	22.0	0.00e+00	122	40	0	225443840	48	6161
2026-01-18 23:16:19.45	127.88	9.08	-37.9	-39.0	21.9	0.00e+00	122	40	0	228589568	48	6228
2026-01-18 23:16:20.43	127.84	9.16	-37.7	-38.7	22.2	0.00e+00	122	41	0	230686720	48	6036
2026-01-18 23:16:21.41	127.79	9.24	-37.8	-38.8	22.0	0.00e+00	124	40	0	233832448	48	6132
2026-01-18 23:16:22.39	127.75	9.32	-37.7	-38.7	22.1	0.00e+00	122	40	0	236978176	48	6052
2026-01-18 23:16:23.37	127.70	9.40	-37.6	-38.6	22.3	0.00e+00	121	40	0	240123904	48	5971
2026-01-18 23:16:24.34	127.65	9.48	-37.5	-38.6	22.3	0.00e+00	123	40	0	243269632	48	5963
2026-01-18 23:16:25.32	127.61	9.56	-37.6	-38.7	22.2	0.00e+00	121	41	0	246415360	48	5999
2026-01-18 23:16:26.30	127.56	9.64	-37.6	-38.7	22.2	0.00e+00	120	41	0	249561088	48	6016
2026-01-18 23:16:27.27	127.52	9.72	-37.8	-38.9	22.1	0.00e+00	122	40	0	252706816	48	6157
2026-01-18 23:16:28.25	127.47	9.80	-37.6	-38.6	22.3	0.00e+00	121	40	0	255852544	48	5980
2026-01-18 23:16:29.23	127.42	9.89	-37.6	-38.6	22.3	0.00e+00	124	41	0	258998272	48	5964
2026-01-18 23:16:30.21	127.37	9.97	-37.5	-38.5	22.4	0.00e+00	119	41	0	262144000	48	5893
2026-01-18 23:16:31.18	127.33	10.05	-37.6	-38.6	22.2	0.00e+00	122	41	0	265289728	48	5965
2026-01-18 23:16:32.17	127.28	10.13	-37.5	-38.5	22.3	0.00e+00	122	41	0	267386880	48	5918
2026-01-18 23:16:33.14	127.23	10.21	-37.5	-38.5	22.3	0.00e+00	121	41	0	270532608	48	5926
2026-01-18 23:16:34.12	127.18	10.30	-37.4	-38.4	22.5	0.00e+00	123	41	0	273678336	48	5815
2026-01-18 23:16:35.10	127.13	10.38	-37.5	-38.5	22.4	0.00e+00	123	41	0	276824064	48	5885
2026-01-18 23:16:36.08	127.08	10.46	-37.4	-38.4	22.5	0.00e+00	119	41	0	279969792	48	5824
2026-01-18 23:16:37.06	127.03	10.55	-37.3	-38.3	22.6	0.00e+00	121	41	0	283115520	48	5744
2026-01-18 23:16:38.03	126.98	10.63	-37.2	-38.2	22.6	0.00e+00	120	40	0	286261248	48	5692
2026-01-18 23:16:39.01	126.93	10.71	-37.2	-38.2	22.6	0.00e+00	123	41	0	289406976	48	5705
2026-01-18 23:16:39.98	126.88	10.80	-37.2	-38.2	22.7	0.00e+00	121	41	0	292552704	48	5684
2026-01-18 23:16:40.96	126.83	10.88	-37.3	-38.3	22.6	0.00e+00	121	41	0	295698432	48	5737
2026-01-18 23:16:41.94	126.78	10.97	-37.3	-38.3	22.6	0.00e+00	122	41	0	298844160	48	5781
2026-01-18 23:16:42.92	126.73	11.05	-37.3	-38.3	22.6	0.00e+00	121	41	0	300941312	48	5786
2026-01-18 23:16:43.90	126.68	11.14	-37.2	-38.2	22.7	0.00e+00	121	41	0	304087040	48	5702
2026-01-18 23:16:44.88	126.63	11.23	-37.2	-38.2	22.9	0.00e+00	124	41	0	307232768	48	5664
2026-01-18 23:16:45.85	126.58	11.31	-37.2	-38.2	22.8	0.00e+00	125	41	0	310378496	48	5682
2026-01-18 23:16:46.83	126.52	11.40	-37.2	-38.1	22.9	0.00e+00	123	41	0	313524224	48	5651
2026-01-18 23:16:47.81	126.47	11.48	-37.2	-38.2	22.8	0.00e+00	122	41	0	316669952	48	5684
2026-01-18 23:16:48.78	126.42	11.57	-37.4	-38.4	22.7	0.00e+00	122	41	0	319815680	48	5816
2026-01-18 23:16:49.76	126.36	11.66	-37.1	-38.1	22.9	0.00e+00	123	41	0	322961408	48	5604
2026-01-18 23:16:50.73	126.31	11.74	-37.2	-38.2	22.9	0.00e+00	123	41	0	326107136	48	5674
2026-01-18 23:16:51.71	126.26	11.83	-37.1	-38.1	22.9	0.00e+00	117	41	0	329252864	48	5598
2026-01-18 23:16:52.69	126.20	11.92	-37.1	-38.1	22.8	0.00e+00	122	41	0	332398592	48	5600
2026-01-18 23:16:53.67	126.15	12.01	-37.0	-37.9	23.1	0.00e+00	120	41	0	334495744	48	5519
2026-01-18 23:16:54.64	126.09	12.10	-36.8	-37.8	23.2	0.00e+00	123	41	0	337641472	48	5428
2026-01-18 23:16:55.62	126.04	12.19	-36.8	-37.8	23.2	0.00e+00	123	41	0	340787200	48	5425
2026-01-18 23:16:56.60	125.98	12.27	-36.8	-37.8	23.2	0.00e+00	119	41	0	343932928	48	5427
2026-01-18 23:16:57.57	125.92	12.36	-36.9	-37.9	23.2	0.00e+00	123	41	0	347078656	48	5476
2026-01-18 23:16:58.55	125.87	12.45	-36.9	-37.8	23.2	0.00e+00	123	41	0	350224384	48	5455
2026-01-18 23:16:59.53	125.81	12.54	-36.8	-37.7	23.2	0.00e+00	121	41	0	353370112	48	5388
2026-01-18 23:17:00.51	125.75	12.63	-36.8	-37.7	23.3	0.00e+00	124	41	0	356515840	46	6041
2026-01-18 23:17:01.48	125.70	12.72	-36.8	-37.7	23.1	0.00e+00	123	41	0	359661568	46	6043
2026-01-18 23:17:02.46	125.64	12.82	-36.8	-37.8	23.2	0.00e+00	124	41	0	362807296	46	6069
2026-01-18 23:17:03.43	125.58	12.91	-36.8	-37.7	23.2	0.00e+00	121	41	0	365953024	46	6046
2026-01-18 23:17:04.41	125.52	13.00	-36.7	-37.6	23.3	0.00e+00	126	41	0	368050176	46	5994
2026-01-18 23:17:05.39	125.46	13.09	-36.7	-37.6	23.3	0.00e+00	123	41	0	371195904	46	5981
2026-01-18 23:17:06.36	125.40	13.18	-36.7	-37.7	23.2	0.00e+00	122	41	0	374341632	46	6029
2026-01-18 23:17:07.34	125.34	13.27	-36.7	-37.6	23.3	0.00e+00	119	41	0	377487360	46	5972
2026-01-18 23:17:08.32	125.28	13.37	-36.8	-37.8	23.2	0.00e+00	123	41	0	380633088	46	6091
2026-01-18 23:17:09.30	125.22	13.46	-36.7	-37.7	23.2	0.00e+00	122	41	0	383778816	46	6041
2026-01-18 23:17:10.28	125.16	13.55	-36.8	-37.7	23.2	0.00e+00	123	41	0	386924544	46	6056
2026-01-18 23:17:11.26	125.10	13.65	-36.8	-37.8	23.2	0.00e+00	120	41	0	390070272	46	6069
2026-01-18 23:17:12.24	125.03	13.74	-36.8	-37.7	23.2	0.00e+00	121	41	0	393216000	46	6061
2026-01-18 23:17:13.22	124.97	13.84	-36.8	-37.8	23.2	0.00e+00	121	41	0	396361728	46	6103
2026-01-18 23:17:14.19	124.91	13.93	-36.9	-37.9	23.2	0.00e+00	119	41	0	399507456	46	6152
2026-01-18 23:17:15.16	124.85	14.03	-36.9	-37.9	23.2	0.00e+00	123	41	0	402653184	46	6172
2026-01-18 23:17:16.14	124.78	14.12	-36.8	-37.7	23.3	0.00e+00	120	41	0	404750336	46	6055
2026-01-18 23:17:17.11	124.72	14.22	-36.8	-37.8	23.2	0.00e+00	120	41	0	407896064	46	6091
2026-01-18 23:17:18.10	124.65	14.31	-36.8	-37.8	23.2	0.00e+00	123	41	0	411041792	46	6092
2026-01-18 23:17:19.07	124.59	14.41	-36.8	-37.8	23.2	0.00e+00	122	41	0	414187520	46	6074
2026-01-18 23:17:20.05	124.52	14.51	-36.8	-37.7	23.3	0.00e+00	122	41	0	417333248	46	6061
2026-01-18 23:17:21.03	124.46	14.60	-36.7	-37.7	23.3	0.00e+00	121	41	0	420478976	46	6059
2026-01-18 23:17:22.01	124.39	14.70	-36.8	-37.8	23.3	0.00e+00	123	41	0	423624704	46	6114
2026-01-18 23:17:22.99	124.32	14.80	-36.8	-37.7	23.5	0.00e+00	122	41	0	426770432	46	6046
2026-01-18 23:17:23.97	124.26	14.90	-36.8	-37.8	23.4	0.00e+00	122	41	0	429916160	46	6079
2026-01-18 23:17:24.95	124.19	15.00	-36.8	-37.8	23.4	0.00e+00	124	41	0	433061888	46	6082
2026-01-18 23:17:25.93	124.12	15.10	-36.7	-37.7	23.4	0.00e+00	120	41	0	436207616	46	6021
2026-01-18 23:17:26.91	124.05	15.20	-36.8	-37.7	23.4	0.00e+00	122	41	0	439353344	46	6043
2026-01-18 23:17:27.88	123.98	15.29	-36.7	-37.7	23.4	0.00e+00	121	41	0	442499072	46	6023
2026-01-18 23:17:28.86	123.91	15.40	-36.8	-37.8	23.3	0.00e+00	122	41	0	444596224	46	6066
2026-01-18 23:17:29.84	123.84	15.50	-36.8	-37.8	23.4	0.00e+00	123	41	0	447741952	46	6085
2026-01-18 23:17:30.82	123.77	15.60	-36.7	-37.7	23.4	0.00e+00	123	41	0	450887680	46	6044
2026-01-18 23:17:31.79	123.70	15.70	-36.7	-37.7	23.4	0.00e+00	120	41	0	454033408	46	6038
2026-01-18 23:17:32.77	123.63	15.80	-36.9	-37.9	23.3	0.00e+00	121	41	0	457179136	46	6168
2026-01-18 23:17:33.75	123.56	15.90	-36.9	-37.9	23.3	0.00e+00	123	41	0	460324864	46	6148
2026-01-18 23:17:34.73	123.49	16.00	-37.1	-38.0	23.1	0.00e+00	125	41	0	463470592	46	6259
2026-01-18 23:17:35.71	123.41	16.11	-37.0	-38.0	23.2	0.00e+00	117	41	0	466616320	46	6229
2026-01-18 23:17:36.68	123.34	16.21	-37.2	-38.2	23.0	0.00e+00	125	41	0	469762048	46	6369
2026-01-18 23:17:37.66	123.26	16.31	-37.1	-38.1	23.1	0.00e+00	124	41	0	472907776	46	6325
2026-01-18 23:17:38.64	123.19	16.42	-36.9	-38.0	23.2	0.00e+00	121	41	0	476053504	46	6241
2026-01-18 23:17:39.62	123.11	16.52	-37.0	-38.0	23.1	0.00e+00	121	41	0	478150656	46	6257
2026-01-18 23:17:40.60	123.04	16.63	-37.0	-38.1	23.1	0.00e+00	123	41	0	481296384	46	6307
2026-01-18 23:17:41.58	122.96	16.73	-37.1	-38.1	23.1	0.00e+00	120	41	0	484442112	46	6334
2026-01-18 23:17:42.55	122.89	16.84	-37.2	-38.1	23.1	0.00e+00	123	41	0	487587840	46	6349
2026-01-18 23:17:43.53	122.81	16.94	-37.2	-38.2	23.0	0.00e+00	121	41	0	490733568	46	6398
2026-01-18 23:17:44.51	122.73	17.05	-37.3	-38.3	23.0	0.00e+00	121	41	0	493879296	46	6441
2026-01-18 23:17:45.49	122.65	17.16	-37.4	-38.4	22.8	0.00e+00	123	41	0	497025024	46	6541
2026-01-18 23:17:46.47	122.57	17.26	-37.4	-38.4	22.8	0.00e+00	127	41	0	500170752	46	6522
2026-01-18 23:17:47.45	122.49	17.37	-37.3	-38.3	22.9	0.00e+00	123	41	0	503316480	46	6470
2026-01-18 23:17:48.42	122.41	17.48	-37.2	-38.2	23.0	0.00e+00	121	41	0	506462208	46	6367
2026-01-18 23:17:49.40	122.33	17.59	-37.3	-38.2	23.0	0.00e+00	123	41	0	509607936	46	6421
2026-01-18 23:17:50.38	122.25	17.69	-37.2	-38.1	23.1	0.00e+00	123	41	0	511705088	46	6335
2026-01-18 23:17:51.36	122.17	17.80	-37.3	-38.3	23.1	0.00e+00	120	41	0	514850816	46	6466
2026-01-18 23:17:52.34	122.08	17.91	-37.2	-38.1	23.1	0.00e+00	122	41	0	517996544	46	6333
2026-01-18 23:17:53.31	122.00	18.02	-37.2	-38.2	23.2	0.00e+00	122	41	0	521142272	46	6396
2026-01-18 23:17:54.29	121.92	18.13	-37.1	-38.1	23.2	0.00e+00	121	41	0	524288000	46	6319
2026-01-18 23:17:55.26	121.83	18.24	-37.0	-38.0	23.3	0.00e+00	123	41	0	527433728	46	6238
2026-01-18 23:17:56.24	121.75	18.35	-37.1	-38.1	23.2	0.00e+00	121	41	0	530579456	46	6301
2026-01-18 23:17:57.22	121.66	18.47	-37.0	-38.0	23.3	0.00e+00	122	41	0	533725184	46	6231
2026-01-18 23:17:58.20	121.57	18.58	-37.0	-37.9	23.4	0.00e+00	128	41	0	536870912	46	6205
2026-01-18 23:17:59.17	121.49	18.69	-37.0	-37.9	23.3	0.00e+00	123	41	0	540016640	46	6191
2026-01-18 23:18:00.15	121.40	18.80	-37.0	-38.0	23.4	0.00e+00	121	41	0	543162368	46	6208
2026-01-18 23:18:01.13	121.31	18.92	-36.9	-37.9	23.4	0.00e+00	123	41	0	545259520	46	6179
2026-01-18 23:18:02.10	121.22	19.03	-36.9	-37.9	23.3	0.00e+00	120	41	0	548405248	46	6199
2026-01-18 23:18:03.08	121.13	19.15	-36.8	-37.8	23.4	0.00e+00	123	41	0	551550976	46	6129
2026-01-18 23:18:04.06	121.04	19.26	-36.9	-38.0	23.3	0.00e+00	124	41	0	554696704	46	6221
2026-01-18 23:18:05.04	120.95	19.38	-36.8	-37.9	23.3	0.00e+00	124	41	0	557842432	46	6170
2026-01-18 23:18:06.02	120.86	19.49	-36.9	-38.0	23.2	0.00e+00	121	41	0	560988160	46	6247
2026-01-18 23:18:07.00	120.76	19.61	-36.7	-37.8	23.4	0.00e+00	120	41	0	564133888	46	6124
2026-01-18 23:18:07.97	120.67	19.72	-36.8	-37.8	23.3	0.00e+00	123	41	0	567279616	46	6120
2026-01-18 23:18:08.95	120.58	19.84	-36.8	-37.9	23.3	0.00e+00	122	41	0	570425344	46	6180
2026-01-18 23:18:09.93	120.48	19.96	-36.8	-37.9	23.3	0.00e+00	123	41	0	573571072	46	6143
2026-01-18 23:18:10.91	120.38	20.08	-36.6	-37.6	23.5	0.00e+00	122	41	0	576716800	46	5982
2026-01-18 23:18:11.88	120.29	20.19	-36.7	-37.7	23.4	0.00e+00	124	41	0	578813952	46	6008
2026-01-18 23:18:12.86	120.19	20.31	-36.6	-37.6	23.5	0.00e+00	125	41	0	581959680	46	5949
2026-01-18 23:18:13.83	120.09	20.43	-36.7	-37.7	23.4	0.00e+00	122	41	0	585105408	46	6040
2026-01-18 23:18:14.81	119.99	20.55	-36.7	-37.6	23.4	0.00e+00	123	41	0	588251136	46	5991
2026-01-18 23:18:15.80	119.89	20.67	-36.5	-37.5	23.7	0.00e+00	121	41	0	591396864	46	5871
2026-01-18 23:18:16.77	119.79	20.79	-36.6	-37.6	23.6	0.00e+00	119	41	0	594542592	46	5959
2026-01-18 23:18:17.75	119.69	20.92	-36.5	-37.4	23.7	0.00e+00	123	41	0	597688320	46	5855
2026-01-18 23:18:18.73	119.59	21.04	-36.3	-37.2	23.8	0.00e+00	121	41	0	600834048	46	5705
2026-01-18 23:18:19.70	119.49	21.16	-36.3	-37.2	23.7	0.00e+00	121	41	0	603979776	46	5718
2026-01-18 23:18:20.68	119.38	21.28	-36.2	-37.1	23.9	0.00e+00	123	41	0	607125504	46	5619
2026-01-18 23:18:21.66	119.28	21.41	-36.2	-37.2	23.9	0.00e+00	123	41	0	610271232	46	5660
2026-01-18 23:18:22.64	119.17	21.53	-36.0	-37.0	24.0	0.00e+00	124	41	0	613416960	46	5533
2026-01-18 23:18:23.62	119.07	21.66	-36.0	-36.9	24.0	0.00e+00	121	41	0	616562688	46	5514
2026-01-18 23:18:24.59	118.96	21.78	-35.9	-36.9	24.0	0.00e+00	122	41	0	618659840	46	5476
2026-01-18 23:18:25.57	118.85	21.90	-35.9	-36.8	24.1	0.00e+00	122	41	0	621805568	46	5428
2026-01-18 23:18:26.54	118.74	22.03	-35.8	-36.7	24.2	0.00e+00	122	41	0	624951296	46	5390
2026-01-18 23:18:27.52	118.63	22.16	-35.7	-36.6	24.3	0.00e+00	122	41	0	628097024	44	5970
2026-01-18 23:18:28.50	118.52	22.28	-35.7	-36.6	24.3	0.00e+00	124	41	0	631242752	44	5982
2026-01-18 23:18:29.48	118.41	22.41	-35.7	-36.6	24.3	0.00e+00	122	41	0	634388480	44	5976
2026-01-18 23:18:30.46	118.30	22.54	-35.6	-36.6	24.4	0.00e+00	121	41	0	637534208	44	5942
2026-01-18 23:18:31.44	118.18	22.67	-35.6	-36.5	24.4	0.00e+00	123	41	0	640679936	44	5903
2026-01-18 23:18:32.41	118.07	22.80	-35.6	-36.5	24.4	0.00e+00	123	41	0	643825664	44	5910
2026-01-18 23:18:33.39	117.95	22.93	-35.4	-36.3	24.5	0.00e+00	120	41	0	646971392	44	5790
2026-01-18 23:18:34.37	117.84	23.06	-35.4	-36.3	24.5	0.00e+00	123	41	0	650117120	44	5783
2026-01-18 23:18:35.35	117.72	23.19	-35.4	-36.3	24.6	0.00e+00	124	41	0	653262848	44	5763
2026-01-18 23:18:36.33	117.60	23.32	-35.4	-36.3	24.6	0.00e+00	121	41	0	655360000	44	5730
2026-01-18 23:18:37.31	117.48	23.45	-35.3	-36.3	24.6	0.00e+00	121	41	0	658505728	44	5734
2026-01-18 23:18:38.29	117.36	23.58	-35.5	-36.4	24.6	0.00e+00	122	41	0	661651456	44	5835
2026-01-18 23:18:39.27	117.24	23.72	-35.3	-36.2	24.7	0.00e+00	124	41	0	664797184	44	5718
2026-01-18 23:18:40.24	117.12	23.85	-35.4	-36.3	24.5	0.00e+00	122	41	0	667942912	44	5726
2026-01-18 23:18:41.22	116.99	23.98	-35.4	-36.3	24.7	0.00e+00	124	41	0	671088640	44	5728
2026-01-18 23:18:42.19	116.87	24.11	-35.5	-36.4	24.5	0.00e+00	119	41	0	674234368	44	5844
2026-01-18 23:18:43.17	116.74	24.25	-35.4	-36.3	24.6	0.00e+00	123	41	0	677380096	44	5788
2026-01-18 23:18:44.14	116.62	24.38	-35.5	-36.4	24.6	0.00e+00	121	41	0	680525824	44	5840
2026-01-18 23:18:45.12	116.49	24.52	-35.5	-36.4	24.5	0.00e+00	123	41	0	683671552	44	5847
2026-01-18 23:18:46.09	116.36	24.66	-35.6	-36.5	24.5	0.00e+00	124	41	0	686817280	44	5891
2026-01-18 23:18:47.07	116.23	24.79	-35.7	-36.6	24.5	0.00e+00	123	41	0	688914432	44	5939
2026-01-18 23:18:48.05	116.10	24.93	-35.7	-36.6	24.6	0.00e+00	122	41	0	692060160	44	5974
2026-01-18 23:18:49.02	115.96	25.07	-35.6	-36.4	24.5	0.00e+00	123	41	0	695205888	44	5857
2026-01-18 23:18:50.00	115.83	25.21	-35.7	-36.6	24.4	0.00e+00	120	41	0	698351616	44	5966
2026-01-18 23:18:50.97	115.70	25.34	-35.7	-36.6	24.5	0.00e+00	122	41	0	701497344	44	5959
2026-01-18 23:18:51.95	115.56	25.48	-35.8	-36.7	24.4	0.00e+00	123	41	0	704643072	44	6018
2026-01-18 23:18:52.93	115.42	25.62	-36.0	-36.9	24.2	0.00e+00	121	41	0	707788800	44	6183
2026-01-18 23:18:53.91	115.28	25.77	-36.0	-37.0	24.1	0.00e+00	122	41	0	710934528	44	6208
2026-01-18 23:18:54.89	115.14	25.91	-36.2	-37.1	24.0	0.00e+00	122	41	0	714080256	44	6307
2026-01-18 23:18:55.87	115.00	26.05	-36.0	-36.9	24.1	0.00e+00	123	41	0	717225984	44	6192
2026-01-18 23:18:56.85	114.86	26.19	-36.1	-37.0	24.1	0.00e+00	123	41	0	720371712	44	6251
2026-01-18 23:18:57.82	114.71	26.33	-36.2	-37.2	24.0	0.00e+00	123	41	0	722468864	44	6368
2026-01-18 23:18:58.80	114.57	26.48	-36.1	-37.1	24.1	0.00e+00	121	41	0	725614592	44	6280
2026-01-18 23:18:59.78	114.42	26.62	-36.2	-37.2	24.0	0.00e+00	121	41	0	728760320	44	6359
2026-01-18 23:19:00.76	114.27	26.77	-36.5	-37.4	23.9	0.00e+00	120	41	0	731906048	44	6557
2026-01-18 23:19:01.74	114.12	26.91	-36.4	-37.4	23.9	0.00e+00	122	41	0	735051776	44	6528
2026-01-18 23:19:02.72	113.97	27.06	-36.5	-37.5	23.8	0.00e+00	120	41	0	738197504	44	6588
2026-01-18 23:19:03.69	113.82	27.20	-36.6	-37.6	23.8	0.00e+00	122	41	0	741343232	44	6674
2026-01-18 23:19:04.67	113.66	27.35	-36.7	-37.6	23.7	0.00e+00	122	41	0	744488960	44	6692
2026-01-18 23:19:05.65	113.51	27.50	-36.6	-37.6	23.8	0.00e+00	120	41	0	747634688	44	6659
2026-01-18 23:19:06.63	113.35	27.65	-36.4	-37.3	24.0	0.00e+00	123	41	0	750780416	44	6465
2026-01-18 23:19:07.60	113.20	27.79	-36.6	-37.5	23.8	0.00e+00	124	41	0	753926144	44	6604
2026-01-18 23:19:08.58	113.04	27.94	-36.5	-37.4	23.8	0.00e+00	123	41	0	757071872	44	6563
2026-01-18 23:19:09.56	112.87	28.09	-36.5	-37.5	23.7	0.00e+00	122	41	0	759169024	44	6580
2026-01-18 23:19:10.54	112.71	28.24	-36.5	-37.5	23.7	0.00e+00	123	41	0	762314752	44	6599
2026-01-18 23:19:11.52	112.55	28.40	-36.6	-37.6	23.5	0.00e+00	121	41	0	765460480	44	6683
2026-01-18 23:19:12.50	112.38	28.55	-36.8	-37.8	23.3	0.00e+00	121	41	0	768606208	46	6099
2026-01-18 23:19:13.47	112.21	28.70	-36.9	-37.9	23.4	0.00e+00	123	41	0	771751936	46	6139
2026-01-18 23:19:14.45	112.04	28.85	-36.8	-37.7	23.5	0.00e+00	122	41	0	774897664	46	6060
2026-01-18 23:19:15.43	111.87	29.00	-37.0	-38.0	23.4	0.00e+00	123	41	0	778043392	46	6217
2026-01-18 23:19:16.41	111.70	29.16	-36.9	-37.9	23.5	0.00e+00	122	41	0	781189120	46	6179
2026-01-18 23:19:17.39	111.53	29.31	-37.0	-38.0	23.6	0.00e+00	123	41	0	784334848	46	6218
2026-01-18 23:19:18.37	111.35	29.47	-36.7	-37.7	23.8	0.00e+00	128	41	0	787480576	46	6011
2026-01-18 23:19:19.34	111.17	29.62	-36.8	-37.8	23.7	0.00e+00	123	41	0	790626304	46	6092
2026-01-18 23:19:20.32	110.99	29.78	-36.7	-37.6	23.9	0.00e+00	125	41	0	792723456	46	5977
2026-01-18 23:19:21.30	110.81	29.93	-36.5	-37.4	24.0	0.00e+00	121	41	0	795869184	46	5857
2026-01-18 23:19:22.28	110.63	30.09	-36.4	-37.3	24.0	0.00e+00	121	41	0	799014912	46	5782
2026-01-18 23:19:23.25	110.45	30.25	-36.5	-37.4	23.8	0.00e+00	122	41	0	802160640	46	5851
2026-01-18 23:19:24.23	110.26	30.40	-36.5	-37.5	23.7	0.00e+00	121	41	0	805306368	46	5874
2026-01-18 23:19:25.21	110.07	30.56	-36.6	-37.5	23.5	0.00e+00	121	41	0	808452096	46	5897
2026-01-18 23:19:26.19	109.88	30.72	-36.8	-37.7	23.5	0.00e+00	122	41	0	811597824	46	6028
2026-01-18 23:19:27.16	109.69	30.88	-37.0	-37.9	23.4	0.00e+00	124	41	0	814743552	46	6191
2026-01-18 23:19:28.14	109.50	31.04	-36.8	-37.8	23.6	0.00e+00	122	41	0	817889280	46	6070
2026-01-18 23:19:29.12	109.30	31.20	-36.8	-37.7	23.7	0.00e+00	123	41	0	821035008	46	6042
2026-01-18 23:19:30.10	109.10	31.36	-36.8	-37.8	23.7	0.00e+00	122	41	0	824180736	46	6087
2026-01-18 23:19:31.08	108.90	31.52	-36.8	-37.7	23.7	0.00e+00	123	41	0	827326464	46	6033
2026-01-18 23:19:32.05	108.70	31.68	-36.9	-37.8	23.7	0.00e+00	122	41	0	830472192	46	6111
2026-01-18 23:19:33.03	108.50	31.85	-36.8	-37.8	23.7	0.00e+00	120	41	0	832569344	46	6075
2026-01-18 23:19:34.01	108.29	32.01	-36.9	-37.9	23.6	0.00e+00	122	41	0	835715072	46	6143
2026-01-18 23:19:34.99	108.08	32.17	-36.9	-37.9	23.5	0.00e+00	120	41	0	838860800	46	6182
2026-01-18 23:19:35.96	107.87	32.34	-37.0	-38.0	23.4	0.00e+00	120	41	0	842006528	46	6217
2026-01-18 23:19:36.94	107.66	32.50	-37.1	-38.1	23.3	0.00e+00	121	41	0	845152256	46	6320
2026-01-18 23:19:37.91	107.45	32.66	-37.1	-38.1	23.2	0.00e+00	122	41	0	848297984	46	6309
2026-01-18 23:19:38.89	107.23	32.83	-37.2	-38.2	23.2	0.00e+00	122	41	0	851443712	46	6412
2026-01-18 23:19:39.87	107.01	32.99	-37.1	-38.1	23.3	0.00e+00	121	41	0	854589440	46	6330
2026-01-18 23:19:40.85	106.79	33.16	-37.3	-38.3	23.2	0.00e+00	123	41	0	857735168	46	6448
2026-01-18 23:19:41.82	106.57	33.33	-37.3	-38.2	23.3	0.00e+00	123	41	0	860880896	46	6423
2026-01-18 23:19:42.80	106.34	33.49	-37.4	-38.3	23.2	0.00e+00	122	41	0	864026624	46	6482
2026-01-18 23:19:43.77	106.11	33.66	-37.4	-38.3	23.1	0.00e+00	122	41	0	866123776	46	6491
2026-01-18 23:19:44.75	105.88	33.83	-37.5	-38.4	23.2	0.00e+00	122	41	0	869269504	46	6572
2026-01-18 23:19:45.73	105.65	33.99	-37.4	-38.4	23.1	0.00e+00	122	41	0	872415232	46	6516
2026-01-18 23:19:46.70	105.42	34.16	-37.6	-38.6	23.0	0.00e+00	122	41	0	875560960	46	6695
2026-01-18 23:19:47.68	105.18	34.33	-37.6	-38.6	23.0	0.00e+00	122	41	0	878706688	46	6681
2026-01-18 23:19:48.66	104.94	34.50	-37.6	-38.5	23.1	0.00e+00	123	41	0	881852416	46	6649
2026-01-18 23:19:49.63	104.70	34.67	-37.7	-38.7	23.0	0.00e+00	120	41	0	884998144	46	6746
2026-01-18 23:19:50.61	104.45	34.84	-37.9	-38.9	22.8	0.00e+00	123	41	0	888143872	48	6146
2026-01-18 23:19:51.59	104.20	35.01	-37.8	-38.8	22.8	0.00e+00	122	41	0	891289600	48	6108
2026-01-18 23:19:52.57	103.95	35.18	-37.9	-38.9	22.7	0.00e+00	123	41	0	894435328	48	6187
2026-01-18 23:19:53.54	103.70	35.35	-38.0	-39.0	22.8	0.00e+00	121	41	0	897581056	48	6214
2026-01-18 23:19:54.52	103.44	35.52	-38.0	-39.0	22.7	0.00e+00	121	41	0	899678208	48	6212
2026-01-18 23:19:55.49	103.19	35.69	-37.8	-38.9	22.7	0.00e+00	126	41	0	902823936	48	6142
2026-01-18 23:19:56.47	102.92	35.86	-37.9	-38.9	22.7	0.00e+00	123	41	0	905969664	48	6172
2026-01-18 23:19:57.44	102.66	36.03	-37.9	-38.9	22.7	0.00e+00	123	41	0	909115392	48	6185
2026-01-18 23:19:58.42	102.39	36.20	-38.0	-39.0	22.6	0.00e+00	122	41	0	912261120	48	6262
2026-01-18 23:19:59.39	102.13	36.37	-38.0	-39.1	22.5	0.00e+00	121	41	0	915406848	48	6284
2026-01-18 23:20:00.37	101.85	36.54	-38.1	-39.1	22.4	0.00e+00	123	41	0	918552576	48	6331
2026-01-18 23:20:01.35	101.58	36.71	-38.2	-39.3	22.2	0.00e+00	124	41	0	921698304	48	6427
2026-01-18 23:20:02.33	101.30	36.89	-38.2	-39.2	22.4	0.00e+00	122	41	0	924844032	48	6414
2026-01-18 23:20:03.31	101.02	37.06	-38.3	-39.3	22.3	0.00e+00	122	41	0	927989760	48	6468
2026-01-18 23:20:04.29	100.73	37.23	-38.4	-39.4	22.3	0.00e+00	123	41	0	931135488	48	6543
2026-01-18 23:20:05.27	100.44	37.40	-38.2	-39.3	22.4	0.00e+00	123	41	0	933232640	48	6425
2026-01-18 23:20:06.25	100.15	37.58	-38.3	-39.4	22.3	0.00e+00	123	41	0	936378368	48	6499
2026-01-18 23:20:07.22	99.86	37.75	-38.4	-39.4	22.4	0.00e+00	121	41	0	939524096	48	6546
2026-01-18 23:20:08.20	99.56	37.92	-38.2	-39.2	22.5	0.00e+00	121	41	0	942669824	48	6389
2026-01-18 23:20:09.18	99.26	38.09	-38.3	-39.3	22.5	0.00e+00	123	41	0	945815552	48	6462
2026-01-18 23:20:10.15	98.96	38.26	-38.2	-39.2	22.5	0.00e+00	125	41	0	948961280	48	6375
2026-01-18 23:20:11.13	98.65	38.44	-38.2	-39.3	22.5	0.00e+00	122	41	0	952107008	48	6427
2026-01-18 23:20:12.11	98.34	38.61	-38.2	-39.2	22.6	0.00e+00	121	41	0	955252736	48	6357
2026-01-18 23:20:13.08	98.03	38.78	-38.1	-39.1	22.6	0.00e+00	119	41	0	958398464	48	6335
2026-01-18 23:20:14.05	97.72	38.95	-37.9	-38.9	22.8	0.00e+00	122	41	0	961544192	48	6153
2026-01-18 23:20:15.04	97.39	39.13	-38.0	-39.0	22.8	0.00e+00	123	41	0	964689920	48	6218
2026-01-18 23:20:16.01	97.07	39.30	-38.1	-39.1	22.7	0.00e+00	121	41	0	966787072	48	6289
2026-01-18 23:20:16.99	96.75	39.47	-37.9	-38.9	22.8	0.00e+00	125	41	0	969932800	48	6155
2026-01-18 23:20:17.96	96.42	39.64	-37.8	-38.7	22.9	0.00e+00	121	41	0	973078528	48	6061
2026-01-18 23:20:18.94	96.08	39.81	-38.1	-39.1	22.6	0.00e+00	119	41	0	976224256	48	6283
2026-01-18 23:20:19.92	95.75	39.98	-38.3	-39.3	22.4	0.00e+00	124	41	0	979369984	48	6445
2026-01-18 23:20:20.90	95.40	40.15	-38.1	-39.1	22.6	0.00e+00	124	41	0	982515712	48	6346
2026-01-18 23:20:21.88	95.06	40.32	-38.1	-39.1	22.6	0.00e+00	121	41	0	985661440	48	6343
2026-01-18 23:20:22.86	94.71	40.49	-38.3	-39.3	22.5	0.00e+00	122	41	0	988807168	48	6490
2026-01-18 23:20:23.84	94.36	40.66	-38.5	-39.5	22.2	0.00e+00	124	41	0	991952896	48	6631
2026-01-18 23:20:24.81	94.00	40.83	-38.8	-39.8	22.1	0.00e+00	122	41	0	995098624	50	6097
2026-01-18 23:20:25.80	93.64	41.00	-39.0	-40.0	21.9	0.00e+00	122	41	0	998244352	50	6274
2026-01-18 23:20:26.78	93.28	41.17	-39.2	-40.2	21.7	0.00e+00	122	41	0	1001390080	50	6421
2026-01-18 23:20:27.75	92.91	41.33	-39.3	-40.4	21.5	0.00e+00	123	41	0	1004535808	50	6548
2026-01-18 23:20:28.73	92.54	41.50	-39.7	-40.8	21.2	0.00e+00	121	41	0	1006632960	50	6867
2026-01-18 23:20:29.71	92.17	41.67	-39.9	-41.0	20.9	0.00e+00	122	41	0	1009778688	52	6266
2026-01-18 23:20:30.69	91.79	41.83	-39.7	-40.8	21.1	0.00e+00	124	41	0	1012924416	52	6126
2026-01-18 23:20:31.67	91.40	42.00	-39.8	-40.9	21.1	0.00e+00	121	41	0	1016070144	52	6182
2026-01-18 23:20:32.64	91.02	42.16	-39.9	-41.0	20.9	0.00e+00	122	41	0	1019215872	52	6277
2026-01-18 23:20:33.62	90.63	42.32	-39.9	-41.0	21.1	0.00e+00	123	41	0	1022361600	52	6264
2026-01-18 23:20:34.60	90.23	42.49	-39.9	-41.1	21.1	0.00e+00	122	41	0	1025507328	52	6287
2026-01-18 23:20:35.58	89.84	42.65	-40.0	-41.2	21.0	0.00e+00	124	41	0	1028653056	52	6360
2026-01-18 23:20:36.55	89.44	42.81	-40.1	-41.2	20.9	0.00e+00	123	41	0	1031798784	52	6394
2026-01-18 23:20:37.53	89.03	42.97	-40.2	-41.3	20.7	0.00e+00	121	41	0	1034944512	52	6490
2026-01-18 23:20:38.51	88.62	43.13	-40.1	-41.3	20.8	0.00e+00	123	41	0	1038090240	52	6483
2026-01-18 23:20:39.49	88.20	43.28	-39.9	-41.0	21.1	0.00e+00	121	41	0	1041235968	52	6249
2026-01-18 23:20:40.47	87.78	43.44	-39.5	-40.6	21.5	0.00e+00	124	41	0	1043333120	52	5975
2026-01-18 23:20:41.45	87.36	43.60	-39.4	-40.5	21.5	0.00e+00	123	41	0	1046478848	52	5898
2026-01-18 23:20:42.43	86.93	43.75	-39.0	-40.1	21.9	0.00e+00	122	41	0	1049624576	52	5631
2026-01-18 23:20:43.40	86.50	43.90	-39.0	-40.0	21.9	0.00e+00	121	41	0	1052770304	52	5572
2026-01-18 23:20:44.38	86.07	44.06	-38.9	-40.0	21.8	0.00e+00	122	41	0	1055916032	52	5553
2026-01-18 23:20:45.36	85.63	44.21	-39.2	-40.3	21.6	0.00e+00	121	41	0	1059061760	52	5732
2026-01-18 23:20:46.34	85.18	44.36	-39.2	-40.3	21.6	0.00e+00	123	41	0	1062207488	52	5751
2026-01-18 23:20:47.32	84.74	44.51	-39.3	-40.4	21.4	0.00e+00	123	41	0	1065353216	52	5836
2026-01-18 23:20:48.30	84.28	44.65	-39.4	-40.5	21.2	0.00e+00	126	41	0	1068498944	52	5873
2026-01-18 23:20:49.28	83.83	44.80	-39.5	-40.6	21.2	0.00e+00	122	41	0	1071644672	52	5980
2026-01-18 23:20:50.26	83.36	44.94	-39.5	-40.7	21.3	0.00e+00	122	41	0	1074790400	52	6010
2026-01-18 23:20:51.24	82.90	45.08	-39.4	-40.6	21.4	0.00e+00	122	41	0	1077936128	52	5935
2026-01-18 23:20:52.22	82.43	45.23	-39.4	-40.5	21.5	0.00e+00	121	41	0	1080033280	52	5879
2026-01-18 23:20:53.19	81.96	45.36	-39.2	-40.3	21.7	0.00e+00	121	41	0	1083179008	52	5741
2026-01-18 23:20:54.17	81.48	45.50	-39.2	-40.2	21.8	0.00e+00	123	41	0	1086324736	52	5690
2026-01-18 23:20:55.14	81.01	45.63	-39.1	-40.2	21.7	0.00e+00	123	41	0	1089470464	52	5664
2026-01-18 23:20:56.12	80.52	45.77	-39.6	-40.7	21.4	0.00e+00	125	41	0	1092616192	52	6046
2026-01-18 23:20:57.10	80.03	45.90	-39.5	-40.6	21.5	0.00e+00	124	41	0	1095761920	52	5966
2026-01-18 23:20:58.08	79.54	46.03	-38.8	-39.8	22.1	0.00e+00	125	41	0	1098907648	52	5451
2026-01-18 23:20:59.06	79.04	46.16	-38.6	-39.6	22.3	0.00e+00	122	41	0	1102053376	50	5953
2026-01-18 23:21:00.04	78.54	46.28	-38.5	-39.5	22.1	0.00e+00	124	41	0	1105199104	50	5876
2026-01-18 23:21:01.02	78.03	46.41	-39.1	-40.1	21.5	0.00e+00	122	41	0	1108344832	50	6348
2026-01-18 23:21:02.01	77.51	46.53	-39.2	-40.3	21.4	0.00e+00	124	41	0	1111490560	50	6476
2026-01-18 23:21:02.99	77.00	46.65	-39.2	-40.3	21.6	0.00e+00	126	41	0	1114636288	50	6438
2026-01-18 23:21:03.96	76.49	46.77	-39.1	-40.1	21.7	0.00e+00	125	41	0	1116733440	50	6325
2026-01-18 23:21:04.94	75.96	46.88	-39.0	-40.1	21.7	0.00e+00	122	41	0	1119879168	50	6297
2026-01-18 23:21:05.92	75.44	46.99	-39.3	-40.4	21.4	0.00e+00	123	41	0	1123024896	50	6499
2026-01-18 23:21:06.90	74.91	47.10	-39.8	-40.9	20.9	0.00e+00	119	41	0	1126170624	50	6936
2026-01-18 23:21:07.88	74.37	47.21	-39.7	-40.8	21.2	0.00e+00	123	41	0	1129316352	52	6126
2026-01-18 23:21:08.86	73.84	47.32	-39.3	-40.3	21.7	0.00e+00	124	41	0	1132462080	52	5772
2026-01-18 23:21:09.84	73.30	47.42	-39.1	-40.1	21.7	0.00e+00	120	41	0	1135607808	52	5648
2026-01-18 23:21:10.82	72.75	47.52	-39.4	-40.5	21.5	0.00e+00	122	41	0	1138753536	52	5916
2026-01-18 23:21:11.79	72.21	47.62	-39.7	-40.8	21.2	0.00e+00	122	41	0	1141899264	52	6098
2026-01-18 23:21:12.77	71.66	47.71	-39.8	-41.0	21.1	0.00e+00	122	41	0	1145044992	52	6223
2026-01-18 23:21:13.74	71.11	47.80	-39.6	-40.7	21.4	0.00e+00	124	41	0	1148190720	52	5999
2026-01-18 23:21:14.72	70.55	47.89	-39.3	-40.4	21.6	0.00e+00	123	41	0	1150287872	52	5795
2026-01-18 23:21:15.70	69.99	47.98	-39.4	-40.5	21.6	0.00e+00	121	41	0	1153433600	52	5861
2026-01-18 23:21:16.68	69.43	48.06	-39.0	-40.1	22.0	0.00e+00	122	41	0	1156579328	52	5605
2026-01-18 23:21:17.65	68.87	48.15	-38.5	-39.5	22.4	0.00e+00	125	41	0	1159725056	50	5866
2026-01-18 23:21:18.63	68.30	48.22	-38.3	-39.3	22.5	0.00e+00	123	41	0	1162870784	50	5751
2026-01-18 23:21:19.60	67.73	48.30	-38.3	-39.3	22.5	0.00e+00	122	41	0	1166016512	50	5779
2026-01-18 23:21:20.58	67.16	48.37	-38.4	-39.4	22.4	0.00e+00	123	41	0	1169162240	50	5832
2026-01-18 23:21:21.56	66.58	48.44	-38.6	-39.6	22.3	0.00e+00	122	41	0	1172307968	50	5943
2026-01-18 23:21:22.54	66.00	48.51	-38.4	-39.4	22.5	0.00e+00	125	41	0	1175453696	50	5851
2026-01-18 23:21:23.51	65.42	48.57	-38.4	-39.4	22.4	0.00e+00	122	41	0	1178599424	50	5855
2026-01-18 23:21:24.49	64.83	48.63	-38.7	-39.7	22.1	0.00e+00	121	41	0	1181745152	50	6021
2026-01-18 23:21:25.46	64.25	48.69	-39.3	-40.4	21.6	0.00e+00	119	41	0	1183842304	50	6563
2026-01-18 23:21:26.44	63.66	48.74	-39.8	-41.0	21.2	0.00e+00	124	41	0	1186988032	50	7012
2026-01-18 23:21:27.42	63.07	48.79	-39.8	-40.9	21.1	0.00e+00	124	41	0	1190133760	52	6167
2026-01-18 23:21:28.40	62.48	48.84	-39.5	-40.6	21.5	0.00e+00	123	41	0	1193279488	52	5952
2026-01-18 23:21:29.37	61.89	48.88	-39.3	-40.4	21.6	0.00e+00	124	41	0	1196425216	52	5825
2026-01-18 23:21:30.35	61.29	48.92	-39.3	-40.4	21.7	0.00e+00	122	41	0	1199570944	52	5799
2026-01-18 23:21:31.33	60.69	48.96	-38.9	-40.0	21.9	0.00e+00	122	41	0	1202716672	52	5558
2026-01-18 23:21:32.31	60.09	48.99	-39.1	-40.2	21.7	0.00e+00	122	41	0	1205862400	52	5713
2026-01-18 23:21:33.28	59.50	49.02	-39.0	-40.1	22.0	0.00e+00	122	41	0	1209008128	52	5611
2026-01-18 23:21:34.25	58.90	49.05	-38.9	-40.0	21.9	0.00e+00	119	41	0	1212153856	52	5562
2026-01-18 23:21:35.23	58.30	49.07	-38.8	-39.8	21.9	0.00e+00	122	41	0	1215299584	50	6131
2026-01-18 23:21:36.21	57.70	49.09	-38.9	-39.9	21.8	0.00e+00	123	41	0	1218445312	50	6200
2026-01-18 23:21:37.19	57.09	49.11	-38.6	-39.6	22.1	0.00e+00	123	41	0	1220542464	50	5982
2026-01-18 23:21:38.16	56.49	49.12	-38.5	-39.5	22.0	0.00e+00	121	41	0	1223688192	50	5883
2026-01-18 23:21:39.14	55.89	49.13	-38.5	-39.6	22.0	0.00e+00	123	41	0	1226833920	50	5942
2026-01-18 23:21:40.12	55.28	49.14	-38.8	-39.9	21.7	0.00e+00	124	41	0	1229979648	50	6166
2026-01-18 23:21:41.10	54.67	49.15	-39.0	-40.1	21.8	0.00e+00	122	41	0	1233125376	50	6291
2026-01-18 23:21:42.08	54.07	49.14	-38.8	-39.9	22.0	0.00e+00	124	41	0	1236271104	50	6159
2026-01-18 23:21:43.06	53.46	49.14	-38.5	-39.5	22.3	0.00e+00	122	41	0	1239416832	50	5912
2026-01-18 23:21:44.03	52.86	49.13	-38.1	-39.1	22.7	0.00e+00	121	41	0	1242562560	50	5613
2026-01-18 23:21:45.01	52.26	49.12	-37.9	-38.9	22.7	0.00e+00	122	41	0	1245708288	50	5490
2026-01-18 23:21:45.99	51.65	49.11	-38.2	-39.2	22.6	0.00e+00	120	41	0	1248854016	50	5662
2026-01-18 23:21:46.96	51.05	49.09	-38.1	-39.1	22.7	0.00e+00	122	41	0	1251999744	50	5617
2026-01-18 23:21:47.94	50.45	49.07	-38.5	-39.5	22.5	0.00e+00	122	41	0	1255145472	50	5882
2026-01-18 23:21:48.92	49.85	49.05	-38.5	-39.5	22.4	0.00e+00	123	41	0	1257242624	50	5904
2026-01-18 23:21:49.90	49.24	49.02	-38.6	-39.7	22.2	0.00e+00	121	41	0	1260388352	50	5999
2026-01-18 23:21:50.87	48.65	48.99	-38.9	-40.0	22.0	0.00e+00	122	41	0	1263534080	50	6228
2026-01-18 23:21:51.85	48.05	48.96	-38.9	-39.9	22.1	0.00e+00	124	41	0	1266679808	50	6176
2026-01-18 23:21:52.82	47.46	48.92	-38.9	-40.0	21.9	0.00e+00	124	41	0	1269825536	50	6210
2026-01-18 23:21:53.80	46.86	48.88	-39.2	-40.3	21.6	0.00e+00	124	41	0	1272971264	50	6433
2026-01-18 23:21:54.77	46.27	48.83	-39.3	-40.4	21.5	0.00e+00	122	41	0	1276116992	50	6544
2026-01-18 23:21:55.75	45.68	48.79	-39.5	-40.6	21.4	0.00e+00	121	41	0	1279262720	50	6699
2026-01-18 23:21:56.73	45.09	48.74	-39.4	-40.5	21.5	0.00e+00	123	41	0	1282408448	50	6649
2026-01-18 23:21:57.70	44.51	48.68	-39.2	-40.3	21.7	0.00e+00	122	41	0	1285554176	50	6460
2026-01-18 23:21:58.68	43.92	48.63	-39.0	-40.1	22.0	0.00e+00	122	41	0	1287651328	50	6297
2026-01-18 23:21:59.66	43.33	48.57	-39.0	-40.0	22.0	0.00e+00	125	41	0	1290797056	50	6259
2026-01-18 23:22:00.63	42.76	48.50	-38.9	-40.0	22.1	0.00e+00	123	41	0	1293942784	50	6216
2026-01-18 23:22:01.61	42.18	48.44	-39.0	-40.1	22.0	0.00e+00	122	41	0	1297088512	50	6280
2026-01-18 23:22:02.59	41.60	48.37	-38.7	-39.7	22.2	0.00e+00	122	41	0	1300234240	50	6015
2026-01-18 23:22:03.57	41.02	48.30	-38.5	-39.5	22.3	0.00e+00	123	41	0	1303379968	50	5915
2026-01-18 23:22:04.54	40.46	48.22	-38.9	-40.0	21.9	0.00e+00	123	41	0	1306525696	50	6223
2026-01-18 23:22:05.52	39.89	48.14	-39.0	-40.0	21.8	0.00e+00	120	41	0	1309671424	50	6269
2026-01-18 23:22:06.50	39.32	48.06	-38.9	-39.9	21.7	0.00e+00	123	41	0	1312817152	50	6187
2026-01-18 23:22:07.48	38.76	47.98	-38.8	-39.9	21.7	0.00e+00	123	41	0	1315962880	50	6142
2026-01-18 23:22:08.45	38.21	47.89	-38.4	-39.5	22.3	0.00e+00	121	41	0	1319108608	50	5868
2026-01-18 23:22:09.43	37.65	47.80	-38.4	-39.4	22.4	0.00e+00	121	41	0	1322254336	50	5840
2026-01-18 23:22:10.41	37.10	47.71	-38.6	-39.6	22.3	0.00e+00	125	41	0	1324351488	50	5950
2026-01-18 23:22:11.39	36.55	47.61	-38.9	-39.9	22.0	0.00e+00	121	41	0	1327497216	50	6192
2026-01-18 23:22:12.36	36.00	47.52	-39.0	-40.0	21.8	0.00e+00	120	41	0	1330642944	50	6265
2026-01-18 23:22:13.34	35.46	47.42	-38.8	-39.9	21.7	0.00e+00	122	41	0	1333788672	50	6157
2026-01-18 23:22:14.32	34.92	47.31	-38.5	-39.6	21.6	0.00e+00	124	41	0	1336934400	50	5962
2026-01-18 23:22:15.30	34.38	47.21	-38.5	-39.6	21.6	0.00e+00	123	41	0	1340080128	50	5954
2026-01-18 23:22:16.27	33.86	47.10	-38.8	-39.8	21.8	0.00e+00	122	41	0	1343225856	50	6128
2026-01-18 23:22:17.25	33.33	46.99	-38.8	-39.9	22.0	0.00e+00	121	41	0	1346371584	50	6161
2026-01-18 23:22:18.23	32.80	46.88	-39.2	-40.3	21.7	0.00e+00	123	41	0	1349517312	50	6430
2026-01-18 23:22:19.20	32.29	46.77	-39.7	-40.8	21.2	0.00e+00	122	41	0	1352663040	50	6845
2026-01-18 23:22:20.18	31.77	46.65	-39.8	-40.9	21.1	0.00e+00	122	41	0	1355808768	52	6180
2026-01-18 23:22:21.16	31.26	46.53	-39.4	-40.5	21.5	0.00e+00	122	41	0	1357905920	52	5898
2026-01-18 23:22:22.13	30.75	46.41	-38.7	-39.8	22.0	0.00e+00	121	41	0	1361051648	52	5424
2026-01-18 23:22:23.11	30.25	46.29	-38.2	-39.2	22.4	0.00e+00	122	41	0	1364197376	50	5701
2026-01-18 23:22:24.09	29.75	46.16	-38.0	-39.0	22.7	0.00e+00	121	41	0	1367343104	50	5556
2026-01-18 23:22:25.07	29.25	46.03	-38.5	-39.6	22.2	0.00e+00	122	41	0	1370488832	50	5930
2026-01-18 23:22:26.04	28.76	45.90	-39.5	-40.6	21.4	0.00e+00	124	41	0	1373634560	50	6692
2026-01-18 23:22:27.02	28.27	45.77	-40.2	-41.4	20.7	0.00e+00	124	41	0	1376780288	52	6514
2026-01-18 23:22:28.00	27.79	45.64	-40.0	-41.2	20.6	0.00e+00	123	41	0	1379926016	52	6389
2026-01-18 23:22:28.98	27.30	45.50	-38.8	-39.9	21.7	0.00e+00	123	41	0	1383071744	52	5480
2026-01-18 23:22:29.96	26.83	45.37	-37.9	-38.9	22.8	0.00e+00	121	41	0	1386217472	50	5488
2026-01-18 23:22:30.93	26.36	45.23	-37.7	-38.6	23.2	0.00e+00	122	41	0	1389363200	48	5988
2026-01-18 23:22:31.91	25.89	45.09	-38.2	-39.2	22.6	0.00e+00	122	41	0	1392508928	48	6398
2026-01-18 23:22:32.89	25.43	44.95	-39.6	-40.7	21.4	0.00e+00	121	41	0	1394606080	50	6779
2026-01-18 23:22:33.87	24.97	44.80	-40.7	-41.9	20.2	0.00e+00	121	41	0	1397751808	52	6939
2026-01-18 23:22:34.85	24.51	44.66	-40.4	-41.7	20.0	0.00e+00	121	41	0	1400897536	54	6017
2026-01-18 23:22:35.82	24.06	44.51	-39.9	-41.0	20.4	0.00e+00	124	41	0	1404043264	54	5576
2026-01-18 23:22:36.80	23.62	44.37	-37.8	-38.8	22.2	0.00e+00	122	41	0	1407188992	50	5413
2026-01-18 23:22:37.78	23.17	44.22	-36.9	-37.8	23.2	0.00e+00	120	41	0	1410334720	48	5430
2026-01-18 23:22:38.76	22.73	44.07	-37.0	-37.9	23.5	0.00e+00	119	41	0	1413480448	48	5501
2026-01-18 23:22:39.74	22.30	43.91	-37.7	-38.7	23.0	0.00e+00	121	41	0	1416626176	48	6007
2026-01-18 23:22:40.71	21.87	43.76	-39.3	-40.4	21.5	0.00e+00	121	41	0	1419771904	50	6542
2026-01-18 23:22:41.69	21.44	43.61	-41.0	-42.3	19.9	0.00e+00	122	41	0	1422917632	54	6465
2026-01-18 23:22:42.67	21.02	43.45	-41.3	-42.7	18.9	0.00e+00	122	41	0	1426063360	54	6765
2026-01-18 23:22:43.65	20.60	43.30	-40.7	-42.2	18.8	0.00e+00	121	41	0	1429209088	54	6351
2026-01-18 23:22:44.63	20.19	43.14	-40.0	-41.4	19.6	0.00e+00	124	41	0	1432354816	54	5808
2026-01-18 23:22:45.61	19.78	42.98	-39.7	-40.9	20.5	0.00e+00	124	41	0	1434451968	52	6194
2026-01-18 23:22:46.58	19.38	42.82	-39.9	-41.1	20.9	0.00e+00	122	41	0	1437597696	52	6311
2026-01-18 23:22:47.56	18.97	42.66	-39.9	-41.1	20.8	0.00e+00	123	41	0	1440743424	52	6334
2026-01-18 23:22:48.54	18.58	42.50	-39.3	-40.4	21.4	0.00e+00	121	41	0	1443889152	52	5835
2026-01-18 23:22:49.52	18.18	42.34	-39.8	-40.9	21.2	0.00e+00	123	41	0	1447034880	52	6161
2026-01-18 23:22:50.50	17.79	42.17	-39.9	-41.0	21.0	0.00e+00	123	41	0	1450180608	52	6259
2026-01-18 23:22:51.48	17.41	42.01	-39.4	-40.5	21.3	0.00e+00	123	41	0	1453326336	52	5885
2026-01-18 23:22:52.45	17.03	41.85	-39.0	-40.1	21.6	0.00e+00	122	41	0	1456472064	52	5603
2026-01-18 23:22:53.43	16.65	41.68	-38.7	-39.8	21.8	0.00e+00	125	41	0	1459617792	52	5413
2026-01-18 23:22:54.41	16.27	41.52	-38.9	-39.9	21.7	0.00e+00	122	41	0	1462763520	50	6162
2026-01-18 23:22:55.38	15.91	41.35	-39.3	-40.4	21.5	0.00e+00	120	41	0	1465909248	50	6505
2026-01-18 23:22:56.36	15.54	41.18	-40.1	-41.2	20.6	0.00e+00	122	41	0	1468006400	52	6413
2026-01-18 23:22:57.33	15.18	41.02	-41.4	-42.7	19.6	0.00e+00	123	41	0	1471152128	54	6796
2026-01-18 23:22:58.31	14.82	40.85	-42.2	-43.6	18.8	0.00e+00	121	41	0	1474297856	56	6706
2026-01-18 23:22:59.30	14.46	40.68	-41.2	-42.5	19.6	0.00e+00	124	41	0	1477443584	56	5889
2026-01-18 23:23:00.27	14.11	40.51	-39.6	-40.7	21.1	0.00e+00	122	41	0	1480589312	52	6005
2026-01-18 23:23:01.25	13.77	40.34	-38.6	-39.6	22.2	0.00e+00	121	41	0	1483735040	50	5953
2026-01-18 23:23:02.23	13.42	40.17	-38.4	-39.4	22.4	0.00e+00	123	41	0	1486880768	50	5815
2026-01-18 23:23:03.20	13.08	40.00	-38.0	-39.0	22.8	0.00e+00	123	41	0	1490026496	50	5557
2026-01-18 23:23:04.18	12.75	39.83	-38.2	-39.1	22.6	0.00e+00	122	41	0	1493172224	50	5653
2026-01-18 23:23:05.16	12.41	39.66	-38.6	-39.6	22.1	0.00e+00	122	41	0	1496317952	50	5981
2026-01-18 23:23:06.14	12.08	39.49	-39.1	-40.2	21.7	0.00e+00	123	41	0	1499463680	50	6395
2026-01-18 23:23:07.12	11.76	39.32	-39.7	-40.8	21.1	0.00e+00	123	41	0	1501560832	50	6848
2026-01-18 23:23:08.10	11.43	39.15	-40.0	-41.1	21.1	0.00e+00	123	41	0	1504706560	52	6338
2026-01-18 23:23:09.08	11.11	38.98	-39.3	-40.5	21.4	0.00e+00	121	41	0	1507852288	52	5861
2026-01-18 23:23:10.05	10.80	38.81	-38.9	-40.0	21.7	0.00e+00	122	41	0	1510998016	52	5543
2026-01-18 23:23:11.03	10.49	38.64	-38.6	-39.7	22.1	0.00e+00	123	41	0	1514143744	50	6010
2026-01-18 23:23:12.01	10.18	38.46	-37.7	-38.6	23.0	0.00e+00	123	41	0	1517289472	50	5327
2026-01-18 23:23:12.98	9.87	38.29	-37.5	-38.4	23.3	0.00e+00	120	41	0	1520435200	48	5848
2026-01-18 23:23:13.96	9.57	38.12	-38.0	-39.0	22.8	0.00e+00	123	41	0	1523580928	48	6257
2026-01-18 23:23:14.94	9.27	37.95	-38.4	-39.5	22.4	0.00e+00	122	41	0	1526726656	48	6574
2026-01-18 23:23:15.92	8.97	37.78	-38.8	-39.9	22.0	0.00e+00	123	41	0	1529872384	50	6165
2026-01-18 23:23:16.89	8.68	37.61	-39.0	-40.1	21.6	0.00e+00	118	41	0	1533018112	50	6338
2026-01-18 23:23:17.87	8.39	37.43	-39.0	-40.2	21.6	0.00e+00	121	41	0	1535115264	50	6364
2026-01-18 23:23:18.85	8.11	37.26	-38.8	-39.9	21.9	0.00e+00	121	41	0	1538260992	50	6157
2026-01-18 23:23:19.82	7.82	37.09	-38.6	-39.6	22.2	0.00e+00	119	41	0	1541406720	50	5990
2026-01-18 23:23:20.80	7.54	36.92	-38.6	-39.7	22.2	0.00e+00	121	41	0	1544552448	50	6014
2026-01-18 23:23:21.78	7.26	36.75	-37.9	-38.9	22.9	0.00e+00	121	41	0	1547698176	50	5477
2026-01-18 23:23:22.75	6.99	36.58	-37.4	-38.4	23.3	0.00e+00	122	41	0	1550843904	48	5808
2026-01-18 23:23:23.73	6.72	36.41	-37.2	-38.1	23.5	0.00e+00	122	41	0	1553989632	48	5634
2026-01-18 23:23:24.71	6.45	36.23	-37.3	-38.2	23.4	0.00e+00	123	41	0	1557135360	48	5680
2026-01-18 23:23:25.69	6.18	36.06	-37.4	-38.3	23.1	0.00e+00	122	41	0	1560281088	48	5766
2026-01-18 23:23:26.66	5.92	35.89	-37.5	-38.5	23.2	0.00e+00	121	41	0	1563426816	48	5903
2026-01-18 23:23:27.64	5.66	35.72	-37.5	-38.4	23.3	0.00e+00	120	41	0	1566572544	48	5848
2026-01-18 23:23:28.62	5.40	35.55	-37.2	-38.2	23.3	0.00e+00	122	41	0	1568669696	48	5690
2026-01-18 23:23:29.59	5.15	35.38	-37.1	-38.1	23.4	0.00e+00	126	41	0	1571815424	48	5605
2026-01-18 23:23:30.57	4.89	35.21	-36.9	-37.8	23.6	0.00e+00	121	41	0	1574961152	48	5436
2026-01-18 23:23:31.54	4.65	35.05	-36.7	-37.6	23.8	0.00e+00	124	41	0	1578106880	46	5956
2026-01-18 23:23:32.52	4.40	34.88	-36.5	-37.4	24.0	0.00e+00	122	41	0	1581252608	46	5808
2026-01-18 23:23:33.50	4.15	34.71	-36.7	-37.6	23.8	0.00e+00	122	41	0	1584398336	46	5955
2026-01-18 23:23:34.48	3.91	34.54	-36.9	-37.9	23.5	0.00e+00	122	41	0	1587544064	46	6152
2026-01-18 23:23:35.46	3.67	34.37	-37.0	-38.0	23.3	0.00e+00	124	41	0	1590689792	46	6231
2026-01-18 23:23:36.44	3.43	34.20	-37.2	-38.1	23.1	0.00e+00	123	41	0	1593835520	46	6339
2026-01-18 23:23:37.41	3.20	34.04	-37.3	-38.3	23.0	0.00e+00	123	41	0	1596981248	46	6433
2026-01-18 23:23:38.39	2.97	33.87	-37.2	-38.2	23.0	0.00e+00	120	41	0	1600126976	46	6391
2026-01-18 23:23:39.37	2.74	33.70	-37.4	-38.4	23.0	0.00e+00	123	41	0	1603272704	46	6509
2026-01-18 23:23:40.35	2.51	33.53	-37.6	-38.6	23.0	0.00e+00	123	41	0	1606418432	46	6684
2026-01-18 23:23:41.33	2.28	33.37	-37.6	-38.6	22.8	0.00e+00	120	41	0	1608515584	46	6668
2026-01-18 23:23:42.31	2.06	33.20	-37.4	-38.4	22.9	0.00e+00	123	41	0	1611661312	46	6550
2026-01-18 23:23:43.29	1.84	33.04	-37.3	-38.3	23.1	0.00e+00	123	41	0	1614807040	46	6443
2026-01-18 23:23:44.27	1.62	32.87	-37.2	-38.2	23.2	0.00e+00	124	41	0	1617952768	46	6370
2026-01-18 23:23:45.25	1.40	32.71	-36.8	-37.8	23.6	0.00e+00	122	41	0	1621098496	46	6074
2026-01-18 23:23:46.22	1.19	32.54	-36.9	-37.9	23.5	0.00e+00	122	41	0	1624244224	46	6147
2026-01-18 23:23:47.20	0.98	32.38	-37.1	-38.1	23.5	0.00e+00	123	41	0	1627389952	46	6278
2026-01-18 23:23:48.18	0.77	32.22	-37.3	-38.3	23.2	0.00e+00	123	41	0	1630535680	46	6451
2026-01-18 23:23:49.16	0.56	32.05	-37.3	-38.3	23.3	0.00e+00	122	41	0	1633681408	46	6448
2026-01-18 23:23:50.14	0.36	31.89	-37.5	-38.5	23.1	0.00e+00	120	41	0	1636827136	46	6589
2026-01-18 23:23:51.12	0.15	31.73	-37.4	-38.4	23.0	0.00e+00	122	41	0	1639972864	46	6534
2026-01-18 23:23:52.10	359.95	31.57	-37.5	-38.5	22.9	0.00e+00	119	41	0	1643118592	46	6609
2026-01-18 23:23:53.07	359.75	31.41	-37.1	-38.0	23.3	0.00e+00	121	41	0	1645215744	46	6273
2026-01-18 23:23:54.06	359.55	31.25	-36.8	-37.7	23.6	0.00e+00	123	41	0	1648361472	46	6038
2026-01-18 23:23:55.04	359.36	31.09	-36.4	-37.3	24.1	0.00e+00	121	41	0	1651507200	46	5773
2026-01-18 23:23:56.01	359.17	30.93	-36.2	-37.1	24.2	0.00e+00	119	41	0	1654652928	46	5653
2026-01-18 23:23:56.98	358.98	30.77	-36.3	-37.2	24.2	0.00e+00	122	41	0	1657798656	46	5689
2026-01-18 23:23:57.96	358.79	30.61	-36.4	-37.3	24.0	0.00e+00	121	41	0	1660944384	46	5776
2026-01-18 23:23:58.94	358.60	30.45	-36.5	-37.5	23.9	0.00e+00	122	41	0	1664090112	46	5866
2026-01-18 23:23:59.92	358.41	30.30	-36.8	-37.8	23.7	0.00e+00	122	41	0	1667235840	46	6067
2026-01-18 23:24:00.90	358.23	30.14	-36.9	-37.9	23.6	0.00e+00	123	41	0	1670381568	46	6148
2026-01-18 23:24:01.87	358.05	29.99	-37.0	-38.0	23.5	0.00e+00	122	41	0	1673527296	46	6227
2026-01-18 23:24:02.85	357.87	29.83	-37.1	-38.1	23.4	0.00e+00	122	41	0	1676673024	46	6300
2026-01-18 23:24:03.84	357.69	29.67	-37.0	-38.0	23.5	0.00e+00	122	41	0	1679818752	46	6239
2026-01-18 23:24:04.82	357.51	29.52	-37.0	-38.0	23.4	0.00e+00	122	41	0	1681915904	46	6211
2026-01-18 23:24:05.80	357.33	29.36	-37.0	-38.0	23.3	0.00e+00	121	41	0	1685061632	46	6260
2026-01-18 23:24:06.78	357.16	29.21	-36.9	-37.9	23.5	0.00e+00	122	41	0	1688207360	46	6176
2026-01-18 23:24:07.76	356.99	29.06	-36.9	-37.9	23.5	0.00e+00	123	41	0	1691353088	46	6135
2026-01-18 23:24:08.74	356.82	28.90	-36.6	-37.6	23.8	0.00e+00	124	41	0	1694498816	46	5946
2026-01-18 23:24:09.71	356.65	28.75	-36.6	-37.5	23.8	0.00e+00	123	41	0	1697644544	46	5891
2026-01-18 23:24:10.69	356.48	28.60	-36.5	-37.5	23.9	0.00e+00	122	41	0	1700790272	46	5869
2026-01-18 23:24:11.67	356.32	28.45	-36.3	-37.2	24.1	0.00e+00	120	41	0	1703936000	46	5669
2026-01-18 23:24:12.65	356.15	28.30	-36.4	-37.3	24.0	0.00e+00	121	41	0	1707081728	46	5741
2026-01-18 23:24:13.62	355.99	28.15	-36.2	-37.1	24.1	0.00e+00	122	41	0	1710227456	46	5634
2026-01-18 23:24:14.60	355.83	28.00	-36.2	-37.1	24.1	0.00e+00	120	41	0	1713373184	46	5634
2026-01-18 23:24:15.58	355.67	27.85	-36.3	-37.2	24.0	0.00e+00	123	41	0	1715470336	46	5723
2026-01-18 23:24:16.56	355.51	27.70	-36.4	-37.3	24.0	0.00e+00	123	41	0	1718616064	46	5757
2026-01-18 23:24:17.53	355.36	27.56	-36.3	-37.2	24.0	0.00e+00	121	41	0	1721761792	46	5688
2026-01-18 23:24:18.51	355.21	27.41	-36.3	-37.3	24.0	0.00e+00	122	41	0	1724907520	46	5726
2026-01-18 23:24:19.49	355.05	27.26	-36.3	-37.2	24.0	0.00e+00	122	41	0	1728053248	46	5689
2026-01-18 23:24:20.46	354.90	27.12	-36.3	-37.3	24.0	0.00e+00	120	41	0	1731198976	46	5729
2026-01-18 23:24:21.44	354.75	26.97	-36.2	-37.2	24.0	0.00e+00	123	41	0	1734344704	46	5665
2026-01-18 23:24:22.42	354.60	26.83	-36.2	-37.2	24.0	0.00e+00	122	41	0	1737490432	46	5674
2026-01-18 23:24:23.39	354.45	26.69	-36.1	-37.0	24.1	0.00e+00	122	41	0	1740636160	46	5574
2026-01-18 23:24:24.37	354.31	26.54	-35.9	-36.8	24.2	0.00e+00	121	41	0	1743781888	46	5447
2026-01-18 23:24:25.35	354.16	26.40	-35.9	-36.8	24.3	0.00e+00	123	41	0	1746927616	46	5432
2026-01-18 23:24:26.33	354.02	26.26	-35.9	-36.8	24.3	0.00e+00	121	41	0	1749024768	46	5430
2026-01-18 23:24:27.31	353.88	26.11	-35.9	-36.7	24.3	0.00e+00	122	41	0	1752170496	46	5403
2026-01-18 23:24:28.28	353.74	25.97	-35.7	-36.6	24.4	0.00e+00	123	41	0	1755316224	44	5956
2026-01-18 23:24:29.26	353.60	25.83	-35.8	-36.7	24.3	0.00e+00	120	41	0	1758461952	44	6033
2026-01-18 23:24:30.23	353.46	25.69	-35.9	-36.8	24.3	0.00e+00	123	41	0	1761607680	44	6121
2026-01-18 23:24:31.21	353.32	25.55	-35.9	-36.8	24.2	0.00e+00	121	41	0	1764753408	44	6114
2026-01-18 23:24:32.19	353.19	25.41	-36.0	-36.9	24.2	0.00e+00	121	41	0	1767899136	44	6138
2026-01-18 23:24:33.16	353.05	25.28	-36.0	-37.0	24.1	0.00e+00	123	41	0	1771044864	44	6206
2026-01-18 23:24:34.15	352.92	25.14	-36.1	-37.0	24.1	0.00e+00	121	41	0	1774190592	44	6246
2026-01-18 23:24:35.12	352.79	25.00	-36.1	-37.1	24.0	0.00e+00	123	41	0	1777336320	44	6294
2026-01-18 23:24:36.10	352.66	24.86	-36.3	-37.2	23.9	0.00e+00	122	41	0	1780482048	44	6377
2026-01-18 23:24:37.08	352.52	24.73	-36.4	-37.3	23.8	0.00e+00	119	41	0	1782579200	44	6494
2026-01-18 23:24:38.05	352.40	24.59	-36.2	-37.1	23.9	0.00e+00	121	41	0	1785724928	44	6343
2026-01-18 23:24:39.03	352.27	24.46	-36.4	-37.3	23.8	0.00e+00	123	41	0	1788870656	44	6471
2026-01-18 23:24:40.01	352.14	24.32	-36.5	-37.4	23.8	0.00e+00	123	41	0	1792016384	44	6531
2026-01-18 23:24:40.99	352.02	24.19	-36.4	-37.3	23.8	0.00e+00	123	41	0	1795162112	44	6486
2026-01-18 23:24:41.97	351.89	24.05	-36.5	-37.4	23.8	0.00e+00	123	41	0	1798307840	44	6559
2026-01-18 23:24:42.95	351.77	23.92	-36.6	-37.5	23.8	0.00e+00	121	41	0	1801453568	44	6613
2026-01-18 23:24:43.93	351.65	23.78	-36.7	-37.6	23.7	0.00e+00	123	41	0	1804599296	44	6710
2026-01-18 23:24:44.90	351.53	23.65	-36.6	-37.6	23.7	0.00e+00	122	41	0	1807745024	44	6687
2026-01-18 23:24:45.88	351.41	23.52	-36.7	-37.6	23.7	0.00e+00	124	41	0	1810890752	44	6692
2026-01-18 23:24:46.86	351.29	23.39	-36.9	-37.8	23.6	0.00e+00	122	41	0	1814036480	46	6109
2026-01-18 23:24:47.83	351.17	23.26	-37.0	-37.9	23.5	0.00e+00	123	41	0	1817182208	46	6188
2026-01-18 23:24:48.81	351.05	23.13	-37.1	-38.1	23.3	0.00e+00	123	41	0	1819279360	46	6289
2026-01-18 23:24:49.78	350.94	23.00	-37.0	-38.0	23.3	0.00e+00	123	41	0	1822425088	46	6208
2026-01-18 23:24:50.76	350.82	22.87	-37.0	-38.0	23.3	0.00e+00	126	41	0	1825570816	46	6217
2026-01-18 23:24:51.74	350.71	22.74	-36.8	-37.7	23.5	0.00e+00	124	41	0	1828716544	46	6034
2026-01-18 23:24:52.72	350.59	22.62	-36.6	-37.5	23.6	0.00e+00	124	41	0	1831862272	46	5926
2026-01-18 23:24:53.70	350.48	22.49	-36.4	-37.3	23.7	0.00e+00	123	41	0	1835008000	46	5786
2026-01-18 23:24:54.67	350.37	22.36	-36.3	-37.2	23.7	0.00e+00	124	41	0	1838153728	46	5691
2026-01-18 23:24:55.65	350.26	22.24	-36.2	-37.1	23.8	0.00e+00	123	41	0	1841299456	46	5635
2026-01-18 23:24:56.62	350.15	22.11	-36.0	-36.9	24.0	0.00e+00	123	41	0	1844445184	46	5519
2026-01-18 23:24:57.60	350.04	21.98	-36.1	-37.0	24.0	0.00e+00	120	41	0	1847590912	46	5553
2026-01-18 23:24:58.58	349.94	21.86	-35.9	-36.8	24.2	0.00e+00	123	41	0	1850736640	46	5416
2026-01-18 23:24:59.56	349.83	21.73	-35.9	-36.8	24.3	0.00e+00	122	41	0	1853882368	46	5409
2026-01-18 23:25:00.53	349.72	21.61	-36.0	-36.9	24.2	0.00e+00	123	41	0	1857028096	46	5471
2026-01-18 23:25:01.51	349.62	21.49	-35.8	-36.7	24.4	0.00e+00	124	41	0	1859125248	46	5382
2026-01-18 23:25:02.49	349.51	21.36	-36.0	-36.9	24.2	0.00e+00	121	41	0	1862270976	46	5505
2026-01-18 23:25:03.47	349.41	21.24	-36.0	-36.9	24.3	0.00e+00	123	41	0	1865416704	46	5475
2026-01-18 23:25:04.45	349.31	21.12	-36.0	-36.9	24.3	0.00e+00	124	41	0	1868562432	46	5477
2026-01-18 23:25:05.42	349.21	21.00	-36.1	-37.0	24.2	0.00e+00	121	41	0	1871708160	46	5535
2026-01-18 23:25:06.40	349.11	20.88	-36.2	-37.1	24.1	0.00e+00	124	41	0	1874853888	46	5619
2026-01-18 23:25:07.37	349.01	20.76	-36.2	-37.1	24.1	0.00e+00	124	41	0	1877999616	46	5640
2026-01-18 23:25:08.35	348.91	20.64	-36.2	-37.2	23.9	0.00e+00	121	41	0	1881145344	46	5674
2026-01-18 23:25:09.33	348.81	20.52	-36.4	-37.3	23.9	0.00e+00	121	41	0	1884291072	46	5755
2026-01-18 23:25:10.31	348.71	20.40	-36.4	-37.4	23.8	0.00e+00	123	41	0	1887436800	46	5806
