passes_logs/2026/01/18/R4.6S_Anadyr/R4.6S_Anadyr__20260118_152833_SUOMI_NPP_rec.log

#Pass ID: 20260118_152833_SUOMI NPP
#Satellite: SUOMI NPP
#Configuration: NPP
#almurnet v.1.7.20251203
#Start time: 2026-01-18 15:28:36

#Version: 2.2.20231116
#Station: R4.6S_Anadyr
#Location: 177.4865 lon 64.73178 lat
#TLE: 1 37849U 11061A   26017.57099531  .00000072  00000+0  54974-4 0  9996
#TLE: 2 37849  98.7814 319.5974 0002398  59.1749 300.9663 14.19525865737072

#Time	Az	El	Level	Level2	SNR	BER	BlckErr	Temp	State	Recorded	gain1	gain2
2026-01-18 15:28:36.39	22.19	0.20	-49.5	-63.2	3.3	1.54e+00	0	37	0	0	60	52468
2026-01-18 15:28:37.39	22.18	0.26	-49.4	-64.7	3.6	1.51e+00	0	37	104	0	60	62017
2026-01-18 15:28:38.40	22.16	0.32	-49.5	-64.7	3.6	1.51e+00	0	37	104	0	60	62044
2026-01-18 15:28:39.41	22.15	0.38	-49.5	-64.7	3.6	1.51e+00	0	37	104	0	60	62016
2026-01-18 15:28:40.42	22.13	0.44	-49.5	-64.8	3.6	1.51e+00	0	37	104	0	60	62633
2026-01-18 15:28:41.43	22.12	0.50	-49.5	-64.8	3.6	1.51e+00	0	37	104	0	60	62595
2026-01-18 15:28:42.44	22.10	0.56	-49.6	-64.8	3.6	1.51e+00	0	37	104	0	60	62865
2026-01-18 15:28:43.45	22.09	0.62	-49.5	-64.8	3.6	1.51e+00	0	37	104	0	60	62460
2026-01-18 15:28:44.46	22.07	0.68	-49.6	-64.7	3.6	1.51e+00	0	37	104	0	60	62426
2026-01-18 15:28:45.47	22.06	0.74	-49.6	-64.7	3.6	1.51e+00	0	37	104	0	60	62351
2026-01-18 15:28:46.48	22.04	0.81	-49.5	-64.7	3.6	1.51e+00	0	37	104	0	60	61945
2026-01-18 15:28:47.49	22.03	0.87	-49.4	-64.6	3.6	1.51e+00	0	37	104	0	60	61597
2026-01-18 15:28:48.50	22.01	0.93	-49.3	-64.6	3.6	1.51e+00	0	37	104	0	60	61325
2026-01-18 15:28:49.51	22.00	0.99	-49.3	-64.6	3.6	1.51e+00	0	37	104	0	60	61071
2026-01-18 15:28:50.52	21.98	1.05	-49.3	-64.5	3.6	1.51e+00	0	37	104	0	60	60357
2026-01-18 15:28:51.53	21.97	1.11	-49.1	-64.3	3.6	1.51e+00	0	37	104	0	60	59576
2026-01-18 15:28:52.54	21.95	1.18	-48.9	-64.2	3.6	1.51e+00	0	37	104	0	60	58708
2026-01-18 15:28:53.55	21.94	1.24	-48.9	-64.1	3.6	1.51e+00	0	37	104	0	60	58239
2026-01-18 15:28:54.56	21.92	1.30	-48.8	-64.0	3.6	1.51e+00	0	37	104	0	60	57290
2026-01-18 15:28:55.57	21.90	1.36	-48.7	-63.9	3.6	1.51e+00	0	37	104	0	60	56353
2026-01-18 15:28:56.58	21.89	1.43	-48.5	-63.6	3.6	1.51e+00	0	37	104	0	60	54619
2026-01-18 15:28:57.59	21.87	1.49	-48.2	-63.3	3.6	1.51e+00	0	37	104	0	60	53030
2026-01-18 15:28:58.60	21.86	1.55	-48.1	-63.1	3.6	1.51e+00	0	37	104	0	60	51867
2026-01-18 15:28:59.61	21.84	1.62	-48.1	-63.1	3.6	1.51e+00	0	37	104	0	60	51798
2026-01-18 15:29:00.62	21.82	1.68	-48.1	-63.1	3.6	1.51e+00	0	37	104	0	60	51759
2026-01-18 15:29:01.63	21.81	1.74	-48.1	-63.2	3.6	1.51e+00	0	37	104	0	60	52204
2026-01-18 15:29:02.64	21.79	1.81	-48.1	-63.2	3.6	1.51e+00	0	37	104	0	60	52445
2026-01-18 15:29:03.65	21.77	1.87	-48.1	-63.2	3.6	1.51e+00	0	37	104	0	60	52437
2026-01-18 15:29:04.66	21.76	1.93	-48.1	-63.2	3.6	1.51e+00	0	37	104	0	60	52221
2026-01-18 15:29:05.67	21.74	2.00	-48.1	-63.2	3.6	1.51e+00	0	37	104	0	60	52243
2026-01-18 15:29:06.68	21.72	2.06	-48.1	-63.3	3.6	1.51e+00	0	37	104	0	60	52581
2026-01-18 15:29:07.69	21.71	2.12	-48.1	-63.3	3.6	1.51e+00	0	37	104	0	60	52754
2026-01-18 15:29:08.70	21.69	2.19	-48.1	-63.3	3.6	1.51e+00	0	37	104	0	60	52749
2026-01-18 15:29:09.71	21.67	2.25	-48.1	-63.2	3.6	1.51e+00	0	37	104	0	60	52211
2026-01-18 15:29:10.72	21.66	2.32	-48.0	-63.1	3.6	1.51e+00	0	37	104	0	60	51686
2026-01-18 15:29:11.73	21.64	2.38	-48.0	-62.9	3.6	1.51e+00	0	37	104	0	60	50464
2026-01-18 15:29:12.74	21.62	2.45	-48.0	-62.5	3.6	1.51e+00	0	37	104	0	60	48114
2026-01-18 15:29:13.75	21.60	2.51	-48.0	-62.1	3.6	1.51e+00	0	37	104	0	60	45991
2026-01-18 15:29:14.76	21.59	2.58	-48.0	-62.0	3.6	1.51e+00	0	37	104	0	60	45687
2026-01-18 15:29:15.77	21.57	2.64	-48.0	-62.1	3.6	1.51e+00	0	37	104	0	60	46264
2026-01-18 15:29:16.78	21.55	2.71	-48.0	-62.5	3.6	1.51e+00	0	37	104	0	60	47951
2026-01-18 15:29:17.79	21.53	2.77	-48.1	-63.0	3.6	1.51e+00	0	38	104	0	60	51222
2026-01-18 15:29:18.80	21.52	2.84	-48.1	-63.2	3.6	1.51e+00	0	37	104	0	60	52242
2026-01-18 15:29:19.80	21.50	2.91	-48.0	-62.4	3.6	1.51e+00	0	37	104	0	60	47416
2026-01-18 15:29:20.82	21.48	2.97	-47.9	-60.4	3.7	1.51e+00	0	38	104	0	60	38030
2026-01-18 15:29:21.82	21.46	3.04	-47.7	-57.4	5.0	9.87e-01	0	38	0	0	60	26789
2026-01-18 15:29:22.84	21.44	3.10	-47.3	-54.4	6.8	3.80e-01	91	37	0	1048576	60	19015
2026-01-18 15:29:23.84	21.42	3.17	-47.0	-53.0	8.5	8.46e-02	0	37	0	3145728	60	16226
2026-01-18 15:29:24.85	21.41	3.24	-46.7	-52.1	9.7	2.17e-02	0	38	0	5242880	60	14609
2026-01-18 15:29:25.86	21.39	3.30	-46.4	-51.2	10.8	6.28e-03	0	37	0	7340032	60	13065
2026-01-18 15:29:26.87	21.37	3.37	-46.2	-50.9	11.2	1.75e-03	0	38	0	9437184	60	12642
2026-01-18 15:29:27.88	21.35	3.44	-46.0	-50.4	11.6	8.50e-04	10	38	0	10485760	60	11965
2026-01-18 15:29:28.89	21.33	3.51	-46.1	-50.5	11.4	7.98e-04	0	38	0	12582912	60	12113
2026-01-18 15:29:29.90	21.31	3.57	-46.4	-51.3	10.5	3.41e-03	90	37	0	14680064	60	13290
2026-01-18 15:29:30.92	21.29	3.64	-46.6	-51.7	10.0	4.21e-03	0	38	0	16777216	60	13968
2026-01-18 15:29:31.92	21.27	3.71	-48.0	-60.9	3.7	7.21e-01	0	37	104	17825792	60	40311
2026-01-18 15:29:32.93	21.25	3.78	-41.7	-43.3	18.9	1.15e-01	0	38	0	17825792	56	6619
2026-01-18 15:29:33.94	21.23	3.84	-48.0	-62.6	3.6	4.99e-01	0	37	104	19922944	60	48497
2026-01-18 15:29:34.95	21.21	3.91	-46.3	-50.9	11.3	1.31e+00	2	37	104	19922944	60	12660
2026-01-18 15:29:35.96	21.19	3.98	-47.7	-57.0	4.6	1.09e-01	0	38	0	19922944	60	25470
2026-01-18 15:29:36.97	21.17	4.05	-43.2	-45.3	17.0	1.53e-02	90	37	0	22020096	60	6664
2026-01-18 15:29:37.98	21.15	4.12	-42.3	-44.1	18.1	0.00e+00	0	37	0	24117248	58	6529
2026-01-18 15:29:38.99	21.13	4.19	-41.6	-43.1	19.1	0.00e+00	66	38	0	25165824	56	6506
2026-01-18 15:29:40.00	21.11	4.26	-41.3	-42.8	19.4	0.00e+00	0	38	0	27262976	56	6252
2026-01-18 15:29:41.01	21.09	4.33	-41.2	-42.6	19.6	0.00e+00	0	38	0	29360128	56	6170
2026-01-18 15:29:42.02	21.07	4.40	-41.1	-42.5	19.6	0.00e+00	0	38	0	31457280	56	6096
2026-01-18 15:29:43.03	21.05	4.47	-41.1	-42.5	19.8	0.00e+00	0	37	0	33554432	56	6052
2026-01-18 15:29:44.04	21.03	4.54	-41.1	-42.5	19.7	0.00e+00	11	37	0	34603008	56	6090
2026-01-18 15:29:45.05	21.01	4.61	-41.2	-42.6	19.6	0.00e+00	0	38	0	36700160	56	6135
2026-01-18 15:29:46.06	20.99	4.68	-40.9	-42.2	20.0	0.00e+00	92	38	0	38797312	56	5879
2026-01-18 15:29:47.06	20.97	4.75	-40.9	-42.3	19.9	0.00e+00	0	38	0	40894464	56	5915
2026-01-18 15:29:48.07	20.95	4.82	-40.8	-42.2	20.0	0.00e+00	0	38	0	42991616	56	5839
2026-01-18 15:29:49.08	20.93	4.89	-40.7	-42.0	20.1	0.00e+00	0	37	0	44040192	54	6445
2026-01-18 15:29:50.09	20.90	4.96	-40.7	-42.1	20.1	0.00e+00	0	37	0	46137344	54	6486
2026-01-18 15:29:51.10	20.88	5.03	-40.6	-41.9	20.3	0.00e+00	0	37	0	48234496	54	6372
2026-01-18 15:29:52.11	20.86	5.10	-40.5	-41.8	20.3	0.00e+00	0	38	0	50331648	54	6282
2026-01-18 15:29:53.12	20.84	5.17	-40.6	-42.0	20.2	0.00e+00	70	37	0	52428800	54	6408
2026-01-18 15:29:54.13	20.82	5.24	-40.5	-41.8	20.3	0.00e+00	0	37	0	53477376	54	6292
2026-01-18 15:29:55.14	20.80	5.32	-40.4	-41.7	20.4	0.00e+00	0	38	0	55574528	54	6232
2026-01-18 15:29:56.15	20.77	5.39	-40.5	-41.8	20.3	0.00e+00	0	38	0	57671680	54	6306
2026-01-18 15:29:57.16	20.75	5.46	-40.5	-41.8	20.3	0.00e+00	0	38	0	59768832	54	6315
2026-01-18 15:29:58.17	20.73	5.53	-40.4	-41.7	20.5	0.00e+00	69	38	0	61865984	54	6176
2026-01-18 15:29:59.18	20.71	5.60	-40.4	-41.7	20.6	0.00e+00	0	38	0	63963136	54	6189
2026-01-18 15:30:00.19	20.68	5.68	-40.2	-41.5	20.6	0.00e+00	92	38	0	65011712	54	6060
2026-01-18 15:30:01.19	20.66	5.75	-40.4	-41.7	20.6	0.00e+00	0	38	0	67108864	54	6174
2026-01-18 15:30:02.20	20.64	5.82	-40.3	-41.6	20.7	0.00e+00	0	38	0	69206016	54	6135
2026-01-18 15:30:03.21	20.61	5.90	-40.3	-41.5	20.6	0.00e+00	14	38	0	71303168	54	6095
2026-01-18 15:30:04.22	20.59	5.97	-40.1	-41.3	20.9	0.00e+00	0	38	0	73400320	54	5943
2026-01-18 15:30:05.23	20.57	6.04	-40.1	-41.3	20.9	0.00e+00	57	38	0	74448896	54	5951
2026-01-18 15:30:06.24	20.54	6.12	-40.3	-41.5	20.6	0.00e+00	55	38	0	76546048	54	6071
2026-01-18 15:30:07.25	20.52	6.19	-40.1	-41.3	20.9	0.00e+00	92	38	0	78643200	54	5920
2026-01-18 15:30:08.26	20.50	6.27	-40.3	-41.5	20.7	0.00e+00	0	38	0	80740352	54	6082
2026-01-18 15:30:09.27	20.47	6.34	-40.0	-41.2	21.0	0.00e+00	90	38	0	82837504	54	5895
2026-01-18 15:30:10.28	20.45	6.42	-40.0	-41.2	21.0	0.00e+00	0	38	0	83886080	54	5831
2026-01-18 15:30:11.29	20.42	6.49	-39.9	-41.0	21.2	0.00e+00	0	38	0	85983232	54	5748
2026-01-18 15:30:12.30	20.40	6.57	-39.8	-41.0	21.3	0.00e+00	45	38	0	88080384	54	5704
2026-01-18 15:30:13.31	20.38	6.64	-39.9	-41.1	21.2	0.00e+00	0	38	0	90177536	52	6473
2026-01-18 15:30:14.32	20.35	6.72	-39.9	-41.1	21.2	0.00e+00	92	38	0	92274688	52	6481
2026-01-18 15:30:15.34	20.33	6.79	-39.8	-41.0	21.3	0.00e+00	0	38	0	93323264	52	6398
2026-01-18 15:30:16.35	20.30	6.87	-39.8	-41.0	21.3	0.00e+00	90	38	0	95420416	52	6411
2026-01-18 15:30:17.36	20.28	6.95	-39.7	-40.8	21.4	0.00e+00	19	38	0	97517568	52	6292
2026-01-18 15:30:18.37	20.25	7.02	-39.8	-40.9	21.4	0.00e+00	0	38	0	99614720	52	6352
2026-01-18 15:30:19.38	20.22	7.10	-39.8	-41.0	21.2	0.00e+00	12	38	0	101711872	52	6395
2026-01-18 15:30:20.39	20.20	7.18	-39.7	-40.8	21.5	0.00e+00	0	38	0	102760448	52	6271
2026-01-18 15:30:21.40	20.17	7.26	-39.6	-40.8	21.5	0.00e+00	90	38	0	104857600	52	6259
2026-01-18 15:30:22.41	20.15	7.33	-39.6	-40.7	21.6	0.00e+00	0	38	0	106954752	52	6233
2026-01-18 15:30:23.42	20.12	7.41	-39.5	-40.6	21.7	0.00e+00	90	38	0	109051904	52	6118
2026-01-18 15:30:24.43	20.09	7.49	-39.5	-40.6	21.7	0.00e+00	0	38	0	111149056	52	6120
2026-01-18 15:30:25.44	20.07	7.57	-39.4	-40.5	21.7	0.00e+00	0	38	0	112197632	52	6098
2026-01-18 15:30:26.45	20.04	7.64	-39.4	-40.5	21.8	0.00e+00	0	38	0	114294784	52	6059
2026-01-18 15:30:27.46	20.01	7.72	-39.4	-40.5	21.8	0.00e+00	0	38	0	116391936	52	6082
2026-01-18 15:30:28.47	19.99	7.80	-39.4	-40.5	21.9	0.00e+00	92	38	0	118489088	52	6046
2026-01-18 15:30:29.48	19.96	7.88	-39.4	-40.5	21.7	0.00e+00	0	38	0	120586240	52	6098
2026-01-18 15:30:30.49	19.93	7.96	-39.3	-40.3	22.0	0.00e+00	92	38	0	121634816	52	5946
2026-01-18 15:30:31.50	19.91	8.04	-39.2	-40.2	22.0	0.00e+00	0	38	0	123731968	52	5891
2026-01-18 15:30:32.51	19.88	8.12	-39.3	-40.3	22.0	0.00e+00	0	38	0	125829120	52	5946
2026-01-18 15:30:33.52	19.85	8.20	-39.4	-40.5	21.9	0.00e+00	0	38	0	127926272	52	6073
2026-01-18 15:30:34.53	19.82	8.28	-39.4	-40.5	21.9	0.00e+00	0	38	0	130023424	52	6066
2026-01-18 15:30:35.54	19.79	8.36	-39.3	-40.3	21.9	0.00e+00	7	38	0	132120576	52	5964
2026-01-18 15:30:36.55	19.77	8.44	-39.2	-40.3	22.0	0.00e+00	0	38	0	133169152	52	5921
2026-01-18 15:30:37.56	19.74	8.52	-39.2	-40.2	22.1	0.00e+00	73	38	0	135266304	52	5867
2026-01-18 15:30:38.57	19.71	8.61	-39.1	-40.1	22.2	0.00e+00	0	38	0	137363456	52	5809
2026-01-18 15:30:39.58	19.68	8.69	-39.1	-40.2	22.1	0.00e+00	0	38	0	139460608	52	5861
2026-01-18 15:30:40.59	19.65	8.77	-39.2	-40.2	22.1	0.00e+00	0	38	0	141557760	52	5890
2026-01-18 15:30:41.60	19.62	8.85	-39.1	-40.1	22.2	0.00e+00	0	38	0	142606336	52	5820
2026-01-18 15:30:42.61	19.59	8.93	-39.1	-40.2	22.1	0.00e+00	81	38	0	144703488	52	5855
2026-01-18 15:30:43.62	19.56	9.02	-39.2	-40.2	22.0	0.00e+00	0	38	0	146800640	52	5882
2026-01-18 15:30:44.63	19.53	9.10	-39.1	-40.1	22.3	0.00e+00	58	38	0	148897792	52	5790
2026-01-18 15:30:45.63	19.50	9.18	-38.9	-39.9	22.3	0.00e+00	0	38	0	150994944	52	5690
2026-01-18 15:30:46.64	19.47	9.26	-38.9	-39.9	22.4	0.00e+00	0	38	0	152043520	52	5691
2026-01-18 15:30:47.65	19.44	9.35	-38.7	-39.7	22.4	0.00e+00	0	38	0	154140672	52	5540
2026-01-18 15:30:48.66	19.41	9.43	-39.0	-40.0	22.2	0.00e+00	0	38	0	156237824	50	6424
2026-01-18 15:30:49.67	19.38	9.52	-38.8	-39.8	22.4	0.00e+00	10	38	0	158334976	50	6300
2026-01-18 15:30:50.68	19.35	9.60	-38.9	-40.0	22.3	0.00e+00	0	38	0	160432128	50	6393
2026-01-18 15:30:51.69	19.32	9.69	-39.0	-40.0	22.3	0.00e+00	57	38	0	161480704	50	6401
2026-01-18 15:30:52.70	19.29	9.77	-38.9	-39.9	22.3	0.00e+00	0	38	0	163577856	50	6365
2026-01-18 15:30:53.71	19.25	9.86	-39.2	-40.3	22.1	0.00e+00	19	38	0	165675008	50	6618
2026-01-18 15:30:54.72	19.22	9.94	-38.8	-39.8	22.5	0.00e+00	0	38	0	167772160	50	6284
2026-01-18 15:30:55.73	19.19	10.03	-38.8	-39.8	22.4	0.00e+00	0	38	0	169869312	50	6263
2026-01-18 15:30:56.74	19.16	10.11	-38.9	-39.9	22.4	0.00e+00	0	38	0	170917888	50	6354
2026-01-18 15:30:57.75	19.13	10.20	-38.7	-39.7	22.6	0.00e+00	0	38	0	173015040	50	6178
2026-01-18 15:30:58.76	19.09	10.29	-38.6	-39.5	22.6	0.00e+00	92	38	0	175112192	50	6100
2026-01-18 15:30:59.77	19.06	10.38	-38.5	-39.5	22.7	0.00e+00	0	38	0	177209344	50	6072
2026-01-18 15:31:00.78	19.03	10.46	-38.5	-39.5	22.7	0.00e+00	91	38	0	179306496	50	6080
2026-01-18 15:31:01.79	18.99	10.55	-38.6	-39.6	22.6	0.00e+00	0	38	0	180355072	50	6108
2026-01-18 15:31:02.80	18.96	10.64	-38.5	-39.5	22.8	0.00e+00	0	38	0	182452224	50	6054
2026-01-18 15:31:03.81	18.93	10.73	-38.6	-39.6	22.7	0.00e+00	0	38	0	184549376	50	6115
2026-01-18 15:31:04.82	18.89	10.82	-38.2	-39.2	23.0	0.00e+00	0	38	0	186646528	50	5848
2026-01-18 15:31:05.83	18.86	10.90	-38.3	-39.3	22.9	0.00e+00	10	38	0	188743680	50	5904
2026-01-18 15:31:06.84	18.82	10.99	-38.4	-39.4	22.7	0.00e+00	0	38	0	189792256	50	5983
2026-01-18 15:31:07.85	18.79	11.08	-38.3	-39.2	23.0	0.00e+00	92	38	0	191889408	50	5890
2026-01-18 15:31:08.85	18.75	11.17	-38.1	-39.0	23.0	0.00e+00	0	38	0	193986560	50	5708
2026-01-18 15:31:09.86	18.72	11.26	-38.1	-39.0	22.9	0.00e+00	0	38	0	196083712	50	5747
2026-01-18 15:31:10.87	18.68	11.35	-38.1	-39.0	22.8	0.00e+00	0	38	0	198180864	50	5709
2026-01-18 15:31:11.88	18.65	11.44	-38.0	-39.0	22.7	0.00e+00	0	38	0	200278016	50	5702
2026-01-18 15:31:12.89	18.61	11.54	-38.0	-38.9	23.2	0.00e+00	45	38	0	201326592	50	5658
2026-01-18 15:31:13.90	18.57	11.63	-38.0	-38.9	22.8	0.00e+00	0	38	0	203423744	50	5658
2026-01-18 15:31:14.91	18.54	11.72	-38.0	-38.9	23.2	0.00e+00	92	38	0	205520896	50	5652
2026-01-18 15:31:15.92	18.50	11.81	-37.9	-38.8	23.0	0.00e+00	0	38	0	207618048	50	5630
2026-01-18 15:31:16.93	18.46	11.90	-37.8	-38.7	23.3	0.00e+00	0	38	0	209715200	48	6229
2026-01-18 15:31:17.94	18.43	12.00	-37.8	-38.7	23.2	0.00e+00	0	38	0	210763776	48	6220
2026-01-18 15:31:18.95	18.39	12.09	-37.7	-38.6	23.4	0.00e+00	0	38	0	212860928	48	6134
2026-01-18 15:31:19.95	18.35	12.18	-37.9	-38.9	23.2	0.00e+00	52	38	0	214958080	48	6321
2026-01-18 15:31:20.96	18.31	12.28	-38.1	-39.0	23.1	0.00e+00	0	38	0	217055232	48	6410
2026-01-18 15:31:21.97	18.28	12.37	-37.8	-38.7	23.4	0.00e+00	92	38	0	219152384	48	6230
2026-01-18 15:31:22.98	18.24	12.47	-37.8	-38.7	23.4	0.00e+00	0	38	0	220200960	48	6177
2026-01-18 15:31:23.99	18.20	12.56	-38.0	-38.9	23.3	0.00e+00	90	38	0	222298112	48	6331
2026-01-18 15:31:25.00	18.16	12.66	-37.7	-38.5	23.6	0.00e+00	0	38	0	224395264	48	6097
2026-01-18 15:31:26.01	18.12	12.75	-37.8	-38.7	23.5	0.00e+00	0	38	0	226492416	48	6175
2026-01-18 15:31:27.02	18.08	12.85	-37.8	-38.7	23.3	0.00e+00	14	38	0	228589568	48	6183
2026-01-18 15:31:28.03	18.04	12.94	-37.7	-38.6	23.5	0.00e+00	0	38	0	229638144	48	6147
2026-01-18 15:31:29.04	18.00	13.04	-37.7	-38.6	23.5	0.00e+00	11	38	0	231735296	48	6121
2026-01-18 15:31:30.05	17.96	13.14	-37.8	-38.7	23.5	0.00e+00	0	38	0	233832448	48	6209
2026-01-18 15:31:31.06	17.92	13.24	-37.7	-38.6	23.5	0.00e+00	31	38	0	235929600	48	6122
2026-01-18 15:31:32.07	17.88	13.33	-37.7	-38.6	23.5	0.00e+00	0	38	0	238026752	48	6140
2026-01-18 15:31:33.08	17.84	13.43	-37.6	-38.4	23.6	0.00e+00	0	38	0	239075328	48	6020
2026-01-18 15:31:34.08	17.79	13.53	-37.6	-38.5	23.6	0.00e+00	0	38	0	241172480	48	6079
2026-01-18 15:31:35.10	17.75	13.63	-37.6	-38.5	23.6	0.00e+00	0	38	0	243269632	48	6079
2026-01-18 15:31:36.10	17.71	13.73	-37.5	-38.4	23.6	0.00e+00	0	38	0	245366784	48	6016
2026-01-18 15:31:37.12	17.67	13.83	-37.6	-38.5	23.5	0.00e+00	0	38	0	247463936	48	6068
2026-01-18 15:31:38.12	17.62	13.93	-37.7	-38.5	23.6	0.00e+00	83	38	0	248512512	48	6102
2026-01-18 15:31:39.13	17.58	14.03	-37.7	-38.6	23.6	0.00e+00	0	38	0	250609664	48	6139
2026-01-18 15:31:40.14	17.54	14.13	-37.5	-38.4	23.6	0.00e+00	0	38	0	252706816	48	6002
2026-01-18 15:31:41.15	17.49	14.23	-37.5	-38.4	23.7	0.00e+00	0	38	0	254803968	48	6011
2026-01-18 15:31:42.16	17.45	14.33	-37.6	-38.4	23.7	0.00e+00	0	38	0	256901120	48	6031
2026-01-18 15:31:43.17	17.40	14.43	-37.6	-38.5	23.5	0.00e+00	77	38	0	257949696	48	6062
2026-01-18 15:31:44.18	17.36	14.54	-37.6	-38.5	23.6	0.00e+00	0	38	0	260046848	48	6083
2026-01-18 15:31:45.19	17.31	14.64	-37.6	-38.5	23.6	0.00e+00	75	38	0	262144000	48	6040
2026-01-18 15:31:46.20	17.27	14.74	-37.6	-38.5	23.6	0.00e+00	0	38	0	264241152	48	6054
2026-01-18 15:31:47.21	17.22	14.85	-37.7	-38.6	23.6	0.00e+00	19	38	0	266338304	48	6148
2026-01-18 15:31:48.22	17.17	14.95	-37.7	-38.6	23.7	0.00e+00	0	38	0	268435456	48	6139
2026-01-18 15:31:49.23	17.13	15.06	-37.4	-38.3	23.9	0.00e+00	0	38	0	269484032	48	5926
2026-01-18 15:31:50.24	17.08	15.16	-37.5	-38.4	23.7	0.00e+00	12	38	0	271581184	48	5972
2026-01-18 15:31:51.25	17.03	15.27	-37.6	-38.4	23.6	0.00e+00	0	38	0	273678336	48	6024
2026-01-18 15:31:52.26	16.99	15.37	-37.5	-38.3	23.8	0.00e+00	90	38	0	275775488	48	5962
2026-01-18 15:31:53.27	16.94	15.48	-37.5	-38.4	23.8	0.00e+00	0	38	0	277872640	48	5996
2026-01-18 15:31:54.28	16.89	15.59	-37.7	-38.5	23.7	0.00e+00	0	38	0	278921216	48	6103
2026-01-18 15:31:55.29	16.84	15.69	-37.4	-38.2	23.9	0.00e+00	0	38	0	281018368	48	5872
2026-01-18 15:31:56.30	16.79	15.80	-37.4	-38.3	23.9	0.00e+00	0	38	0	283115520	48	5907
2026-01-18 15:31:57.31	16.74	15.91	-37.4	-38.2	23.9	0.00e+00	59	38	0	285212672	48	5876
2026-01-18 15:31:58.32	16.69	16.02	-37.3	-38.1	24.0	0.00e+00	0	38	0	287309824	48	5828
2026-01-18 15:31:59.33	16.64	16.13	-37.4	-38.2	23.9	0.00e+00	92	38	0	288358400	48	5880
2026-01-18 15:32:00.34	16.59	16.24	-37.3	-38.2	23.9	0.00e+00	0	38	0	290455552	48	5847
2026-01-18 15:32:01.35	16.54	16.35	-37.4	-38.3	24.0	0.00e+00	57	38	0	292552704	48	5908
2026-01-18 15:32:02.35	16.49	16.46	-37.3	-38.1	24.1	0.00e+00	0	38	0	294649856	48	5805
2026-01-18 15:32:03.36	16.43	16.57	-37.5	-38.4	23.8	0.00e+00	0	38	0	296747008	48	6003
2026-01-18 15:32:04.37	16.38	16.68	-37.5	-38.3	23.8	0.00e+00	0	38	0	297795584	48	5958
2026-01-18 15:32:05.38	16.33	16.79	-37.4	-38.2	23.9	0.00e+00	0	38	0	299892736	48	5870
2026-01-18 15:32:06.39	16.28	16.91	-37.3	-38.2	24.0	0.00e+00	90	38	0	301989888	48	5829
2026-01-18 15:32:07.40	16.22	17.02	-37.5	-38.4	23.9	0.00e+00	0	38	0	304087040	48	5969
2026-01-18 15:32:08.41	16.17	17.13	-37.5	-38.4	23.9	0.00e+00	77	38	0	306184192	48	5966
2026-01-18 15:32:09.42	16.11	17.25	-37.5	-38.3	23.9	0.00e+00	0	38	0	307232768	48	5953
2026-01-18 15:32:10.43	16.06	17.36	-37.4	-38.3	24.0	0.00e+00	0	38	0	309329920	48	5903
2026-01-18 15:32:11.44	16.00	17.48	-37.5	-38.3	23.9	0.00e+00	0	38	0	311427072	48	5944
2026-01-18 15:32:12.45	15.95	17.59	-37.5	-38.3	23.9	0.00e+00	0	38	0	313524224	48	5951
2026-01-18 15:32:13.46	15.89	17.71	-37.5	-38.4	23.8	0.00e+00	92	38	0	315621376	48	5983
2026-01-18 15:32:14.47	15.83	17.82	-37.5	-38.4	23.8	0.00e+00	0	38	0	316669952	48	5986
2026-01-18 15:32:15.48	15.77	17.94	-37.6	-38.5	23.7	0.00e+00	75	38	0	318767104	48	6081
2026-01-18 15:32:16.48	15.72	18.06	-37.7	-38.6	23.8	0.00e+00	0	38	0	320864256	48	6104
2026-01-18 15:32:17.49	15.66	18.18	-37.7	-38.6	23.7	0.00e+00	0	38	0	322961408	48	6125
2026-01-18 15:32:18.50	15.60	18.30	-37.6	-38.5	23.7	0.00e+00	0	38	0	325058560	48	6084
2026-01-18 15:32:19.51	15.54	18.41	-37.7	-38.6	23.8	0.00e+00	0	38	0	326107136	48	6116
2026-01-18 15:32:20.52	15.48	18.53	-37.9	-38.8	23.6	0.00e+00	78	38	0	328204288	48	6279
2026-01-18 15:32:21.53	15.42	18.65	-37.8	-38.7	23.5	0.00e+00	0	38	0	330301440	48	6207
2026-01-18 15:32:22.54	15.36	18.78	-37.9	-38.8	23.6	0.00e+00	91	38	0	332398592	48	6271
2026-01-18 15:32:23.55	15.30	18.90	-38.0	-38.9	23.5	0.00e+00	0	38	0	334495744	48	6388
2026-01-18 15:32:24.56	15.24	19.02	-37.9	-38.8	23.6	0.00e+00	0	38	0	336592896	48	6282
2026-01-18 15:32:25.57	15.17	19.14	-38.0	-39.0	23.5	0.00e+00	0	38	0	337641472	48	6399
2026-01-18 15:32:26.58	15.11	19.26	-38.0	-38.9	23.5	0.00e+00	0	38	0	339738624	48	6373
2026-01-18 15:32:27.59	15.05	19.39	-38.0	-39.0	23.4	0.00e+00	31	38	0	341835776	48	6396
2026-01-18 15:32:28.60	14.98	19.51	-38.1	-39.1	23.3	0.00e+00	0	38	0	343932928	48	6486
2026-01-18 15:32:29.61	14.92	19.64	-38.3	-39.2	23.3	0.00e+00	90	38	0	346030080	48	6605
2026-01-18 15:32:30.62	14.85	19.76	-38.2	-39.1	23.3	0.00e+00	0	38	0	347078656	48	6502
2026-01-18 15:32:31.63	14.79	19.89	-38.2	-39.1	23.4	0.00e+00	0	38	0	349175808	48	6535
2026-01-18 15:32:32.64	14.72	20.02	-38.0	-38.9	23.4	0.00e+00	0	38	0	351272960	48	6354
2026-01-18 15:32:33.65	14.65	20.14	-37.9	-38.8	23.7	0.00e+00	0	38	0	353370112	48	6260
2026-01-18 15:32:34.66	14.59	20.27	-37.8	-38.7	23.6	0.00e+00	6	38	0	355467264	48	6204
2026-01-18 15:32:35.67	14.52	20.40	-37.7	-38.6	23.7	0.00e+00	0	38	0	356515840	48	6168
2026-01-18 15:32:36.68	14.45	20.53	-37.6	-38.5	23.8	0.00e+00	92	38	0	358612992	48	6080
2026-01-18 15:32:37.69	14.38	20.66	-37.6	-38.5	23.8	0.00e+00	0	38	0	360710144	48	6065
2026-01-18 15:32:38.70	14.31	20.79	-37.6	-38.5	23.8	0.00e+00	0	38	0	362807296	48	6055
2026-01-18 15:32:39.71	14.24	20.92	-37.5	-38.3	23.9	0.00e+00	0	38	0	364904448	48	5946
2026-01-18 15:32:40.72	14.17	21.05	-37.5	-38.4	23.8	0.00e+00	0	38	0	365953024	48	6012
2026-01-18 15:32:41.73	14.10	21.18	-37.6	-38.4	23.9	0.00e+00	0	38	0	368050176	48	6015
2026-01-18 15:32:42.74	14.02	21.32	-37.8	-38.7	23.7	0.00e+00	0	38	0	370147328	48	6181
2026-01-18 15:32:43.75	13.95	21.45	-37.8	-38.7	23.7	0.00e+00	14	38	0	372244480	48	6208
2026-01-18 15:32:44.76	13.88	21.59	-37.9	-38.8	23.8	0.00e+00	0	38	0	374341632	48	6287
2026-01-18 15:32:45.77	13.80	21.72	-38.0	-38.9	23.5	0.00e+00	92	38	0	375390208	48	6324
2026-01-18 15:32:46.78	13.73	21.86	-38.0	-38.9	23.5	0.00e+00	0	38	0	377487360	48	6327
2026-01-18 15:32:47.79	13.65	21.99	-38.0	-38.9	23.6	0.00e+00	0	38	0	379584512	48	6362
2026-01-18 15:32:48.80	13.57	22.13	-38.2	-39.1	23.5	0.00e+00	0	38	0	381681664	48	6471
2026-01-18 15:32:49.81	13.50	22.27	-38.0	-38.9	23.5	0.00e+00	0	38	0	383778816	48	6387
2026-01-18 15:32:50.82	13.42	22.41	-38.3	-39.2	23.3	0.00e+00	92	38	0	384827392	48	6584
2026-01-18 15:32:51.82	13.34	22.54	-38.2	-39.1	23.4	0.00e+00	0	38	0	386924544	48	6499
2026-01-18 15:32:52.83	13.26	22.68	-38.1	-39.0	23.5	0.00e+00	92	38	0	389021696	48	6401
2026-01-18 15:32:53.84	13.18	22.82	-38.1	-39.0	23.4	0.00e+00	0	38	0	391118848	48	6421
2026-01-18 15:32:54.85	13.10	22.96	-38.2	-39.1	23.4	0.00e+00	0	38	0	393216000	48	6481
2026-01-18 15:32:55.86	13.02	23.11	-38.1	-39.0	23.5	0.00e+00	0	38	0	394264576	48	6444
2026-01-18 15:32:56.87	12.93	23.25	-38.3	-39.3	23.2	0.00e+00	0	38	0	396361728	48	6629
2026-01-18 15:32:57.88	12.85	23.39	-38.4	-39.3	23.3	0.00e+00	58	38	0	398458880	48	6640
2026-01-18 15:32:58.89	12.77	23.54	-38.4	-39.4	23.2	0.00e+00	0	38	0	400556032	48	6697
2026-01-18 15:32:59.90	12.68	23.68	-38.5	-39.4	23.1	0.00e+00	66	38	0	402653184	48	6737
2026-01-18 15:33:00.91	12.59	23.83	-38.6	-39.6	23.2	0.00e+00	0	38	0	404750336	48	6852
2026-01-18 15:33:01.92	12.51	23.97	-38.7	-39.7	23.1	0.00e+00	0	38	0	405798912	50	6206
2026-01-18 15:33:02.93	12.42	24.12	-39.1	-40.1	22.7	0.00e+00	0	38	0	407896064	50	6478
2026-01-18 15:33:03.94	12.33	24.27	-39.4	-40.4	22.4	0.00e+00	0	38	0	409993216	50	6749
2026-01-18 15:33:04.95	12.24	24.42	-39.3	-40.3	22.5	0.00e+00	47	38	0	412090368	50	6655
2026-01-18 15:33:05.96	12.15	24.56	-39.3	-40.3	22.4	0.00e+00	0	38	0	414187520	50	6686
2026-01-18 15:33:06.97	12.06	24.71	-39.7	-40.8	22.1	0.00e+00	92	38	0	415236096	52	6298
2026-01-18 15:33:07.98	11.97	24.87	-39.7	-40.8	22.2	0.00e+00	0	38	0	417333248	52	6273
2026-01-18 15:33:08.99	11.88	25.02	-39.7	-40.8	22.1	0.00e+00	64	38	0	419430400	52	6274
2026-01-18 15:33:10.00	11.78	25.17	-40.0	-41.2	21.9	0.00e+00	0	38	0	421527552	52	6578
2026-01-18 15:33:11.01	11.69	25.32	-39.6	-40.7	22.2	0.00e+00	0	38	0	423624704	52	6183
2026-01-18 15:33:12.02	11.59	25.48	-39.8	-40.9	22.1	0.00e+00	38	38	0	424673280	52	6360
2026-01-18 15:33:13.03	11.50	25.63	-39.7	-40.8	22.2	0.00e+00	0	38	0	426770432	52	6285
2026-01-18 15:33:14.04	11.40	25.79	-39.5	-40.6	22.3	0.00e+00	17	38	0	428867584	52	6132
2026-01-18 15:33:15.05	11.30	25.94	-39.4	-40.4	22.5	0.00e+00	0	38	0	430964736	52	6020
2026-01-18 15:33:16.06	11.20	26.10	-39.4	-40.4	22.3	0.00e+00	81	38	0	433061888	52	6011
2026-01-18 15:33:17.07	11.10	26.26	-39.6	-40.7	22.1	0.00e+00	0	38	0	434110464	52	6216
2026-01-18 15:33:18.08	11.00	26.42	-39.4	-40.5	22.3	0.00e+00	0	38	0	436207616	52	6043
2026-01-18 15:33:19.09	10.89	26.58	-39.6	-40.6	22.3	0.00e+00	0	38	0	438304768	52	6153
2026-01-18 15:33:20.10	10.79	26.74	-39.7	-40.7	22.2	0.00e+00	0	38	0	440401920	52	6230
2026-01-18 15:33:21.11	10.68	26.90	-39.6	-40.7	22.3	0.00e+00	82	38	0	442499072	52	6194
2026-01-18 15:33:22.12	10.58	27.06	-39.5	-40.5	22.4	0.00e+00	0	38	0	443547648	52	6065
2026-01-18 15:33:23.13	10.47	27.23	-39.1	-40.1	22.6	0.00e+00	87	38	0	445644800	52	5795
2026-01-18 15:33:24.14	10.36	27.39	-39.2	-40.1	22.2	0.00e+00	0	38	0	447741952	52	5820
2026-01-18 15:33:25.15	10.25	27.55	-39.3	-40.3	22.3	0.00e+00	0	38	0	449839104	52	5919
2026-01-18 15:33:26.16	10.14	27.72	-39.1	-40.1	22.6	0.00e+00	16	38	0	451936256	52	5802
2026-01-18 15:33:27.17	10.03	27.89	-39.3	-40.3	22.7	0.00e+00	0	38	0	452984832	52	5948
2026-01-18 15:33:28.18	9.92	28.05	-39.8	-40.9	22.4	0.00e+00	18	38	0	455081984	52	6349
2026-01-18 15:33:29.18	9.80	28.22	-39.5	-40.5	22.4	0.00e+00	0	38	0	457179136	52	6095
2026-01-18 15:33:30.19	9.69	28.39	-39.4	-40.4	22.4	0.00e+00	63	38	0	459276288	52	6006
2026-01-18 15:33:31.20	9.57	28.56	-39.7	-40.8	22.2	0.00e+00	14	38	0	461373440	52	6267
2026-01-18 15:33:32.21	9.45	28.73	-40.2	-41.3	21.7	0.00e+00	0	38	0	462422016	52	6667
2026-01-18 15:33:33.22	9.33	28.90	-40.5	-41.7	21.5	0.00e+00	0	38	0	464519168	52	6940
2026-01-18 15:33:34.23	9.21	29.08	-40.5	-41.7	21.4	0.00e+00	15	38	0	466616320	52	6956
2026-01-18 15:33:35.24	9.09	29.25	-40.6	-41.8	21.3	0.00e+00	58	38	0	468713472	54	6251
2026-01-18 15:33:36.25	8.97	29.43	-40.5	-41.6	21.6	0.00e+00	0	38	0	470810624	54	6135
2026-01-18 15:33:37.26	8.84	29.60	-40.9	-42.1	21.0	0.00e+00	77	38	0	472907776	54	6497
2026-01-18 15:33:38.27	8.71	29.78	-41.5	-42.8	20.5	0.00e+00	0	38	0	473956352	54	7033
2026-01-18 15:33:39.28	8.59	29.96	-41.2	-42.5	20.8	0.00e+00	0	38	0	476053504	54	6800
2026-01-18 15:33:40.29	8.46	30.13	-41.1	-42.4	20.7	0.00e+00	16	38	0	478150656	54	6720
2026-01-18 15:33:41.30	8.33	30.31	-41.3	-42.6	20.7	0.00e+00	0	38	0	480247808	54	6915
2026-01-18 15:33:42.31	8.19	30.49	-40.9	-42.2	21.1	0.00e+00	70	38	0	482344960	54	6558
2026-01-18 15:33:43.32	8.06	30.68	-40.5	-41.6	21.5	0.00e+00	0	38	0	483393536	54	6159
2026-01-18 15:33:44.33	7.92	30.86	-40.3	-41.4	21.6	0.00e+00	90	38	0	485490688	54	5974
2026-01-18 15:33:45.34	7.79	31.04	-40.5	-41.7	21.6	0.00e+00	0	38	0	487587840	54	6184
2026-01-18 15:33:46.35	7.65	31.23	-40.6	-41.7	21.3	0.00e+00	27	38	0	489684992	54	6236
2026-01-18 15:33:47.36	7.51	31.41	-40.2	-41.3	21.9	0.00e+00	0	38	0	491782144	54	5933
2026-01-18 15:33:48.37	7.37	31.60	-40.5	-41.6	21.5	0.00e+00	0	38	0	492830720	54	6140
2026-01-18 15:33:49.38	7.22	31.78	-41.3	-42.6	20.7	0.00e+00	12	38	0	494927872	54	6870
2026-01-18 15:33:50.39	7.08	31.97	-40.8	-42.0	21.2	0.00e+00	0	38	0	497025024	54	6435
2026-01-18 15:33:51.40	6.93	32.16	-40.4	-41.5	21.6	0.00e+00	40	38	0	499122176	54	6060
2026-01-18 15:33:52.41	6.78	32.35	-40.5	-41.6	21.6	0.00e+00	0	38	0	501219328	54	6168
2026-01-18 15:33:53.42	6.63	32.54	-40.3	-41.4	21.7	0.00e+00	47	38	0	502267904	54	5991
2026-01-18 15:33:54.42	6.48	32.73	-41.0	-42.3	20.9	0.00e+00	0	38	0	504365056	54	6649
2026-01-18 15:33:55.43	6.33	32.93	-40.2	-41.3	21.8	0.00e+00	0	38	0	506462208	54	5956
2026-01-18 15:33:56.44	6.17	33.12	-40.7	-41.9	21.3	0.00e+00	0	38	0	508559360	54	6374
2026-01-18 15:33:57.45	6.01	33.32	-41.3	-42.6	20.7	0.00e+00	0	38	0	510656512	54	6926
2026-01-18 15:33:58.46	5.85	33.51	-41.3	-42.7	20.7	0.00e+00	46	38	0	511705088	54	6962
2026-01-18 15:33:59.47	5.69	33.71	-41.8	-43.3	19.9	0.00e+00	0	38	0	513802240	56	6653
2026-01-18 15:34:00.48	5.53	33.91	-42.2	-43.8	19.5	0.00e+00	92	38	0	515899392	56	7022
2026-01-18 15:34:01.49	5.36	34.11	-42.0	-43.5	19.5	0.00e+00	0	38	0	517996544	56	6831
2026-01-18 15:34:02.50	5.19	34.31	-42.1	-43.6	19.6	0.00e+00	0	38	0	520093696	56	6927
2026-01-18 15:34:03.51	5.02	34.51	-41.5	-42.8	20.6	0.00e+00	0	38	0	521142272	56	6286
2026-01-18 15:34:04.52	4.85	34.71	-41.3	-42.6	20.7	0.00e+00	0	38	0	523239424	56	6147
2026-01-18 15:34:05.53	4.67	34.91	-41.3	-42.5	20.8	0.00e+00	85	38	0	525336576	56	6083
2026-01-18 15:34:06.54	4.50	35.12	-41.4	-42.8	20.5	0.00e+00	0	38	0	527433728	56	6255
2026-01-18 15:34:07.55	4.32	35.32	-41.5	-42.8	20.9	0.00e+00	74	38	0	529530880	56	6269
2026-01-18 15:34:08.56	4.14	35.53	-41.8	-43.2	20.2	0.00e+00	0	38	0	530579456	56	6588
2026-01-18 15:34:09.57	3.95	35.74	-42.0	-43.4	20.0	0.00e+00	0	38	0	532676608	56	6741
2026-01-18 15:34:10.58	3.77	35.94	-42.2	-43.7	19.8	0.00e+00	0	38	0	534773760	56	6999
2026-01-18 15:34:11.59	3.58	36.15	-41.9	-43.3	20.0	0.00e+00	0	38	0	536870912	56	6692
2026-01-18 15:34:12.59	3.39	36.36	-41.6	-42.9	20.4	0.00e+00	44	38	0	538968064	56	6380
2026-01-18 15:34:13.60	3.20	36.57	-41.4	-42.7	20.9	0.00e+00	0	38	0	541065216	56	6230
2026-01-18 15:34:14.61	3.00	36.79	-41.6	-42.9	20.3	0.00e+00	92	38	0	542113792	56	6385
2026-01-18 15:34:15.62	2.80	37.00	-42.1	-43.6	19.8	0.00e+00	0	38	0	544210944	56	6851
2026-01-18 15:34:16.63	2.60	37.21	-42.6	-44.2	19.4	0.00e+00	0	38	0	546308096	56	7407
2026-01-18 15:34:17.64	2.39	37.43	-42.8	-44.6	18.8	0.00e+00	0	38	0	548405248	58	6868
2026-01-18 15:34:18.65	2.19	37.64	-43.0	-44.8	18.6	0.00e+00	0	38	0	550502400	58	7018
2026-01-18 15:34:19.66	1.98	37.86	-42.8	-44.5	18.9	0.00e+00	37	38	0	551550976	58	6845
2026-01-18 15:34:20.67	1.76	38.08	-42.4	-44.0	19.4	0.00e+00	0	38	0	553648128	58	6427
2026-01-18 15:34:21.68	1.55	38.30	-42.2	-43.7	19.7	0.00e+00	92	38	0	555745280	58	6194
2026-01-18 15:34:22.69	1.33	38.52	-41.8	-43.2	20.2	0.00e+00	0	38	0	557842432	56	6578
2026-01-18 15:34:23.70	1.11	38.74	-41.6	-42.9	20.4	0.00e+00	35	38	0	558891008	56	6377
2026-01-18 15:34:24.71	0.88	38.96	-41.3	-42.5	20.9	0.00e+00	0	38	0	560988160	56	6102
2026-01-18 15:34:25.72	0.66	39.18	-40.9	-42.1	21.1	0.00e+00	0	38	0	563085312	56	5816
2026-01-18 15:34:26.73	0.42	39.41	-40.0	-41.1	21.7	0.00e+00	18	38	0	565182464	54	5801
2026-01-18 15:34:27.74	0.19	39.63	-40.1	-41.2	21.5	0.00e+00	0	38	0	567279616	54	5845
2026-01-18 15:34:28.75	359.95	39.86	-39.9	-41.0	22.0	0.00e+00	92	38	0	569376768	54	5706
2026-01-18 15:34:29.76	359.71	40.08	-40.1	-41.2	21.8	0.00e+00	0	38	0	570425344	52	6587
2026-01-18 15:34:30.77	359.47	40.31	-40.4	-41.6	21.4	0.00e+00	85	38	0	572522496	52	6892
2026-01-18 15:34:31.78	359.22	40.54	-40.2	-41.3	21.9	0.00e+00	0	38	0	574619648	54	5920
2026-01-18 15:34:32.78	358.97	40.77	-40.6	-41.7	21.4	0.00e+00	0	38	0	576716800	54	6240
2026-01-18 15:34:33.79	358.71	41.00	-41.1	-42.4	20.6	0.00e+00	0	38	0	578813952	54	6763
2026-01-18 15:34:34.80	358.45	41.23	-40.9	-42.1	20.8	0.00e+00	0	38	0	579862528	54	6504
2026-01-18 15:34:35.81	358.19	41.46	-40.8	-42.0	21.1	0.00e+00	14	38	0	581959680	54	6398
2026-01-18 15:34:36.82	357.93	41.69	-40.7	-41.9	21.1	0.00e+00	0	38	0	584056832	54	6347
2026-01-18 15:34:37.83	357.65	41.92	-40.9	-42.2	21.2	0.00e+00	40	38	0	586153984	54	6548
2026-01-18 15:34:38.84	357.38	42.16	-41.2	-42.5	20.8	0.00e+00	0	38	0	588251136	54	6804
2026-01-18 15:34:39.85	357.10	42.39	-41.9	-43.4	19.8	0.00e+00	0	38	0	589299712	54	7545
2026-01-18 15:34:40.86	356.82	42.63	-41.7	-43.1	20.4	0.00e+00	0	38	0	591396864	56	6487
2026-01-18 15:34:41.87	356.53	42.86	-41.7	-43.0	20.5	0.00e+00	0	38	0	593494016	56	6437
2026-01-18 15:34:42.88	356.24	43.10	-41.4	-42.6	20.7	0.00e+00	17	38	0	595591168	56	6161
2026-01-18 15:34:43.89	355.95	43.34	-41.3	-42.6	20.8	0.00e+00	0	38	0	597688320	56	6147
2026-01-18 15:34:44.89	355.65	43.57	-41.7	-43.1	20.1	0.00e+00	92	38	0	598736896	56	6511
2026-01-18 15:34:45.90	355.34	43.81	-41.3	-42.6	20.7	0.00e+00	0	38	0	600834048	56	6116
2026-01-18 15:34:46.92	355.03	44.05	-41.7	-43.1	20.3	0.00e+00	0	38	0	602931200	56	6508
2026-01-18 15:34:47.93	354.72	44.29	-41.3	-42.7	20.8	0.00e+00	0	38	0	605028352	56	6178
2026-01-18 15:34:48.94	354.40	44.53	-40.6	-41.9	21.3	0.00e+00	0	38	0	607125504	54	6320
2026-01-18 15:34:49.95	354.07	44.77	-40.6	-41.8	21.3	0.00e+00	21	38	0	608174080	54	6288
2026-01-18 15:34:50.95	353.75	45.01	-40.9	-42.2	20.9	0.00e+00	0	38	0	610271232	54	6581
2026-01-18 15:34:51.96	353.42	45.25	-41.4	-42.7	20.6	0.00e+00	87	38	0	612368384	54	6975
2026-01-18 15:34:52.97	353.08	45.49	-41.0	-42.3	20.5	0.00e+00	0	38	0	614465536	56	5939
2026-01-18 15:34:53.98	352.73	45.73	-41.0	-42.2	21.1	0.00e+00	0	38	0	616562688	56	5861
2026-01-18 15:34:55.00	352.38	45.98	-40.9	-42.1	21.2	0.00e+00	0	38	0	617611264	54	6517
2026-01-18 15:34:56.01	352.02	46.22	-39.8	-40.9	21.8	0.00e+00	0	38	0	619708416	54	5639
2026-01-18 15:34:57.02	351.66	46.46	-39.7	-40.7	22.2	0.00e+00	20	38	0	621805568	52	6242
2026-01-18 15:34:58.03	351.30	46.71	-39.4	-40.4	22.6	0.00e+00	0	38	0	623902720	52	6013
2026-01-18 15:34:59.04	350.93	46.95	-39.8	-40.8	22.1	0.00e+00	28	38	0	625999872	52	6288
2026-01-18 15:35:00.05	350.55	47.19	-39.7	-40.7	22.3	0.00e+00	0	38	0	627048448	52	6210
2026-01-18 15:35:01.05	350.17	47.43	-39.7	-40.8	22.3	0.00e+00	0	38	0	629145600	52	6258
2026-01-18 15:35:02.06	349.78	47.67	-39.5	-40.5	22.4	0.00e+00	0	38	0	631242752	52	6097
2026-01-18 15:35:03.07	349.38	47.92	-39.7	-40.8	22.2	0.00e+00	0	38	0	633339904	52	6290
2026-01-18 15:35:04.08	348.98	48.16	-40.1	-41.3	21.7	0.00e+00	0	38	0	635437056	52	6665
2026-01-18 15:35:05.09	348.57	48.40	-40.3	-41.5	21.6	0.00e+00	0	38	0	637534208	52	6841
2026-01-18 15:35:06.10	348.16	48.64	-40.5	-41.7	21.3	0.00e+00	85	38	0	638582784	52	6975
2026-01-18 15:35:07.11	347.73	48.88	-40.6	-41.9	21.3	0.00e+00	0	38	0	640679936	54	6362
2026-01-18 15:35:08.12	347.30	49.13	-41.1	-42.5	20.6	0.00e+00	65	38	0	642777088	54	6777
2026-01-18 15:35:09.13	346.87	49.37	-40.7	-41.9	21.1	0.00e+00	0	38	0	644874240	54	6344
2026-01-18 15:35:10.14	346.43	49.61	-39.7	-40.7	22.2	0.00e+00	0	38	0	646971392	52	6212
2026-01-18 15:35:11.15	345.98	49.85	-38.8	-39.8	22.9	0.00e+00	0	38	0	648019968	52	5575
2026-01-18 15:35:12.16	345.52	50.09	-39.2	-40.1	22.6	0.00e+00	0	38	0	650117120	52	5827
2026-01-18 15:35:13.17	345.06	50.32	-39.7	-40.8	22.1	0.00e+00	29	38	0	652214272	52	6291
2026-01-18 15:35:14.18	344.58	50.56	-39.7	-40.8	22.2	0.00e+00	0	38	0	654311424	52	6270
2026-01-18 15:35:15.19	344.11	50.80	-39.1	-40.1	22.8	0.00e+00	92	38	0	656408576	52	5767
2026-01-18 15:35:16.20	343.62	51.03	-38.4	-39.3	23.1	0.00e+00	0	38	0	657457152	50	5933
2026-01-18 15:35:17.21	343.12	51.27	-37.6	-38.4	23.9	0.00e+00	0	38	0	659554304	50	5366
2026-01-18 15:35:18.21	342.63	51.50	-38.0	-38.9	23.5	0.00e+00	16	38	0	661651456	48	6342
2026-01-18 15:35:19.22	342.12	51.73	-38.0	-38.9	23.5	0.00e+00	0	38	0	663748608	48	6379
2026-01-18 15:35:20.23	341.60	51.96	-37.8	-38.6	23.9	0.00e+00	42	38	0	665845760	48	6159
2026-01-18 15:35:21.24	341.07	52.19	-37.5	-38.4	23.9	0.00e+00	11	38	0	666894336	48	5999
2026-01-18 15:35:22.25	340.54	52.42	-37.8	-38.7	23.6	0.00e+00	92	38	0	668991488	48	6227
2026-01-18 15:35:23.26	339.99	52.65	-38.4	-39.3	23.0	0.00e+00	0	38	0	671088640	48	6679
2026-01-18 15:35:24.27	339.44	52.87	-39.5	-40.6	22.1	0.00e+00	11	38	0	673185792	50	6915
2026-01-18 15:35:25.28	338.88	53.10	-40.7	-42.0	21.0	0.00e+00	0	38	0	675282944	52	7221
2026-01-18 15:35:26.29	338.31	53.32	-40.3	-41.5	21.5	0.00e+00	0	38	0	676331520	52	6831
2026-01-18 15:35:27.30	337.74	53.54	-39.4	-40.5	22.4	0.00e+00	23	38	0	678428672	52	6073
2026-01-18 15:35:28.30	337.16	53.75	-38.2	-39.1	23.4	0.00e+00	0	38	0	680525824	50	5802
2026-01-18 15:35:29.31	336.56	53.97	-37.9	-38.8	23.5	0.00e+00	56	38	0	682622976	50	5613
2026-01-18 15:35:30.32	335.96	54.18	-39.1	-40.1	22.7	0.00e+00	0	38	0	684720128	50	6534
2026-01-18 15:35:31.33	335.35	54.39	-39.7	-40.8	21.8	0.00e+00	0	38	0	685768704	52	6282
2026-01-18 15:35:32.34	334.72	54.60	-39.7	-40.9	22.2	0.00e+00	0	38	0	687865856	52	6329
2026-01-18 15:35:33.35	334.09	54.80	-39.2	-40.2	22.7	0.00e+00	0	38	0	689963008	52	5880
2026-01-18 15:35:34.35	333.46	55.00	-38.8	-39.8	22.9	0.00e+00	0	38	0	692060160	52	5578
2026-01-18 15:35:35.36	332.81	55.20	-38.7	-39.7	23.1	0.00e+00	0	38	0	694157312	50	6201
2026-01-18 15:35:36.38	332.14	55.40	-38.9	-39.8	22.9	0.00e+00	91	38	0	695205888	50	6296
2026-01-18 15:35:37.39	331.48	55.60	-38.7	-39.7	22.6	0.00e+00	0	38	0	697303040	50	6187
2026-01-18 15:35:38.40	330.80	55.79	-38.9	-39.9	22.8	0.00e+00	92	38	0	699400192	50	6333
2026-01-18 15:35:39.41	330.11	55.97	-38.7	-39.6	23.1	0.00e+00	0	38	0	701497344	50	6134
2026-01-18 15:35:40.42	329.42	56.16	-38.4	-39.3	23.3	0.00e+00	0	38	0	703594496	50	5936
2026-01-18 15:35:41.43	328.71	56.34	-39.0	-40.1	22.5	0.00e+00	0	38	0	705691648	50	6465
2026-01-18 15:35:42.44	328.00	56.51	-39.9	-41.0	22.0	0.00e+00	0	38	0	706740224	52	6455
2026-01-18 15:35:43.45	327.27	56.69	-38.8	-39.8	23.1	0.00e+00	92	38	0	708837376	52	5614
2026-01-18 15:35:44.46	326.54	56.86	-37.8	-38.7	23.1	0.00e+00	13	38	0	710934528	50	5536
2026-01-18 15:35:45.47	325.80	57.02	-37.8	-38.7	24.0	0.00e+00	90	38	0	713031680	48	6191
2026-01-18 15:35:46.48	325.05	57.18	-38.8	-39.8	22.8	0.00e+00	0	38	0	715128832	48	7031
2026-01-18 15:35:47.49	324.29	57.34	-39.6	-40.8	22.2	0.00e+00	0	38	0	716177408	50	7009
2026-01-18 15:35:48.50	323.52	57.49	-40.0	-41.2	21.8	0.00e+00	0	38	0	718274560	52	6557
2026-01-18 15:35:49.51	322.75	57.64	-41.0	-42.3	21.0	0.00e+00	0	38	0	720371712	54	6675
2026-01-18 15:35:50.52	321.96	57.78	-41.4	-42.8	20.5	0.00e+00	14	38	0	722468864	54	7041
2026-01-18 15:35:51.53	321.17	57.92	-40.3	-41.4	21.8	0.00e+00	0	38	0	724566016	54	6018
2026-01-18 15:35:52.54	320.37	58.05	-39.4	-40.4	22.5	0.00e+00	60	38	0	725614592	52	6027
2026-01-18 15:35:53.55	319.56	58.18	-40.2	-41.4	21.6	0.00e+00	0	38	0	727711744	52	6722
2026-01-18 15:35:54.56	318.74	58.30	-40.1	-41.3	21.8	0.00e+00	0	38	0	729808896	52	6684
2026-01-18 15:35:55.57	317.92	58.42	-39.0	-40.0	23.0	0.00e+00	18	38	0	731906048	52	5711
2026-01-18 15:35:56.58	317.09	58.53	-38.0	-38.9	23.6	0.00e+00	0	38	0	734003200	50	5664
2026-01-18 15:35:57.59	316.25	58.63	-38.0	-38.9	23.6	0.00e+00	18	38	0	735051776	50	5688
2026-01-18 15:35:58.60	315.41	58.73	-37.0	-37.8	24.4	0.00e+00	0	38	0	737148928	48	5596
2026-01-18 15:35:59.61	314.56	58.83	-37.1	-38.0	24.5	0.00e+00	92	38	0	739246080	48	5715
2026-01-18 15:36:00.62	313.70	58.92	-37.2	-38.1	24.0	0.00e+00	0	38	0	741343232	48	5772
2026-01-18 15:36:01.63	312.84	59.00	-38.3	-39.3	23.3	0.00e+00	0	38	0	743440384	48	6657
2026-01-18 15:36:02.64	311.97	59.08	-39.2	-40.3	22.5	0.00e+00	0	38	0	744488960	50	6668
2026-01-18 15:36:03.65	311.10	59.15	-39.7	-40.8	22.3	0.00e+00	0	38	0	746586112	50	7081
2026-01-18 15:36:04.65	310.23	59.22	-38.6	-39.6	23.0	0.00e+00	54	38	0	748683264	50	6127
2026-01-18 15:36:05.66	309.35	59.28	-37.8	-38.6	23.6	0.00e+00	0	38	0	750780416	50	5499
2026-01-18 15:36:06.67	308.46	59.33	-37.7	-38.6	23.8	0.00e+00	77	38	0	752877568	48	6125
2026-01-18 15:36:07.68	307.57	59.38	-37.6	-38.5	23.9	0.00e+00	0	38	0	753926144	48	6056
2026-01-18 15:36:08.69	306.68	59.42	-37.6	-38.5	23.9	0.00e+00	68	38	0	756023296	48	6088
2026-01-18 15:36:09.70	305.79	59.45	-37.5	-38.4	23.9	0.00e+00	0	38	0	758120448	48	6001
2026-01-18 15:36:10.71	304.89	59.48	-37.5	-38.4	23.7	0.00e+00	0	38	0	760217600	48	6023
2026-01-18 15:36:11.72	303.99	59.50	-37.3	-38.2	24.1	0.00e+00	43	38	0	762314752	48	5867
2026-01-18 15:36:12.73	303.09	59.52	-36.7	-37.5	24.7	0.00e+00	0	38	0	763363328	48	5399
2026-01-18 15:36:13.74	302.19	59.53	-36.0	-36.8	24.8	0.00e+00	19	38	0	765460480	46	5599
2026-01-18 15:36:14.67	301.36	59.53	-36.6	-37.4	24.8	0.00e+00	0	38	0	767557632	46	5986
2026-01-18 15:36:15.68	300.46	59.52	-36.4	-37.2	24.8	0.00e+00	77	38	0	769654784	46	5863
2026-01-18 15:36:16.69	299.56	59.51	-35.9	-36.6	25.2	0.00e+00	0	38	0	771751936	46	5478
2026-01-18 15:36:17.70	298.66	59.50	-35.4	-36.1	25.4	0.00e+00	11	38	0	773849088	44	5815
2026-01-18 15:36:18.71	297.76	59.47	-35.5	-36.3	25.3	0.00e+00	0	38	0	774897664	44	5917
2026-01-18 15:36:19.72	296.87	59.44	-36.3	-37.1	24.8	0.00e+00	0	38	0	776994816	44	6514
2026-01-18 15:36:20.73	295.97	59.41	-37.0	-37.9	24.2	0.00e+00	92	38	0	779091968	46	6385
2026-01-18 15:36:21.73	295.09	59.37	-36.8	-37.7	24.2	0.00e+00	0	38	0	781189120	46	6178
2026-01-18 15:36:22.74	294.20	59.32	-35.7	-36.4	25.3	0.00e+00	92	38	0	783286272	46	5367
2026-01-18 15:36:23.75	293.32	59.26	-35.9	-36.7	25.0	0.00e+00	0	38	0	784334848	44	6206
2026-01-18 15:36:24.76	292.43	59.20	-36.1	-36.9	25.0	0.00e+00	0	38	0	786432000	44	6344
2026-01-18 15:36:25.77	291.56	59.14	-36.3	-37.1	24.9	0.00e+00	0	38	0	788529152	44	6500
2026-01-18 15:36:26.78	290.69	59.06	-37.2	-38.0	24.1	0.00e+00	0	38	0	790626304	46	6463
2026-01-18 15:36:27.79	289.82	58.98	-36.7	-37.5	24.5	0.00e+00	16	38	0	792723456	46	6082
2026-01-18 15:36:28.79	288.97	58.90	-36.1	-36.9	25.0	0.00e+00	0	38	0	793772032	46	5637
2026-01-18 15:36:29.80	288.11	58.81	-35.6	-36.4	25.3	0.00e+00	56	38	0	795869184	46	5340
2026-01-18 15:36:30.81	287.26	58.71	-35.7	-36.5	25.3	0.00e+00	0	38	0	797966336	44	6035
2026-01-18 15:36:31.82	286.42	58.61	-36.3	-37.2	24.8	0.00e+00	0	38	0	800063488	44	6545
2026-01-18 15:36:32.83	285.58	58.50	-37.1	-37.9	24.2	0.00e+00	0	38	0	802160640	46	6383
2026-01-18 15:36:33.84	284.75	58.39	-37.7	-38.6	23.7	0.00e+00	0	38	0	803209216	48	6159
2026-01-18 15:36:34.85	283.93	58.27	-38.1	-39.0	23.4	0.00e+00	67	38	0	805306368	48	6458
2026-01-18 15:36:35.86	283.11	58.15	-38.2	-39.2	23.4	0.00e+00	0	38	0	807403520	48	6540
2026-01-18 15:36:36.87	282.30	58.02	-38.5	-39.5	23.2	0.00e+00	92	38	0	809500672	48	6783
2026-01-18 15:36:37.88	281.50	57.89	-38.3	-39.2	23.1	0.00e+00	0	38	0	811597824	48	6586
2026-01-18 15:36:38.89	280.71	57.75	-37.8	-38.7	23.7	0.00e+00	0	38	0	812646400	48	6180
2026-01-18 15:36:39.89	279.94	57.60	-37.3	-38.1	23.9	0.00e+00	0	38	0	814743552	48	5803
2026-01-18 15:36:40.90	279.16	57.46	-38.2	-39.1	23.5	0.00e+00	0	38	0	816840704	48	6508
2026-01-18 15:36:41.91	278.39	57.30	-37.8	-38.7	23.8	0.00e+00	0	38	0	818937856	48	6179
2026-01-18 15:36:42.92	277.64	57.15	-38.2	-39.2	23.4	0.00e+00	0	38	0	821035008	48	6559
2026-01-18 15:36:43.93	276.89	56.98	-38.0	-38.9	23.6	0.00e+00	72	38	0	822083584	48	6365
2026-01-18 15:36:44.94	276.15	56.82	-37.1	-37.9	24.3	0.00e+00	0	38	0	824180736	48	5644
2026-01-18 15:36:45.95	275.42	56.65	-37.9	-38.8	23.7	0.00e+00	92	38	0	826277888	48	6282
2026-01-18 15:36:46.96	274.69	56.48	-39.1	-40.1	22.7	0.00e+00	0	38	0	828375040	50	6516
2026-01-18 15:36:47.97	273.98	56.30	-38.3	-39.2	23.5	0.00e+00	0	38	0	830472192	50	5863
2026-01-18 15:36:48.98	273.28	56.12	-37.0	-37.8	24.5	0.00e+00	0	38	0	831520768	48	5612
2026-01-18 15:36:49.99	272.58	55.93	-36.6	-37.3	24.7	0.00e+00	0	38	0	833617920	46	5947
2026-01-18 15:36:51.00	271.90	55.74	-36.5	-37.3	24.6	0.00e+00	25	38	0	835715072	46	5913
2026-01-18 15:36:52.01	271.22	55.55	-37.0	-37.8	24.6	0.00e+00	0	38	0	837812224	46	6286
2026-01-18 15:36:53.02	270.55	55.36	-37.2	-38.0	24.4	0.00e+00	81	38	0	839909376	46	6445
2026-01-18 15:36:54.03	269.90	55.16	-36.6	-37.4	24.8	0.00e+00	0	38	0	842006528	46	5979
2026-01-18 15:36:55.04	269.25	54.96	-35.9	-36.6	25.2	0.00e+00	0	38	0	843055104	46	5501
2026-01-18 15:36:56.05	268.61	54.76	-36.8	-37.6	24.7	0.00e+00	0	38	0	845152256	46	6142
2026-01-18 15:36:57.06	267.98	54.55	-37.5	-38.3	24.0	0.00e+00	0	38	0	847249408	48	5948
2026-01-18 15:36:58.07	267.36	54.34	-38.5	-39.4	23.3	0.00e+00	0	38	0	849346560	48	6734
2026-01-18 15:36:59.07	266.75	54.13	-38.5	-39.5	23.2	0.00e+00	0	38	0	851443712	48	6802
2026-01-18 15:37:00.08	266.15	53.92	-38.6	-39.5	23.2	0.00e+00	90	38	0	852492288	50	6083
2026-01-18 15:37:01.09	265.55	53.70	-38.2	-39.1	23.2	0.00e+00	0	38	0	854589440	50	5802
2026-01-18 15:37:02.10	264.97	53.48	-38.6	-39.6	23.1	0.00e+00	0	38	0	856686592	50	6117
2026-01-18 15:37:03.12	264.39	53.26	-38.8	-39.8	22.9	0.00e+00	0	38	0	858783744	50	6256
2026-01-18 15:37:04.13	263.82	53.04	-39.1	-40.1	22.7	0.00e+00	0	38	0	860880896	50	6525
2026-01-18 15:37:05.14	263.26	52.81	-39.0	-40.0	22.9	0.00e+00	92	38	0	861929472	50	6462
2026-01-18 15:37:06.15	262.71	52.59	-39.7	-40.8	21.8	0.00e+00	0	38	0	864026624	50	7063
2026-01-18 15:37:07.16	262.17	52.36	-40.1	-41.2	21.9	0.00e+00	90	38	0	866123776	52	6615
2026-01-18 15:37:08.17	261.63	52.13	-40.4	-41.6	21.6	0.00e+00	16	39	0	868220928	52	6867
2026-01-18 15:37:09.18	261.11	51.90	-40.2	-41.3	21.9	0.00e+00	0	38	0	870318080	52	6669
2026-01-18 15:37:10.19	260.59	51.67	-40.4	-41.6	21.4	0.00e+00	0	38	0	871366656	52	6872
2026-01-18 15:37:11.20	260.08	51.44	-39.5	-40.5	22.3	0.00e+00	0	38	0	873463808	52	6084
2026-01-18 15:37:12.20	259.59	51.20	-39.1	-40.1	22.8	0.00e+00	49	38	0	875560960	52	5767
2026-01-18 15:37:13.21	259.09	50.97	-38.7	-39.6	23.2	0.00e+00	0	38	0	877658112	50	6154
2026-01-18 15:37:14.22	258.61	50.73	-39.9	-41.0	22.0	0.00e+00	92	38	0	879755264	52	6440
2026-01-18 15:37:15.23	258.13	50.50	-39.7	-40.8	22.2	0.00e+00	0	38	0	880803840	52	6287
2026-01-18 15:37:16.24	257.66	50.26	-39.0	-40.0	23.0	0.00e+00	0	38	0	882900992	52	5705
2026-01-18 15:37:17.25	257.20	50.02	-38.2	-39.1	23.6	0.00e+00	0	38	0	884998144	50	5771
2026-01-18 15:37:18.26	256.74	49.78	-38.2	-39.1	23.4	0.00e+00	0	38	0	887095296	50	5764
2026-01-18 15:37:19.27	256.29	49.54	-38.6	-39.5	23.3	0.00e+00	11	38	0	889192448	50	6076
2026-01-18 15:37:20.28	255.85	49.30	-39.1	-40.1	22.8	0.00e+00	0	38	0	890241024	50	6494
2026-01-18 15:37:21.29	255.41	49.06	-40.3	-41.4	21.7	0.00e+00	92	38	0	892338176	52	6739
2026-01-18 15:37:22.31	254.98	48.81	-40.6	-41.7	21.4	0.00e+00	0	38	0	894435328	54	6224
2026-01-18 15:37:23.32	254.56	48.57	-40.7	-41.9	21.3	0.00e+00	92	38	0	896532480	54	6342
2026-01-18 15:37:24.33	254.15	48.33	-41.1	-42.3	21.2	0.00e+00	0	38	0	898629632	54	6672
2026-01-18 15:37:25.34	253.74	48.08	-40.8	-42.0	21.2	0.00e+00	0	38	0	899678208	54	6411
2026-01-18 15:37:26.35	253.34	47.84	-40.4	-41.5	21.7	0.00e+00	4	38	0	901775360	54	6044
2026-01-18 15:37:27.36	252.94	47.60	-40.7	-41.8	21.4	0.00e+00	0	38	0	903872512	54	6315
2026-01-18 15:37:28.37	252.55	47.35	-41.8	-43.1	20.0	0.00e+00	11	38	0	905969664	56	6535
2026-01-18 15:37:29.38	252.17	47.11	-43.5	-45.5	17.9	0.00e+00	0	38	0	908066816	58	7676
2026-01-18 15:37:30.39	251.79	46.87	-44.3	-46.6	17.1	0.00e+00	84	38	0	910163968	60	7744
2026-01-18 15:37:31.40	251.42	46.62	-44.1	-46.3	17.8	0.00e+00	0	38	0	911212544	60	7434
2026-01-18 15:37:32.40	251.06	46.38	-42.2	-43.7	19.7	0.00e+00	0	38	0	913309696	58	6201
2026-01-18 15:37:33.41	250.70	46.14	-40.9	-42.0	21.0	0.00e+00	0	38	0	915406848	56	5755
2026-01-18 15:37:34.42	250.35	45.90	-41.0	-42.2	21.1	0.00e+00	0	38	0	917504000	54	6564
2026-01-18 15:37:35.43	250.00	45.65	-40.6	-41.8	21.2	0.00e+00	92	38	0	919601152	54	6248
2026-01-18 15:37:36.44	249.65	45.41	-40.8	-42.0	21.2	0.00e+00	0	38	0	920649728	54	6422
2026-01-18 15:37:37.45	249.31	45.17	-40.2	-41.3	21.9	0.00e+00	46	38	0	922746880	54	5940
2026-01-18 15:37:38.46	248.98	44.93	-40.2	-41.3	21.7	0.00e+00	0	38	0	924844032	54	5955
2026-01-18 15:37:39.47	248.65	44.69	-39.7	-40.8	22.3	0.00e+00	0	38	0	926941184	52	6262
2026-01-18 15:37:40.48	248.33	44.45	-39.1	-40.1	22.8	0.00e+00	0	38	0	929038336	52	5791
2026-01-18 15:37:41.49	248.01	44.20	-39.4	-40.4	22.4	0.00e+00	0	38	0	930086912	52	6020
2026-01-18 15:37:42.50	247.70	43.97	-39.9	-40.9	22.2	0.00e+00	14	38	0	932184064	52	6382
2026-01-18 15:37:43.51	247.39	43.73	-40.5	-41.6	21.2	0.00e+00	0	38	0	934281216	52	6910
2026-01-18 15:37:44.52	247.09	43.49	-41.2	-42.5	20.9	0.00e+00	90	38	0	936378368	54	6776
2026-01-18 15:37:45.53	246.79	43.25	-40.7	-41.8	21.2	0.00e+00	0	38	0	938475520	54	6292
2026-01-18 15:37:46.54	246.49	43.01	-41.4	-42.7	20.6	0.00e+00	0	38	0	939524096	54	6982
2026-01-18 15:37:47.55	246.20	42.77	-42.3	-43.8	19.5	0.00e+00	0	38	0	941621248	56	7055
2026-01-18 15:37:48.56	245.91	42.54	-42.7	-44.2	19.3	0.00e+00	0	38	0	943718400	56	7384
2026-01-18 15:37:49.57	245.63	42.30	-42.4	-43.9	19.2	0.00e+00	13	38	0	945815552	58	6351
2026-01-18 15:37:50.58	245.35	42.07	-41.6	-42.9	20.7	0.00e+00	0	38	0	947912704	56	6374
2026-01-18 15:37:51.59	245.08	41.83	-41.7	-43.0	20.3	0.00e+00	92	38	0	948961280	56	6428
2026-01-18 15:37:52.60	244.81	41.60	-41.5	-42.8	20.7	0.00e+00	0	38	0	951058432	56	6264
2026-01-18 15:37:53.61	244.54	41.37	-40.8	-42.0	21.4	0.00e+00	69	38	0	953155584	56	5731
2026-01-18 15:37:54.62	244.28	41.13	-40.6	-41.7	21.5	0.00e+00	0	38	0	955252736	54	6219
2026-01-18 15:37:55.63	244.02	40.90	-40.3	-41.4	21.9	0.00e+00	0	38	0	957349888	54	6029
2026-01-18 15:37:56.64	243.77	40.67	-40.7	-41.9	21.2	0.00e+00	15	38	0	958398464	54	6345
2026-01-18 15:37:57.65	243.51	40.44	-41.0	-42.2	21.0	0.00e+00	0	38	0	960495616	54	6598
2026-01-18 15:37:58.66	243.27	40.22	-41.2	-42.5	20.9	0.00e+00	30	38	0	962592768	54	6840
2026-01-18 15:37:59.67	243.02	39.99	-41.1	-42.4	21.1	0.00e+00	0	38	0	964689920	54	6705
2026-01-18 15:38:00.68	242.78	39.76	-41.7	-43.0	20.4	0.00e+00	92	38	0	966787072	56	6453
2026-01-18 15:38:01.69	242.54	39.53	-42.1	-43.5	19.8	0.00e+00	0	38	0	967835648	56	6805
2026-01-18 15:38:02.69	242.31	39.31	-43.0	-44.8	18.5	0.00e+00	0	38	0	969932800	58	7032
2026-01-18 15:38:03.70	242.08	39.09	-42.6	-44.2	19.2	0.00e+00	15	38	0	972029952	58	6595
2026-01-18 15:38:04.71	241.85	38.86	-42.6	-44.2	19.5	0.00e+00	0	38	0	974127104	58	6568
2026-01-18 15:38:05.72	241.63	38.64	-41.7	-43.1	20.2	0.00e+00	8	38	0	976224256	56	6467
2026-01-18 15:38:06.73	241.41	38.42	-41.7	-43.0	20.4	0.00e+00	0	38	0	978321408	56	6452
2026-01-18 15:38:07.74	241.19	38.20	-41.5	-42.7	20.6	0.00e+00	82	38	0	979369984	56	6238
2026-01-18 15:38:08.75	240.97	37.98	-41.4	-42.7	20.6	0.00e+00	0	38	0	981467136	56	6190
2026-01-18 15:38:09.76	240.76	37.76	-41.7	-43.0	20.4	0.00e+00	0	38	0	983564288	56	6400
2026-01-18 15:38:10.77	240.55	37.54	-42.1	-43.5	19.9	0.00e+00	0	38	0	985661440	56	6800
2026-01-18 15:38:11.77	240.35	37.33	-41.5	-42.7	20.6	0.00e+00	0	38	0	987758592	56	6240
2026-01-18 15:38:12.78	240.14	37.11	-41.3	-42.5	20.3	0.00e+00	83	38	0	988807168	56	6099
2026-01-18 15:38:13.79	239.94	36.90	-41.8	-43.2	20.3	0.00e+00	0	38	0	990904320	56	6544
2026-01-18 15:38:14.80	239.74	36.69	-41.7	-43.0	20.5	0.00e+00	91	38	0	993001472	56	6401
2026-01-18 15:38:15.81	239.55	36.47	-40.3	-41.4	21.8	0.00e+00	0	38	0	995098624	54	5980
2026-01-18 15:38:16.82	239.35	36.26	-39.8	-40.8	22.3	0.00e+00	0	38	0	996147200	52	6292
2026-01-18 15:38:17.83	239.16	36.05	-39.9	-40.9	22.2	0.00e+00	0	38	0	998244352	52	6346
2026-01-18 15:38:18.84	238.97	35.84	-40.5	-41.6	21.4	0.00e+00	0	38	0	1000341504	52	6915
2026-01-18 15:38:19.85	238.79	35.63	-41.6	-42.9	20.4	0.00e+00	80	38	0	1002438656	54	7136
2026-01-18 15:38:20.86	238.60	35.43	-41.8	-43.1	19.7	0.00e+00	0	38	0	1004535808	56	6505
2026-01-18 15:38:21.87	238.42	35.22	-41.2	-42.4	21.1	0.00e+00	92	38	0	1006632960	56	6026
2026-01-18 15:38:22.88	238.24	35.01	-40.8	-41.9	21.5	0.00e+00	0	38	0	1007681536	56	5672
2026-01-18 15:38:23.88	238.07	34.81	-41.2	-42.4	20.9	0.00e+00	0	38	0	1009778688	54	6715
2026-01-18 15:38:24.90	237.89	34.61	-41.3	-42.6	20.6	0.00e+00	0	38	0	1011875840	54	6881
2026-01-18 15:38:25.90	237.72	34.40	-41.5	-42.8	20.5	0.00e+00	0	38	0	1013972992	54	7019
2026-01-18 15:38:26.91	237.55	34.20	-41.1	-42.3	21.0	0.00e+00	9	38	0	1016070144	54	6674
2026-01-18 15:38:27.92	237.38	34.00	-41.0	-42.2	21.2	0.00e+00	0	38	0	1017118720	54	6570
2026-01-18 15:38:28.94	237.21	33.80	-40.2	-41.3	21.8	0.00e+00	92	38	0	1019215872	54	5933
2026-01-18 15:38:29.94	237.05	33.60	-40.2	-41.3	21.9	0.00e+00	0	38	0	1021313024	54	5928
2026-01-18 15:38:30.95	236.89	33.41	-40.6	-41.8	21.4	0.00e+00	92	38	0	1023410176	54	6270
2026-01-18 15:38:31.96	236.73	33.21	-41.8	-43.1	20.2	0.00e+00	0	38	0	1025507328	54	7326
2026-01-18 15:38:32.97	236.57	33.02	-41.8	-43.2	20.3	0.00e+00	17	38	0	1026555904	56	6563
2026-01-18 15:38:33.98	236.41	32.82	-41.4	-42.7	20.7	0.00e+00	0	38	0	1028653056	56	6224
2026-01-18 15:38:34.99	236.26	32.63	-40.8	-42.0	21.4	0.00e+00	0	38	0	1030750208	56	5704
2026-01-18 15:38:36.00	236.11	32.43	-40.1	-41.1	22.0	0.00e+00	91	38	0	1032847360	54	5828
2026-01-18 15:38:37.01	235.96	32.24	-39.7	-40.7	22.3	0.00e+00	0	38	0	1034944512	52	6221
2026-01-18 15:38:38.02	235.81	32.05	-40.3	-41.5	21.7	0.00e+00	92	38	0	1035993088	52	6787
2026-01-18 15:38:39.03	235.66	31.86	-41.2	-42.5	20.8	0.00e+00	0	38	0	1038090240	54	6797
2026-01-18 15:38:40.04	235.52	31.67	-41.4	-42.8	20.5	0.00e+00	0	38	0	1040187392	54	7036
2026-01-18 15:38:41.05	235.37	31.49	-41.9	-43.3	20.2	0.00e+00	0	38	0	1042284544	56	6675
2026-01-18 15:38:42.06	235.23	31.30	-41.1	-42.3	21.0	0.00e+00	0	38	0	1044381696	56	5939
2026-01-18 15:38:43.07	235.09	31.12	-40.5	-41.7	21.7	0.00e+00	0	38	0	1045430272	54	6176
2026-01-18 15:38:44.08	234.95	30.93	-39.5	-40.5	22.5	0.00e+00	0	38	0	1047527424	52	6068
2026-01-18 15:38:45.09	234.81	30.75	-39.4	-40.4	22.5	0.00e+00	87	38	0	1049624576	52	6003
2026-01-18 15:38:46.10	234.68	30.56	-39.6	-40.6	22.4	0.00e+00	0	38	0	1051721728	52	6108
2026-01-18 15:38:47.11	234.55	30.38	-39.9	-40.9	22.2	0.00e+00	0	38	0	1053818880	52	6349
2026-01-18 15:38:48.12	234.41	30.20	-40.0	-41.1	22.0	0.00e+00	0	38	0	1054867456	52	6487
2026-01-18 15:38:49.13	234.28	30.02	-39.6	-40.6	22.5	0.00e+00	13	38	0	1056964608	52	6143
2026-01-18 15:38:50.14	234.15	29.84	-39.2	-40.1	22.8	0.00e+00	15	38	0	1059061760	52	5814
2026-01-18 15:38:51.15	234.02	29.67	-38.8	-39.7	23.1	0.00e+00	0	38	0	1061158912	50	6201
2026-01-18 15:38:52.16	233.90	29.49	-38.8	-39.7	23.1	0.00e+00	88	38	0	1063256064	50	6200
2026-01-18 15:38:53.17	233.77	29.31	-38.9	-39.9	23.0	0.00e+00	0	38	0	1064304640	50	6323
2026-01-18 15:38:54.17	233.65	29.14	-39.6	-40.7	22.2	0.00e+00	0	38	0	1066401792	50	6938
2026-01-18 15:38:55.18	233.53	28.97	-40.3	-41.4	21.7	0.00e+00	48	38	0	1068498944	52	6761
2026-01-18 15:38:56.19	233.41	28.79	-40.5	-41.7	21.2	0.00e+00	0	38	0	1070596096	52	6966
2026-01-18 15:38:57.20	233.29	28.62	-40.8	-42.0	21.1	0.00e+00	16	38	0	1072693248	54	6459
2026-01-18 15:38:58.21	233.17	28.45	-41.0	-42.2	21.3	0.00e+00	0	38	0	1073741824	54	6599
2026-01-18 15:38:59.22	233.05	28.28	-40.4	-41.5	21.6	0.00e+00	92	38	0	1075838976	54	6064
2026-01-18 15:39:00.22	232.94	28.11	-40.3	-41.4	21.6	0.00e+00	0	38	0	1077936128	54	6011
2026-01-18 15:39:01.23	232.82	27.94	-40.3	-41.5	21.6	0.00e+00	0	38	0	1080033280	54	6063
2026-01-18 15:39:02.24	232.71	27.77	-40.5	-41.7	21.4	0.00e+00	0	38	0	1082130432	54	6185
2026-01-18 15:39:03.25	232.60	27.61	-40.6	-41.7	21.4	0.00e+00	0	38	0	1084227584	54	6225
2026-01-18 15:39:04.26	232.49	27.44	-40.4	-41.5	21.6	0.00e+00	41	38	0	1085276160	54	6073
2026-01-18 15:39:05.27	232.38	27.28	-40.1	-41.2	21.8	0.00e+00	0	38	0	1087373312	54	5837
2026-01-18 15:39:06.28	232.27	27.11	-39.9	-41.0	22.0	0.00e+00	87	38	0	1089470464	54	5698
2026-01-18 15:39:07.29	232.16	26.95	-39.5	-40.4	22.5	0.00e+00	0	38	0	1091567616	52	6029
2026-01-18 15:39:08.30	232.05	26.79	-39.3	-40.3	22.6	0.00e+00	92	38	0	1093664768	52	5947
2026-01-18 15:39:09.31	231.95	26.62	-39.2	-40.2	22.8	0.00e+00	0	38	0	1094713344	52	5846
2026-01-18 15:39:10.32	231.84	26.46	-39.2	-40.1	22.8	0.00e+00	0	38	0	1096810496	52	5807
2026-01-18 15:39:11.33	231.74	26.30	-39.2	-40.2	22.6	0.00e+00	43	38	0	1098907648	52	5858
2026-01-18 15:39:12.34	231.64	26.14	-39.7	-40.7	22.3	0.00e+00	0	38	0	1101004800	52	6245
2026-01-18 15:39:13.34	231.54	25.99	-40.1	-41.2	21.8	0.00e+00	90	38	0	1103101952	52	6601
2026-01-18 15:39:14.35	231.44	25.83	-40.7	-41.9	21.2	0.00e+00	0	38	0	1104150528	52	7109
2026-01-18 15:39:15.36	231.34	25.67	-41.0	-42.2	21.0	0.00e+00	92	38	0	1106247680	54	6583
2026-01-18 15:39:16.37	231.24	25.52	-41.1	-42.3	20.9	0.00e+00	0	38	0	1108344832	54	6664
2026-01-18 15:39:17.39	231.14	25.36	-41.2	-42.4	20.8	0.00e+00	0	38	0	1110441984	54	6734
2026-01-18 15:39:18.39	231.05	25.21	-41.0	-42.3	20.9	0.00e+00	0	38	0	1112539136	54	6622
2026-01-18 15:39:19.40	230.95	25.05	-40.9	-42.1	21.1	0.00e+00	0	38	0	1113587712	54	6535
2026-01-18 15:39:20.41	230.86	24.90	-41.0	-42.2	21.0	0.00e+00	7	38	0	1115684864	54	6568
2026-01-18 15:39:21.42	230.77	24.75	-41.0	-42.2	20.9	0.00e+00	0	38	0	1117782016	54	6565
2026-01-18 15:39:22.43	230.67	24.60	-40.9	-42.1	21.0	0.00e+00	90	38	0	1119879168	54	6484
2026-01-18 15:39:23.44	230.58	24.45	-41.1	-42.3	20.9	0.00e+00	0	38	0	1121976320	54	6690
2026-01-18 15:39:24.45	230.49	24.30	-40.9	-42.1	21.0	0.00e+00	0	38	0	1123024896	54	6472
2026-01-18 15:39:25.46	230.40	24.15	-41.0	-42.1	21.0	0.00e+00	0	38	0	1125122048	54	6538
2026-01-18 15:39:26.46	230.31	24.00	-40.9	-42.1	21.0	0.00e+00	0	38	0	1127219200	54	6491
2026-01-18 15:39:27.47	230.23	23.86	-40.5	-41.6	21.6	0.00e+00	8	38	0	1129316352	54	6163
2026-01-18 15:39:28.48	230.14	23.71	-40.1	-41.2	21.9	0.00e+00	0	38	0	1131413504	54	5859
2026-01-18 15:39:29.49	230.05	23.56	-40.2	-41.2	21.8	0.00e+00	43	38	0	1132462080	54	5896
2026-01-18 15:39:30.50	229.97	23.42	-39.9	-40.9	22.2	0.00e+00	0	38	0	1134559232	54	5652
2026-01-18 15:39:31.51	229.88	23.28	-39.7	-40.7	22.3	0.00e+00	0	38	0	1136656384	52	6217
2026-01-18 15:39:32.52	229.80	23.13	-40.0	-41.0	22.1	0.00e+00	0	38	0	1138753536	52	6436
2026-01-18 15:39:33.53	229.72	22.99	-39.8	-40.8	22.2	0.00e+00	0	38	0	1140850688	52	6314
2026-01-18 15:39:34.54	229.63	22.85	-39.8	-40.8	22.3	0.00e+00	57	38	0	1141899264	52	6276
2026-01-18 15:39:35.55	229.55	22.71	-40.1	-41.1	22.0	0.00e+00	0	38	0	1143996416	52	6520
2026-01-18 15:39:36.56	229.47	22.57	-39.9	-41.0	22.1	0.00e+00	85	38	0	1146093568	52	6411
2026-01-18 15:39:37.57	229.39	22.43	-39.8	-40.8	22.2	0.00e+00	0	38	0	1148190720	52	6249
2026-01-18 15:39:38.58	229.31	22.29	-39.6	-40.6	22.3	0.00e+00	0	38	0	1150287872	52	6116
2026-01-18 15:39:39.59	229.23	22.15	-39.4	-40.3	22.6	0.00e+00	0	38	0	1152385024	52	5956
2026-01-18 15:39:40.60	229.16	22.01	-39.3	-40.3	22.7	0.00e+00	0	38	0	1153433600	52	5914
2026-01-18 15:39:41.60	229.08	21.87	-39.1	-40.1	22.8	0.00e+00	13	38	0	1155530752	52	5768
2026-01-18 15:39:42.61	229.00	21.74	-39.1	-40.0	22.8	0.00e+00	0	38	0	1157627904	52	5758
2026-01-18 15:39:43.62	228.93	21.60	-39.1	-40.1	22.7	0.00e+00	92	38	0	1159725056	52	5787
2026-01-18 15:39:44.63	228.85	21.47	-39.2	-40.1	22.7	0.00e+00	0	38	0	1161822208	52	5810
2026-01-18 15:39:45.64	228.78	21.33	-39.2	-40.2	22.7	0.00e+00	78	38	0	1162870784	52	5846
2026-01-18 15:39:46.65	228.70	21.20	-39.5	-40.5	22.5	0.00e+00	0	38	0	1164967936	52	6060
2026-01-18 15:39:47.66	228.63	21.07	-40.0	-41.1	22.0	0.00e+00	0	38	0	1167065088	52	6511
2026-01-18 15:39:48.67	228.56	20.93	-40.2	-41.4	21.7	0.00e+00	0	38	0	1169162240	52	6715
2026-01-18 15:39:49.68	228.49	20.80	-40.6	-41.8	21.1	0.00e+00	0	38	0	1171259392	52	7025
2026-01-18 15:39:50.69	228.42	20.67	-40.9	-42.2	20.8	0.00e+00	28	38	0	1172307968	54	6575
2026-01-18 15:39:51.70	228.35	20.54	-41.5	-42.8	20.5	0.00e+00	0	38	0	1174405120	54	7088
2026-01-18 15:39:52.71	228.28	20.41	-41.5	-42.9	20.2	0.00e+00	92	38	0	1176502272	54	7138
2026-01-18 15:39:53.72	228.21	20.28	-42.2	-43.7	19.9	0.00e+00	0	39	0	1178599424	56	6943
2026-01-18 15:39:54.73	228.14	20.15	-41.9	-43.3	19.9	0.00e+00	0	38	0	1180696576	56	6669
2026-01-18 15:39:55.74	228.07	20.02	-42.2	-43.7	19.6	0.00e+00	0	38	0	1181745152	56	6952
2026-01-18 15:39:56.75	228.00	19.90	-42.1	-43.5	19.9	0.00e+00	0	38	0	1183842304	56	6809
2026-01-18 15:39:57.76	227.94	19.77	-41.9	-43.4	19.9	0.00e+00	11	38	0	1185939456	56	6718
2026-01-18 15:39:58.77	227.87	19.64	-41.7	-43.0	20.3	0.00e+00	0	38	0	1188036608	56	6446
2026-01-18 15:39:59.78	227.80	19.52	-41.3	-42.6	20.7	0.00e+00	90	38	0	1190133760	56	6112
2026-01-18 15:40:00.79	227.74	19.39	-41.2	-42.5	20.8	0.00e+00	0	38	0	1191182336	56	6054
2026-01-18 15:40:01.80	227.68	19.27	-40.8	-42.0	21.3	0.00e+00	0	38	0	1193279488	56	5703
2026-01-18 15:40:02.81	227.61	19.14	-40.6	-41.8	21.4	0.00e+00	0	38	0	1195376640	54	6250
2026-01-18 15:40:03.82	227.55	19.02	-40.4	-41.5	21.6	0.00e+00	0	38	0	1197473792	54	6095
2026-01-18 15:40:04.83	227.48	18.90	-39.9	-40.9	21.9	0.00e+00	84	38	0	1199570944	54	5694
2026-01-18 15:40:05.84	227.42	18.77	-40.0	-41.1	21.9	0.00e+00	0	38	0	1200619520	54	5796
2026-01-18 15:40:06.85	227.36	18.65	-39.8	-40.9	22.2	0.00e+00	92	38	0	1202716672	54	5640
2026-01-18 15:40:07.86	227.30	18.53	-39.4	-40.4	22.4	0.00e+00	0	38	0	1204813824	52	6015
2026-01-18 15:40:08.87	227.24	18.41	-39.5	-40.5	22.4	0.00e+00	0	38	0	1206910976	52	6036
2026-01-18 15:40:09.88	227.18	18.29	-39.4	-40.4	22.5	0.00e+00	0	38	0	1209008128	52	5973
2026-01-18 15:40:10.89	227.12	18.17	-39.0	-40.0	22.8	0.00e+00	0	38	0	1210056704	52	5696
2026-01-18 15:40:11.90	227.06	18.05	-39.1	-40.1	22.8	0.00e+00	13	38	0	1212153856	52	5783
