passes_logs/2026/01/18/R4.6S_Anadyr/R4.6S_Anadyr__20260118_002254_NOAA_20_JPSS-1_rec.log

#Pass ID: 20260118_002254_NOAA 20 (JPSS-1)
#Satellite: NOAA 20 (JPSS-1)
#Configuration: NOAA 20
#almurnet v.1.7.20251203
#Start time: 2026-01-18 00:22:56

#Version: 2.2.20231116
#Station: R4.6S_Anadyr
#Location: 177.4865 lon 64.73178 lat
#TLE: 1 43013U 17073A   26017.58553584  .00000066  00000+0  52288-4 0  9998
#TLE: 2 43013  98.7639 318.4977 0001406  35.6039 324.5231 14.19536575423107

#Time	Az	El	Level	Level2	SNR	BER	BlckErr	Temp	State	Recorded	gain1	gain2
2026-01-18 00:22:56.47	160.32	0.14	-49.4	-64.3	3.6	1.51e+00	0	30	0	0	60	59223
2026-01-18 00:22:57.48	160.33	0.20	-49.5	-64.7	3.6	1.51e+00	0	31	104	0	60	62281
2026-01-18 00:22:58.49	160.34	0.26	-49.4	-64.6	3.5	1.51e+00	0	31	104	0	60	61549
2026-01-18 00:22:59.50	160.34	0.32	-49.2	-64.4	3.6	1.51e+00	0	31	104	0	60	60058
2026-01-18 00:23:00.51	160.35	0.39	-49.1	-64.4	3.6	1.51e+00	0	31	104	0	60	60013
2026-01-18 00:23:01.52	160.36	0.45	-49.5	-64.7	3.6	1.51e+00	0	31	104	0	60	62054
2026-01-18 00:23:02.53	160.37	0.51	-49.4	-64.6	3.6	1.51e+00	0	31	104	0	60	61579
2026-01-18 00:23:03.54	160.38	0.57	-49.2	-64.5	3.6	1.51e+00	0	31	104	0	60	60510
2026-01-18 00:23:04.55	160.39	0.63	-49.1	-64.4	3.6	1.51e+00	0	31	104	0	60	59710
2026-01-18 00:23:05.56	160.39	0.69	-49.4	-64.6	3.6	1.51e+00	0	31	104	0	60	61645
2026-01-18 00:23:06.57	160.40	0.76	-49.4	-64.6	3.6	1.51e+00	0	31	104	0	60	61474
2026-01-18 00:23:07.58	160.41	0.82	-49.1	-64.4	3.6	1.51e+00	0	31	104	0	60	60034
2026-01-18 00:23:08.59	160.42	0.88	-49.3	-64.5	3.6	1.51e+00	0	31	104	0	60	60868
2026-01-18 00:23:09.60	160.43	0.94	-49.4	-64.6	3.6	1.51e+00	0	31	104	0	60	61165
2026-01-18 00:23:10.61	160.44	1.01	-49.3	-64.6	3.6	1.51e+00	0	31	104	0	60	61042
2026-01-18 00:23:11.62	160.45	1.07	-49.1	-64.4	3.6	1.51e+00	0	31	104	0	60	59783
2026-01-18 00:23:12.63	160.46	1.13	-49.2	-64.5	3.6	1.51e+00	0	31	104	0	60	60598
2026-01-18 00:23:13.64	160.46	1.19	-49.5	-64.8	3.6	1.51e+00	0	31	104	0	60	63046
2026-01-18 00:23:14.65	160.47	1.26	-49.3	-64.6	3.6	1.51e+00	0	31	104	0	60	61045
2026-01-18 00:23:15.66	160.48	1.32	-49.4	-64.7	3.6	1.51e+00	0	31	104	0	60	61979
2026-01-18 00:23:16.67	160.49	1.38	-49.6	-64.9	3.6	1.51e+00	0	31	104	0	60	63395
2026-01-18 00:23:17.68	160.50	1.45	-49.5	-64.7	3.6	1.51e+00	0	31	104	0	60	62116
2026-01-18 00:23:18.69	160.51	1.51	-49.4	-64.7	3.6	1.51e+00	0	31	104	0	60	61900
2026-01-18 00:23:19.70	160.52	1.57	-49.1	-64.4	3.6	1.51e+00	0	31	104	0	60	59986
2026-01-18 00:23:20.71	160.53	1.64	-49.2	-64.4	3.6	1.51e+00	0	31	104	0	60	60141
2026-01-18 00:23:21.72	160.54	1.70	-49.3	-64.5	3.6	1.51e+00	0	31	104	0	60	61016
2026-01-18 00:23:22.73	160.54	1.77	-49.5	-64.8	3.6	1.51e+00	0	31	104	0	60	62533
2026-01-18 00:23:23.74	160.55	1.83	-49.6	-64.9	3.6	1.51e+00	0	31	104	0	60	63368
2026-01-18 00:23:24.75	160.56	1.90	-49.5	-64.7	3.6	1.51e+00	0	31	104	0	60	62301
2026-01-18 00:23:25.76	160.57	1.96	-49.3	-64.5	3.6	1.51e+00	0	31	104	0	60	60744
2026-01-18 00:23:26.77	160.58	2.02	-49.4	-64.6	3.6	1.51e+00	0	31	104	0	60	61627
2026-01-18 00:23:27.78	160.59	2.09	-49.3	-64.6	3.6	1.51e+00	0	31	104	0	60	61066
2026-01-18 00:23:28.79	160.60	2.15	-49.1	-64.4	3.6	1.51e+00	0	31	104	0	60	59663
2026-01-18 00:23:29.80	160.61	2.22	-49.1	-64.3	3.6	1.51e+00	0	31	104	0	60	59236
2026-01-18 00:23:30.80	160.62	2.28	-49.4	-64.7	3.6	1.51e+00	0	31	104	0	60	61771
2026-01-18 00:23:31.81	160.63	2.35	-49.3	-64.5	3.6	1.51e+00	0	31	104	0	60	60989
2026-01-18 00:23:32.82	160.64	2.42	-49.3	-64.6	3.6	1.51e+00	0	31	104	0	60	61175
2026-01-18 00:23:33.83	160.65	2.48	-49.2	-64.5	3.6	1.51e+00	0	31	104	0	60	60493
2026-01-18 00:23:34.84	160.65	2.55	-49.4	-64.7	3.6	1.51e+00	0	32	104	0	60	61777
2026-01-18 00:23:35.85	160.66	2.61	-49.5	-64.7	3.5	1.51e+00	0	31	104	0	60	61810
2026-01-18 00:23:36.86	160.67	2.68	-49.2	-64.5	3.6	1.51e+00	0	32	104	0	60	60713
2026-01-18 00:23:37.87	160.68	2.75	-49.5	-64.8	3.6	1.51e+00	0	31	104	0	60	62583
2026-01-18 00:23:38.88	160.69	2.81	-49.6	-64.8	3.6	1.51e+00	0	32	104	0	60	62819
2026-01-18 00:23:39.89	160.70	2.88	-49.6	-64.8	3.6	1.51e+00	0	31	104	0	60	62948
2026-01-18 00:23:40.90	160.71	2.95	-49.5	-64.7	3.6	1.51e+00	0	32	104	0	60	62106
2026-01-18 00:23:41.91	160.72	3.01	-49.3	-64.5	3.6	1.51e+00	0	32	104	0	60	61021
2026-01-18 00:23:42.91	160.73	3.08	-49.7	-65.0	3.6	1.51e+00	0	32	104	0	60	64263
2026-01-18 00:23:43.92	160.74	3.15	-49.3	-64.5	3.6	1.51e+00	0	32	104	0	60	60841
2026-01-18 00:23:44.93	160.75	3.22	-49.2	-64.4	3.6	1.51e+00	0	32	104	0	60	60058
2026-01-18 00:23:45.94	160.76	3.28	-49.5	-64.8	3.6	1.51e+00	0	32	104	0	60	62612
2026-01-18 00:23:46.95	160.77	3.35	-49.1	-64.4	3.6	1.51e+00	0	32	104	0	60	59863
2026-01-18 00:23:47.96	160.78	3.42	-49.2	-64.4	3.6	1.51e+00	0	32	104	0	60	60102
2026-01-18 00:23:48.97	160.79	3.49	-49.2	-64.4	3.6	1.51e+00	0	32	104	0	60	60052
2026-01-18 00:23:49.98	160.80	3.56	-49.2	-64.5	3.6	1.51e+00	0	32	104	0	60	60507
2026-01-18 00:23:50.99	160.81	3.62	-49.2	-64.5	3.6	1.51e+00	0	32	104	0	60	60706
2026-01-18 00:23:52.00	160.82	3.69	-49.2	-64.5	3.6	1.51e+00	0	32	104	0	60	60509
2026-01-18 00:23:53.01	160.83	3.76	-49.3	-64.5	3.6	1.51e+00	0	32	104	0	60	60967
2026-01-18 00:23:54.02	160.84	3.83	-49.1	-64.3	3.6	1.51e+00	0	32	104	0	60	59249
2026-01-18 00:23:55.03	160.85	3.90	-49.3	-64.5	3.6	1.51e+00	0	32	104	0	60	60889
2026-01-18 00:23:56.04	160.86	3.97	-49.3	-64.5	3.6	1.51e+00	0	32	104	0	60	60965
2026-01-18 00:23:57.05	160.87	4.04	-49.2	-64.4	3.6	1.51e+00	0	32	104	0	60	60197
2026-01-18 00:23:58.06	160.88	4.11	-49.2	-64.5	3.6	1.51e+00	0	32	104	0	60	60426
2026-01-18 00:23:59.07	160.89	4.18	-49.4	-64.6	3.6	1.51e+00	0	32	104	0	60	61494
2026-01-18 00:24:00.08	160.90	4.25	-49.2	-64.5	3.6	1.51e+00	0	32	104	0	60	60417
2026-01-18 00:24:01.09	160.91	4.32	-49.3	-64.5	3.6	1.51e+00	0	32	104	0	60	60912
2026-01-18 00:24:02.10	160.92	4.39	-49.2	-64.5	3.6	1.51e+00	0	32	104	0	60	60855
2026-01-18 00:24:03.11	160.93	4.46	-49.1	-64.3	3.6	1.51e+00	0	32	104	0	60	59641
2026-01-18 00:24:04.12	160.94	4.53	-49.2	-64.4	3.6	1.51e+00	0	32	104	0	60	60241
2026-01-18 00:24:05.13	160.95	4.60	-49.5	-64.8	3.6	1.51e+00	0	32	104	0	60	62745
2026-01-18 00:24:06.14	160.96	4.68	-49.6	-64.8	3.6	1.51e+00	0	32	104	0	60	62704
2026-01-18 00:24:07.15	160.97	4.75	-49.2	-64.4	3.6	1.51e+00	0	32	104	0	60	60033
2026-01-18 00:24:08.16	160.98	4.82	-49.7	-64.9	3.6	1.51e+00	0	32	104	0	60	63698
2026-01-18 00:24:09.17	160.99	4.89	-49.8	-65.1	3.5	1.51e+00	0	32	104	0	60	64977
2026-01-18 00:24:10.18	161.00	4.96	-49.6	-64.8	3.6	1.51e+00	0	32	104	0	60	62934
2026-01-18 00:24:11.19	161.01	5.03	-49.5	-64.7	3.6	1.51e+00	0	32	104	0	60	62098
2026-01-18 00:24:12.20	161.02	5.11	-49.5	-64.7	3.6	1.51e+00	0	32	104	0	60	62038
2026-01-18 00:24:13.21	161.03	5.18	-49.3	-64.6	3.6	1.51e+00	0	32	104	0	60	61168
2026-01-18 00:24:14.21	161.04	5.25	-49.4	-64.6	3.6	1.51e+00	0	32	104	0	60	61730
2026-01-18 00:24:15.22	161.05	5.33	-49.2	-64.4	3.6	1.51e+00	0	32	104	0	60	59993
2026-01-18 00:24:16.23	161.06	5.40	-49.2	-64.4	3.6	1.51e+00	0	32	104	0	60	60264
2026-01-18 00:24:17.24	161.07	5.47	-49.1	-64.3	3.6	1.51e+00	0	32	104	0	60	59405
2026-01-18 00:24:18.25	161.09	5.55	-49.3	-64.6	3.6	1.51e+00	0	32	104	0	60	61621
2026-01-18 00:24:19.26	161.10	5.62	-49.3	-64.4	3.6	1.51e+00	0	32	104	0	60	60282
2026-01-18 00:24:20.27	161.11	5.69	-49.2	-64.5	3.6	1.51e+00	0	32	104	0	60	60345
2026-01-18 00:24:21.28	161.12	5.77	-49.4	-64.7	3.6	1.51e+00	0	32	104	0	60	61881
2026-01-18 00:24:22.29	161.13	5.84	-49.6	-64.9	3.6	1.51e+00	0	32	104	0	60	63244
2026-01-18 00:24:23.30	161.14	5.92	-49.5	-64.7	3.6	1.51e+00	0	32	104	0	60	62195
2026-01-18 00:24:24.31	161.15	5.99	-49.4	-64.7	3.6	1.51e+00	0	32	104	0	60	61758
2026-01-18 00:24:25.32	161.16	6.07	-49.0	-64.3	3.6	1.51e+00	0	32	104	0	60	58991
2026-01-18 00:24:26.33	161.17	6.14	-49.2	-64.5	3.6	1.51e+00	0	32	104	0	60	60365
2026-01-18 00:24:27.34	161.18	6.22	-49.2	-64.5	3.6	1.51e+00	0	32	104	0	60	60681
2026-01-18 00:24:28.35	161.20	6.29	-49.3	-64.5	3.6	1.51e+00	0	32	104	0	60	60650
2026-01-18 00:24:29.35	161.21	6.37	-49.3	-64.5	3.6	1.51e+00	0	32	104	0	60	60948
2026-01-18 00:24:30.37	161.22	6.45	-49.3	-64.5	3.6	1.51e+00	0	32	104	0	60	60720
2026-01-18 00:24:31.38	161.23	6.52	-49.7	-64.9	3.6	1.51e+00	0	32	104	0	60	63324
2026-01-18 00:24:32.38	161.24	6.60	-49.5	-64.7	3.6	1.51e+00	0	32	104	0	60	61764
2026-01-18 00:24:33.39	161.25	6.68	-49.3	-64.5	3.6	1.51e+00	0	32	104	0	60	60469
2026-01-18 00:24:34.40	161.26	6.75	-49.3	-64.5	3.6	1.51e+00	0	32	104	0	60	61013
2026-01-18 00:24:35.42	161.27	6.83	-49.6	-64.8	3.6	1.51e+00	0	32	104	0	60	63081
2026-01-18 00:24:36.43	161.29	6.91	-49.5	-64.7	3.6	1.51e+00	0	32	104	0	60	61947
2026-01-18 00:24:37.44	161.30	6.99	-49.1	-64.4	3.6	1.51e+00	0	32	104	0	60	59871
2026-01-18 00:24:38.44	161.31	7.06	-49.3	-64.6	3.6	1.51e+00	0	32	104	0	60	61064
2026-01-18 00:24:39.45	161.32	7.14	-49.4	-64.6	3.6	1.51e+00	0	32	104	0	60	61392
2026-01-18 00:24:40.46	161.33	7.22	-49.4	-64.6	3.6	1.51e+00	0	32	104	0	60	61261
2026-01-18 00:24:41.47	161.34	7.30	-49.6	-64.8	3.5	1.51e+00	0	32	104	0	60	62753
2026-01-18 00:24:42.48	161.36	7.38	-49.3	-64.5	3.6	1.51e+00	0	32	104	0	60	60789
2026-01-18 00:24:43.49	161.37	7.46	-49.3	-64.5	3.6	1.51e+00	0	32	104	0	60	60830
2026-01-18 00:24:44.50	161.38	7.54	-49.5	-64.7	3.6	1.51e+00	0	32	104	0	60	61932
2026-01-18 00:24:45.51	161.39	7.62	-49.6	-64.9	3.6	1.51e+00	0	32	104	0	60	63475
2026-01-18 00:24:46.52	161.40	7.70	-49.1	-64.3	3.6	1.51e+00	0	32	104	0	60	59341
2026-01-18 00:24:47.53	161.42	7.78	-49.2	-64.5	3.6	1.51e+00	0	32	104	0	60	60366
2026-01-18 00:24:48.54	161.43	7.86	-49.1	-64.4	3.6	1.51e+00	0	32	104	0	60	59930
2026-01-18 00:24:49.55	161.44	7.94	-49.4	-64.6	3.6	1.51e+00	0	32	104	0	60	61645
2026-01-18 00:24:50.56	161.45	8.02	-49.4	-64.6	3.5	1.51e+00	0	32	104	0	60	61610
2026-01-18 00:24:51.57	161.46	8.10	-49.3	-64.5	3.6	1.51e+00	0	32	104	0	60	60947
2026-01-18 00:24:52.58	161.48	8.18	-49.4	-64.6	3.6	1.51e+00	0	32	104	0	60	61625
2026-01-18 00:24:53.59	161.49	8.27	-49.4	-64.6	3.6	1.51e+00	0	32	104	0	60	61255
2026-01-18 00:24:54.60	161.50	8.35	-49.3	-64.5	3.6	1.51e+00	0	32	104	0	60	60953
2026-01-18 00:24:55.61	161.51	8.43	-49.2	-64.5	3.6	1.51e+00	0	32	104	0	60	60507
2026-01-18 00:24:56.62	161.53	8.51	-49.1	-64.4	3.6	1.51e+00	0	32	104	0	60	59980
2026-01-18 00:24:57.62	161.54	8.60	-49.4	-64.6	3.6	1.51e+00	0	32	104	0	60	61439
2026-01-18 00:24:58.63	161.55	8.68	-49.3	-64.5	3.6	1.51e+00	0	32	104	0	60	60977
2026-01-18 00:24:59.64	161.56	8.76	-49.3	-64.6	3.6	1.51e+00	0	32	104	0	60	61136
2026-01-18 00:25:00.65	161.58	8.85	-49.3	-64.5	3.6	1.51e+00	0	32	104	0	60	60620
2026-01-18 00:25:01.66	161.59	8.93	-49.3	-64.6	3.6	1.51e+00	0	32	104	0	60	61084
2026-01-18 00:25:02.67	161.60	9.01	-49.1	-64.4	3.6	1.51e+00	0	32	104	0	60	59744
2026-01-18 00:25:03.68	161.61	9.10	-49.1	-64.3	3.6	1.51e+00	0	32	104	0	60	59222
2026-01-18 00:25:04.69	161.63	9.18	-49.1	-64.3	3.6	1.51e+00	0	32	104	0	60	59465
2026-01-18 00:25:05.70	161.64	9.27	-49.3	-64.6	3.6	1.51e+00	0	32	104	0	60	61108
2026-01-18 00:25:06.71	161.65	9.35	-49.4	-64.6	3.6	1.51e+00	0	32	104	0	60	61682
2026-01-18 00:25:07.72	161.67	9.44	-49.3	-64.5	3.5	1.51e+00	0	32	104	0	60	60942
2026-01-18 00:25:08.73	161.68	9.53	-49.3	-64.6	3.6	1.51e+00	0	32	104	0	60	61179
2026-01-18 00:25:09.74	161.69	9.61	-49.3	-64.6	3.6	1.51e+00	0	32	104	0	60	61356
2026-01-18 00:25:10.75	161.71	9.70	-49.2	-64.4	3.6	1.51e+00	0	32	104	0	60	60085
2026-01-18 00:25:11.77	161.72	9.79	-49.2	-64.5	3.6	1.51e+00	0	32	104	0	60	60605
2026-01-18 00:25:12.78	161.73	9.88	-49.4	-64.6	3.6	1.51e+00	0	32	104	0	60	61693
2026-01-18 00:25:13.78	161.75	9.96	-49.5	-64.8	3.6	1.51e+00	0	32	104	0	60	62707
2026-01-18 00:25:14.79	161.76	10.05	-49.6	-64.8	3.6	1.51e+00	0	32	104	0	60	62854
2026-01-18 00:25:15.80	161.77	10.14	-49.5	-64.7	3.6	1.51e+00	0	32	104	0	60	62308
2026-01-18 00:25:16.81	161.79	10.23	-49.3	-64.5	3.6	1.51e+00	0	32	104	0	60	60858
2026-01-18 00:25:17.82	161.80	10.32	-49.3	-64.5	3.6	1.51e+00	0	32	104	0	60	60984
2026-01-18 00:25:18.83	161.81	10.40	-49.4	-64.6	3.6	1.51e+00	0	32	104	0	60	61132
2026-01-18 00:25:19.84	161.83	10.49	-49.6	-64.8	3.6	1.51e+00	0	32	104	0	60	62694
2026-01-18 00:25:20.85	161.84	10.58	-49.3	-64.5	3.6	1.51e+00	0	32	104	0	60	60701
2026-01-18 00:25:21.86	161.85	10.67	-49.1	-64.3	3.6	1.51e+00	0	32	104	0	60	59162
2026-01-18 00:25:22.87	161.87	10.77	-49.4	-64.7	3.6	1.51e+00	0	32	104	0	60	61749
2026-01-18 00:25:23.88	161.88	10.86	-49.3	-64.5	3.6	1.51e+00	0	32	104	0	60	60984
2026-01-18 00:25:24.89	161.90	10.95	-49.4	-64.6	3.6	1.51e+00	0	32	104	0	60	61668
2026-01-18 00:25:25.90	161.91	11.04	-49.8	-65.1	3.6	1.51e+00	0	32	104	0	60	64877
2026-01-18 00:25:26.91	161.93	11.13	-49.8	-65.0	3.6	1.51e+00	0	32	104	0	60	64029
2026-01-18 00:25:27.92	161.94	11.22	-49.5	-64.7	3.6	1.51e+00	0	32	104	0	60	62161
2026-01-18 00:25:28.92	161.95	11.31	-49.3	-64.5	3.6	1.51e+00	0	32	104	0	60	60935
2026-01-18 00:25:29.93	161.97	11.41	-49.3	-64.6	3.6	1.51e+00	0	32	104	0	60	61144
2026-01-18 00:25:30.94	161.98	11.50	-49.3	-64.5	3.6	1.51e+00	0	32	104	0	60	60846
2026-01-18 00:25:31.95	162.00	11.59	-49.3	-64.5	3.6	1.51e+00	0	32	104	0	60	61014
2026-01-18 00:25:32.96	162.01	11.69	-49.4	-64.6	3.6	1.51e+00	0	32	104	0	60	61728
2026-01-18 00:25:33.97	162.03	11.78	-49.2	-64.5	3.6	1.51e+00	0	32	104	0	60	60508
2026-01-18 00:25:34.98	162.04	11.88	-49.3	-64.6	3.6	1.51e+00	0	32	104	0	60	61442
2026-01-18 00:25:35.99	162.06	11.97	-49.6	-64.8	3.6	1.51e+00	0	32	104	0	60	62571
2026-01-18 00:25:37.00	162.07	12.07	-49.6	-64.8	3.6	1.51e+00	0	32	104	0	60	62677
2026-01-18 00:25:38.01	162.09	12.16	-49.7	-64.9	3.6	1.51e+00	0	32	104	0	60	63542
2026-01-18 00:25:39.02	162.10	12.26	-49.4	-64.7	3.6	1.51e+00	0	32	104	0	60	61894
2026-01-18 00:25:40.03	162.12	12.36	-49.3	-64.5	3.6	1.51e+00	0	32	104	0	60	60696
2026-01-18 00:25:41.04	162.13	12.45	-49.3	-64.5	3.6	1.51e+00	0	32	104	0	60	60538
2026-01-18 00:25:42.05	162.15	12.55	-49.1	-64.3	3.6	1.51e+00	0	32	104	0	60	59404
2026-01-18 00:25:43.06	162.16	12.65	-49.3	-64.4	3.6	1.51e+00	0	32	104	0	60	60296
2026-01-18 00:25:44.07	162.18	12.75	-49.5	-64.7	3.6	1.51e+00	0	32	104	0	60	62086
2026-01-18 00:25:45.08	162.19	12.85	-49.3	-64.5	3.6	1.51e+00	0	32	104	0	60	60794
2026-01-18 00:25:46.09	162.21	12.94	-49.1	-64.4	3.6	1.51e+00	0	32	104	0	60	59932
2026-01-18 00:25:47.10	162.23	13.04	-49.2	-64.4	3.6	1.51e+00	0	32	104	0	60	60151
2026-01-18 00:25:48.11	162.24	13.14	-49.2	-64.4	3.6	1.51e+00	0	32	104	0	60	60166
2026-01-18 00:25:49.12	162.26	13.24	-49.3	-64.5	3.6	1.51e+00	0	32	104	0	60	60722
2026-01-18 00:25:50.13	162.27	13.34	-49.1	-64.3	3.6	1.51e+00	0	32	104	0	60	59547
2026-01-18 00:25:51.14	162.29	13.45	-49.4	-64.6	3.6	1.51e+00	0	32	104	0	60	61046
2026-01-18 00:25:52.15	162.31	13.55	-49.2	-64.4	3.6	1.51e+00	0	32	104	0	60	60289
2026-01-18 00:25:53.16	162.32	13.65	-49.4	-64.6	3.6	1.51e+00	0	32	104	0	60	61444
2026-01-18 00:25:54.17	162.34	13.75	-49.3	-64.5	3.6	1.51e+00	0	32	104	0	60	60942
2026-01-18 00:25:55.18	162.35	13.85	-49.5	-64.8	3.6	1.51e+00	0	32	104	0	60	62856
2026-01-18 00:25:56.19	162.37	13.96	-49.2	-64.4	3.6	1.51e+00	0	32	104	0	60	60106
2026-01-18 00:25:57.20	162.39	14.06	-49.1	-64.3	3.6	1.51e+00	0	32	104	0	60	59604
2026-01-18 00:25:58.21	162.40	14.16	-49.2	-64.4	3.6	1.51e+00	0	32	104	0	60	60273
2026-01-18 00:25:59.22	162.42	14.27	-49.2	-64.4	3.6	1.51e+00	0	32	104	0	60	59941
2026-01-18 00:26:00.23	162.44	14.37	-49.1	-64.3	3.6	1.51e+00	0	32	104	0	60	59299
2026-01-18 00:26:01.23	162.45	14.48	-49.1	-64.3	3.6	1.51e+00	0	32	104	0	60	59181
2026-01-18 00:26:02.24	162.47	14.58	-49.1	-64.4	3.6	1.51e+00	0	32	104	0	60	59668
2026-01-18 00:26:03.25	162.49	14.69	-49.1	-64.3	3.6	1.51e+00	0	32	104	0	60	59421
2026-01-18 00:26:04.26	162.51	14.80	-49.1	-64.3	3.6	1.51e+00	0	32	104	0	60	59208
2026-01-18 00:26:05.27	162.52	14.90	-49.0	-64.3	3.6	1.51e+00	0	32	104	0	60	59039
2026-01-18 00:26:06.29	162.54	15.01	-49.0	-64.3	3.6	1.51e+00	0	32	104	0	60	59032
2026-01-18 00:26:07.30	162.56	15.12	-48.9	-64.2	3.6	1.51e+00	0	32	104	0	60	58382
2026-01-18 00:26:08.31	162.58	15.23	-48.9	-64.2	3.6	1.51e+00	0	32	104	0	60	58508
2026-01-18 00:26:09.32	162.59	15.34	-48.9	-64.2	3.6	1.51e+00	0	32	104	0	60	58331
2026-01-18 00:26:10.33	162.61	15.45	-48.9	-64.2	3.6	1.51e+00	0	32	104	0	60	58562
2026-01-18 00:26:11.34	162.63	15.56	-49.0	-64.3	3.6	1.51e+00	0	32	104	0	60	59101
2026-01-18 00:26:12.35	162.65	15.67	-49.0	-64.2	3.6	1.51e+00	0	32	104	0	60	58741
2026-01-18 00:26:13.36	162.67	15.78	-48.9	-64.2	3.6	1.51e+00	0	32	104	0	60	58315
2026-01-18 00:26:14.37	162.69	15.89	-48.9	-64.1	3.6	1.51e+00	0	32	104	0	60	58178
2026-01-18 00:26:15.38	162.70	16.00	-49.0	-64.3	3.6	1.51e+00	0	32	104	0	60	58962
2026-01-18 00:26:16.39	162.72	16.12	-49.0	-64.2	3.6	1.51e+00	0	32	104	0	60	58894
2026-01-18 00:26:17.40	162.74	16.23	-49.1	-64.3	3.5	1.51e+00	0	32	104	0	60	59526
2026-01-18 00:26:18.41	162.76	16.34	-49.2	-64.3	3.6	1.51e+00	0	32	104	0	60	59541
2026-01-18 00:26:19.42	162.78	16.46	-49.1	-64.3	3.6	1.51e+00	0	32	104	0	60	59529
2026-01-18 00:26:20.43	162.80	16.57	-49.2	-64.5	3.6	1.51e+00	0	32	104	0	60	60715
2026-01-18 00:26:21.44	162.82	16.69	-49.3	-64.5	3.6	1.51e+00	0	32	104	0	60	60969
2026-01-18 00:26:22.45	162.84	16.80	-49.3	-64.5	3.6	1.51e+00	0	32	104	0	60	60760
2026-01-18 00:26:23.46	162.86	16.92	-49.4	-64.6	3.5	1.51e+00	0	32	104	0	60	61298
2026-01-18 00:26:24.47	162.88	17.04	-49.3	-64.5	3.6	1.51e+00	0	32	104	0	60	60842
2026-01-18 00:26:25.48	162.89	17.15	-49.2	-64.4	3.6	1.51e+00	0	32	104	0	60	60016
2026-01-18 00:26:26.49	162.91	17.27	-49.6	-64.8	3.6	1.51e+00	0	32	104	0	60	62914
2026-01-18 00:26:27.50	162.93	17.39	-49.1	-64.3	3.6	1.51e+00	0	32	104	0	60	59511
2026-01-18 00:26:28.51	162.95	17.51	-49.3	-64.5	3.6	1.51e+00	0	32	104	0	60	60889
2026-01-18 00:26:29.52	162.97	17.63	-49.2	-64.4	3.6	1.51e+00	0	32	104	0	60	59986
2026-01-18 00:26:30.53	162.99	17.75	-49.3	-64.6	3.6	1.51e+00	0	32	104	0	60	61280
2026-01-18 00:26:31.54	163.02	17.87	-49.3	-64.5	3.6	1.51e+00	0	32	104	0	60	60834
2026-01-18 00:26:32.55	163.04	17.99	-49.6	-64.8	3.6	1.51e+00	0	32	104	0	60	62958
2026-01-18 00:26:33.56	163.06	18.12	-49.6	-64.8	3.6	1.51e+00	0	32	104	0	60	62673
2026-01-18 00:26:34.57	163.08	18.24	-49.2	-64.4	3.6	1.51e+00	0	32	104	0	60	60223
2026-01-18 00:26:35.58	163.10	18.36	-49.7	-64.9	3.6	1.51e+00	0	32	104	0	60	63866
2026-01-18 00:26:36.59	163.12	18.49	-49.6	-64.8	3.6	1.51e+00	0	32	104	0	60	62995
2026-01-18 00:26:37.60	163.14	18.61	-49.7	-64.9	3.6	1.51e+00	0	32	104	0	60	63733
2026-01-18 00:26:38.61	163.16	18.74	-49.3	-64.5	3.6	1.51e+00	0	32	104	0	60	60897
2026-01-18 00:26:39.62	163.18	18.86	-49.1	-64.3	3.6	1.51e+00	0	32	104	0	60	59374
2026-01-18 00:26:40.63	163.21	18.99	-49.3	-64.5	3.6	1.51e+00	0	32	104	0	60	60866
2026-01-18 00:26:41.64	163.23	19.12	-49.2	-64.5	3.6	1.51e+00	0	32	104	0	60	60461
2026-01-18 00:26:42.65	163.25	19.24	-49.1	-64.3	3.6	1.51e+00	0	32	104	0	60	59476
2026-01-18 00:26:43.66	163.27	19.37	-49.2	-64.5	3.6	1.51e+00	0	32	104	0	60	60518
2026-01-18 00:26:44.67	163.29	19.50	-49.4	-64.7	3.6	1.51e+00	0	32	104	0	60	61748
2026-01-18 00:26:45.68	163.32	19.63	-49.4	-64.7	3.6	1.51e+00	0	32	104	0	60	61833
2026-01-18 00:26:46.69	163.34	19.76	-49.3	-64.5	3.6	1.51e+00	0	32	104	0	60	60785
2026-01-18 00:26:47.70	163.36	19.89	-49.1	-64.4	3.6	1.51e+00	0	32	104	0	60	59764
2026-01-18 00:26:48.71	163.38	20.02	-49.1	-64.3	3.6	1.51e+00	0	32	104	0	60	59520
2026-01-18 00:26:49.72	163.41	20.16	-49.1	-64.4	3.6	1.51e+00	0	32	104	0	60	59690
2026-01-18 00:26:50.73	163.43	20.29	-49.2	-64.4	3.6	1.51e+00	0	32	104	0	60	60221
2026-01-18 00:26:51.74	163.45	20.42	-49.1	-64.4	3.6	1.51e+00	0	32	104	0	60	60067
2026-01-18 00:26:52.75	163.48	20.56	-49.0	-64.2	3.6	1.51e+00	0	32	104	0	60	58826
2026-01-18 00:26:53.76	163.50	20.70	-49.0	-64.3	3.6	1.51e+00	0	32	104	0	60	59034
2026-01-18 00:26:54.77	163.53	20.83	-49.2	-64.4	3.6	1.51e+00	0	32	104	0	60	60047
2026-01-18 00:26:55.78	163.55	20.97	-49.1	-64.3	3.6	1.51e+00	0	32	104	0	60	59432
2026-01-18 00:26:56.79	163.58	21.11	-49.1	-64.3	3.6	1.51e+00	0	32	104	0	60	59274
2026-01-18 00:26:57.80	163.60	21.24	-49.1	-64.4	3.6	1.51e+00	0	32	104	0	60	59864
2026-01-18 00:26:58.81	163.62	21.38	-49.1	-64.3	3.6	1.51e+00	0	32	104	0	60	59251
2026-01-18 00:26:59.82	163.65	21.52	-49.1	-64.3	3.6	1.51e+00	0	32	104	0	60	59411
2026-01-18 00:27:00.83	163.67	21.66	-49.0	-64.3	3.6	1.51e+00	0	32	104	0	60	59001
2026-01-18 00:27:01.84	163.70	21.81	-48.9	-64.1	3.5	1.51e+00	0	32	104	0	60	58234
2026-01-18 00:27:02.86	163.73	21.95	-48.9	-64.2	3.6	1.51e+00	0	32	104	0	60	58735
2026-01-18 00:27:03.87	163.75	22.09	-48.9	-64.1	3.6	1.51e+00	0	32	104	0	60	58271
2026-01-18 00:27:04.87	163.78	22.24	-48.9	-64.1	3.6	1.51e+00	0	32	104	0	60	58082
2026-01-18 00:27:05.88	163.80	22.38	-48.9	-64.1	3.6	1.51e+00	0	32	104	0	60	57717
2026-01-18 00:27:06.89	163.83	22.53	-48.9	-64.1	3.5	1.51e+00	0	32	104	0	60	58018
2026-01-18 00:27:07.90	163.86	22.67	-48.9	-64.2	3.6	1.51e+00	0	32	104	0	60	58297
2026-01-18 00:27:08.91	163.88	22.82	-48.9	-64.2	3.6	1.51e+00	0	32	104	0	60	58374
2026-01-18 00:27:09.92	163.91	22.97	-49.0	-64.2	3.6	1.51e+00	0	32	104	0	60	58849
2026-01-18 00:27:10.93	163.94	23.12	-49.0	-64.2	3.6	1.51e+00	0	32	104	0	60	58821
2026-01-18 00:27:11.94	163.97	23.27	-49.1	-64.3	3.6	1.51e+00	0	32	104	0	60	59328
2026-01-18 00:27:12.95	163.99	23.42	-49.3	-64.6	3.6	1.51e+00	0	32	104	0	60	61124
2026-01-18 00:27:13.96	164.02	23.57	-49.3	-64.5	3.6	1.51e+00	0	32	104	0	60	60999
2026-01-18 00:27:14.97	164.05	23.72	-49.2	-64.4	3.6	1.51e+00	0	32	104	0	60	60140
2026-01-18 00:27:15.98	164.08	23.87	-49.2	-64.5	3.5	1.51e+00	0	32	104	0	60	60621
2026-01-18 00:27:16.99	164.11	24.03	-49.1	-64.3	3.6	1.51e+00	0	32	104	0	60	59180
2026-01-18 00:27:18.00	164.13	24.18	-49.1	-64.3	3.6	1.51e+00	0	32	104	0	60	59571
2026-01-18 00:27:19.01	164.16	24.34	-49.2	-64.4	3.6	1.51e+00	0	32	104	0	60	59847
2026-01-18 00:27:20.02	164.19	24.50	-49.3	-64.5	3.6	1.51e+00	0	32	104	0	60	61029
2026-01-18 00:27:21.03	164.22	24.65	-49.3	-64.5	3.6	1.51e+00	0	32	104	0	60	60917
2026-01-18 00:27:22.04	164.25	24.81	-49.4	-64.6	3.6	1.51e+00	0	32	104	0	60	61556
2026-01-18 00:27:23.05	164.28	24.97	-49.2	-64.4	3.6	1.51e+00	0	32	104	0	60	60235
2026-01-18 00:27:24.06	164.31	25.13	-49.3	-64.6	3.6	1.51e+00	0	32	104	0	60	61212
2026-01-18 00:27:25.07	164.34	25.30	-49.4	-64.7	3.6	1.51e+00	0	32	104	0	60	61972
2026-01-18 00:27:26.08	164.38	25.46	-49.4	-64.7	3.6	1.51e+00	0	32	104	0	60	62063
2026-01-18 00:27:27.09	164.41	25.62	-49.1	-64.3	3.6	1.51e+00	0	32	104	0	60	59527
2026-01-18 00:27:28.10	164.44	25.79	-49.1	-64.3	3.6	1.51e+00	0	32	104	0	60	59465
2026-01-18 00:27:29.11	164.47	25.95	-49.3	-64.5	3.6	1.51e+00	0	32	104	0	60	60779
2026-01-18 00:27:30.12	164.50	26.12	-49.5	-64.7	3.6	1.51e+00	0	32	104	0	60	61898
2026-01-18 00:27:31.13	164.54	26.29	-49.4	-64.6	3.6	1.51e+00	0	32	104	0	60	61551
2026-01-18 00:27:32.15	164.57	26.46	-49.4	-64.6	3.6	1.51e+00	0	32	104	0	60	61506
2026-01-18 00:27:33.16	164.60	26.63	-49.0	-64.3	3.6	1.51e+00	0	32	104	0	60	59083
2026-01-18 00:27:34.17	164.64	26.80	-49.2	-64.4	3.6	1.51e+00	0	32	104	0	60	60233
2026-01-18 00:27:35.17	164.67	26.97	-49.2	-64.4	3.6	1.51e+00	0	32	104	0	60	60225
2026-01-18 00:27:36.18	164.70	27.14	-49.2	-64.4	3.6	1.51e+00	0	32	104	0	60	59865
2026-01-18 00:27:37.19	164.74	27.32	-49.1	-64.4	3.6	1.51e+00	0	32	104	0	60	60065
2026-01-18 00:27:38.20	164.77	27.49	-49.2	-64.4	3.6	1.51e+00	0	32	104	0	60	60294
2026-01-18 00:27:39.21	164.81	27.67	-49.2	-64.4	3.6	1.51e+00	0	32	104	0	60	60168
2026-01-18 00:27:40.22	164.84	27.85	-49.4	-64.7	3.6	1.51e+00	0	32	104	0	60	61855
2026-01-18 00:27:41.23	164.88	28.02	-49.2	-64.4	3.6	1.51e+00	0	32	104	0	60	60292
2026-01-18 00:27:42.24	164.91	28.20	-49.3	-64.5	3.6	1.51e+00	0	32	104	0	60	60871
2026-01-18 00:27:43.25	164.95	28.39	-49.2	-64.4	3.6	1.51e+00	0	32	104	0	60	59842
2026-01-18 00:27:44.26	164.99	28.57	-49.1	-64.4	3.6	1.51e+00	0	32	104	0	60	59717
2026-01-18 00:27:45.27	165.03	28.75	-49.2	-64.5	3.6	1.51e+00	0	32	104	0	60	60348
2026-01-18 00:27:46.28	165.06	28.94	-49.3	-64.5	3.6	1.51e+00	0	32	104	0	60	60671
2026-01-18 00:27:47.29	165.10	29.12	-49.2	-64.4	3.6	1.51e+00	0	32	104	0	60	59949
2026-01-18 00:27:48.30	165.14	29.31	-49.0	-64.2	3.6	1.51e+00	0	32	104	0	60	58513
2026-01-18 00:27:49.31	165.18	29.50	-49.0	-64.2	3.6	1.51e+00	0	32	104	0	60	58870
2026-01-18 00:27:50.32	165.22	29.69	-49.0	-64.2	3.6	1.51e+00	0	32	104	0	60	58541
2026-01-18 00:27:51.33	165.26	29.88	-48.9	-64.2	3.6	1.51e+00	0	32	104	0	60	58650
2026-01-18 00:27:52.34	165.30	30.07	-49.0	-64.2	3.6	1.51e+00	0	32	104	0	60	58822
2026-01-18 00:27:53.35	165.34	30.26	-48.9	-64.2	3.6	1.51e+00	0	32	104	0	60	58451
2026-01-18 00:27:54.36	165.38	30.46	-48.9	-64.2	3.6	1.51e+00	0	32	104	0	60	58329
2026-01-18 00:27:55.37	165.42	30.65	-49.0	-64.2	3.6	1.51e+00	0	32	104	0	60	58858
2026-01-18 00:27:56.38	165.46	30.85	-49.1	-64.4	3.6	1.51e+00	0	32	104	0	60	59647
2026-01-18 00:27:57.39	165.51	31.05	-49.5	-64.7	3.6	1.51e+00	0	32	104	0	60	62190
2026-01-18 00:27:58.40	165.55	31.25	-49.5	-64.7	3.6	1.51e+00	0	32	104	0	60	62066
2026-01-18 00:27:59.41	165.59	31.45	-49.3	-64.6	3.6	1.51e+00	0	32	104	0	60	61179
2026-01-18 00:28:00.42	165.64	31.65	-49.3	-64.6	3.6	1.51e+00	0	32	104	0	60	61540
2026-01-18 00:28:01.43	165.68	31.86	-49.2	-64.5	3.6	1.51e+00	0	32	104	0	60	60514
2026-01-18 00:28:02.44	165.73	32.06	-49.5	-64.8	3.6	1.51e+00	0	32	104	0	60	62698
2026-01-18 00:28:03.45	165.77	32.27	-49.7	-65.0	3.6	1.51e+00	0	32	104	0	60	64127
2026-01-18 00:28:04.46	165.82	32.48	-49.4	-64.6	3.6	1.51e+00	0	32	104	0	60	61446
2026-01-18 00:28:05.47	165.86	32.69	-49.6	-64.8	3.5	1.51e+00	0	32	104	0	60	62967
2026-01-18 00:28:06.48	165.91	32.90	-49.1	-64.3	3.6	1.51e+00	0	32	104	0	60	59244
2026-01-18 00:28:07.49	165.96	33.11	-49.3	-64.5	3.6	1.51e+00	0	32	104	0	60	60823
2026-01-18 00:28:08.49	166.01	33.32	-49.4	-64.6	3.6	1.51e+00	0	33	104	0	60	61442
2026-01-18 00:28:09.50	166.05	33.54	-49.4	-64.5	3.6	1.51e+00	0	32	104	0	60	61004
2026-01-18 00:28:10.51	166.10	33.76	-49.3	-64.5	3.6	1.51e+00	0	32	104	0	60	60627
2026-01-18 00:28:11.52	166.15	33.98	-49.3	-64.5	3.6	1.51e+00	0	32	104	0	60	60658
2026-01-18 00:28:12.53	166.20	34.20	-49.4	-64.6	3.6	1.51e+00	0	32	104	0	60	61603
2026-01-18 00:28:13.54	166.26	34.42	-49.3	-64.6	3.6	1.51e+00	0	32	104	0	60	61239
2026-01-18 00:28:14.55	166.31	34.64	-49.3	-64.6	3.6	1.51e+00	0	32	104	0	60	61139
2026-01-18 00:28:15.56	166.36	34.87	-49.3	-64.6	3.6	1.51e+00	0	32	104	0	60	61418
2026-01-18 00:28:16.57	166.41	35.09	-49.4	-64.7	3.6	1.51e+00	0	32	104	0	60	61985
2026-01-18 00:28:17.58	166.47	35.32	-49.5	-64.8	3.6	1.51e+00	0	32	104	0	60	62743
2026-01-18 00:28:18.59	166.52	35.55	-49.4	-64.7	3.5	1.51e+00	0	32	104	0	60	62115
2026-01-18 00:28:19.60	166.58	35.78	-49.2	-64.4	3.6	1.51e+00	0	32	104	0	60	60254
2026-01-18 00:28:20.61	166.63	36.02	-49.6	-64.8	3.6	1.51e+00	0	32	104	0	60	63101
2026-01-18 00:28:21.62	166.69	36.25	-49.4	-64.7	3.6	1.51e+00	0	32	104	0	60	62121
2026-01-18 00:28:22.63	166.75	36.49	-49.4	-64.6	3.6	1.51e+00	0	33	104	0	60	61586
2026-01-18 00:28:23.64	166.81	36.72	-49.3	-64.5	3.6	1.51e+00	0	32	104	0	60	60681
2026-01-18 00:28:24.65	166.87	36.96	-49.5	-64.7	3.6	1.51e+00	0	32	104	0	60	62025
2026-01-18 00:28:25.66	166.93	37.21	-49.0	-64.3	3.6	1.51e+00	0	32	104	0	60	59228
2026-01-18 00:28:26.67	166.99	37.45	-49.1	-64.3	3.6	1.51e+00	0	32	104	0	60	59264
2026-01-18 00:28:27.67	167.05	37.69	-49.2	-64.5	3.6	1.51e+00	0	32	104	0	60	60383
2026-01-18 00:28:28.68	167.11	37.94	-49.2	-64.5	3.5	1.51e+00	0	32	104	0	60	60764
2026-01-18 00:28:29.69	167.18	38.19	-49.3	-64.6	3.6	1.51e+00	0	32	104	0	60	61348
2026-01-18 00:28:30.70	167.24	38.44	-49.1	-64.4	3.6	1.51e+00	0	32	104	0	60	59768
2026-01-18 00:28:31.71	167.31	38.69	-49.4	-64.6	3.6	1.51e+00	0	32	104	0	60	61120
2026-01-18 00:28:32.71	167.37	38.94	-49.6	-64.8	3.6	1.51e+00	0	32	104	0	60	62847
2026-01-18 00:28:33.72	167.44	39.20	-49.5	-64.7	3.6	1.51e+00	0	32	104	0	60	62227
2026-01-18 00:28:34.73	167.51	39.46	-49.5	-64.7	3.6	1.51e+00	0	32	104	0	60	62272
2026-01-18 00:28:35.74	167.58	39.71	-49.4	-64.7	3.6	1.51e+00	0	33	104	0	60	61982
2026-01-18 00:28:36.75	167.65	39.98	-49.4	-64.7	3.6	1.51e+00	0	32	104	0	60	61805
2026-01-18 00:28:37.76	167.72	40.24	-49.4	-64.6	3.6	1.51e+00	0	32	104	0	60	61659
2026-01-18 00:28:38.77	167.79	40.51	-49.2	-64.4	3.6	1.51e+00	0	32	104	0	60	60138
2026-01-18 00:28:39.78	167.87	40.77	-49.2	-64.5	3.6	1.51e+00	0	32	104	0	60	60711
2026-01-18 00:28:40.79	167.94	41.04	-49.3	-64.6	3.6	1.51e+00	0	32	104	0	60	61271
2026-01-18 00:28:41.80	168.02	41.31	-49.3	-64.6	3.6	1.51e+00	0	32	104	0	60	61174
2026-01-18 00:28:42.81	168.09	41.59	-49.5	-64.8	3.6	1.51e+00	0	32	104	0	60	62622
2026-01-18 00:28:43.82	168.17	41.86	-49.4	-64.7	3.6	1.51e+00	0	32	104	0	60	61963
2026-01-18 00:28:44.83	168.25	42.14	-49.4	-64.7	3.6	1.51e+00	0	32	104	0	60	61740
2026-01-18 00:28:45.84	168.33	42.42	-49.3	-64.5	3.6	1.51e+00	0	33	104	0	60	60770
2026-01-18 00:28:46.85	168.42	42.70	-49.3	-64.5	3.6	1.51e+00	0	33	104	0	60	60969
2026-01-18 00:28:47.86	168.50	42.98	-49.5	-64.7	3.6	1.51e+00	0	32	104	0	60	62379
2026-01-18 00:28:48.87	168.59	43.27	-49.3	-64.6	3.6	1.51e+00	0	32	104	0	60	61278
2026-01-18 00:28:49.88	168.67	43.56	-49.5	-64.7	3.6	1.51e+00	0	32	104	0	60	62275
2026-01-18 00:28:50.89	168.76	43.85	-49.4	-64.7	3.6	1.51e+00	0	32	104	0	60	61895
2026-01-18 00:28:51.90	168.85	44.14	-49.1	-64.3	3.6	1.51e+00	0	32	104	0	60	59353
2026-01-18 00:28:52.90	168.94	44.43	-49.1	-64.3	3.6	1.51e+00	0	32	104	0	60	59608
2026-01-18 00:28:53.91	169.04	44.72	-49.3	-64.6	3.6	1.51e+00	0	33	104	0	60	61286
2026-01-18 00:28:54.92	169.13	45.02	-49.6	-64.9	3.6	1.51e+00	0	33	104	0	60	63423
2026-01-18 00:28:55.93	169.23	45.32	-49.1	-64.3	3.6	1.51e+00	0	32	104	0	60	59524
2026-01-18 00:28:56.94	169.33	45.63	-49.3	-64.6	3.6	1.51e+00	0	32	104	0	60	61384
2026-01-18 00:28:57.95	169.43	45.93	-49.1	-64.3	3.6	1.51e+00	0	32	104	0	60	59450
2026-01-18 00:28:58.95	169.53	46.23	-49.0	-64.3	3.6	1.51e+00	0	32	104	0	60	59058
2026-01-18 00:28:59.96	169.63	46.54	-49.1	-64.3	3.6	1.51e+00	0	32	104	0	60	59459
2026-01-18 00:29:00.97	169.74	46.86	-49.1	-64.4	3.6	1.51e+00	0	32	104	0	60	59941
2026-01-18 00:29:01.98	169.85	47.17	-49.2	-64.4	3.6	1.51e+00	0	32	104	0	60	60086
2026-01-18 00:29:02.99	169.96	47.48	-49.1	-64.4	3.6	1.51e+00	0	32	104	0	60	59673
2026-01-18 00:29:04.00	170.07	47.80	-49.0	-64.2	3.6	1.51e+00	0	32	104	0	60	58820
2026-01-18 00:29:05.00	170.18	48.12	-48.9	-64.2	3.6	1.51e+00	0	32	104	0	60	58495
2026-01-18 00:29:06.02	170.30	48.45	-49.0	-64.2	3.6	1.51e+00	0	32	104	0	60	58880
2026-01-18 00:29:07.02	170.42	48.77	-48.9	-64.2	3.6	1.51e+00	0	32	104	0	60	58391
2026-01-18 00:29:08.03	170.54	49.09	-49.0	-64.3	3.6	1.51e+00	0	32	104	0	60	58986
2026-01-18 00:29:09.04	170.67	49.42	-49.0	-64.2	3.5	1.51e+00	0	32	104	0	60	58911
2026-01-18 00:29:10.05	170.79	49.76	-49.0	-64.2	3.6	1.51e+00	0	32	104	0	60	58713
2026-01-18 00:29:11.06	170.92	50.09	-49.0	-64.3	3.6	1.51e+00	0	32	104	0	60	59288
2026-01-18 00:29:12.07	171.05	50.43	-49.0	-64.2	3.6	1.51e+00	0	33	104	0	60	58928
2026-01-18 00:29:13.08	171.19	50.76	-49.0	-64.3	3.6	1.51e+00	0	32	104	0	60	59007
2026-01-18 00:29:14.09	171.33	51.11	-49.2	-64.5	3.6	1.51e+00	0	33	104	0	60	60727
2026-01-18 00:29:15.10	171.47	51.45	-49.0	-64.3	3.6	1.51e+00	0	33	104	0	60	59257
2026-01-18 00:29:16.11	171.62	51.79	-49.1	-64.3	3.6	1.51e+00	0	32	104	0	60	59302
2026-01-18 00:29:17.12	171.76	52.14	-49.2	-64.5	3.6	1.51e+00	0	32	104	0	60	60636
2026-01-18 00:29:18.13	171.91	52.49	-49.2	-64.5	3.5	1.51e+00	0	32	104	0	60	60342
2026-01-18 00:29:19.13	172.07	52.84	-49.3	-64.5	3.6	1.51e+00	0	32	104	0	60	60616
2026-01-18 00:29:20.15	172.23	53.20	-49.3	-64.6	3.6	1.51e+00	0	32	104	0	60	61117
2026-01-18 00:29:21.15	172.39	53.55	-49.3	-64.5	3.6	1.51e+00	0	32	104	0	60	60973
2026-01-18 00:29:22.17	172.56	53.92	-49.0	-64.3	3.6	1.51e+00	0	32	104	0	60	59049
2026-01-18 00:29:23.17	172.73	54.27	-49.3	-64.5	3.6	1.51e+00	0	32	104	0	60	60742
2026-01-18 00:29:24.18	172.90	54.64	-49.2	-64.4	3.6	1.51e+00	0	32	104	0	60	60240
2026-01-18 00:29:25.19	173.08	55.00	-49.3	-64.5	3.6	1.51e+00	0	32	104	0	60	60819
2026-01-18 00:29:26.21	173.27	55.38	-49.1	-64.4	3.6	1.51e+00	0	32	104	0	60	59647
2026-01-18 00:29:27.22	173.46	55.75	-49.2	-64.5	3.5	1.51e+00	0	32	104	0	60	60447
2026-01-18 00:29:28.23	173.65	56.12	-49.3	-64.6	3.6	1.51e+00	0	32	104	0	60	61286
2026-01-18 00:29:29.24	173.85	56.50	-49.2	-64.5	3.6	1.51e+00	0	32	104	0	60	60553
2026-01-18 00:29:30.25	174.05	56.87	-49.3	-64.6	3.6	1.51e+00	0	32	104	0	60	61264
2026-01-18 00:29:31.25	174.26	57.25	-49.3	-64.6	3.6	1.51e+00	0	32	104	0	60	61272
2026-01-18 00:29:32.27	174.48	57.63	-49.3	-64.6	3.6	1.51e+00	0	32	104	0	60	61124
2026-01-18 00:29:33.27	174.70	58.01	-49.6	-64.8	3.6	1.51e+00	0	33	104	0	60	63050
2026-01-18 00:29:34.28	174.93	58.40	-49.3	-64.5	3.6	1.51e+00	0	32	104	0	60	60826
2026-01-18 00:29:35.30	175.16	58.79	-49.2	-64.4	3.6	1.51e+00	0	32	104	0	60	60236
2026-01-18 00:29:36.31	175.41	59.18	-49.1	-64.4	3.6	1.51e+00	0	32	104	0	60	59873
2026-01-18 00:29:37.32	175.65	59.58	-49.3	-64.5	3.6	1.51e+00	0	33	104	0	60	60944
2026-01-18 00:29:38.33	175.91	59.97	-49.1	-64.4	3.6	1.51e+00	0	32	104	0	60	59946
2026-01-18 00:29:39.34	176.18	60.37	-49.2	-64.5	3.6	1.51e+00	0	32	104	0	60	60602
2026-01-18 00:29:40.35	176.45	60.76	-49.1	-64.3	3.6	1.51e+00	0	32	104	0	60	59033
2026-01-18 00:29:41.36	176.73	61.16	-49.2	-64.4	3.6	1.51e+00	0	33	104	0	60	59792
2026-01-18 00:29:42.37	177.02	61.57	-49.1	-64.3	3.6	1.51e+00	0	32	104	0	60	59588
2026-01-18 00:29:43.37	177.32	61.97	-49.1	-64.3	3.6	1.51e+00	0	32	104	0	60	59460
2026-01-18 00:29:44.38	177.63	62.37	-49.1	-64.4	3.6	1.51e+00	0	32	104	0	60	59948
2026-01-18 00:29:45.39	177.94	62.78	-49.2	-64.4	3.6	1.51e+00	0	32	104	0	60	60167
2026-01-18 00:29:46.41	178.28	63.19	-49.2	-64.5	3.6	1.51e+00	0	32	104	0	60	60383
2026-01-18 00:29:47.42	178.62	63.60	-49.1	-64.4	3.6	1.51e+00	0	33	104	0	60	59831
2026-01-18 00:29:48.42	178.97	64.01	-49.3	-64.5	3.6	1.51e+00	0	33	104	0	60	61004
2026-01-18 00:29:49.43	179.34	64.42	-49.3	-64.6	3.6	1.51e+00	0	33	104	0	60	61142
2026-01-18 00:29:50.44	179.72	64.84	-49.2	-64.5	3.6	1.51e+00	0	33	104	0	60	60386
2026-01-18 00:29:51.45	180.11	65.25	-49.1	-64.3	3.6	1.51e+00	0	32	104	0	60	59592
2026-01-18 00:29:52.46	180.52	65.67	-49.0	-64.3	3.6	1.51e+00	0	32	104	0	60	59151
2026-01-18 00:29:53.47	180.95	66.09	-49.1	-64.3	3.6	1.51e+00	0	33	104	0	60	59500
2026-01-18 00:29:54.48	181.39	66.51	-49.1	-64.4	3.6	1.51e+00	0	32	104	0	60	59694
2026-01-18 00:29:55.49	181.85	66.93	-49.1	-64.4	3.6	1.51e+00	0	32	104	0	60	59994
2026-01-18 00:29:56.50	182.33	67.35	-49.3	-64.5	3.6	1.51e+00	0	33	104	0	60	60741
2026-01-18 00:29:57.51	182.82	67.77	-49.2	-64.4	3.6	1.51e+00	0	32	104	0	60	60288
2026-01-18 00:29:58.51	183.34	68.19	-49.2	-64.4	3.6	1.51e+00	0	33	104	0	60	60154
2026-01-18 00:29:59.52	183.87	68.61	-49.2	-64.4	3.6	1.51e+00	0	33	104	0	60	60045
2026-01-18 00:30:00.53	184.44	69.03	-49.1	-64.3	3.6	1.51e+00	0	32	104	0	60	59340
2026-01-18 00:30:01.54	185.03	69.45	-49.0	-64.2	3.5	1.51e+00	0	33	104	0	60	58579
2026-01-18 00:30:02.55	185.64	69.87	-49.0	-64.3	3.6	1.51e+00	0	32	104	0	60	59003
2026-01-18 00:30:03.56	186.28	70.30	-49.1	-64.3	3.6	1.51e+00	0	33	104	0	60	59528
2026-01-18 00:30:04.57	186.95	70.72	-49.1	-64.3	3.6	1.51e+00	0	33	104	0	60	59540
2026-01-18 00:30:05.58	187.66	71.14	-49.1	-64.3	3.5	1.51e+00	0	32	104	0	60	59231
2026-01-18 00:30:06.59	188.39	71.56	-49.1	-64.3	3.6	1.51e+00	0	33	104	0	60	59532
2026-01-18 00:30:07.60	189.17	71.97	-49.2	-64.5	3.6	1.51e+00	0	32	104	0	60	60793
2026-01-18 00:30:08.61	189.98	72.39	-49.2	-64.4	3.6	1.51e+00	0	33	104	0	60	60191
2026-01-18 00:30:09.61	190.82	72.80	-49.3	-64.5	3.6	1.51e+00	0	33	104	0	60	60485
2026-01-18 00:30:10.62	191.72	73.21	-49.2	-64.4	3.6	1.51e+00	0	33	104	0	60	60186
2026-01-18 00:30:11.63	192.66	73.62	-49.2	-64.4	3.6	1.51e+00	0	32	104	0	60	59877
2026-01-18 00:30:12.64	193.66	74.03	-49.1	-64.4	3.6	1.51e+00	0	33	104	0	60	59725
2026-01-18 00:30:13.65	194.70	74.43	-49.2	-64.5	3.6	1.51e+00	0	33	104	0	60	60452
2026-01-18 00:30:14.67	195.82	74.83	-49.2	-64.5	3.6	1.51e+00	0	33	104	0	60	60428
2026-01-18 00:30:15.67	196.98	75.22	-49.2	-64.5	3.6	1.51e+00	0	32	104	0	60	60515
2026-01-18 00:30:16.68	198.21	75.61	-49.2	-64.4	3.5	1.51e+00	0	32	104	0	60	60189
2026-01-18 00:30:17.69	199.51	76.00	-49.4	-64.6	3.6	1.51e+00	0	33	104	0	60	61497
2026-01-18 00:30:18.70	200.89	76.37	-49.2	-64.4	3.6	1.51e+00	0	33	104	0	60	60085
2026-01-18 00:30:19.71	202.35	76.74	-49.4	-64.7	3.6	1.51e+00	0	33	104	0	60	61834
2026-01-18 00:30:20.72	203.89	77.11	-49.1	-64.4	3.6	1.51e+00	0	33	104	0	60	60064
2026-01-18 00:30:21.73	205.52	77.46	-49.2	-64.4	3.6	1.51e+00	0	32	104	0	60	59787
2026-01-18 00:30:22.74	207.25	77.80	-49.2	-64.4	3.6	1.51e+00	0	33	104	0	60	60180
2026-01-18 00:30:23.75	209.08	78.14	-49.2	-64.4	3.5	1.51e+00	0	33	104	0	60	60100
2026-01-18 00:30:24.76	211.02	78.46	-49.3	-64.5	3.6	1.51e+00	0	32	104	0	60	61021
2026-01-18 00:30:25.77	213.06	78.77	-49.3	-64.6	3.6	1.51e+00	0	33	104	0	60	61257
2026-01-18 00:30:26.78	215.22	79.06	-49.2	-64.5	3.6	1.51e+00	0	33	104	0	60	60479
2026-01-18 00:30:27.79	217.50	79.34	-49.2	-64.5	3.6	1.51e+00	0	33	104	0	60	60658
2026-01-18 00:30:28.80	219.90	79.60	-49.2	-64.4	3.6	1.51e+00	0	33	104	0	60	60208
2026-01-18 00:30:29.81	222.43	79.84	-49.2	-64.4	3.6	1.51e+00	0	33	104	0	60	60117
2026-01-18 00:30:30.82	225.07	80.07	-49.3	-64.6	3.6	1.51e+00	0	32	104	0	60	61130
2026-01-18 00:30:31.82	227.80	80.27	-49.3	-64.5	3.6	1.51e+00	0	32	104	0	60	60727
2026-01-18 00:30:32.83	230.67	80.45	-49.3	-64.5	3.6	1.51e+00	0	32	104	0	60	60871
2026-01-18 00:30:33.84	233.64	80.60	-49.2	-64.5	3.6	1.51e+00	0	32	104	0	60	60420
2026-01-18 00:30:34.85	236.71	80.73	-49.3	-64.5	3.6	1.51e+00	0	33	104	0	60	60800
2026-01-18 00:30:35.86	239.86	80.83	-49.2	-64.4	3.6	1.51e+00	0	33	104	0	60	59817
2026-01-18 00:30:36.87	243.06	80.91	-49.4	-64.6	3.6	1.51e+00	0	33	104	0	60	61236
2026-01-18 00:30:37.88	246.31	80.95	-49.6	-64.7	3.6	1.51e+00	0	32	104	0	60	62314
2026-01-18 00:30:38.89	249.59	80.97	-49.7	-64.9	3.6	1.51e+00	0	32	104	0	60	63453
2026-01-18 00:30:39.90	252.86	80.96	-49.4	-64.6	3.6	1.51e+00	0	32	104	0	60	61501
2026-01-18 00:30:40.91	256.12	80.92	-49.4	-64.6	3.6	1.51e+00	0	32	104	0	60	61448
2026-01-18 00:30:41.92	259.34	80.85	-49.1	-64.4	3.6	1.51e+00	0	33	104	0	60	60045
2026-01-18 00:30:42.93	262.50	80.75	-49.1	-64.4	3.6	1.51e+00	0	33	104	0	60	59958
2026-01-18 00:30:43.94	265.58	80.63	-49.3	-64.5	3.6	1.51e+00	0	32	104	0	60	60680
2026-01-18 00:30:44.95	268.57	80.48	-49.3	-64.6	3.6	1.51e+00	0	33	104	0	60	61413
2026-01-18 00:30:45.96	271.46	80.31	-49.2	-64.4	3.6	1.51e+00	0	33	104	0	60	60136
2026-01-18 00:30:46.96	274.22	80.11	-49.4	-64.6	3.6	1.51e+00	0	33	104	0	60	61425
2026-01-18 00:30:47.97	276.88	79.89	-49.5	-64.7	3.5	1.51e+00	0	33	104	0	60	62261
2026-01-18 00:30:48.98	279.43	79.65	-49.5	-64.7	3.6	1.51e+00	0	33	104	0	60	62159
2026-01-18 00:30:49.99	281.86	79.40	-49.5	-64.7	3.6	1.51e+00	0	32	104	0	60	62063
2026-01-18 00:30:51.00	284.16	79.12	-49.6	-64.8	3.6	1.51e+00	0	33	104	0	60	62834
2026-01-18 00:30:52.01	286.35	78.83	-49.6	-64.9	3.6	1.51e+00	0	33	104	0	60	63447
2026-01-18 00:30:53.02	288.42	78.53	-49.8	-64.9	3.6	1.51e+00	0	33	104	0	60	63860
2026-01-18 00:30:54.03	290.37	78.21	-49.4	-64.6	3.6	1.51e+00	0	33	104	0	60	61319
2026-01-18 00:30:55.04	292.22	77.88	-49.4	-64.6	3.6	1.51e+00	0	33	104	0	60	61470
2026-01-18 00:30:56.05	293.97	77.54	-49.1	-64.4	3.6	1.51e+00	0	32	104	0	60	59876
2026-01-18 00:30:57.06	295.62	77.18	-49.2	-64.5	3.6	1.51e+00	0	33	104	0	60	60498
2026-01-18 00:30:58.07	297.18	76.82	-49.2	-64.5	3.6	1.51e+00	0	33	104	0	60	60489
2026-01-18 00:30:59.08	298.66	76.46	-49.0	-64.3	3.6	1.51e+00	0	33	104	0	60	59435
2026-01-18 00:31:00.09	300.05	76.08	-49.0	-64.3	3.6	1.51e+00	0	32	104	0	60	59119
2026-01-18 00:31:01.10	301.37	75.70	-49.1	-64.4	3.6	1.51e+00	0	32	104	0	60	59707
2026-01-18 00:31:02.11	302.61	75.31	-49.1	-64.3	3.6	1.51e+00	0	33	104	0	60	59609
2026-01-18 00:31:03.12	303.79	74.92	-49.1	-64.3	3.6	1.51e+00	0	33	104	0	60	59298
2026-01-18 00:31:04.13	304.91	74.52	-49.0	-64.2	3.6	1.51e+00	0	33	104	0	60	58899
2026-01-18 00:31:05.14	305.97	74.12	-49.0	-64.3	3.6	1.51e+00	0	33	104	0	60	59000
2026-01-18 00:31:06.15	306.97	73.71	-49.0	-64.2	3.6	1.51e+00	0	33	104	0	60	58380
2026-01-18 00:31:07.16	307.93	73.31	-49.1	-64.3	3.6	1.51e+00	0	33	104	0	60	59392
2026-01-18 00:31:08.17	308.83	72.90	-49.2	-64.5	3.6	1.51e+00	0	33	104	0	60	60406
2026-01-18 00:31:09.18	309.69	72.48	-49.2	-64.4	3.6	1.51e+00	0	33	104	0	60	60161
2026-01-18 00:31:10.19	310.51	72.07	-49.2	-64.4	3.6	1.51e+00	0	33	104	0	60	60223
2026-01-18 00:31:11.20	311.29	71.65	-49.4	-64.6	3.6	1.51e+00	0	33	104	0	60	61553
2026-01-18 00:31:12.21	312.04	71.23	-49.3	-64.5	3.6	1.51e+00	0	33	104	0	60	61025
2026-01-18 00:31:13.22	312.75	70.81	-49.4	-64.7	3.6	1.51e+00	0	33	104	0	60	61756
2026-01-18 00:31:14.23	313.43	70.39	-49.5	-64.7	3.6	1.51e+00	0	33	104	0	60	62421
2026-01-18 00:31:15.24	314.07	69.97	-49.4	-64.6	3.6	1.51e+00	0	33	104	0	60	61651
2026-01-18 00:31:16.25	314.69	69.55	-50.2	-65.5	3.6	1.51e+00	0	32	104	0	60	67775
2026-01-18 00:31:17.26	315.29	69.13	-49.4	-64.6	3.6	1.51e+00	0	33	104	0	60	61616
2026-01-18 00:31:18.27	315.85	68.71	-49.4	-64.6	3.6	1.51e+00	0	33	104	0	60	61676
2026-01-18 00:31:19.28	316.40	68.29	-49.1	-64.3	3.6	1.51e+00	0	33	104	0	60	59572
2026-01-18 00:31:20.30	316.92	67.86	-49.2	-64.4	3.6	1.51e+00	0	32	104	0	60	60157
2026-01-18 00:31:21.31	317.42	67.44	-49.2	-64.4	3.6	1.51e+00	0	33	104	0	60	59847
2026-01-18 00:31:22.32	317.91	67.02	-49.2	-64.4	3.5	1.51e+00	0	33	104	0	60	59786
2026-01-18 00:31:23.32	318.36	66.61	-49.1	-64.4	3.6	1.51e+00	0	33	104	0	60	59678
2026-01-18 00:31:24.33	318.81	66.19	-49.4	-64.6	3.6	1.51e+00	0	33	104	0	60	61502
2026-01-18 00:31:25.34	319.24	65.77	-49.4	-64.6	3.6	1.51e+00	0	33	104	0	60	61477
2026-01-18 00:31:26.35	319.65	65.36	-49.2	-64.5	3.6	1.51e+00	0	33	104	0	60	60482
2026-01-18 00:31:27.36	320.04	64.94	-49.4	-64.7	3.6	1.51e+00	0	32	104	0	60	61904
2026-01-18 00:31:28.37	320.43	64.53	-49.4	-64.6	3.6	1.51e+00	0	32	104	0	60	61334
2026-01-18 00:31:29.38	320.80	64.12	-49.2	-64.5	3.6	1.51e+00	0	33	104	0	60	60365
2026-01-18 00:31:30.39	321.15	63.70	-49.1	-64.4	3.6	1.51e+00	0	32	104	0	60	60186
2026-01-18 00:31:31.40	321.50	63.30	-49.3	-64.6	3.6	1.51e+00	0	32	104	0	60	61128
2026-01-18 00:31:32.41	321.83	62.89	-49.2	-64.4	3.6	1.51e+00	0	33	104	0	60	60320
2026-01-18 00:31:33.42	322.15	62.48	-49.3	-64.5	3.6	1.51e+00	0	33	104	0	60	60872
2026-01-18 00:31:34.43	322.46	62.08	-49.9	-65.2	3.5	1.51e+00	0	33	104	0	60	65434
2026-01-18 00:31:35.44	322.77	61.67	-49.6	-64.8	3.6	1.51e+00	0	33	104	0	60	62990
2026-01-18 00:31:36.45	323.06	61.27	-49.6	-64.7	3.6	1.51e+00	0	32	104	0	60	62449
2026-01-18 00:31:37.46	323.34	60.87	-49.6	-64.9	3.6	1.51e+00	0	32	104	0	60	63448
2026-01-18 00:31:38.47	323.61	60.48	-49.7	-64.9	3.6	1.51e+00	0	33	104	0	60	63713
2026-01-18 00:31:39.48	323.88	60.08	-49.4	-64.6	3.6	1.51e+00	0	33	104	0	60	61296
2026-01-18 00:31:40.49	324.14	59.69	-49.5	-64.8	3.6	1.51e+00	0	33	104	0	60	62696
2026-01-18 00:31:41.50	324.39	59.29	-49.6	-64.8	3.6	1.51e+00	0	33	104	0	60	62897
2026-01-18 00:31:42.51	324.63	58.90	-49.2	-64.5	3.6	1.51e+00	0	33	104	0	60	60378
2026-01-18 00:31:43.52	324.87	58.52	-49.6	-64.8	3.6	1.51e+00	0	33	104	0	60	63135
2026-01-18 00:31:44.53	325.10	58.13	-49.6	-64.7	3.6	1.51e+00	0	33	104	0	60	62387
2026-01-18 00:31:45.54	325.32	57.75	-49.3	-64.5	3.6	1.51e+00	0	33	104	0	60	60890
2026-01-18 00:31:46.55	325.54	57.37	-49.2	-64.5	3.6	1.51e+00	0	33	104	0	60	60401
2026-01-18 00:31:47.56	325.75	56.99	-49.6	-64.8	3.6	1.51e+00	0	33	104	0	60	62664
2026-01-18 00:31:48.57	325.95	56.61	-49.6	-64.8	3.6	1.51e+00	0	33	104	0	60	62991
2026-01-18 00:31:49.58	326.15	56.24	-49.3	-64.5	3.6	1.51e+00	0	33	104	0	60	60538
2026-01-18 00:31:50.59	326.35	55.87	-49.3	-64.5	3.6	1.51e+00	0	33	104	0	60	60861
2026-01-18 00:31:51.60	326.54	55.50	-49.2	-64.5	3.6	1.51e+00	0	33	104	0	60	60591
2026-01-18 00:31:52.61	326.72	55.13	-49.3	-64.6	3.6	1.51e+00	0	33	104	0	60	61404
2026-01-18 00:31:53.62	326.90	54.76	-49.1	-64.3	3.6	1.51e+00	0	33	104	0	60	59604
2026-01-18 00:31:54.63	327.08	54.40	-49.4	-64.6	3.6	1.51e+00	0	33	104	0	60	61293
2026-01-18 00:31:55.64	327.25	54.04	-49.7	-64.9	3.6	1.51e+00	0	33	104	0	60	63722
2026-01-18 00:31:56.65	327.42	53.68	-49.5	-64.7	3.6	1.51e+00	0	33	104	0	60	62395
2026-01-18 00:31:57.66	327.58	53.32	-49.7	-64.8	3.6	1.51e+00	0	33	104	0	60	63172
2026-01-18 00:31:58.67	327.74	52.97	-49.4	-64.6	3.6	1.51e+00	0	33	104	0	60	61291
2026-01-18 00:31:59.68	327.90	52.62	-49.4	-64.6	3.6	1.51e+00	0	33	104	0	60	61228
2026-01-18 00:32:00.69	328.05	52.27	-49.5	-64.7	3.6	1.51e+00	0	33	104	0	60	62376
2026-01-18 00:32:01.70	328.20	51.92	-49.4	-64.7	3.6	1.51e+00	0	33	104	0	60	62037
2026-01-18 00:32:02.71	328.34	51.57	-49.6	-64.9	3.6	1.51e+00	0	33	104	0	60	63375
2026-01-18 00:32:03.72	328.49	51.23	-49.3	-64.5	3.6	1.51e+00	0	33	104	0	60	60754
2026-01-18 00:32:04.73	328.63	50.89	-49.7	-65.0	3.6	1.51e+00	0	33	104	0	60	64116
2026-01-18 00:32:05.74	328.76	50.55	-49.6	-64.8	3.6	1.51e+00	0	33	104	0	60	62694
2026-01-18 00:32:06.75	328.90	50.22	-49.4	-64.6	3.6	1.51e+00	0	33	104	0	60	61240
2026-01-18 00:32:07.76	329.03	49.89	-49.4	-64.6	3.6	1.51e+00	0	33	104	0	60	61439
2026-01-18 00:32:08.77	329.15	49.55	-49.7	-65.0	3.6	1.51e+00	0	33	104	0	60	64081
2026-01-18 00:32:09.78	329.28	49.23	-49.8	-65.1	3.6	1.51e+00	0	33	104	0	60	64831
2026-01-18 00:32:10.79	329.40	48.90	-49.2	-64.5	3.6	1.51e+00	0	33	104	0	60	60377
2026-01-18 00:32:11.80	329.52	48.57	-49.4	-64.6	3.6	1.51e+00	0	33	104	0	60	61629
2026-01-18 00:32:12.81	329.64	48.25	-49.7	-64.9	3.6	1.51e+00	0	33	104	0	60	63456
2026-01-18 00:32:13.82	329.75	47.93	-49.4	-64.6	3.6	1.51e+00	0	32	104	0	60	61548
2026-01-18 00:32:14.83	329.87	47.62	-49.4	-64.6	3.6	1.51e+00	0	33	104	0	60	61716
2026-01-18 00:32:15.84	329.98	47.30	-49.9	-65.2	3.6	1.51e+00	0	33	104	0	60	65587
2026-01-18 00:32:16.85	330.09	46.99	-49.3	-64.6	3.6	1.51e+00	0	33	104	0	60	61472
2026-01-18 00:32:17.86	330.19	46.68	-49.3	-64.5	3.6	1.51e+00	0	33	104	0	60	60915
2026-01-18 00:32:18.87	330.30	46.37	-49.5	-64.8	3.6	1.51e+00	0	33	104	0	60	62541
2026-01-18 00:32:19.88	330.40	46.06	-49.5	-64.7	3.6	1.51e+00	0	33	104	0	60	62336
2026-01-18 00:32:20.89	330.50	45.76	-49.4	-64.7	3.6	1.51e+00	0	33	104	0	60	61963
2026-01-18 00:32:21.90	330.60	45.46	-49.7	-64.9	3.6	1.51e+00	0	32	104	0	60	63712
2026-01-18 00:32:22.91	330.70	45.16	-49.6	-64.9	3.6	1.51e+00	0	33	104	0	60	63307
2026-01-18 00:32:23.92	330.79	44.86	-49.4	-64.6	3.6	1.51e+00	0	32	104	0	60	61445
2026-01-18 00:32:24.92	330.89	44.57	-49.4	-64.7	3.6	1.51e+00	0	33	104	0	60	61836
2026-01-18 00:32:25.94	330.98	44.27	-49.2	-64.4	3.6	1.51e+00	0	33	104	0	60	60315
2026-01-18 00:32:26.94	331.07	43.98	-49.6	-64.9	3.6	1.51e+00	0	33	104	0	60	63344
2026-01-18 00:32:27.95	331.16	43.69	-49.5	-64.8	3.6	1.51e+00	0	33	104	0	60	62602
2026-01-18 00:32:28.96	331.25	43.41	-49.5	-64.7	3.6	1.51e+00	0	33	104	0	60	62186
2026-01-18 00:32:29.97	331.33	43.12	-49.6	-64.8	3.6	1.51e+00	0	33	104	0	60	62850
2026-01-18 00:32:30.98	331.42	42.84	-49.5	-64.7	3.6	1.51e+00	0	33	104	0	60	62418
2026-01-18 00:32:31.99	331.50	42.56	-49.5	-64.7	3.6	1.51e+00	0	33	104	0	60	61864
2026-01-18 00:32:32.99	331.58	42.28	-49.4	-64.7	3.6	1.51e+00	0	33	104	0	60	61874
2026-01-18 00:32:34.00	331.66	42.00	-49.4	-64.6	3.6	1.51e+00	0	33	104	0	60	61269
2026-01-18 00:32:35.01	331.74	41.73	-49.6	-64.8	3.6	1.51e+00	0	33	104	0	60	62841
2026-01-18 00:32:36.02	331.82	41.46	-49.2	-64.5	3.6	1.51e+00	0	33	104	0	60	60658
2026-01-18 00:32:37.03	331.90	41.19	-49.5	-64.7	3.6	1.51e+00	0	33	104	0	60	62088
2026-01-18 00:32:38.04	331.97	40.92	-49.4	-64.7	3.6	1.51e+00	0	33	104	0	60	61778
2026-01-18 00:32:39.05	332.05	40.65	-49.2	-64.5	3.6	1.51e+00	0	33	104	0	60	60765
2026-01-18 00:32:40.05	332.12	40.39	-49.3	-64.6	3.6	1.51e+00	0	33	104	0	60	61066
2026-01-18 00:32:41.06	332.19	40.13	-49.4	-64.6	3.6	1.51e+00	0	33	104	0	60	61591
2026-01-18 00:32:42.07	332.26	39.86	-49.3	-64.6	3.6	1.51e+00	0	33	104	0	60	61040
2026-01-18 00:32:43.08	332.33	39.61	-49.6	-64.8	3.6	1.51e+00	0	33	104	0	60	62693
2026-01-18 00:32:44.09	332.40	39.35	-49.6	-64.8	3.6	1.51e+00	0	33	104	0	60	62786
2026-01-18 00:32:45.10	332.47	39.09	-49.3	-64.6	3.6	1.51e+00	0	33	104	0	60	61206
2026-01-18 00:32:46.11	332.53	38.84	-49.5	-64.7	3.6	1.51e+00	0	33	104	0	60	62440
2026-01-18 00:32:47.12	332.60	38.59	-49.4	-64.7	3.6	1.51e+00	0	33	104	0	60	61891
2026-01-18 00:32:48.13	332.67	38.34	-49.3	-64.5	3.6	1.51e+00	0	33	104	0	60	60907
2026-01-18 00:32:49.14	332.73	38.09	-49.2	-64.5	3.6	1.51e+00	0	33	104	0	60	60677
2026-01-18 00:32:50.15	332.79	37.84	-49.2	-64.5	3.6	1.51e+00	0	33	104	0	60	60476
2026-01-18 00:32:51.16	332.85	37.60	-49.7	-64.9	3.6	1.51e+00	0	33	104	0	60	63721
2026-01-18 00:32:52.17	332.92	37.36	-49.6	-64.9	3.6	1.51e+00	0	33	104	0	60	63210
2026-01-18 00:32:53.17	332.98	37.12	-49.2	-64.5	3.6	1.51e+00	0	33	104	0	60	60430
2026-01-18 00:32:54.18	333.04	36.88	-49.5	-64.8	3.6	1.51e+00	0	33	104	0	60	62555
2026-01-18 00:32:55.19	333.09	36.64	-49.5	-64.7	3.6	1.51e+00	0	33	104	0	60	62048
2026-01-18 00:32:56.20	333.15	36.40	-49.7	-64.9	3.6	1.51e+00	0	33	104	0	60	63759
2026-01-18 00:32:57.21	333.21	36.17	-49.1	-64.4	3.6	1.51e+00	0	33	104	0	60	59895
2026-01-18 00:32:58.22	333.27	35.94	-49.4	-64.6	3.6	1.51e+00	0	33	104	0	60	61609
2026-01-18 00:32:59.23	333.32	35.71	-49.7	-64.9	3.6	1.51e+00	0	33	104	0	60	63574
2026-01-18 00:33:00.23	333.38	35.48	-50.0	-65.2	3.6	1.51e+00	0	33	104	0	60	65616
2026-01-18 00:33:01.24	333.43	35.25	-49.7	-65.0	3.6	1.51e+00	0	33	104	0	60	64261
2026-01-18 00:33:02.25	333.49	35.03	-49.4	-64.6	3.6	1.51e+00	0	32	104	0	60	61524
2026-01-18 00:33:03.26	333.54	34.80	-49.6	-64.8	3.6	1.51e+00	0	33	104	0	60	63164
2026-01-18 00:33:04.27	333.59	34.58	-49.7	-65.0	3.6	1.51e+00	0	33	104	0	60	63992
2026-01-18 00:33:05.28	333.64	34.36	-49.4	-64.7	3.6	1.51e+00	0	33	104	0	60	61953
2026-01-18 00:33:06.29	333.69	34.14	-49.4	-64.6	3.6	1.51e+00	0	33	104	0	60	61243
2026-01-18 00:33:07.30	333.74	33.92	-49.2	-64.5	3.6	1.51e+00	0	33	104	0	60	60463
2026-01-18 00:33:08.31	333.79	33.70	-49.2	-64.5	3.6	1.51e+00	0	33	104	0	60	60520
2026-01-18 00:33:09.32	333.84	33.49	-49.2	-64.4	3.6	1.51e+00	0	33	104	0	60	60233
2026-01-18 00:33:10.33	333.89	33.27	-49.3	-64.5	3.6	1.51e+00	0	33	104	0	60	60727
2026-01-18 00:33:11.34	333.94	33.06	-49.5	-64.8	3.6	1.51e+00	0	33	104	0	60	62789
2026-01-18 00:33:12.35	333.99	32.85	-49.5	-64.8	3.6	1.51e+00	0	33	104	0	60	62474
2026-01-18 00:33:13.36	334.03	32.64	-49.4	-64.6	3.6	1.51e+00	0	33	104	0	60	61684
2026-01-18 00:33:14.37	334.08	32.43	-49.5	-64.7	3.6	1.51e+00	0	33	104	0	60	62151
2026-01-18 00:33:15.37	334.13	32.23	-49.3	-64.5	3.6	1.51e+00	0	33	104	0	60	60913
2026-01-18 00:33:16.39	334.17	32.02	-49.4	-64.7	3.6	1.51e+00	0	33	104	0	60	61748
2026-01-18 00:33:17.40	334.22	31.82	-49.6	-64.7	3.6	1.51e+00	0	33	104	0	60	62359
2026-01-18 00:33:18.41	334.26	31.61	-49.5	-64.7	3.6	1.51e+00	0	33	104	0	60	61954
2026-01-18 00:33:19.42	334.31	31.41	-49.6	-64.8	3.6	1.51e+00	0	33	104	0	60	62918
2026-01-18 00:33:20.43	334.35	31.21	-49.4	-64.6	3.6	1.51e+00	0	33	104	0	60	61416
2026-01-18 00:33:21.44	334.39	31.02	-49.5	-64.8	3.6	1.51e+00	0	33	104	0	60	62724
2026-01-18 00:33:22.45	334.43	30.82	-49.3	-64.5	3.6	1.51e+00	0	33	104	0	60	60904
2026-01-18 00:33:23.46	334.48	30.62	-49.5	-64.7	3.6	1.51e+00	0	33	104	0	60	62318
2026-01-18 00:33:24.47	334.52	30.43	-49.3	-64.6	3.6	1.51e+00	0	33	104	0	60	61355
2026-01-18 00:33:25.48	334.56	30.24	-49.5	-64.8	3.6	1.51e+00	0	33	104	0	60	62566
2026-01-18 00:33:26.49	334.60	30.04	-49.7	-64.9	3.6	1.51e+00	0	33	104	0	60	63680
2026-01-18 00:33:27.50	334.64	29.85	-49.7	-65.0	3.6	1.51e+00	0	33	104	0	60	64605
2026-01-18 00:33:28.51	334.68	29.66	-49.3	-64.6	3.6	1.51e+00	0	33	104	0	60	61490
2026-01-18 00:33:29.52	334.72	29.48	-49.7	-65.0	3.6	1.51e+00	0	33	104	0	60	63990
2026-01-18 00:33:30.53	334.76	29.29	-49.7	-65.0	3.6	1.51e+00	0	33	104	0	60	64320
2026-01-18 00:33:31.54	334.80	29.10	-49.6	-64.8	3.6	1.51e+00	0	33	104	0	60	62805
2026-01-18 00:33:32.55	334.83	28.92	-49.6	-64.8	3.6	1.51e+00	0	33	104	0	60	63097
2026-01-18 00:33:33.56	334.87	28.74	-49.3	-64.5	3.6	1.51e+00	0	33	104	0	60	60722
2026-01-18 00:33:34.56	334.91	28.56	-49.4	-64.6	3.6	1.51e+00	0	33	104	0	60	61460
2026-01-18 00:33:35.57	334.95	28.38	-49.2	-64.5	3.6	1.51e+00	0	33	104	0	60	60539
2026-01-18 00:33:36.58	334.98	28.20	-49.2	-64.5	3.6	1.51e+00	0	33	104	0	60	60659
2026-01-18 00:33:37.59	335.02	28.02	-49.3	-64.5	3.6	1.51e+00	0	32	104	0	60	60708
2026-01-18 00:33:38.60	335.06	27.84	-49.1	-64.3	3.6	1.51e+00	0	33	104	0	60	59301
2026-01-18 00:33:39.61	335.09	27.66	-49.3	-64.5	3.6	1.51e+00	0	33	104	0	60	60909
2026-01-18 00:33:40.62	335.13	27.49	-49.1	-64.3	3.6	1.51e+00	0	33	104	0	60	59480
2026-01-18 00:33:41.63	335.16	27.32	-49.4	-64.6	3.6	1.51e+00	0	33	104	0	60	61239
2026-01-18 00:33:42.64	335.20	27.14	-49.2	-64.5	3.6	1.51e+00	0	33	104	0	60	60559
2026-01-18 00:33:43.65	335.23	26.97	-49.4	-64.6	3.6	1.51e+00	0	33	104	0	60	61247
2026-01-18 00:33:44.66	335.26	26.80	-49.1	-64.4	3.6	1.51e+00	0	33	104	0	60	59825
2026-01-18 00:33:45.67	335.30	26.63	-49.4	-64.6	3.6	1.51e+00	0	33	104	0	60	61693
2026-01-18 00:33:46.69	335.33	26.46	-49.2	-64.4	3.6	1.51e+00	0	33	104	0	60	60233
2026-01-18 00:33:47.69	335.36	26.29	-49.1	-64.4	3.6	1.51e+00	0	33	104	0	60	59753
2026-01-18 00:33:48.70	335.40	26.13	-49.0	-64.3	3.6	1.51e+00	0	33	104	0	60	59154
2026-01-18 00:33:49.71	335.43	25.96	-49.0	-64.3	3.6	1.51e+00	0	33	104	0	60	59398
2026-01-18 00:33:50.73	335.46	25.80	-49.1	-64.4	3.6	1.51e+00	0	33	104	0	60	59691
2026-01-18 00:33:51.74	335.49	25.63	-49.1	-64.4	3.6	1.51e+00	0	33	104	0	60	59687
2026-01-18 00:33:52.75	335.53	25.47	-49.5	-64.7	3.6	1.51e+00	0	33	104	0	60	62145
2026-01-18 00:33:53.76	335.56	25.31	-49.2	-64.5	3.6	1.51e+00	0	33	104	0	60	60470
2026-01-18 00:33:54.77	335.59	25.15	-49.3	-64.5	3.6	1.51e+00	0	33	104	0	60	60670
2026-01-18 00:33:55.77	335.62	24.99	-49.3	-64.6	3.6	1.51e+00	0	33	104	0	60	61371
2026-01-18 00:33:56.78	335.65	24.83	-49.2	-64.4	3.6	1.51e+00	0	33	104	0	60	59944
2026-01-18 00:33:57.79	335.68	24.67	-49.2	-64.5	3.6	1.51e+00	0	33	104	0	60	60729
2026-01-18 00:33:58.80	335.71	24.52	-49.4	-64.7	3.6	1.51e+00	0	33	104	0	60	61927
2026-01-18 00:33:59.81	335.74	24.36	-49.3	-64.6	3.6	1.51e+00	0	33	104	0	60	61348
2026-01-18 00:34:00.82	335.77	24.21	-49.5	-64.7	3.6	1.51e+00	0	33	104	0	60	61805
2026-01-18 00:34:01.83	335.80	24.05	-49.5	-64.8	3.6	1.51e+00	0	33	104	0	60	62470
2026-01-18 00:34:02.84	335.83	23.90	-49.2	-64.5	3.6	1.51e+00	0	33	104	0	60	60634
2026-01-18 00:34:03.85	335.85	23.75	-49.4	-64.7	3.6	1.51e+00	0	32	104	0	60	61794
2026-01-18 00:34:04.86	335.88	23.60	-49.4	-64.6	3.6	1.51e+00	0	33	104	0	60	61528
2026-01-18 00:34:05.87	335.91	23.45	-49.5	-64.7	3.6	1.51e+00	0	33	104	0	60	62446
2026-01-18 00:34:06.88	335.94	23.30	-49.5	-64.7	3.6	1.51e+00	0	33	104	0	60	61938
2026-01-18 00:34:07.89	335.97	23.15	-49.4	-64.6	3.6	1.51e+00	0	33	104	0	60	61695
2026-01-18 00:34:08.90	335.99	23.00	-49.7	-65.0	3.6	1.51e+00	0	33	104	0	60	63988
2026-01-18 00:34:09.91	336.02	22.85	-49.6	-64.9	3.6	1.51e+00	0	33	104	0	60	63393
2026-01-18 00:34:10.92	336.05	22.71	-49.4	-64.7	3.6	1.51e+00	0	33	104	0	60	62365
2026-01-18 00:34:11.93	336.08	22.56	-49.8	-65.1	3.6	1.51e+00	0	33	104	0	60	64716
2026-01-18 00:34:12.94	336.10	22.42	-49.3	-64.6	3.6	1.51e+00	0	33	104	0	60	61173
2026-01-18 00:34:13.95	336.13	22.27	-49.4	-64.7	3.6	1.51e+00	0	33	104	0	60	61924
2026-01-18 00:34:14.96	336.16	22.13	-49.3	-64.5	3.6	1.51e+00	0	33	104	0	60	61029
2026-01-18 00:34:15.97	336.18	21.99	-49.4	-64.6	3.5	1.51e+00	0	33	104	0	60	61731
2026-01-18 00:34:16.98	336.21	21.85	-49.6	-64.9	3.6	1.51e+00	0	33	104	0	60	63382
2026-01-18 00:34:17.99	336.23	21.71	-49.8	-65.1	3.6	1.51e+00	0	33	104	0	60	64716
2026-01-18 00:34:19.00	336.26	21.57	-49.3	-64.5	3.6	1.51e+00	0	33	104	0	60	60991
2026-01-18 00:34:20.01	336.28	21.43	-49.6	-64.8	3.6	1.51e+00	0	33	104	0	60	63034
2026-01-18 00:34:21.02	336.31	21.29	-49.3	-64.5	3.6	1.51e+00	0	33	104	0	60	60760
2026-01-18 00:34:22.03	336.33	21.15	-49.2	-64.5	3.6	1.51e+00	0	33	104	0	60	60430
2026-01-18 00:34:23.04	336.36	21.02	-49.1	-64.4	3.6	1.51e+00	0	33	104	0	60	59658
2026-01-18 00:34:24.05	336.38	20.88	-49.2	-64.5	3.6	1.51e+00	0	33	104	0	60	60855
2026-01-18 00:34:25.06	336.41	20.74	-49.3	-64.6	3.6	1.51e+00	0	33	104	0	60	61247
2026-01-18 00:34:26.07	336.43	20.61	-49.6	-64.9	3.6	1.51e+00	0	33	104	0	60	63371
2026-01-18 00:34:27.08	336.46	20.48	-49.5	-64.7	3.5	1.51e+00	0	33	104	0	60	62385
2026-01-18 00:34:28.09	336.48	20.34	-49.6	-64.9	3.6	1.51e+00	0	33	104	0	60	63353
2026-01-18 00:34:29.10	336.50	20.21	-49.3	-64.5	3.6	1.51e+00	0	33	104	0	60	60934
2026-01-18 00:34:30.11	336.53	20.08	-49.1	-64.4	3.6	1.51e+00	0	33	104	0	60	59789
2026-01-18 00:34:31.12	336.55	19.95	-49.3	-64.5	3.6	1.51e+00	0	33	104	0	60	60702
2026-01-18 00:34:32.13	336.57	19.82	-49.5	-64.7	3.6	1.51e+00	0	33	104	0	60	62368
2026-01-18 00:34:33.14	336.60	19.69	-49.2	-64.5	3.6	1.51e+00	0	33	104	0	60	60562
2026-01-18 00:34:34.15	336.62	19.56	-49.3	-64.6	3.6	1.51e+00	0	33	104	0	60	61189
2026-01-18 00:34:35.16	336.64	19.43	-49.2	-64.4	3.6	1.51e+00	0	33	104	0	60	60082
2026-01-18 00:34:36.17	336.67	19.30	-49.5	-64.7	3.6	1.51e+00	0	33	104	0	60	62248
2026-01-18 00:34:37.18	336.69	19.18	-49.2	-64.5	3.6	1.51e+00	0	33	104	0	60	60351
2026-01-18 00:34:38.19	336.71	19.05	-49.1	-64.3	3.6	1.51e+00	0	33	104	0	60	59579
2026-01-18 00:34:39.20	336.73	18.92	-49.0	-64.2	3.6	1.51e+00	0	33	104	0	60	58907
2026-01-18 00:34:40.21	336.75	18.80	-49.2	-64.4	3.6	1.51e+00	0	33	104	0	60	60173
2026-01-18 00:34:41.22	336.78	18.67	-49.2	-64.4	3.6	1.51e+00	0	33	104	0	60	60061
2026-01-18 00:34:42.23	336.80	18.55	-49.2	-64.4	3.6	1.51e+00	0	33	104	0	60	60049
2026-01-18 00:34:43.24	336.82	18.43	-49.2	-64.5	3.6	1.51e+00	0	33	104	0	60	60361
2026-01-18 00:34:44.25	336.84	18.30	-49.1	-64.4	3.6	1.51e+00	0	33	104	0	60	59795
2026-01-18 00:34:45.26	336.86	18.18	-49.1	-64.3	3.6	1.51e+00	0	33	104	0	60	59149
2026-01-18 00:34:46.26	336.88	18.06	-49.0	-64.3	3.6	1.51e+00	0	33	104	0	60	59014
2026-01-18 00:34:47.27	336.90	17.94	-49.1	-64.3	3.6	1.51e+00	0	33	104	0	60	59420
2026-01-18 00:34:48.28	336.93	17.82	-49.2	-64.4	3.6	1.51e+00	0	33	104	0	60	60212
2026-01-18 00:34:49.29	336.95	17.70	-49.0	-64.2	3.6	1.51e+00	0	33	104	0	60	58874
2026-01-18 00:34:50.30	336.97	17.58	-49.1	-64.3	3.6	1.51e+00	0	33	104	0	60	59420
2026-01-18 00:34:51.31	336.99	17.46	-49.1	-64.4	3.6	1.51e+00	0	33	104	0	60	59763
2026-01-18 00:34:52.32	337.01	17.35	-49.2	-64.5	3.6	1.51e+00	0	33	104	0	60	60530
2026-01-18 00:34:53.33	337.03	17.23	-49.3	-64.5	3.6	1.51e+00	0	33	104	0	60	60890
2026-01-18 00:34:54.34	337.05	17.11	-49.6	-64.8	3.6	1.51e+00	0	33	104	0	60	62969
2026-01-18 00:34:55.36	337.07	16.99	-49.4	-64.7	3.6	1.51e+00	0	33	104	0	60	61754
2026-01-18 00:34:56.37	337.09	16.88	-49.4	-64.6	3.6	1.51e+00	0	33	104	0	60	61617
2026-01-18 00:34:57.38	337.11	16.76	-49.4	-64.7	3.6	1.51e+00	0	33	104	0	60	61927
2026-01-18 00:34:58.39	337.13	16.65	-49.3	-64.5	3.6	1.51e+00	0	33	104	0	60	60880
2026-01-18 00:34:59.40	337.15	16.53	-49.4	-64.7	3.6	1.51e+00	0	33	104	0	60	62009
2026-01-18 00:35:00.41	337.17	16.42	-49.7	-64.9	3.6	1.51e+00	0	33	104	0	60	63880
2026-01-18 00:35:01.42	337.19	16.31	-49.9	-65.2	3.6	1.51e+00	0	33	104	0	60	65689
2026-01-18 00:35:02.43	337.21	16.20	-49.3	-64.6	3.6	1.51e+00	0	33	104	0	60	61283
2026-01-18 00:35:03.44	337.22	16.08	-49.6	-64.9	3.6	1.51e+00	0	33	104	0	60	63509
2026-01-18 00:35:04.44	337.24	15.97	-49.7	-65.0	3.6	1.51e+00	0	33	104	0	60	64082
2026-01-18 00:35:05.45	337.26	15.86	-49.3	-64.5	3.6	1.51e+00	0	33	104	0	60	60833
2026-01-18 00:35:06.46	337.28	15.75	-49.4	-64.7	3.6	1.51e+00	0	33	104	0	60	62000
2026-01-18 00:35:07.47	337.30	15.64	-49.3	-64.6	3.6	1.51e+00	0	33	104	0	60	61201
2026-01-18 00:35:08.48	337.32	15.53	-49.8	-65.1	3.6	1.51e+00	0	33	104	0	60	64982
2026-01-18 00:35:09.49	337.34	15.42	-49.4	-64.7	3.6	1.51e+00	0	33	104	0	60	61833
2026-01-18 00:35:10.50	337.35	15.32	-49.6	-64.9	3.6	1.51e+00	0	33	104	0	60	63410
2026-01-18 00:35:11.51	337.37	15.21	-50.3	-65.5	3.6	1.51e+00	0	33	104	0	60	68003
2026-01-18 00:35:12.52	337.39	15.10	-49.9	-65.1	3.6	1.51e+00	0	33	104	0	60	65215
2026-01-18 00:35:13.53	337.41	14.99	-49.3	-64.5	3.6	1.51e+00	0	33	104	0	60	61007
2026-01-18 00:35:14.54	337.43	14.89	-49.4	-64.7	3.6	1.51e+00	0	33	104	0	60	61885
2026-01-18 00:35:15.55	337.45	14.78	-49.6	-64.9	3.6	1.51e+00	0	33	104	0	60	63471
2026-01-18 00:35:16.56	337.46	14.67	-49.4	-64.7	3.6	1.51e+00	0	33	104	0	60	61774
2026-01-18 00:35:17.57	337.48	14.57	-49.3	-64.5	3.6	1.51e+00	0	33	104	0	60	60713
2026-01-18 00:35:18.57	337.50	14.47	-49.9	-65.1	3.6	1.51e+00	0	33	104	0	60	64895
