passes_logs/2026/01/18/R4.6S_Anadyr/R4.6S_Anadyr__20260118_015324_TY-42_rec.log

#Pass ID: 20260118_015324_TY-42
#Satellite: TY-42
#Configuration: TY-42_900M
#almurnet v.1.7.20251203
#Start time: 2026-01-18 01:53:58

#Version: 2.2.20231116
#Station: R4.6S_Anadyr
#Location: 177.4865 lon 64.73178 lat
#TLE: 1 64048U 25103A   26017.54141204  .00008008  00000-0  38191-3 0 09991
#TLE: 2 64048 097.4124 092.9111 0001919 092.8629 297.5859 15.19160543 37202

#Time	Az	El	Level	Level2	SNR	BER	BlckErr	Temp	State	Recorded	gain1	gain2
2026-01-18 01:53:58.24	14.82	1.85	-49.2	-61.8	3.5	1.51e+00	0	29	0	0	60	43153
2026-01-18 01:53:59.25	14.71	1.90	-48.6	-51.2	6.1	0.00e+00	0	31	104	0	60	44270
2026-01-18 01:54:00.26	14.60	1.96	-48.6	-51.2	6.1	0.00e+00	0	31	104	0	60	44288
2026-01-18 01:54:01.27	14.49	2.02	-48.6	-51.2	6.1	0.00e+00	0	31	104	0	60	44263
2026-01-18 01:54:02.28	14.38	2.07	-48.7	-51.2	6.1	0.00e+00	0	31	104	0	60	44422
2026-01-18 01:54:03.28	14.28	2.13	-48.7	-51.2	6.1	0.00e+00	0	31	104	0	60	44475
2026-01-18 01:54:04.29	14.16	2.19	-48.8	-51.4	6.1	0.00e+00	0	31	104	0	60	45308
2026-01-18 01:54:05.30	14.05	2.24	-48.9	-51.4	6.1	0.00e+00	0	31	104	0	60	45461
2026-01-18 01:54:06.31	13.94	2.30	-48.8	-51.3	6.1	0.00e+00	0	31	104	0	60	44823
2026-01-18 01:54:07.32	13.83	2.36	-49.1	-51.6	6.1	0.00e+00	0	31	104	0	60	46787
2026-01-18 01:54:08.33	13.71	2.41	-49.2	-51.7	6.1	0.00e+00	0	31	104	0	60	46945
2026-01-18 01:54:09.34	13.60	2.47	-49.1	-51.6	6.1	0.00e+00	0	32	104	0	60	46771
2026-01-18 01:54:10.35	13.49	2.53	-49.2	-51.7	6.1	0.00e+00	0	32	104	0	60	47010
2026-01-18 01:54:11.36	13.37	2.58	-49.2	-51.6	6.1	0.00e+00	0	32	104	0	60	46732
2026-01-18 01:54:12.37	13.25	2.64	-49.0	-51.6	6.1	0.00e+00	0	32	104	0	60	46318
2026-01-18 01:54:13.38	13.14	2.70	-48.9	-51.5	6.1	0.00e+00	0	32	104	0	60	45887
2026-01-18 01:54:14.39	13.02	2.75	-48.8	-51.3	6.1	0.00e+00	0	32	104	0	60	44956
2026-01-18 01:54:15.40	12.90	2.81	-48.9	-51.4	6.1	0.00e+00	0	32	104	0	60	45593
2026-01-18 01:54:16.41	12.79	2.87	-49.0	-51.5	6.1	0.00e+00	0	32	104	0	60	45769
2026-01-18 01:54:17.42	12.67	2.93	-49.0	-51.6	6.1	0.00e+00	0	32	104	0	60	46414
2026-01-18 01:54:18.43	12.55	2.98	-49.2	-51.7	6.1	0.00e+00	0	32	104	0	60	47304
2026-01-18 01:54:19.44	12.43	3.04	-49.4	-51.9	6.1	0.00e+00	0	32	104	0	60	48066
2026-01-18 01:54:20.45	12.31	3.10	-49.2	-51.7	6.1	0.00e+00	0	32	104	0	60	47140
2026-01-18 01:54:21.46	12.19	3.16	-49.5	-52.0	6.1	0.00e+00	0	32	104	0	60	48706
2026-01-18 01:54:22.46	12.07	3.21	-49.5	-52.0	6.1	0.00e+00	0	32	104	0	60	48686
2026-01-18 01:54:23.47	11.94	3.27	-49.1	-51.6	6.1	0.00e+00	0	32	104	0	60	46782
2026-01-18 01:54:24.48	11.82	3.33	-49.3	-51.9	6.1	0.00e+00	0	32	104	0	60	48001
2026-01-18 01:54:25.49	11.70	3.39	-49.1	-51.6	6.1	0.00e+00	0	32	104	0	60	46603
2026-01-18 01:54:26.50	11.57	3.44	-49.1	-51.6	6.1	0.00e+00	0	32	104	0	60	46574
2026-01-18 01:54:27.51	11.45	3.50	-48.9	-51.4	6.1	0.00e+00	0	32	104	0	60	45643
2026-01-18 01:54:28.51	11.32	3.56	-48.8	-51.4	6.1	0.00e+00	0	32	104	0	60	45313
2026-01-18 01:54:29.52	11.20	3.62	-48.9	-51.4	6.1	0.00e+00	0	32	104	0	60	45341
2026-01-18 01:54:30.53	11.07	3.68	-48.8	-51.3	6.1	0.00e+00	0	32	104	0	60	44908
2026-01-18 01:54:31.54	10.94	3.73	-48.7	-51.3	6.1	0.00e+00	0	32	104	0	60	44932
2026-01-18 01:54:32.55	10.82	3.79	-48.8	-51.2	6.1	0.00e+00	0	32	104	0	60	44676
2026-01-18 01:54:33.56	10.69	3.85	-48.6	-51.2	6.1	0.00e+00	0	32	104	0	60	44241
2026-01-18 01:54:34.56	10.56	3.91	-48.7	-51.2	6.1	0.00e+00	0	32	104	0	60	44621
2026-01-18 01:54:35.57	10.43	3.97	-48.8	-51.3	6.1	0.00e+00	0	32	104	0	60	44920
2026-01-18 01:54:36.58	10.30	4.02	-48.9	-51.4	6.1	0.00e+00	0	32	104	0	60	45679
2026-01-18 01:54:37.59	10.17	4.08	-48.9	-51.4	6.1	0.00e+00	0	32	104	0	60	45682
2026-01-18 01:54:38.60	10.03	4.14	-49.0	-51.5	6.1	0.00e+00	0	32	104	0	60	46005
2026-01-18 01:54:39.61	9.90	4.20	-48.9	-51.5	6.1	0.00e+00	0	32	104	0	60	45929
2026-01-18 01:54:40.62	9.77	4.26	-49.0	-51.6	6.1	0.00e+00	0	32	104	0	60	46408
2026-01-18 01:54:41.63	9.63	4.32	-48.9	-51.5	6.1	0.00e+00	0	32	104	0	60	45835
2026-01-18 01:54:42.64	9.50	4.38	-49.2	-51.7	6.1	0.00e+00	0	32	104	0	60	47116
2026-01-18 01:54:43.65	9.36	4.43	-49.0	-51.6	6.1	0.00e+00	0	32	104	0	60	46422
2026-01-18 01:54:44.66	9.23	4.49	-49.2	-51.8	6.1	0.00e+00	0	32	104	0	60	47473
2026-01-18 01:54:45.67	9.09	4.55	-49.6	-52.1	6.1	0.00e+00	0	32	104	0	60	49274
2026-01-18 01:54:46.68	8.95	4.61	-50.0	-52.5	6.1	0.00e+00	0	32	104	0	60	51641
2026-01-18 01:54:47.69	8.81	4.67	-49.4	-51.9	6.1	0.00e+00	0	32	104	0	60	47978
2026-01-18 01:54:48.69	8.67	4.73	-49.2	-51.7	6.1	0.00e+00	0	32	104	0	60	46976
2026-01-18 01:54:49.70	8.53	4.79	-49.1	-51.7	6.1	0.00e+00	0	32	104	0	60	46957
2026-01-18 01:54:50.71	8.39	4.84	-49.6	-52.1	6.1	0.00e+00	0	32	104	0	60	49201
2026-01-18 01:54:51.72	8.25	4.90	-49.1	-51.6	6.1	0.00e+00	0	32	104	0	60	46448
2026-01-18 01:54:52.73	8.11	4.96	-48.8	-51.3	6.1	0.00e+00	0	32	104	0	60	45133
2026-01-18 01:54:53.74	7.97	5.02	-48.9	-51.4	6.1	0.00e+00	0	32	104	0	60	45742
2026-01-18 01:54:54.75	7.82	5.08	-48.8	-51.3	6.1	0.00e+00	0	32	104	0	60	45052
2026-01-18 01:54:55.76	7.68	5.14	-48.8	-51.3	6.1	0.00e+00	0	32	104	0	60	44894
2026-01-18 01:54:56.77	7.53	5.20	-49.0	-51.6	6.1	0.00e+00	0	33	104	0	60	46349
2026-01-18 01:54:57.78	7.39	5.26	-48.9	-51.4	6.1	0.00e+00	0	32	104	0	60	45705
2026-01-18 01:54:58.79	7.24	5.32	-49.0	-51.5	6.1	0.00e+00	0	33	104	0	60	46254
2026-01-18 01:54:59.80	7.09	5.38	-49.1	-51.6	6.1	0.00e+00	0	32	104	0	60	46565
2026-01-18 01:55:00.81	6.95	5.44	-49.0	-51.6	6.1	0.00e+00	0	33	104	0	60	46490
2026-01-18 01:55:01.82	6.80	5.50	-49.5	-51.9	6.1	0.00e+00	0	33	104	0	60	48399
2026-01-18 01:55:02.83	6.65	5.55	-49.2	-51.7	6.1	0.00e+00	0	33	104	0	60	46854
2026-01-18 01:55:03.84	6.50	5.61	-49.1	-51.6	6.1	0.00e+00	0	33	104	0	60	46439
2026-01-18 01:55:04.85	6.34	5.67	-48.8	-51.3	6.1	0.00e+00	0	33	104	0	60	45189
2026-01-18 01:55:05.86	6.19	5.73	-49.1	-51.7	6.1	0.00e+00	0	33	104	0	60	46978
2026-01-18 01:55:06.87	6.04	5.79	-49.3	-51.7	6.1	0.00e+00	0	33	104	0	60	47376
2026-01-18 01:55:07.88	5.89	5.85	-49.1	-51.7	6.1	0.00e+00	0	33	104	0	60	47167
2026-01-18 01:55:08.89	5.73	5.91	-49.5	-52.0	6.1	0.00e+00	0	33	104	0	60	48571
2026-01-18 01:55:09.90	5.58	5.97	-49.1	-51.7	6.1	0.00e+00	0	33	104	0	60	46972
2026-01-18 01:55:10.91	5.42	6.03	-49.5	-52.0	6.1	0.00e+00	0	33	104	0	60	48504
2026-01-18 01:55:11.92	5.26	6.09	-49.1	-51.6	6.1	0.00e+00	0	33	104	0	60	46504
2026-01-18 01:55:12.93	5.10	6.15	-49.0	-51.6	6.1	0.00e+00	0	33	104	0	60	46465
2026-01-18 01:55:13.94	4.95	6.21	-49.1	-51.6	6.1	0.00e+00	0	33	104	0	60	46434
2026-01-18 01:55:14.95	4.79	6.27	-48.8	-51.3	6.1	0.00e+00	0	33	104	0	60	45242
2026-01-18 01:55:15.95	4.63	6.33	-48.7	-51.2	6.1	0.00e+00	0	33	104	0	60	44608
2026-01-18 01:55:16.96	4.47	6.39	-48.7	-51.2	6.1	0.00e+00	0	33	104	0	60	44547
2026-01-18 01:55:17.97	4.30	6.45	-48.8	-51.3	6.1	0.00e+00	0	33	104	0	60	44908
2026-01-18 01:55:18.98	4.14	6.50	-49.0	-51.5	6.1	0.00e+00	0	33	104	0	60	46065
2026-01-18 01:55:19.99	3.98	6.56	-49.1	-51.7	6.1	0.00e+00	0	33	104	0	60	46983
2026-01-18 01:55:21.00	3.81	6.62	-48.9	-51.5	6.1	0.00e+00	0	33	104	0	60	45936
2026-01-18 01:55:22.01	3.65	6.68	-49.4	-51.9	6.0	0.00e+00	0	33	104	0	60	48368
2026-01-18 01:55:23.01	3.48	6.74	-49.5	-52.1	6.1	0.00e+00	0	33	104	0	60	49146
2026-01-18 01:55:24.02	3.32	6.80	-49.4	-52.0	6.1	0.00e+00	0	33	104	0	60	48658
2026-01-18 01:55:25.03	3.15	6.86	-49.4	-51.9	6.1	0.00e+00	0	33	104	0	60	48007
2026-01-18 01:55:26.04	2.98	6.92	-48.8	-51.3	6.1	0.00e+00	0	33	104	0	60	44851
2026-01-18 01:55:27.05	2.81	6.98	-49.4	-52.0	6.0	0.00e+00	0	33	104	0	60	48530
2026-01-18 01:55:28.06	2.64	7.04	-49.5	-52.0	6.1	0.00e+00	0	33	104	0	60	48847
2026-01-18 01:55:29.07	2.47	7.10	-49.4	-51.8	6.1	0.00e+00	0	33	104	0	60	47900
2026-01-18 01:55:30.08	2.30	7.16	-49.5	-52.0	6.1	0.00e+00	0	33	104	0	60	48778
2026-01-18 01:55:31.09	2.12	7.22	-49.5	-52.0	6.1	0.00e+00	0	33	104	0	60	48643
2026-01-18 01:55:32.09	1.95	7.28	-49.8	-52.4	6.1	0.00e+00	0	33	104	0	60	50784
2026-01-18 01:55:33.10	1.77	7.34	-49.7	-52.2	6.1	0.00e+00	0	33	104	0	60	49781
2026-01-18 01:55:34.11	1.60	7.39	-49.9	-52.4	6.1	0.00e+00	0	33	104	0	60	51249
2026-01-18 01:55:35.12	1.42	7.45	-49.3	-51.8	6.1	0.00e+00	0	33	104	0	60	47766
2026-01-18 01:55:36.13	1.24	7.51	-49.1	-51.6	6.1	0.00e+00	0	33	104	0	60	46613
2026-01-18 01:55:37.14	1.06	7.57	-49.5	-52.0	6.1	0.00e+00	0	33	104	0	60	48839
2026-01-18 01:55:38.15	0.89	7.63	-49.2	-51.7	6.1	0.00e+00	0	33	104	0	60	47334
2026-01-18 01:55:39.16	0.70	7.69	-49.8	-52.3	6.1	0.00e+00	0	33	104	0	60	50400
2026-01-18 01:55:40.17	0.52	7.75	-49.6	-52.1	6.1	0.00e+00	0	33	104	0	60	49406
2026-01-18 01:55:41.18	0.34	7.81	-49.0	-51.6	6.1	0.00e+00	0	33	104	0	60	46305
2026-01-18 01:55:42.19	0.16	7.87	-49.1	-51.7	6.1	0.00e+00	0	33	104	0	60	47028
2026-01-18 01:55:43.20	359.97	7.93	-48.9	-51.4	6.1	0.00e+00	0	33	104	0	60	45608
2026-01-18 01:55:44.21	359.79	7.98	-49.0	-51.5	6.1	0.00e+00	0	33	104	0	60	46168
2026-01-18 01:55:45.22	359.60	8.04	-49.3	-51.8	6.1	0.00e+00	0	33	104	0	60	47582
2026-01-18 01:55:46.23	359.41	8.10	-49.4	-51.9	6.1	0.00e+00	0	33	104	0	60	48263
2026-01-18 01:55:47.24	359.23	8.16	-49.4	-51.9	6.1	0.00e+00	0	33	104	0	60	48080
2026-01-18 01:55:48.25	359.04	8.22	-49.6	-52.1	6.1	0.00e+00	0	33	104	0	60	49334
2026-01-18 01:55:49.26	358.85	8.28	-49.4	-51.9	6.1	0.00e+00	0	33	104	0	60	48404
2026-01-18 01:55:50.27	358.66	8.34	-49.3	-51.8	6.1	0.00e+00	0	33	104	0	60	47552
2026-01-18 01:55:51.28	358.46	8.39	-49.3	-51.8	6.1	0.00e+00	0	33	104	0	60	47668
2026-01-18 01:55:52.29	358.27	8.45	-49.3	-51.8	6.1	0.00e+00	0	33	104	0	60	47638
2026-01-18 01:55:53.30	358.08	8.51	-49.3	-51.8	6.1	0.00e+00	0	33	104	0	60	47815
2026-01-18 01:55:54.31	357.88	8.57	-49.5	-52.0	6.1	0.00e+00	0	33	104	0	60	48910
2026-01-18 01:55:55.32	357.69	8.63	-49.2	-51.7	6.1	0.00e+00	0	33	104	0	60	47244
2026-01-18 01:55:56.33	357.49	8.68	-49.5	-52.0	6.1	0.00e+00	0	33	104	0	60	48964
2026-01-18 01:55:57.34	357.29	8.74	-49.5	-52.0	6.1	0.00e+00	0	33	104	0	60	48990
2026-01-18 01:55:58.35	357.09	8.80	-49.5	-52.1	6.1	0.00e+00	0	33	104	0	60	49213
2026-01-18 01:55:59.36	356.89	8.86	-50.0	-52.5	6.1	0.00e+00	0	33	104	0	60	51604
2026-01-18 01:56:00.37	356.69	8.91	-79.5	-78.7	5.1	0.00e+00	0	33	104	0	60	1048552
2026-01-18 01:56:01.38	356.49	8.97	-79.5	-78.7	5.1	0.00e+00	0	33	104	0	60	1048570
2026-01-18 01:56:02.39	356.29	9.03	-79.4	-78.7	4.8	0.00e+00	0	33	104	0	60	1048539
2026-01-18 01:56:03.40	356.08	9.09	-49.9	-52.4	6.1	0.00e+00	0	34	104	0	60	51302
2026-01-18 01:56:04.42	355.88	9.14	-49.6	-52.1	6.1	0.00e+00	0	33	104	0	60	49277
2026-01-18 01:56:05.43	355.67	9.20	-50.3	-52.8	6.1	0.00e+00	0	33	104	0	60	53495
2026-01-18 01:56:06.44	355.47	9.26	-49.2	-51.8	6.1	0.00e+00	0	33	104	0	60	47455
2026-01-18 01:56:07.44	355.26	9.31	-50.4	-52.8	6.1	0.00e+00	0	33	104	0	60	53745
2026-01-18 01:56:08.46	355.05	9.37	-50.0	-52.4	6.0	0.00e+00	0	33	104	0	60	51323
2026-01-18 01:56:09.47	354.84	9.43	-49.8	-52.4	6.1	0.00e+00	0	33	104	0	60	50876
2026-01-18 01:56:10.47	354.63	9.48	-50.0	-52.4	6.1	0.00e+00	0	33	104	0	60	51256
2026-01-18 01:56:11.48	354.42	9.54	-49.6	-52.2	6.1	0.00e+00	0	33	104	0	60	49631
2026-01-18 01:56:12.49	354.21	9.59	-49.9	-52.5	6.1	0.00e+00	0	33	104	0	60	51412
2026-01-18 01:56:13.50	353.99	9.65	-49.4	-51.9	6.1	0.00e+00	0	34	104	0	60	47977
2026-01-18 01:56:14.51	353.78	9.71	-49.7	-52.1	6.1	0.00e+00	0	33	104	0	60	49314
2026-01-18 01:56:15.52	353.56	9.76	-50.2	-52.7	6.1	0.00e+00	0	33	104	0	60	52696
2026-01-18 01:56:16.53	353.34	9.82	-50.1	-52.6	6.1	0.00e+00	0	33	104	0	60	51968
2026-01-18 01:56:17.54	353.13	9.87	-49.4	-51.9	6.1	0.00e+00	0	33	104	0	60	48107
2026-01-18 01:56:18.55	352.91	9.93	-49.5	-51.9	6.1	0.00e+00	0	33	104	0	60	48293
2026-01-18 01:56:19.56	352.69	9.98	-49.4	-51.8	6.1	0.00e+00	0	34	104	0	60	47686
2026-01-18 01:56:20.57	352.47	10.03	-49.3	-51.8	6.1	0.00e+00	0	33	104	0	60	47449
2026-01-18 01:56:21.57	352.25	10.09	-49.1	-51.6	6.1	0.00e+00	0	33	104	0	60	46587
2026-01-18 01:56:22.58	352.02	10.14	-49.3	-51.8	6.1	0.00e+00	0	34	104	0	60	47617
2026-01-18 01:56:23.59	351.80	10.20	-49.5	-52.0	6.1	0.00e+00	0	34	104	0	60	48682
2026-01-18 01:56:24.60	351.58	10.25	-50.0	-52.5	6.1	0.00e+00	0	34	104	0	60	51732
2026-01-18 01:56:25.61	351.35	10.30	-49.5	-52.0	6.1	0.00e+00	0	34	104	0	60	48618
2026-01-18 01:56:26.62	351.12	10.36	-49.2	-51.6	6.1	0.00e+00	0	34	104	0	60	46662
2026-01-18 01:56:27.63	350.89	10.41	-49.1	-51.5	6.1	0.00e+00	0	34	104	0	60	46291
2026-01-18 01:56:28.64	350.67	10.46	-49.1	-51.6	6.1	0.00e+00	0	34	104	0	60	46407
2026-01-18 01:56:29.65	350.43	10.52	-49.1	-51.6	6.1	0.00e+00	0	34	104	0	60	46550
2026-01-18 01:56:30.66	350.20	10.57	-49.4	-51.8	6.1	0.00e+00	0	33	104	0	60	47708
2026-01-18 01:56:31.67	349.97	10.62	-49.3	-51.8	6.1	0.00e+00	0	34	104	0	60	47379
2026-01-18 01:56:32.68	349.74	10.67	-49.8	-52.3	6.1	0.00e+00	0	34	104	0	60	50340
2026-01-18 01:56:33.69	349.50	10.72	-49.6	-52.1	6.1	0.00e+00	0	34	104	0	60	49315
2026-01-18 01:56:34.70	349.27	10.77	-49.5	-52.0	6.1	0.00e+00	0	33	104	0	60	48884
2026-01-18 01:56:35.71	349.03	10.83	-49.2	-51.6	6.1	0.00e+00	0	34	104	0	60	46593
2026-01-18 01:56:36.72	348.80	10.88	-49.3	-51.8	6.1	0.00e+00	0	34	104	0	60	47649
2026-01-18 01:56:37.73	348.56	10.93	-49.4	-51.8	6.1	0.00e+00	0	34	104	0	60	47917
2026-01-18 01:56:38.73	348.32	10.98	-49.2	-51.7	6.1	0.00e+00	0	34	104	0	60	47093
2026-01-18 01:56:39.74	348.08	11.03	-49.2	-51.6	6.1	0.00e+00	0	34	104	0	60	46754
2026-01-18 01:56:40.75	347.84	11.08	-49.4	-51.9	6.1	0.00e+00	0	34	104	0	60	47998
2026-01-18 01:56:41.76	347.60	11.13	-49.5	-51.9	6.1	0.00e+00	0	34	104	0	60	48409
2026-01-18 01:56:42.77	347.35	11.17	-49.5	-52.0	6.1	0.00e+00	0	34	104	0	60	48691
2026-01-18 01:56:43.78	347.11	11.22	-49.5	-51.9	6.1	0.00e+00	0	34	104	0	60	48397
2026-01-18 01:56:44.79	346.86	11.27	-49.4	-51.9	6.1	0.00e+00	0	34	104	0	60	48044
2026-01-18 01:56:45.80	346.62	11.32	-49.2	-51.7	6.1	0.00e+00	0	34	104	0	60	47235
2026-01-18 01:56:46.80	346.37	11.37	-49.3	-51.8	6.1	0.00e+00	0	34	104	0	60	47624
2026-01-18 01:56:47.81	346.12	11.41	-49.5	-51.9	6.1	0.00e+00	0	34	104	0	60	48123
2026-01-18 01:56:48.82	345.87	11.46	-49.2	-51.7	6.1	0.00e+00	0	34	104	0	60	46860
2026-01-18 01:56:49.83	345.62	11.51	-49.2	-51.7	6.1	0.00e+00	0	34	104	0	60	47097
2026-01-18 01:56:50.84	345.37	11.56	-49.2	-51.6	6.1	0.00e+00	0	34	104	0	60	46743
2026-01-18 01:56:51.85	345.12	11.60	-49.2	-51.6	6.1	0.00e+00	0	34	104	0	60	46755
2026-01-18 01:56:52.86	344.87	11.65	-49.3	-51.7	6.1	0.00e+00	0	34	104	0	60	47364
2026-01-18 01:56:53.87	344.61	11.69	-49.5	-52.0	6.1	0.00e+00	0	34	104	0	60	48571
2026-01-18 01:56:54.88	344.36	11.74	-49.2	-51.7	6.1	0.00e+00	0	34	104	0	60	47142
2026-01-18 01:56:55.88	344.11	11.78	-49.5	-51.9	6.1	0.00e+00	0	34	104	0	60	48409
2026-01-18 01:56:56.89	343.85	11.83	-49.5	-52.1	6.1	0.00e+00	0	34	104	0	60	49062
2026-01-18 01:56:57.90	343.59	11.87	-49.3	-51.8	6.1	0.00e+00	0	34	104	0	60	47461
2026-01-18 01:56:58.91	343.33	11.91	-49.3	-51.7	6.1	0.00e+00	0	34	104	0	60	46991
2026-01-18 01:56:59.92	343.07	11.96	-49.5	-51.9	6.1	0.00e+00	0	34	104	0	60	48305
2026-01-18 01:57:00.93	342.81	12.00	-49.3	-51.7	6.1	0.00e+00	0	34	104	0	60	47283
2026-01-18 01:57:01.93	342.55	12.04	-49.6	-52.0	6.1	0.00e+00	0	34	104	0	60	48908
2026-01-18 01:57:02.94	342.29	12.08	-49.4	-51.9	6.1	0.00e+00	0	34	104	0	60	48017
2026-01-18 01:57:03.96	342.02	12.13	-49.4	-51.8	6.1	0.00e+00	0	34	104	0	60	47680
2026-01-18 01:57:04.97	341.76	12.17	-49.3	-51.7	6.1	0.00e+00	0	34	104	0	60	47290
2026-01-18 01:57:05.98	341.49	12.21	-49.6	-52.0	6.1	0.00e+00	0	34	104	0	60	48646
2026-01-18 01:57:06.98	341.23	12.25	-49.3	-51.7	6.1	0.00e+00	0	34	104	0	60	47339
2026-01-18 01:57:07.99	340.96	12.29	-49.1	-51.6	6.1	0.00e+00	0	34	104	0	60	46747
2026-01-18 01:57:09.00	340.69	12.33	-49.6	-52.1	6.1	0.00e+00	0	34	104	0	60	49221
2026-01-18 01:57:10.01	340.43	12.37	-49.5	-51.9	6.1	0.00e+00	0	34	104	0	60	48420
2026-01-18 01:57:11.02	340.16	12.41	-49.4	-51.9	6.1	0.00e+00	0	34	104	0	60	47933
2026-01-18 01:57:12.03	339.89	12.44	-49.5	-51.9	6.1	0.00e+00	0	34	104	0	60	48461
2026-01-18 01:57:13.04	339.61	12.48	-49.5	-52.0	6.1	0.00e+00	0	34	104	0	60	48520
2026-01-18 01:57:14.05	339.34	12.52	-49.3	-51.8	6.1	0.00e+00	0	34	104	0	60	47650
2026-01-18 01:57:15.06	339.07	12.56	-49.2	-51.6	6.1	0.00e+00	0	34	104	0	60	46635
2026-01-18 01:57:16.07	338.79	12.59	-49.3	-51.8	6.1	0.00e+00	0	34	104	0	60	47702
2026-01-18 01:57:17.08	338.52	12.63	-49.2	-51.7	6.1	0.00e+00	0	34	104	0	60	46940
2026-01-18 01:57:18.09	338.24	12.66	-49.8	-52.2	6.1	0.00e+00	0	34	104	0	60	50149
2026-01-18 01:57:19.10	337.97	12.70	-49.6	-52.1	6.1	0.00e+00	0	34	104	0	60	49136
2026-01-18 01:57:20.11	337.69	12.73	-49.2	-51.6	6.1	0.00e+00	0	34	104	0	60	46588
2026-01-18 01:57:21.12	337.41	12.77	-49.3	-51.8	6.1	0.00e+00	0	34	104	0	60	47892
2026-01-18 01:57:22.13	337.13	12.80	-49.1	-51.6	6.1	0.00e+00	0	34	104	0	60	46451
2026-01-18 01:57:23.14	336.85	12.83	-49.2	-51.7	6.1	0.00e+00	0	34	104	0	60	47261
2026-01-18 01:57:24.15	336.57	12.86	-49.5	-51.9	6.1	0.00e+00	0	34	104	0	60	48311
2026-01-18 01:57:25.15	336.30	12.89	-49.2	-51.6	6.1	0.00e+00	0	34	104	0	60	46750
2026-01-18 01:57:26.17	336.01	12.93	-49.1	-51.5	6.1	0.00e+00	0	34	104	0	60	46162
2026-01-18 01:57:27.18	335.73	12.96	-49.1	-51.5	6.1	0.00e+00	0	34	104	0	60	46245
2026-01-18 01:57:28.18	335.45	12.99	-49.3	-51.7	6.1	0.00e+00	0	34	104	0	60	47060
2026-01-18 01:57:29.19	335.17	13.02	-49.7	-52.1	6.1	0.00e+00	0	34	104	0	60	49344
2026-01-18 01:57:30.20	334.88	13.04	-49.6	-52.1	6.1	0.00e+00	0	34	104	0	60	49150
2026-01-18 01:57:31.21	334.60	13.07	-49.3	-51.8	6.1	0.00e+00	0	34	104	0	60	47518
2026-01-18 01:57:32.22	334.31	13.10	-49.5	-51.9	6.1	0.00e+00	0	34	104	0	60	48416
2026-01-18 01:57:33.23	334.02	13.13	-49.2	-51.7	6.1	0.00e+00	0	34	104	0	60	47182
2026-01-18 01:57:34.24	333.74	13.15	-49.2	-51.7	6.1	0.00e+00	0	34	104	0	60	47293
2026-01-18 01:57:35.25	333.45	13.18	-49.3	-51.8	6.1	0.00e+00	0	34	104	0	60	47399
2026-01-18 01:57:36.26	333.16	13.21	-49.2	-51.7	6.1	0.00e+00	0	34	104	0	60	47246
2026-01-18 01:57:37.27	332.87	13.23	-49.3	-51.7	6.1	0.00e+00	0	34	104	0	60	47087
2026-01-18 01:57:38.28	332.58	13.26	-49.4	-51.9	6.0	0.00e+00	0	34	104	0	60	48089
2026-01-18 01:57:39.29	332.29	13.28	-49.1	-51.7	6.1	0.00e+00	0	34	104	0	60	46916
2026-01-18 01:57:40.30	332.00	13.30	-49.1	-51.6	6.1	0.00e+00	0	34	104	0	60	46488
2026-01-18 01:57:41.30	331.71	13.33	-48.6	-51.0	6.1	0.00e+00	0	34	104	0	60	43583
2026-01-18 01:57:42.31	331.42	13.35	-27.0	-27.3	13.5	0.00e+00	53	34	104	0	30	15887
2026-01-18 01:57:43.32	331.13	13.37	-26.2	-26.6	16.2	0.00e+00	0	34	0	41943040	28	16507
2026-01-18 01:57:44.33	330.84	13.39	-26.9	-27.3	16.1	0.00e+00	0	34	0	150994944	30	15952
2026-01-18 01:57:45.34	330.54	13.41	-27.4	-27.8	16.0	9.51e-03	0	34	0	260046848	32	15048
2026-01-18 01:57:46.35	330.25	13.43	-32.2	-32.5	14.8	9.51e-03	0	34	0	377487360	44	12999
2026-01-18 01:57:47.36	329.96	13.45	-27.0	-27.3	16.2	3.05e-02	0	34	0	494927872	32	14276
2026-01-18 01:57:48.37	329.66	13.47	-45.0	-46.0	7.9	2.14e-03	0	34	104	536870912	60	24569
2026-01-18 01:57:49.37	329.37	13.48	-29.8	-30.1	13.1	0.00e+00	192	34	104	536870912	36	15672
2026-01-18 01:57:50.38	329.07	13.50	-30.2	-30.6	15.3	0.00e+00	0	34	0	629145600	34	18504
2026-01-18 01:57:51.39	328.78	13.52	-30.2	-30.7	14.9	2.14e-02	0	34	0	746586112	34	18714
2026-01-18 01:57:52.40	328.48	13.53	-30.7	-31.1	14.8	2.14e-02	0	34	0	855638016	36	17520
2026-01-18 01:57:53.41	328.18	13.55	-30.6	-31.1	14.8	2.14e-02	0	34	0	973078528	36	17450
2026-01-18 01:57:54.41	327.89	13.56	-31.0	-31.4	14.7	7.42e-03	0	34	0	1090519040	36	18171
2026-01-18 01:57:55.42	327.59	13.58	-31.0	-31.4	14.8	7.42e-03	0	34	0	1199570944	36	18080
2026-01-18 01:57:56.43	327.30	13.59	-28.8	-29.2	15.5	9.72e-03	0	34	0	1308622848	34	15785
2026-01-18 01:57:57.44	327.00	13.60	-27.2	-27.6	16.0	9.72e-03	0	34	0	1426063360	30	16524
2026-01-18 01:57:58.45	326.70	13.61	-25.9	-26.3	16.2	2.01e-03	0	34	0	1543503872	28	15926
2026-01-18 01:57:59.46	326.40	13.62	-25.9	-26.3	16.3	3.81e-05	0	34	0	1652555776	26	17873
2026-01-18 01:58:00.47	326.10	13.63	-25.9	-26.3	16.3	3.81e-05	0	34	0	1769996288	26	17842
2026-01-18 01:58:01.48	325.80	13.64	-25.9	-26.3	16.3	2.17e-05	0	34	0	1879048192	26	17871
2026-01-18 01:58:02.49	325.50	13.65	-25.8	-26.2	16.3	2.17e-05	0	34	0	1996488704	26	17683
2026-01-18 01:58:03.50	325.20	13.66	-25.8	-26.2	16.3	4.90e-05	0	34	0	2105540608	26	17695
2026-01-18 01:58:04.51	324.90	13.67	-25.8	-26.2	16.3	4.90e-05	0	34	0	2222981120	26	17626
2026-01-18 01:58:05.52	324.60	13.68	-25.8	-26.2	16.3	3.26e-05	0	34	0	2332033024	26	17764
2026-01-18 01:58:06.53	324.30	13.68	-25.8	-26.2	16.3	3.26e-05	0	34	0	2449473536	26	17776
2026-01-18 01:58:07.54	324.00	13.69	-26.0	-26.4	16.3	3.26e-05	0	34	0	2558525440	26	18158
2026-01-18 01:58:08.54	323.71	13.69	-26.2	-26.6	16.3	1.08e-05	0	34	0	2675965952	26	18565
2026-01-18 01:58:09.55	323.41	13.70	-26.5	-26.9	16.2	1.08e-05	0	34	0	2793406464	28	17159
2026-01-18 01:58:10.56	323.10	13.70	-26.1	-26.5	16.3	7.62e-05	0	34	0	2902458368	28	16319
2026-01-18 01:58:11.57	322.80	13.71	-26.0	-26.4	16.3	7.62e-05	0	34	0	3019898880	28	16055
2026-01-18 01:58:12.58	322.50	13.71	-25.7	-26.1	16.4	7.08e-05	0	34	0	3128950784	26	17510
2026-01-18 01:58:13.60	322.20	13.71	-25.8	-26.2	16.5	7.08e-05	0	34	0	3238002688	26	17708
2026-01-18 01:58:14.61	321.90	13.71	-25.8	-26.2	16.4	1.63e-05	0	34	0	3355443200	26	17779
2026-01-18 01:58:15.62	321.60	13.71	-25.9	-26.3	16.4	1.63e-05	0	34	0	3472883712	26	17823
2026-01-18 01:58:16.63	321.30	13.71	-25.8	-26.2	16.5	2.72e-05	0	34	0	3581935616	26	17767
2026-01-18 01:58:17.64	321.00	13.71	-25.9	-26.3	16.4	2.72e-05	0	34	0	3699376128	26	17865
2026-01-18 01:58:18.65	320.69	13.71	-25.8	-26.2	16.5	2.17e-05	0	34	0	3808428032	26	17782
2026-01-18 01:58:19.66	320.39	13.71	-25.9	-26.3	16.6	2.17e-05	0	34	0	3925868544	26	17816
2026-01-18 01:58:20.67	320.09	13.70	-26.0	-26.4	16.5	2.17e-05	0	34	0	4043309056	26	18134
2026-01-18 01:58:21.68	319.79	13.70	-25.9	-26.3	16.6	5.40e-06	0	34	0	4152360960	26	17931
2026-01-18 01:58:22.68	319.49	13.70	-25.9	-26.3	16.5	5.40e-06	0	34	0	4261412864	26	18001
2026-01-18 01:58:23.70	319.19	13.69	-25.8	-26.2	16.6	1.63e-05	0	35	0	4378853376	26	17793
2026-01-18 01:58:24.70	318.89	13.69	-26.0	-26.4	16.6	1.63e-05	0	34	0	4496293888	26	18117
2026-01-18 01:58:25.71	318.59	13.68	-25.8	-26.3	16.6	1.63e-05	0	35	0	4605345792	26	17848
2026-01-18 01:58:26.72	318.29	13.67	-25.8	-26.3	16.7	2.72e-05	0	35	0	4722786304	26	17808
2026-01-18 01:58:27.73	317.99	13.66	-25.7	-26.2	16.6	2.72e-05	0	35	0	4831838208	26	17680
2026-01-18 01:58:28.74	317.69	13.66	-25.6	-26.1	16.6	5.40e-06	0	34	0	4949278720	26	17459
2026-01-18 01:58:29.75	317.39	13.65	-25.7	-26.1	16.7	5.40e-06	0	34	0	5058330624	26	17499
2026-01-18 01:58:30.76	317.09	13.64	-25.5	-25.9	16.6	2.17e-05	0	34	0	5175771136	26	17161
2026-01-18 01:58:31.77	316.80	13.63	-25.7	-26.1	16.7	2.17e-05	0	34	0	5284823040	26	17573
2026-01-18 01:58:32.77	316.50	13.62	-25.8	-26.3	16.6	2.72e-05	0	34	0	5402263552	26	17856
2026-01-18 01:58:33.78	316.20	13.60	-25.7	-26.2	16.7	2.72e-05	0	35	0	5511315456	26	17741
2026-01-18 01:58:34.79	315.90	13.59	-25.9	-26.4	16.7	2.72e-05	0	34	0	5628755968	26	18149
2026-01-18 01:58:35.80	315.60	13.58	-25.6	-26.1	16.7	3.26e-05	0	34	0	5737807872	26	17565
2026-01-18 01:58:36.81	315.31	13.57	-25.7	-26.2	16.7	3.26e-05	0	35	0	5855248384	26	17655
2026-01-18 01:58:37.82	315.01	13.55	-26.0	-26.5	16.6	3.26e-05	0	34	0	5972688896	26	18364
2026-01-18 01:58:38.83	314.71	13.54	-26.0	-26.5	16.7	1.63e-05	0	35	0	6081740800	26	18234
2026-01-18 01:58:39.84	314.42	13.52	-25.8	-26.3	16.7	1.63e-05	0	35	0	6190792704	26	17989
2026-01-18 01:58:40.85	314.12	13.50	-25.8	-26.3	16.7	2.17e-05	0	35	0	6308233216	26	17826
2026-01-18 01:58:41.86	313.82	13.49	-25.7	-26.2	16.8	2.17e-05	0	35	0	6425673728	26	17753
2026-01-18 01:58:42.87	313.53	13.47	-25.7	-26.3	16.9	2.17e-05	0	34	0	6534725632	26	17819
2026-01-18 01:58:43.88	313.23	13.45	-26.2	-26.7	16.9	2.17e-05	0	35	0	6652166144	26	18737
2026-01-18 01:58:44.89	312.94	13.43	-25.9	-26.4	16.9	2.17e-05	0	35	0	6761218048	26	18098
2026-01-18 01:58:45.90	312.64	13.41	-26.0	-26.5	16.8	1.08e-05	0	35	0	6878658560	26	18391
2026-01-18 01:58:46.91	312.35	13.39	-25.9	-26.5	16.9	1.08e-05	0	34	0	6996099072	26	18228
2026-01-18 01:58:47.92	312.06	13.37	-26.0	-26.5	16.9	0.00e+00	0	35	0	7105150976	26	18431
2026-01-18 01:58:48.93	311.76	13.35	-25.9	-26.4	16.9	0.00e+00	0	35	0	7214202880	26	18091
2026-01-18 01:58:49.94	311.47	13.33	-26.0	-26.5	16.8	0.00e+00	0	34	0	7331643392	26	18354
2026-01-18 01:58:50.95	311.18	13.31	-26.2	-26.8	16.8	0.00e+00	0	35	0	7440695296	26	18914
2026-01-18 01:58:51.96	310.89	13.29	-48.8	-51.4	6.1	0.00e+00	0	34	104	7482638336	60	45320
2026-01-18 01:58:52.97	310.60	13.26	-48.7	-51.3	6.1	0.00e+00	0	34	104	7482638336	60	44861
2026-01-18 01:58:53.98	310.31	13.24	-49.0	-51.5	6.0	0.00e+00	0	34	104	7482638336	60	46155
2026-01-18 01:58:54.99	310.02	13.21	-48.9	-51.4	6.1	5.40e-06	0	34	104	7482638336	60	45498
2026-01-18 01:58:56.00	309.73	13.19	-48.8	-51.3	6.1	5.40e-06	0	34	104	7482638336	60	44874
2026-01-18 01:58:57.01	309.44	13.16	-48.7	-51.2	6.1	5.40e-06	0	34	104	7482638336	60	44688
2026-01-18 01:58:58.02	309.15	13.13	-48.9	-51.4	6.1	5.40e-06	0	34	104	7482638336	60	45767
2026-01-18 01:58:59.03	308.87	13.11	-48.9	-51.5	6.0	5.40e-06	0	34	104	7482638336	60	45849
2026-01-18 01:59:00.04	308.58	13.08	-49.2	-51.7	6.1	5.40e-06	0	34	104	7482638336	60	47267
2026-01-18 01:59:01.05	308.29	13.05	-48.7	-51.3	6.0	5.40e-06	0	34	104	7482638336	60	44916
2026-01-18 01:59:02.05	308.01	13.02	-48.7	-51.3	6.1	5.40e-06	0	34	104	7482638336	60	44836
2026-01-18 01:59:03.06	307.73	12.99	-48.7	-51.3	6.1	5.40e-06	0	34	104	7482638336	60	45107
2026-01-18 01:59:04.07	307.44	12.96	-48.3	-50.9	6.1	5.40e-06	0	34	104	7482638336	60	42899
2026-01-18 01:59:05.08	307.16	12.93	-48.7	-51.2	6.1	5.40e-06	0	34	104	7482638336	60	44675
2026-01-18 01:59:06.09	306.88	12.90	-48.8	-51.4	6.1	5.40e-06	0	34	104	7482638336	60	45712
2026-01-18 01:59:07.10	306.60	12.87	-48.9	-51.4	6.1	5.40e-06	0	34	104	7482638336	60	45744
2026-01-18 01:59:08.11	306.32	12.84	-48.6	-51.2	6.1	0.00e+00	0	34	104	7482638336	60	44240
2026-01-18 01:59:09.12	306.03	12.81	-48.3	-50.9	6.1	0.00e+00	0	34	104	7482638336	60	43024
2026-01-18 01:59:10.13	305.76	12.77	-48.8	-51.3	6.1	0.00e+00	0	34	104	7482638336	60	45215
2026-01-18 01:59:11.14	305.48	12.74	-48.7	-51.3	6.1	0.00e+00	0	34	104	7482638336	60	44879
2026-01-18 01:59:12.14	305.20	12.70	-48.3	-50.9	6.1	0.00e+00	0	34	104	7482638336	60	42983
2026-01-18 01:59:13.16	304.92	12.67	-48.6	-51.2	6.1	0.00e+00	0	34	104	7482638336	60	44656
2026-01-18 01:59:14.16	304.65	12.63	-48.8	-51.4	6.1	0.00e+00	0	34	104	7482638336	60	45422
2026-01-18 01:59:15.17	304.37	12.60	-48.7	-51.3	6.1	0.00e+00	0	34	104	7482638336	60	44852
2026-01-18 01:59:16.18	304.10	12.56	-48.5	-51.2	6.1	0.00e+00	0	34	104	7482638336	60	44394
2026-01-18 01:59:17.20	303.82	12.53	-48.4	-51.0	6.1	0.00e+00	0	34	104	7482638336	60	43328
2026-01-18 01:59:18.21	303.55	12.49	-48.7	-51.3	6.1	0.00e+00	0	34	104	7482638336	60	44806
2026-01-18 01:59:19.21	303.28	12.45	-49.0	-51.6	6.1	0.00e+00	0	34	104	7482638336	60	46502
2026-01-18 01:59:20.23	303.00	12.41	-49.0	-51.5	6.1	0.00e+00	0	34	104	7482638336	60	45916
2026-01-18 01:59:21.23	302.74	12.37	-48.6	-51.2	6.1	0.00e+00	0	34	104	7482638336	60	44461
2026-01-18 01:59:22.24	302.47	12.34	-48.7	-51.2	6.1	0.00e+00	0	34	104	7482638336	60	44663
2026-01-18 01:59:23.25	302.20	12.30	-48.4	-51.0	6.1	0.00e+00	0	34	104	7482638336	60	43293
2026-01-18 01:59:24.26	301.93	12.26	-48.6	-51.2	6.1	0.00e+00	0	34	104	7482638336	60	44239
2026-01-18 01:59:25.27	301.66	12.22	-48.7	-51.2	6.1	0.00e+00	0	34	104	7482638336	60	44686
2026-01-18 01:59:26.28	301.40	12.18	-49.1	-51.6	6.1	0.00e+00	0	34	104	7482638336	60	46411
2026-01-18 01:59:27.29	301.13	12.13	-49.8	-52.3	6.1	0.00e+00	0	34	104	7482638336	60	50541
2026-01-18 01:59:28.30	300.87	12.09	-49.6	-52.0	6.1	0.00e+00	0	34	104	7482638336	60	48843
2026-01-18 01:59:29.31	300.60	12.05	-49.5	-51.9	6.1	0.00e+00	0	34	104	7482638336	60	48242
2026-01-18 01:59:30.32	300.34	12.01	-49.6	-52.1	6.1	0.00e+00	0	34	104	7482638336	60	49387
2026-01-18 01:59:31.33	300.08	11.97	-49.2	-51.8	6.1	0.00e+00	0	34	104	7482638336	60	47418
2026-01-18 01:59:32.34	299.82	11.92	-49.6	-52.1	6.1	0.00e+00	0	34	104	7482638336	60	49443
2026-01-18 01:59:33.35	299.56	11.88	-49.4	-51.8	6.1	0.00e+00	0	34	104	7482638336	60	47896
2026-01-18 01:59:34.35	299.30	11.83	-49.4	-51.9	6.1	0.00e+00	0	34	104	7482638336	60	48368
2026-01-18 01:59:35.36	299.04	11.79	-49.3	-51.7	6.1	0.00e+00	0	34	104	7482638336	60	47108
2026-01-18 01:59:36.37	298.79	11.75	-49.1	-51.6	6.1	0.00e+00	0	34	104	7482638336	60	46753
2026-01-18 01:59:37.38	298.53	11.70	-49.3	-51.8	6.1	0.00e+00	0	34	104	7482638336	60	47683
2026-01-18 01:59:38.39	298.27	11.65	-49.5	-52.0	6.1	0.00e+00	0	34	104	7482638336	60	48625
2026-01-18 01:59:39.40	298.02	11.61	-49.6	-52.1	6.1	0.00e+00	0	34	104	7482638336	60	49143
2026-01-18 01:59:40.41	297.77	11.56	-49.4	-51.8	6.1	0.00e+00	0	34	104	7482638336	60	47831
2026-01-18 01:59:41.42	297.51	11.52	-49.2	-51.7	6.1	0.00e+00	0	34	104	7482638336	60	46985
2026-01-18 01:59:42.43	297.26	11.47	-49.0	-51.5	6.1	0.00e+00	0	34	104	7482638336	60	46045
2026-01-18 01:59:43.44	297.01	11.42	-49.0	-51.5	6.1	0.00e+00	0	34	104	7482638336	60	46230
2026-01-18 01:59:44.45	296.76	11.37	-49.0	-51.5	6.1	0.00e+00	0	34	104	7482638336	60	45844
2026-01-18 01:59:45.45	296.52	11.33	-49.2	-51.7	6.1	0.00e+00	0	34	104	7482638336	60	46940
2026-01-18 01:59:46.46	296.27	11.28	-49.1	-51.6	6.1	0.00e+00	0	34	104	7482638336	60	46517
2026-01-18 01:59:47.47	296.02	11.23	-49.2	-51.6	6.1	0.00e+00	0	34	104	7482638336	60	46697
2026-01-18 01:59:48.48	295.78	11.18	-49.1	-51.5	6.1	0.00e+00	0	34	104	7482638336	60	46108
2026-01-18 01:59:49.49	295.53	11.13	-49.1	-51.5	6.1	0.00e+00	0	34	104	7482638336	60	46220
2026-01-18 01:59:50.50	295.29	11.08	-49.2	-51.7	6.1	0.00e+00	0	34	104	7482638336	60	47298
2026-01-18 01:59:51.51	295.05	11.03	-49.2	-51.7	6.1	0.00e+00	0	34	104	7482638336	60	47116
2026-01-18 01:59:52.52	294.81	10.98	-49.1	-51.6	6.1	0.00e+00	0	34	104	7482638336	60	46443
2026-01-18 01:59:53.53	294.57	10.93	-49.1	-51.6	6.1	0.00e+00	0	34	104	7482638336	60	46437
2026-01-18 01:59:54.54	294.33	10.88	-49.1	-51.6	6.0	0.00e+00	0	34	104	7482638336	60	46661
2026-01-18 01:59:55.55	294.09	10.83	-49.0	-51.5	6.1	0.00e+00	0	34	104	7482638336	60	45775
2026-01-18 01:59:56.56	293.85	10.78	-48.9	-51.4	6.1	0.00e+00	0	34	104	7482638336	60	45331
2026-01-18 01:59:57.57	293.61	10.73	-49.1	-51.5	6.1	0.00e+00	0	34	104	7482638336	60	46161
2026-01-18 01:59:58.58	293.38	10.68	-49.5	-52.0	6.1	0.00e+00	0	34	104	7482638336	60	48824
2026-01-18 01:59:59.59	293.14	10.62	-49.1	-51.6	6.1	0.00e+00	0	34	104	7482638336	60	46451
2026-01-18 02:00:00.60	292.91	10.57	-48.9	-51.3	6.1	0.00e+00	0	34	104	7482638336	60	45136
2026-01-18 02:00:01.61	292.68	10.52	-48.8	-51.2	6.1	0.00e+00	0	34	104	7482638336	60	44599
2026-01-18 02:00:02.62	292.45	10.47	-48.8	-51.2	6.1	0.00e+00	0	34	104	7482638336	60	44644
2026-01-18 02:00:03.63	292.22	10.41	-48.7	-51.1	6.1	0.00e+00	0	34	104	7482638336	60	44188
2026-01-18 02:00:04.64	291.99	10.36	-48.7	-51.1	6.1	0.00e+00	0	34	104	7482638336	60	44199
2026-01-18 02:00:05.64	291.76	10.31	-48.7	-51.1	6.1	0.00e+00	0	34	104	7482638336	60	44044
2026-01-18 02:00:06.66	291.53	10.25	-48.7	-51.2	6.1	0.00e+00	0	34	104	7482638336	60	44335
2026-01-18 02:00:07.67	291.31	10.20	-48.6	-51.1	6.1	0.00e+00	0	34	104	7482638336	60	43988
2026-01-18 02:00:08.67	291.08	10.15	-48.6	-51.1	6.1	0.00e+00	0	34	104	7482638336	60	43784
2026-01-18 02:00:09.68	290.86	10.09	-48.6	-51.1	6.1	0.00e+00	0	34	104	7482638336	60	44038
2026-01-18 02:00:10.69	290.64	10.04	-48.7	-51.2	6.1	0.00e+00	0	34	104	7482638336	60	44407
2026-01-18 02:00:11.70	290.41	9.98	-48.7	-51.2	6.1	0.00e+00	0	34	104	7482638336	60	44397
2026-01-18 02:00:12.71	290.19	9.93	-48.7	-51.2	6.1	0.00e+00	0	34	104	7482638336	60	44405
2026-01-18 02:00:13.72	289.97	9.87	-48.8	-51.2	6.1	0.00e+00	0	34	104	7482638336	60	44616
2026-01-18 02:00:14.73	289.75	9.82	-48.8	-51.2	6.1	0.00e+00	0	34	104	7482638336	60	44676
2026-01-18 02:00:15.74	289.54	9.76	-48.7	-51.2	6.1	0.00e+00	0	34	104	7482638336	60	44281
2026-01-18 02:00:16.75	289.32	9.71	-48.8	-51.2	6.1	0.00e+00	0	34	104	7482638336	60	44656
2026-01-18 02:00:17.76	289.10	9.65	-48.9	-51.3	6.1	0.00e+00	0	34	104	7482638336	60	45073
2026-01-18 02:00:18.77	288.89	9.60	-48.7	-51.2	6.1	0.00e+00	0	34	104	7482638336	60	44330
2026-01-18 02:00:19.77	288.68	9.54	-48.6	-51.1	6.1	0.00e+00	0	34	104	7482638336	60	44017
2026-01-18 02:00:20.78	288.46	9.48	-48.7	-51.2	6.1	0.00e+00	0	34	104	7482638336	60	44404
2026-01-18 02:00:21.79	288.25	9.43	-48.7	-51.1	6.0	0.00e+00	0	34	104	7482638336	60	44060
2026-01-18 02:00:22.80	288.04	9.37	-48.7	-51.2	6.1	0.00e+00	0	34	104	7482638336	60	44412
2026-01-18 02:00:23.81	287.83	9.32	-48.7	-51.2	6.1	0.00e+00	0	34	104	7482638336	60	44262
2026-01-18 02:00:24.82	287.62	9.26	-48.6	-51.1	6.1	0.00e+00	0	34	104	7482638336	60	44052
2026-01-18 02:00:25.83	287.41	9.20	-48.8	-51.2	6.1	0.00e+00	0	34	104	7482638336	60	44596
2026-01-18 02:00:26.84	287.21	9.14	-48.7	-51.2	6.1	0.00e+00	0	34	104	7482638336	60	44535
2026-01-18 02:00:27.85	287.00	9.09	-48.6	-51.1	6.1	0.00e+00	0	34	104	7482638336	60	43839
2026-01-18 02:00:28.86	286.80	9.03	-48.7	-51.2	6.1	0.00e+00	0	34	104	7482638336	60	44336
2026-01-18 02:00:29.87	286.59	8.97	-48.9	-51.4	6.1	0.00e+00	0	34	104	7482638336	60	45594
2026-01-18 02:00:30.88	286.39	8.92	-48.9	-51.4	6.1	0.00e+00	0	34	104	7482638336	60	45281
2026-01-18 02:00:31.89	286.19	8.86	-48.7	-51.2	6.1	0.00e+00	0	34	104	7482638336	60	44342
2026-01-18 02:00:32.90	285.99	8.80	-48.7	-51.1	6.1	0.00e+00	0	34	104	7482638336	60	44148
2026-01-18 02:00:33.91	285.79	8.74	-48.7	-51.2	6.1	0.00e+00	0	34	104	7482638336	60	44568
2026-01-18 02:00:34.92	285.59	8.68	-48.7	-51.1	6.1	0.00e+00	0	34	104	7482638336	60	43954
2026-01-18 02:00:35.93	285.39	8.63	-48.6	-51.1	6.1	0.00e+00	0	34	104	7482638336	60	44073
2026-01-18 02:00:36.94	285.19	8.57	-48.7	-51.2	6.1	0.00e+00	0	34	104	7482638336	60	44542
2026-01-18 02:00:37.95	285.00	8.51	-48.8	-51.2	6.1	0.00e+00	0	34	104	7482638336	60	44599
2026-01-18 02:00:38.96	284.80	8.45	-48.8	-51.3	6.1	0.00e+00	0	34	104	7482638336	60	45016
2026-01-18 02:00:39.97	284.61	8.39	-48.7	-51.2	6.1	0.00e+00	0	34	104	7482638336	60	44558
2026-01-18 02:00:40.98	284.41	8.33	-48.8	-51.2	6.1	0.00e+00	0	34	104	7482638336	60	44585
2026-01-18 02:00:41.98	284.22	8.28	-48.8	-51.2	6.1	0.00e+00	0	34	104	7482638336	60	44584
2026-01-18 02:00:42.99	284.03	8.22	-48.6	-51.1	6.1	0.00e+00	0	34	104	7482638336	60	44165
2026-01-18 02:00:44.00	283.84	8.16	-48.6	-51.0	6.1	0.00e+00	0	34	104	7482638336	60	43557
2026-01-18 02:00:45.01	283.65	8.10	-48.6	-51.1	6.1	0.00e+00	0	34	104	7482638336	60	43802
2026-01-18 02:00:46.02	283.47	8.04	-48.6	-51.1	6.1	0.00e+00	0	34	104	7482638336	60	44067
2026-01-18 02:00:47.03	283.28	7.98	-48.7	-51.1	6.1	0.00e+00	0	34	104	7482638336	60	44028
2026-01-18 02:00:48.04	283.09	7.92	-48.6	-51.1	6.1	0.00e+00	0	34	104	7482638336	60	43710
2026-01-18 02:00:49.05	282.91	7.87	-48.5	-51.0	6.1	0.00e+00	0	34	104	7482638336	60	43384
2026-01-18 02:00:50.06	282.72	7.81	-48.5	-51.0	6.0	0.00e+00	0	34	104	7482638336	60	43239
2026-01-18 02:00:51.07	282.54	7.75	-48.6	-51.0	6.1	0.00e+00	0	34	104	7482638336	60	43421
2026-01-18 02:00:52.08	282.36	7.69	-48.4	-50.8	6.1	0.00e+00	0	34	104	7482638336	60	42663
2026-01-18 02:00:53.09	282.17	7.63	-48.4	-50.9	6.1	0.00e+00	0	34	104	7482638336	60	42831
2026-01-18 02:00:54.10	281.99	7.57	-48.5	-50.9	6.1	0.00e+00	0	34	104	7482638336	60	43015
2026-01-18 02:00:55.11	281.81	7.51	-48.6	-51.0	6.1	0.00e+00	0	34	104	7482638336	60	43658
2026-01-18 02:00:56.12	281.63	7.45	-48.5	-50.9	6.1	0.00e+00	0	34	104	7482638336	60	43135
2026-01-18 02:00:57.12	281.46	7.39	-48.5	-51.0	6.1	0.00e+00	0	34	104	7482638336	60	43656
2026-01-18 02:00:58.13	281.28	7.33	-48.5	-51.0	6.1	0.00e+00	0	34	104	7482638336	60	43286
2026-01-18 02:00:59.14	281.10	7.27	-48.5	-51.0	6.1	0.00e+00	0	34	104	7482638336	60	43345
2026-01-18 02:01:00.15	280.93	7.21	-48.4	-50.8	6.1	0.00e+00	0	34	104	7482638336	60	42454
2026-01-18 02:01:01.16	280.75	7.15	-48.4	-50.9	6.1	0.00e+00	0	34	104	7482638336	60	42964
2026-01-18 02:01:02.17	280.58	7.09	-48.5	-50.9	6.1	0.00e+00	0	34	104	7482638336	60	43124
2026-01-18 02:01:03.18	280.41	7.03	-48.5	-51.0	6.1	0.00e+00	0	34	104	7482638336	60	43344
2026-01-18 02:01:04.19	280.24	6.98	-48.3	-50.9	6.1	0.00e+00	0	34	104	7482638336	60	42720
2026-01-18 02:01:05.20	280.07	6.92	-48.4	-50.9	6.1	0.00e+00	0	34	104	7482638336	60	42905
2026-01-18 02:01:06.20	279.90	6.86	-48.5	-50.9	6.1	0.00e+00	0	34	104	7482638336	60	42974
2026-01-18 02:01:07.21	279.73	6.80	-48.5	-51.0	6.1	0.00e+00	0	34	104	7482638336	60	43310
2026-01-18 02:01:08.22	279.56	6.74	-48.4	-50.8	6.1	0.00e+00	0	34	104	7482638336	60	42699
2026-01-18 02:01:09.23	279.39	6.68	-48.4	-50.9	6.1	0.00e+00	0	34	104	7482638336	60	42880
2026-01-18 02:01:10.24	279.23	6.62	-48.5	-51.0	6.0	0.00e+00	0	34	104	7482638336	60	43359
2026-01-18 02:01:11.25	279.06	6.56	-48.5	-51.0	6.1	0.00e+00	0	34	104	7482638336	60	43364
2026-01-18 02:01:12.26	278.90	6.50	-48.4	-50.9	6.1	0.00e+00	0	34	104	7482638336	60	42780
2026-01-18 02:01:13.27	278.73	6.44	-48.4	-50.9	6.1	0.00e+00	0	34	104	7482638336	60	42935
2026-01-18 02:01:14.28	278.57	6.38	-48.4	-50.9	6.1	0.00e+00	0	34	104	7482638336	60	42866
2026-01-18 02:01:15.29	278.41	6.32	-48.4	-50.9	6.1	0.00e+00	0	34	104	7482638336	60	42814
2026-01-18 02:01:16.30	278.24	6.26	-48.3	-50.7	6.1	0.00e+00	0	34	104	7482638336	60	42156
2026-01-18 02:01:17.31	278.08	6.20	-48.3	-50.8	6.1	0.00e+00	0	34	104	7482638336	60	42251
2026-01-18 02:01:18.32	277.92	6.14	-48.3	-50.8	6.1	0.00e+00	0	34	104	7482638336	60	42479
2026-01-18 02:01:19.33	277.77	6.08	-48.3	-50.7	6.1	0.00e+00	0	34	104	7482638336	60	42148
2026-01-18 02:01:20.34	277.61	6.02	-48.2	-50.6	6.1	0.00e+00	0	34	104	7482638336	60	41681
2026-01-18 02:01:21.35	277.45	5.96	-48.2	-50.7	6.1	0.00e+00	0	34	104	7482638336	60	41763
2026-01-18 02:01:22.36	277.29	5.90	-48.3	-50.8	6.1	0.00e+00	0	34	104	7482638336	60	42295
2026-01-18 02:01:23.37	277.14	5.84	-48.2	-50.7	6.1	0.00e+00	0	34	104	7482638336	60	42044
2026-01-18 02:01:24.38	276.98	5.78	-48.1	-50.6	6.1	0.00e+00	0	34	104	7482638336	60	41548
2026-01-18 02:01:25.39	276.83	5.72	-48.2	-50.6	6.1	0.00e+00	0	34	104	7482638336	60	41494
2026-01-18 02:01:26.40	276.68	5.66	-48.2	-50.7	6.1	0.00e+00	0	34	104	7482638336	60	41832
2026-01-18 02:01:27.40	276.52	5.60	-48.3	-50.8	6.1	0.00e+00	0	34	104	7482638336	60	42294
2026-01-18 02:01:28.41	276.37	5.54	-48.1	-50.6	6.1	0.00e+00	0	34	104	7482638336	60	41555
2026-01-18 02:01:29.42	276.22	5.49	-48.2	-50.7	6.1	0.00e+00	0	34	104	7482638336	60	42045
2026-01-18 02:01:30.43	276.07	5.43	-48.3	-50.8	6.1	0.00e+00	0	34	104	7482638336	60	42507
2026-01-18 02:01:31.44	275.92	5.37	-48.2	-50.7	6.1	0.00e+00	0	34	104	7482638336	60	42038
2026-01-18 02:01:32.45	275.77	5.31	-48.1	-50.6	6.1	0.00e+00	0	34	104	7482638336	60	41502
2026-01-18 02:01:33.46	275.63	5.25	-48.3	-50.8	6.1	0.00e+00	0	34	104	7482638336	60	42333
2026-01-18 02:01:34.47	275.48	5.19	-48.3	-50.8	6.1	0.00e+00	0	34	104	7482638336	60	42349
2026-01-18 02:01:35.48	275.33	5.13	-48.2	-50.6	6.1	0.00e+00	0	34	104	7482638336	60	41666
2026-01-18 02:01:36.49	275.19	5.07	-48.1	-50.6	6.1	0.00e+00	0	34	104	7482638336	60	41400
2026-01-18 02:01:37.50	275.04	5.01	-48.2	-50.6	6.1	0.00e+00	0	34	104	7482638336	60	41565
2026-01-18 02:01:38.51	274.90	4.95	-48.2	-50.7	6.1	0.00e+00	0	34	104	7482638336	60	41945
2026-01-18 02:01:39.52	274.76	4.89	-48.1	-50.6	6.1	0.00e+00	0	34	104	7482638336	60	41562
2026-01-18 02:01:40.52	274.61	4.83	-48.2	-50.6	6.1	0.00e+00	0	34	104	7482638336	60	41678
2026-01-18 02:01:41.53	274.47	4.77	-48.2	-50.6	6.1	0.00e+00	0	34	104	7482638336	60	41559
2026-01-18 02:01:42.54	274.33	4.71	-48.2	-50.7	6.1	0.00e+00	0	34	104	7482638336	60	41841
2026-01-18 02:01:43.54	274.19	4.66	-48.0	-50.5	6.1	0.00e+00	0	34	104	7482638336	60	40796
2026-01-18 02:01:44.55	274.05	4.60	-48.0	-50.5	6.1	0.00e+00	0	34	104	7482638336	60	40805
2026-01-18 02:01:45.56	273.91	4.54	-48.0	-50.5	6.1	0.00e+00	0	34	104	7482638336	60	40801
2026-01-18 02:01:46.57	273.78	4.48	-48.1	-50.6	6.1	0.00e+00	0	34	104	7482638336	60	41588
2026-01-18 02:01:47.57	273.64	4.42	-48.1	-50.6	6.1	0.00e+00	0	34	104	7482638336	60	41290
2026-01-18 02:01:48.58	273.50	4.36	-47.9	-50.4	6.1	0.00e+00	0	34	104	7482638336	60	40714
2026-01-18 02:01:49.59	273.37	4.30	-48.0	-50.4	6.1	0.00e+00	0	34	104	7482638336	60	40734
2026-01-18 02:01:50.61	273.23	4.24	-48.1	-50.6	6.1	0.00e+00	0	34	104	7482638336	60	41467
2026-01-18 02:01:51.61	273.10	4.19	-47.9	-50.4	6.1	0.00e+00	0	34	104	7482638336	60	40434
2026-01-18 02:01:52.62	272.96	4.13	-47.9	-50.3	6.1	0.00e+00	0	34	104	7482638336	60	40029
2026-01-18 02:01:53.63	272.83	4.07	-47.9	-50.4	6.1	0.00e+00	0	34	104	7482638336	60	40703
2026-01-18 02:01:54.64	272.70	4.01	-48.0	-50.5	6.1	0.00e+00	0	34	104	7482638336	60	40870
2026-01-18 02:01:55.65	272.57	3.95	-47.9	-50.3	6.1	0.00e+00	0	34	104	7482638336	60	40170
2026-01-18 02:01:56.66	272.43	3.89	-47.8	-50.2	6.1	0.00e+00	0	34	104	7482638336	60	39790
2026-01-18 02:01:57.67	272.30	3.83	-47.8	-50.3	6.1	0.00e+00	0	34	104	7482638336	60	40031
2026-01-18 02:01:58.68	272.17	3.78	-47.9	-50.4	6.1	0.00e+00	0	34	104	7482638336	60	40357
2026-01-18 02:01:59.69	272.05	3.72	-47.7	-50.1	6.1	0.00e+00	0	34	104	7482638336	60	39359
2026-01-18 02:02:00.70	271.92	3.66	-47.7	-50.1	6.1	0.00e+00	0	34	104	7482638336	60	39303
2026-01-18 02:02:01.71	271.79	3.60	-47.7	-50.2	6.1	0.00e+00	0	34	104	7482638336	60	39640
2026-01-18 02:02:02.72	271.66	3.54	-47.8	-50.3	6.1	0.00e+00	0	34	104	7482638336	60	40127
2026-01-18 02:02:03.72	271.54	3.49	-47.6	-50.1	6.1	0.00e+00	0	34	104	7482638336	60	39019
2026-01-18 02:02:04.73	271.41	3.43	-47.6	-50.1	6.1	0.00e+00	0	34	104	7482638336	60	39018
2026-01-18 02:02:05.74	271.29	3.37	-47.7	-50.2	6.1	0.00e+00	0	34	104	7482638336	60	39608
2026-01-18 02:02:06.75	271.16	3.31	-47.8	-50.3	6.1	0.00e+00	0	34	104	7482638336	60	39986
2026-01-18 02:02:07.76	271.04	3.25	-47.5	-50.0	6.1	0.00e+00	0	34	104	7482638336	60	38538
2026-01-18 02:02:08.77	270.91	3.20	-47.5	-50.0	6.1	0.00e+00	0	34	104	7482638336	60	38558
2026-01-18 02:02:09.79	270.79	3.14	-47.6	-50.1	6.1	0.00e+00	0	34	104	7482638336	60	39406
2026-01-18 02:02:10.79	270.67	3.08	-47.7	-50.2	6.1	0.00e+00	0	34	104	7482638336	60	39825
2026-01-18 02:02:11.80	270.55	3.02	-47.4	-49.9	6.1	0.00e+00	0	34	104	7482638336	60	38282
2026-01-18 02:02:12.81	270.43	2.96	-48.1	-50.5	6.0	0.00e+00	0	34	104	7482638336	60	41203
2026-01-18 02:02:13.82	270.31	2.91	-48.6	-51.1	6.1	0.00e+00	0	34	104	7482638336	60	43800
2026-01-18 02:02:14.83	270.19	2.85	-48.8	-51.3	6.1	0.00e+00	0	34	104	7482638336	60	45035
2026-01-18 02:02:15.84	270.07	2.79	-49.0	-51.4	6.1	0.00e+00	0	34	104	7482638336	60	45763
2026-01-18 02:02:16.85	269.95	2.73	-49.0	-51.5	6.1	0.00e+00	0	34	104	7482638336	60	45825
2026-01-18 02:02:17.86	269.83	2.68	-49.1	-51.5	6.1	0.00e+00	0	34	104	7482638336	60	46042
2026-01-18 02:02:18.87	269.71	2.62	-49.1	-51.6	6.1	0.00e+00	0	34	104	7482638336	60	46467
2026-01-18 02:02:19.87	269.60	2.56	-49.1	-51.6	6.0	0.00e+00	0	34	104	7482638336	60	46597
2026-01-18 02:02:20.88	269.48	2.51	-49.2	-51.6	6.1	0.00e+00	0	34	104	7482638336	60	46469
2026-01-18 02:02:21.89	269.37	2.45	-49.2	-51.7	6.1	0.00e+00	0	34	104	7482638336	60	46842
2026-01-18 02:02:22.90	269.25	2.39	-49.1	-51.6	6.1	0.00e+00	0	34	104	7482638336	60	46320
2026-01-18 02:02:23.91	269.14	2.34	-49.0	-51.5	6.1	0.00e+00	0	34	104	7482638336	60	46150
2026-01-18 02:02:24.92	269.02	2.28	-49.0	-51.5	6.1	0.00e+00	0	34	104	7482638336	60	45905
2026-01-18 02:02:25.93	268.91	2.22	-49.1	-51.7	6.1	0.00e+00	0	34	104	7482638336	60	46900
2026-01-18 02:02:26.94	268.80	2.17	-49.6	-52.1	6.1	0.00e+00	0	34	104	7482638336	60	49387
2026-01-18 02:02:27.95	268.69	2.11	-49.4	-52.0	6.1	0.00e+00	0	34	104	7482638336	60	48504
2026-01-18 02:02:28.96	268.57	2.05	-49.2	-51.7	6.1	0.00e+00	0	34	104	7482638336	60	47097
2026-01-18 02:02:29.97	268.46	2.00	-49.4	-51.8	6.1	0.00e+00	0	34	104	7482638336	60	47792
2026-01-18 02:02:30.98	268.35	1.94	-49.3	-51.8	6.1	0.00e+00	0	34	104	7482638336	60	47654
2026-01-18 02:02:31.99	268.24	1.88	-49.2	-51.7	6.1	0.00e+00	0	34	104	7482638336	60	46875
2026-01-18 02:02:33.00	268.13	1.83	-49.5	-52.0	6.1	0.00e+00	0	34	104	7482638336	60	48726
2026-01-18 02:02:34.01	268.02	1.77	-49.7	-52.2	6.1	0.00e+00	0	34	104	7482638336	60	49714
2026-01-18 02:02:35.02	267.92	1.71	-49.4	-51.9	6.1	0.00e+00	0	34	104	7482638336	60	48238
2026-01-18 02:02:36.03	267.81	1.66	-49.5	-52.0	6.1	0.00e+00	0	34	104	7482638336	60	48606
2026-01-18 02:02:37.04	267.70	1.60	-49.4	-51.9	6.1	0.00e+00	0	34	104	7482638336	60	47938
2026-01-18 02:02:38.05	267.60	1.55	-49.3	-51.8	6.1	0.00e+00	0	34	104	7482638336	60	47455
2026-01-18 02:02:39.06	267.49	1.49	-49.3	-51.8	6.1	0.00e+00	0	34	104	7482638336	60	47585
2026-01-18 02:02:40.07	267.38	1.43	-49.3	-51.7	6.1	0.00e+00	0	34	104	7482638336	60	47082
2026-01-18 02:02:41.08	267.28	1.38	-49.4	-51.9	6.1	0.00e+00	0	34	104	7482638336	60	48101
2026-01-18 02:02:42.09	267.17	1.32	-49.3	-51.8	6.1	0.00e+00	0	34	104	7482638336	60	47609
2026-01-18 02:02:43.10	267.07	1.27	-49.4	-51.9	6.1	0.00e+00	0	34	104	7482638336	60	47986
2026-01-18 02:02:44.11	266.97	1.21	-49.3	-51.8	6.1	0.00e+00	0	34	104	7482638336	60	47621
2026-01-18 02:02:45.12	266.86	1.15	-49.5	-51.9	6.1	0.00e+00	0	34	104	7482638336	60	48283
2026-01-18 02:02:46.13	266.76	1.10	-49.5	-52.0	6.1	0.00e+00	0	34	104	7482638336	60	48542
2026-01-18 02:02:47.14	266.66	1.04	-49.4	-51.9	6.1	0.00e+00	0	34	104	7482638336	60	48003
2026-01-18 02:02:48.14	266.56	0.99	-49.5	-51.9	6.1	0.00e+00	0	34	104	7482638336	60	48368
2026-01-18 02:02:49.15	266.46	0.93	-49.5	-51.9	6.1	0.00e+00	0	34	104	7482638336	60	48221
2026-01-18 02:02:50.16	266.36	0.88	-49.4	-51.8	6.1	0.00e+00	0	34	104	7482638336	60	47659
2026-01-18 02:02:51.17	266.26	0.82	-49.3	-51.7	6.1	0.00e+00	0	34	104	7482638336	60	47074
2026-01-18 02:02:52.19	266.16	0.77	-49.5	-51.9	6.1	0.00e+00	0	34	104	7482638336	60	48402
2026-01-18 02:02:53.20	266.06	0.71	-49.4	-51.9	6.1	0.00e+00	0	34	104	7482638336	60	48202
2026-01-18 02:02:54.21	265.96	0.66	-49.7	-52.1	6.1	0.00e+00	0	34	104	7482638336	60	49246
2026-01-18 02:02:55.22	265.86	0.60	-49.6	-52.1	6.1	0.00e+00	0	34	104	7482638336	60	49046
2026-01-18 02:02:56.23	265.76	0.55	-49.8	-52.3	6.1	0.00e+00	0	34	104	7482638336	60	50354
2026-01-18 02:02:57.24	265.67	0.49	-49.5	-51.9	6.1	0.00e+00	0	34	104	7482638336	60	48326
2026-01-18 02:02:58.25	265.57	0.44	-49.5	-51.9	6.1	0.00e+00	0	34	104	7482638336	60	48307
2026-01-18 02:02:59.25	265.47	0.38	-49.3	-51.7	6.1	0.00e+00	0	34	104	7482638336	60	47299
2026-01-18 02:03:00.26	265.38	0.33	-49.3	-51.8	6.1	0.00e+00	0	34	104	7482638336	60	47595
2026-01-18 02:03:01.27	265.28	0.28	-49.3	-51.8	6.1	0.00e+00	0	34	104	7482638336	60	47465
2026-01-18 02:03:02.28	265.19	0.22	-49.4	-51.9	6.1	0.00e+00	0	34	104	7482638336	60	48344
2026-01-18 02:03:03.29	265.09	0.17	-49.6	-52.1	6.1	0.00e+00	0	34	104	7482638336	60	49156
2026-01-18 02:03:04.30	265.00	0.11	-49.5	-51.9	6.1	0.00e+00	0	34	104	7482638336	60	48123
2026-01-18 02:03:05.32	264.91	0.06	-49.3	-51.7	6.1	0.00e+00	0	34	104	7482638336	60	47003
2026-01-18 02:03:06.33	264.81	0.00	-49.5	-51.9	6.1	0.00e+00	0	34	104	7482638336	60	48144
2026-01-18 02:03:07.33	264.72	-0.05	-49.4	-51.9	6.1	0.00e+00	0	34	104	7482638336	60	47951

#Closed at: 2026-01-18 02:03:08
#Recorded file [7482 MB]: D:/lorett/data/35029_260118_135358.dat