passes_logs/2026/01/18/R4.6S_Anadyr/R4.6S_Anadyr__20260118_222817_TY-42_rec.log

#Pass ID: 20260118_222817_TY-42
#Satellite: TY-42
#Configuration: TY-42_900M
#almurnet v.1.7.20251203
#Start time: 2026-01-18 22:28:49

#Version: 2.2.20231116
#Station: R4.6S_Anadyr
#Location: 177.4865 lon 64.73178 lat
#TLE: 1 64048U 25103A   26018.72976852  .00008010  00000-0  38191-3 0 09990
#TLE: 2 64048 097.4122 094.0771 0001867 093.5651 311.8460 15.19169237 37386

#Time	Az	El	Level	Level2	SNR	BER	BlckErr	Temp	State	Recorded	gain1	gain2
2026-01-18 22:28:49.33	21.83	2.00	-50.0	-64.8	3.5	1.51e+00	0	39	0	0	60	62877
2026-01-18 22:28:50.33	21.90	2.06	-48.7	-51.2	6.1	0.00e+00	0	40	104	0	60	44625
2026-01-18 22:28:51.34	21.96	2.13	-48.8	-51.2	6.1	0.00e+00	0	40	104	0	60	44475
2026-01-18 22:28:52.35	22.03	2.19	-48.8	-51.2	6.1	0.00e+00	0	40	104	0	60	44670
2026-01-18 22:28:53.36	22.09	2.26	-48.7	-51.2	6.1	0.00e+00	0	40	104	0	60	44610
2026-01-18 22:28:54.37	22.16	2.33	-48.8	-51.2	6.1	0.00e+00	0	40	104	0	60	44647
2026-01-18 22:28:55.38	22.23	2.39	-48.8	-51.2	6.1	0.00e+00	0	40	104	0	60	44615
2026-01-18 22:28:56.39	22.29	2.46	-48.8	-51.2	6.1	0.00e+00	0	40	104	0	60	44513
2026-01-18 22:28:57.40	22.36	2.53	-48.8	-51.2	6.1	0.00e+00	0	40	104	0	60	44523
2026-01-18 22:28:58.41	22.43	2.59	-48.8	-51.3	6.1	0.00e+00	0	40	104	0	60	44803
2026-01-18 22:28:59.42	22.50	2.66	-48.8	-51.2	6.1	0.00e+00	0	40	104	0	60	44501
2026-01-18 22:29:00.43	22.56	2.73	-48.8	-51.2	6.1	0.00e+00	0	40	104	0	60	44663
2026-01-18 22:29:01.43	22.63	2.80	-48.8	-51.2	6.1	0.00e+00	0	40	104	0	60	44674
2026-01-18 22:29:02.44	22.70	2.86	-48.8	-51.2	6.1	0.00e+00	0	40	104	0	60	44543
2026-01-18 22:29:03.45	22.77	2.93	-48.8	-51.2	6.1	0.00e+00	0	40	104	0	60	44417
2026-01-18 22:29:04.47	22.84	3.00	-48.8	-51.2	6.1	0.00e+00	0	40	104	0	60	44652
2026-01-18 22:29:05.47	22.91	3.07	-48.8	-51.2	6.1	0.00e+00	0	40	104	0	60	44660
2026-01-18 22:29:06.48	22.98	3.14	-48.8	-51.2	6.1	0.00e+00	0	40	104	0	60	44411
2026-01-18 22:29:07.49	23.05	3.21	-48.8	-51.2	6.1	0.00e+00	0	40	104	0	60	44640
2026-01-18 22:29:08.50	23.12	3.27	-48.8	-51.2	6.1	0.00e+00	0	41	104	0	60	44502
2026-01-18 22:29:09.51	23.20	3.34	-48.8	-51.3	6.1	0.00e+00	0	41	104	0	60	44879
2026-01-18 22:29:10.52	23.27	3.41	-48.8	-51.3	6.1	0.00e+00	0	41	104	0	60	44737
2026-01-18 22:29:11.53	23.34	3.48	-48.8	-51.2	6.1	0.00e+00	0	41	104	0	60	44680
2026-01-18 22:29:12.54	23.41	3.55	-48.8	-51.2	6.1	0.00e+00	0	41	104	0	60	44642
2026-01-18 22:29:13.55	23.49	3.62	-48.8	-51.2	6.1	0.00e+00	0	41	104	0	60	44566
2026-01-18 22:29:14.56	23.56	3.69	-48.8	-51.2	6.1	0.00e+00	0	41	104	0	60	44475
2026-01-18 22:29:15.57	23.64	3.76	-48.8	-51.2	6.1	0.00e+00	0	41	104	0	60	44475
2026-01-18 22:29:16.58	23.71	3.83	-48.8	-51.3	6.1	0.00e+00	0	41	104	0	60	45052
2026-01-18 22:29:17.59	23.79	3.91	-48.7	-51.2	6.1	0.00e+00	0	41	104	0	60	44502
2026-01-18 22:29:18.60	23.86	3.98	-48.8	-51.2	6.1	0.00e+00	0	41	104	0	60	44606
2026-01-18 22:29:19.61	23.94	4.05	-48.7	-51.2	6.1	0.00e+00	0	41	104	0	60	44334
2026-01-18 22:29:20.62	24.01	4.12	-48.8	-51.3	6.1	0.00e+00	0	41	104	0	60	44770
2026-01-18 22:29:21.63	24.09	4.19	-48.8	-51.3	6.1	0.00e+00	0	41	104	0	60	44762
2026-01-18 22:29:22.64	24.17	4.26	-48.8	-51.2	6.1	0.00e+00	0	41	104	0	60	44658
2026-01-18 22:29:23.65	24.25	4.34	-48.8	-51.2	6.1	0.00e+00	0	41	104	0	60	44552
2026-01-18 22:29:24.65	24.32	4.41	-48.7	-51.2	6.1	0.00e+00	0	41	104	0	60	44395
2026-01-18 22:29:25.66	24.40	4.48	-48.9	-51.4	6.1	0.00e+00	0	41	104	0	60	45320
2026-01-18 22:29:26.67	24.48	4.55	-48.7	-51.2	6.1	0.00e+00	0	41	104	0	60	44597
2026-01-18 22:29:27.68	24.56	4.63	-48.8	-51.3	6.1	0.00e+00	0	41	104	0	60	44818
2026-01-18 22:29:28.69	24.64	4.70	-48.8	-51.4	6.1	0.00e+00	0	41	104	0	60	45270
2026-01-18 22:29:29.70	24.72	4.77	-49.0	-51.4	6.1	0.00e+00	0	41	104	0	60	45482
2026-01-18 22:29:30.71	24.80	4.85	-48.8	-51.3	6.1	0.00e+00	0	41	104	0	60	44868
2026-01-18 22:29:31.72	24.88	4.92	-48.8	-51.3	6.1	0.00e+00	0	41	104	0	60	44764
2026-01-18 22:29:32.72	24.97	4.99	-48.9	-51.4	6.1	0.00e+00	0	41	104	0	60	45493
2026-01-18 22:29:33.73	25.05	5.07	-49.0	-51.4	6.1	0.00e+00	0	41	104	0	60	45472
2026-01-18 22:29:34.74	25.13	5.14	-48.9	-51.4	6.1	0.00e+00	0	41	104	0	60	45726
2026-01-18 22:29:35.75	25.22	5.22	-48.9	-51.3	6.1	0.00e+00	0	41	104	0	60	45151
2026-01-18 22:29:36.76	25.30	5.29	-49.0	-51.5	6.1	0.00e+00	0	41	104	0	60	45814
2026-01-18 22:29:37.77	25.38	5.37	-49.1	-51.5	6.1	0.00e+00	0	41	104	0	60	46122
2026-01-18 22:29:38.78	25.47	5.44	-48.9	-51.4	6.0	0.00e+00	0	41	104	0	60	45471
2026-01-18 22:29:39.79	25.56	5.52	-49.0	-51.4	6.1	0.00e+00	0	41	104	0	60	45704
2026-01-18 22:29:40.80	25.64	5.60	-49.0	-51.5	6.1	0.00e+00	0	41	104	0	60	46001
2026-01-18 22:29:41.81	25.73	5.67	-49.2	-51.6	6.1	0.00e+00	0	41	104	0	60	46497
2026-01-18 22:29:42.82	25.82	5.75	-47.7	-49.6	6.2	0.00e+00	0	41	104	0	60	37142
2026-01-18 22:29:43.82	25.90	5.82	-48.0	-50.0	6.2	0.00e+00	0	41	104	0	60	38700
2026-01-18 22:29:44.83	25.99	5.90	-46.9	-48.5	6.3	0.00e+00	0	41	104	0	60	32447
2026-01-18 22:29:45.84	26.08	5.98	-46.5	-48.0	6.5	0.00e+00	0	41	104	0	60	30751
2026-01-18 22:29:46.85	26.17	6.06	-46.5	-47.8	6.5	0.00e+00	0	41	104	0	60	30092
2026-01-18 22:29:47.86	26.26	6.14	-46.8	-48.2	6.4	0.00e+00	0	41	104	0	60	31547
2026-01-18 22:29:48.87	26.35	6.21	-46.5	-47.9	6.5	0.00e+00	0	41	104	0	60	30281
2026-01-18 22:29:49.88	26.44	6.29	-47.0	-48.6	6.3	0.00e+00	0	41	104	0	60	32784
2026-01-18 22:29:50.89	26.53	6.37	-48.6	-50.9	6.1	0.00e+00	0	41	104	0	60	42982
2026-01-18 22:29:51.90	26.63	6.45	-47.1	-48.8	6.2	0.00e+00	0	41	104	0	60	33854
2026-01-18 22:29:52.91	26.72	6.53	-30.8	-31.1	13.3	0.00e+00	37	41	104	0	38	15551
2026-01-18 22:29:53.92	26.81	6.61	-48.6	-50.8	6.1	3.56e-02	0	41	104	16777216	60	42615
2026-01-18 22:29:54.93	26.91	6.69	-31.7	-32.0	11.6	0.00e+00	0	41	104	16777216	40	15388
2026-01-18 22:29:55.94	27.00	6.77	-30.2	-30.5	13.3	0.00e+00	18	41	104	16777216	36	16357
2026-01-18 22:29:56.95	27.10	6.85	-30.4	-30.8	15.6	2.01e-02	0	42	0	109051904	36	16854
2026-01-18 22:29:57.96	27.19	6.93	-30.5	-30.9	15.5	2.01e-02	0	42	0	218103808	36	17041
2026-01-18 22:29:58.97	27.29	7.01	-30.8	-31.2	15.5	2.01e-02	0	42	0	327155712	36	17735
2026-01-18 22:29:59.98	27.39	7.09	-30.4	-30.8	15.6	2.87e-03	0	42	0	444596224	36	16837
2026-01-18 22:30:00.99	27.49	7.17	-30.3	-30.7	15.6	2.87e-03	0	42	0	562036736	36	16749
2026-01-18 22:30:02.00	27.58	7.25	-29.9	-30.4	15.7	2.37e-03	0	42	0	671088640	34	18014
2026-01-18 22:30:03.01	27.68	7.34	-29.7	-30.1	15.9	2.37e-03	0	42	0	788529152	34	17461
2026-01-18 22:30:04.02	27.78	7.42	-29.5	-29.9	16.0	1.37e-03	0	42	0	897581056	34	17077
2026-01-18 22:30:05.03	27.88	7.50	-29.4	-29.8	15.9	1.37e-03	0	42	0	1015021568	34	16823
2026-01-18 22:30:06.04	27.99	7.58	-28.9	-29.3	16.2	8.06e-04	0	42	0	1132462080	34	15897
2026-01-18 22:30:07.05	28.09	7.67	-29.3	-29.7	16.0	8.94e-04	0	42	0	1241513984	34	16679
2026-01-18 22:30:08.06	28.19	7.75	-29.5	-29.8	16.0	8.94e-04	0	42	0	1350565888	34	16988
2026-01-18 22:30:09.07	28.29	7.84	-29.1	-29.5	16.1	8.94e-04	0	42	0	1468006400	34	16292
2026-01-18 22:30:10.08	28.40	7.92	-29.6	-30.0	15.9	7.74e-04	0	42	0	1577058304	34	17303
2026-01-18 22:30:11.09	28.50	8.00	-29.7	-30.0	16.0	7.74e-04	0	42	0	1694498816	34	17396
2026-01-18 22:30:12.10	28.61	8.09	-29.2	-29.6	15.9	7.57e-04	0	42	0	1811939328	34	16472
2026-01-18 22:30:13.11	28.72	8.17	-29.7	-30.0	15.9	7.57e-04	0	42	0	1920991232	34	17397
2026-01-18 22:30:14.12	28.82	8.26	-30.2	-30.6	15.8	1.09e-03	0	42	0	2038431744	34	18436
2026-01-18 22:30:15.13	28.93	8.35	-30.2	-30.6	15.7	1.09e-03	0	42	0	2147483648	34	18605
2026-01-18 22:30:16.14	29.04	8.43	-30.0	-30.4	15.9	1.47e-03	0	42	0	2264924160	34	18175
2026-01-18 22:30:17.15	29.15	8.52	-29.5	-29.9	16.0	1.47e-03	0	42	0	2382364672	34	17169
2026-01-18 22:30:18.16	29.26	8.60	-29.5	-29.9	15.9	1.07e-03	0	42	0	2491416576	34	17102
2026-01-18 22:30:19.17	29.37	8.69	-29.5	-29.9	16.0	1.07e-03	0	42	0	2600468480	34	17138
2026-01-18 22:30:20.18	29.48	8.78	-29.2	-29.6	16.1	8.28e-04	0	42	0	2717908992	34	16574
2026-01-18 22:30:21.19	29.59	8.87	-28.3	-28.7	16.3	8.28e-04	0	42	0	2835349504	32	16620
2026-01-18 22:30:22.20	29.71	8.95	-27.9	-28.3	16.4	2.78e-04	0	42	0	2944401408	32	15921
2026-01-18 22:30:23.21	29.82	9.04	-27.6	-28.0	16.4	2.78e-04	0	42	0	3061841920	30	17384
2026-01-18 22:30:24.22	29.94	9.13	-27.6	-28.0	16.4	7.62e-05	0	42	0	3170893824	30	17398
2026-01-18 22:30:25.23	30.05	9.22	-27.7	-28.1	16.4	7.62e-05	0	42	0	3279945728	30	17465
2026-01-18 22:30:26.24	30.17	9.31	-27.4	-27.9	16.5	7.62e-05	0	42	0	3397386240	30	17026
2026-01-18 22:30:27.24	30.28	9.40	-27.5	-27.9	16.5	7.62e-05	0	42	0	3514826752	30	17114
2026-01-18 22:30:28.25	30.40	9.49	-27.4	-27.8	16.5	7.62e-05	0	42	0	3623878656	30	16977
2026-01-18 22:30:29.26	30.52	9.58	-27.5	-27.9	16.5	4.35e-05	0	42	0	3741319168	30	17048
2026-01-18 22:30:30.27	30.64	9.67	-27.3	-27.7	16.5	4.35e-05	0	42	0	3850371072	30	16748
2026-01-18 22:30:31.28	30.76	9.76	-27.4	-27.8	16.5	4.35e-05	0	42	0	3967811584	30	16826
2026-01-18 22:30:32.29	30.88	9.85	-27.4	-27.8	16.5	4.35e-05	0	42	0	4085252096	30	16942
2026-01-18 22:30:33.30	31.01	9.94	-27.3	-27.7	16.5	5.99e-05	0	42	0	4194304000	30	16694
2026-01-18 22:30:34.31	31.13	10.04	-27.3	-27.7	16.5	5.99e-05	0	42	0	4311744512	30	16694
2026-01-18 22:30:35.32	31.26	10.13	-27.2	-27.6	16.6	8.71e-05	0	43	0	4420796416	30	16534
2026-01-18 22:30:36.33	31.38	10.22	-27.1	-27.5	16.6	8.71e-05	0	43	0	4529848320	30	16282
2026-01-18 22:30:37.34	31.51	10.31	-27.3	-27.7	16.6	8.71e-05	0	42	0	4647288832	30	16632
2026-01-18 22:30:38.35	31.63	10.41	-27.2	-27.6	16.6	1.63e-05	0	42	0	4764729344	30	16536
2026-01-18 22:30:39.36	31.76	10.50	-27.2	-27.6	16.6	5.44e-05	0	42	0	4873781248	30	16560
2026-01-18 22:30:40.37	31.89	10.60	-27.1	-27.5	16.6	5.44e-05	0	42	0	4991221760	30	16386
2026-01-18 22:30:41.38	32.02	10.69	-27.1	-27.5	16.7	2.17e-05	0	43	0	5100273664	30	16385
2026-01-18 22:30:42.39	32.15	10.79	-26.9	-27.3	16.7	2.17e-05	0	42	0	5217714176	30	16004
2026-01-18 22:30:43.40	32.29	10.88	-26.9	-27.4	16.7	1.63e-05	0	43	0	5335154688	30	16111
2026-01-18 22:30:44.41	32.42	10.98	-27.0	-27.5	16.7	1.63e-05	0	43	0	5444206592	30	16255
2026-01-18 22:30:45.42	32.55	11.07	-26.6	-27.1	16.7	5.40e-06	0	43	0	5553258496	28	17448
2026-01-18 22:30:46.43	32.69	11.17	-26.6	-27.0	16.7	5.40e-06	0	43	0	5670699008	28	17341
2026-01-18 22:30:47.44	32.83	11.27	-26.5	-27.0	16.8	1.08e-05	0	43	0	5788139520	28	17212
2026-01-18 22:30:48.45	32.96	11.36	-26.6	-27.0	16.7	1.08e-05	0	43	0	5897191424	28	17365
2026-01-18 22:30:49.46	33.10	11.46	-26.7	-27.1	16.7	1.63e-05	0	43	0	6014631936	28	17487
2026-01-18 22:30:50.47	33.24	11.56	-26.6	-27.1	16.7	1.63e-05	0	43	0	6123683840	28	17429
2026-01-18 22:30:51.47	33.38	11.66	-26.7	-27.1	16.7	0.00e+00	0	43	0	6241124352	28	17525
2026-01-18 22:30:52.48	33.52	11.76	-26.6	-27.0	16.7	0.00e+00	0	43	0	6350176256	28	17325
2026-01-18 22:30:53.49	33.66	11.85	-26.5	-26.9	16.8	1.63e-05	0	43	0	6467616768	28	17071
2026-01-18 22:30:54.49	33.81	11.95	-26.4	-26.9	16.8	1.63e-05	0	43	0	6576668672	28	17015
2026-01-18 22:30:55.50	33.95	12.05	-26.4	-26.9	16.8	1.63e-05	0	43	0	6694109184	28	17033
2026-01-18 22:30:56.51	34.10	12.15	-26.4	-26.8	16.8	1.08e-05	0	43	0	6803161088	28	16955
2026-01-18 22:30:57.52	34.25	12.25	-26.4	-26.9	16.7	1.08e-05	0	43	0	6920601600	28	17018
2026-01-18 22:30:58.53	34.40	12.36	-26.3	-26.8	16.7	2.17e-05	0	43	0	7029653504	28	16824
2026-01-18 22:30:59.54	34.55	12.46	-26.3	-26.8	16.8	2.17e-05	0	43	0	7147094016	28	16908
2026-01-18 22:31:00.55	34.70	12.56	-26.3	-26.8	16.8	0.00e+00	0	43	0	7264534528	28	16908
2026-01-18 22:31:01.56	34.85	12.66	-26.5	-27.0	16.7	1.08e-05	0	43	0	7373586432	28	17209
2026-01-18 22:31:02.57	35.00	12.76	-26.5	-26.9	16.8	1.08e-05	0	43	0	7482638336	28	17146
2026-01-18 22:31:03.58	35.16	12.87	-26.4	-26.9	16.8	1.08e-05	0	43	0	7600078848	28	17006
2026-01-18 22:31:04.58	35.31	12.97	-26.5	-26.9	16.8	2.17e-05	0	43	0	7709130752	28	17081
2026-01-18 22:31:05.60	35.47	13.07	-26.4	-26.9	16.7	2.17e-05	0	43	0	7826571264	28	17011
2026-01-18 22:31:06.60	35.63	13.18	-26.3	-26.8	16.8	5.40e-06	0	43	0	7944011776	28	16864
2026-01-18 22:31:07.61	35.79	13.28	-26.4	-26.8	16.9	5.40e-06	0	43	0	8053063680	28	16904
2026-01-18 22:31:08.62	35.95	13.39	-26.3	-26.7	16.8	5.40e-06	0	43	0	8170504192	28	16748
2026-01-18 22:31:09.63	36.11	13.49	-26.3	-26.7	16.8	5.40e-06	0	43	0	8279556096	28	16722
2026-01-18 22:31:10.64	36.28	13.60	-26.2	-26.6	16.8	1.08e-05	0	43	0	8396996608	28	16524
2026-01-18 22:31:11.65	36.44	13.71	-26.3	-26.7	16.8	1.08e-05	0	43	0	8506048512	28	16765
2026-01-18 22:31:12.66	36.61	13.81	-26.5	-26.9	16.8	0.00e+00	0	43	0	8623489024	28	17112
2026-01-18 22:31:13.67	36.78	13.92	-26.3	-26.7	16.9	0.00e+00	0	43	0	8732540928	28	16712
2026-01-18 22:31:14.68	36.95	14.03	-25.9	-26.4	16.9	0.00e+00	0	43	0	8849981440	28	16055
2026-01-18 22:31:15.69	37.12	14.14	-25.8	-26.2	16.9	0.00e+00	0	43	0	8967421952	26	17778
2026-01-18 22:31:16.70	37.29	14.25	-25.8	-26.3	16.9	5.40e-06	0	43	0	9076473856	26	17828
2026-01-18 22:31:17.71	37.46	14.36	-25.7	-26.2	16.9	5.40e-06	0	43	0	9193914368	26	17642
2026-01-18 22:31:18.72	37.64	14.46	-25.6	-26.1	16.9	0.00e+00	0	43	0	9302966272	26	17401
2026-01-18 22:31:19.73	37.82	14.57	-25.6	-26.0	16.9	0.00e+00	0	43	0	9412018176	26	17391
2026-01-18 22:31:20.74	37.99	14.68	-25.5	-26.0	17.0	0.00e+00	0	43	0	9529458688	26	17230
2026-01-18 22:31:21.75	38.17	14.80	-25.5	-26.0	17.0	0.00e+00	0	43	0	9646899200	26	17267
2026-01-18 22:31:22.76	38.36	14.91	-25.3	-25.7	17.0	0.00e+00	0	43	0	9755951104	26	16791
2026-01-18 22:31:23.77	38.54	15.02	-25.3	-25.8	17.0	0.00e+00	0	43	0	9873391616	26	16846
2026-01-18 22:31:24.78	38.72	15.13	-25.5	-25.9	17.0	0.00e+00	0	43	0	9982443520	26	17181
2026-01-18 22:31:25.79	38.91	15.24	-25.3	-25.8	17.0	0.00e+00	0	43	0	10099884032	26	16867
2026-01-18 22:31:26.80	39.10	15.36	-25.2	-25.6	17.0	0.00e+00	0	43	0	10208935936	26	16616
2026-01-18 22:31:27.80	39.28	15.47	-25.2	-25.7	17.0	0.00e+00	0	43	0	10326376448	26	16682
2026-01-18 22:31:28.81	39.48	15.58	-25.1	-25.5	17.0	0.00e+00	0	43	0	10435428352	26	16408
2026-01-18 22:31:29.82	39.67	15.70	-25.0	-25.5	17.1	0.00e+00	0	43	0	10552868864	26	16308
2026-01-18 22:31:30.83	39.86	15.81	-25.2	-25.6	17.0	0.00e+00	0	43	0	10661920768	26	16529
2026-01-18 22:31:31.84	40.06	15.93	-24.9	-25.4	17.1	0.00e+00	0	43	0	10779361280	26	16080
2026-01-18 22:31:32.85	40.26	16.04	-24.8	-25.3	17.1	0.00e+00	0	43	0	10896801792	26	15922
2026-01-18 22:31:33.86	40.46	16.16	-24.9	-25.4	17.1	0.00e+00	0	43	0	11005853696	26	16113
2026-01-18 22:31:34.87	40.66	16.27	-25.0	-25.4	17.1	0.00e+00	0	43	0	11123294208	26	16199
2026-01-18 22:31:35.88	40.86	16.39	-25.0	-25.4	17.1	0.00e+00	0	43	0	11232346112	26	16184
2026-01-18 22:31:36.89	41.07	16.51	-24.9	-25.4	17.1	0.00e+00	0	43	0	11349786624	26	16103
2026-01-18 22:31:37.90	41.27	16.62	-24.8	-25.3	17.2	0.00e+00	0	43	0	11458838528	26	15980
2026-01-18 22:31:38.91	41.48	16.74	-24.8	-25.2	17.2	0.00e+00	0	43	0	11576279040	24	17782
2026-01-18 22:31:39.92	41.69	16.86	-24.8	-25.3	17.1	0.00e+00	0	43	0	11685330944	24	17877
2026-01-18 22:31:40.93	41.91	16.98	-25.1	-25.5	17.1	0.00e+00	0	43	0	11802771456	24	18396
2026-01-18 22:31:41.94	42.12	17.10	-25.0	-25.5	17.1	0.00e+00	0	43	0	11920211968	24	18221
2026-01-18 22:31:42.95	42.34	17.22	-24.5	-25.0	17.2	0.00e+00	0	43	0	12029263872	24	17315
2026-01-18 22:31:43.96	42.56	17.34	-24.7	-25.2	17.2	0.00e+00	0	43	0	12146704384	24	17658
2026-01-18 22:31:44.97	42.78	17.46	-24.3	-24.8	17.2	0.00e+00	0	43	0	12255756288	24	16836
2026-01-18 22:31:45.98	43.00	17.58	-24.2	-24.7	17.2	0.00e+00	0	43	0	12364808192	24	16680
2026-01-18 22:31:46.99	43.22	17.70	-24.2	-24.7	17.2	0.00e+00	0	43	0	12490637312	24	16719
2026-01-18 22:31:48.00	43.45	17.82	-24.3	-24.7	17.2	0.00e+00	0	43	0	12599689216	24	16768
2026-01-18 22:31:49.00	43.68	17.94	-24.1	-24.6	17.3	0.00e+00	0	43	0	12708741120	24	16444
2026-01-18 22:31:50.01	43.91	18.07	-23.9	-24.4	17.3	0.00e+00	0	43	0	12826181632	24	16080
2026-01-18 22:31:51.02	44.14	18.19	-24.0	-24.5	17.3	0.00e+00	0	43	0	12935233536	24	16283
2026-01-18 22:31:52.03	44.38	18.31	-23.8	-24.3	17.3	0.00e+00	0	43	0	13052674048	24	15955
2026-01-18 22:31:53.04	44.61	18.43	-23.7	-24.2	17.3	0.00e+00	0	43	0	13170114560	22	17706
2026-01-18 22:31:54.05	44.85	18.56	-23.8	-24.3	17.3	0.00e+00	0	43	0	13279166464	22	17823
2026-01-18 22:31:55.06	45.09	18.68	-23.8	-24.3	17.3	0.00e+00	0	43	0	13388218368	22	17866
2026-01-18 22:31:56.06	45.33	18.81	-23.6	-24.1	17.4	0.00e+00	0	43	0	13505658880	22	17462
2026-01-18 22:31:57.08	45.58	18.93	-23.7	-24.2	17.4	0.00e+00	0	43	0	13614710784	22	17700
2026-01-18 22:31:58.09	45.83	19.06	-23.8	-24.2	17.3	0.00e+00	0	43	0	13732151296	22	17794
2026-01-18 22:31:59.10	46.08	19.18	-23.5	-24.0	17.4	0.00e+00	0	43	0	13849591808	22	17303
2026-01-18 22:32:00.11	46.33	19.31	-23.6	-24.0	17.4	0.00e+00	0	43	0	13958643712	22	17350
2026-01-18 22:32:01.12	46.59	19.43	-23.5	-24.0	17.4	0.00e+00	0	43	0	14076084224	22	17255
2026-01-18 22:32:02.13	46.85	19.56	-23.4	-23.8	17.4	0.00e+00	0	43	0	14185136128	22	16979
2026-01-18 22:32:03.14	47.11	19.69	-23.4	-23.9	17.4	0.00e+00	0	43	0	14302576640	22	17192
2026-01-18 22:32:04.15	47.37	19.81	-23.3	-23.8	17.5	0.00e+00	0	43	0	14420017152	22	16990
2026-01-18 22:32:05.16	47.64	19.94	-23.3	-23.8	17.4	0.00e+00	0	43	0	14529069056	22	16882
2026-01-18 22:32:06.17	47.90	20.07	-23.1	-23.6	17.4	0.00e+00	0	43	0	14638120960	22	16593
2026-01-18 22:32:07.18	48.17	20.20	-23.3	-23.8	17.4	0.00e+00	0	43	0	14755561472	22	16837
2026-01-18 22:32:08.19	48.45	20.32	-23.3	-23.8	17.4	0.00e+00	0	43	0	14864613376	22	16840
2026-01-18 22:32:09.20	48.72	20.45	-23.1	-23.6	17.4	0.00e+00	0	43	0	14982053888	22	16513
2026-01-18 22:32:10.21	49.00	20.58	-23.1	-23.6	17.4	0.00e+00	0	43	0	15099494400	22	16561
2026-01-18 22:32:11.22	49.28	20.71	-22.9	-23.4	17.5	0.00e+00	0	43	0	15208546304	22	16146
2026-01-18 22:32:12.23	49.56	20.84	-23.0	-23.5	17.4	0.00e+00	0	43	0	15317598208	22	16303
2026-01-18 22:32:13.24	49.85	20.97	-23.0	-23.5	17.4	0.00e+00	0	43	0	15443427328	22	16353
2026-01-18 22:32:14.25	50.14	21.10	-23.0	-23.5	17.4	0.00e+00	0	43	0	15552479232	22	16310
2026-01-18 22:32:15.25	50.42	21.23	-23.0	-23.5	17.5	0.00e+00	0	43	0	15661531136	22	16316
2026-01-18 22:32:16.26	50.72	21.35	-22.9	-23.4	17.4	0.00e+00	0	43	0	15778971648	22	16177
2026-01-18 22:32:17.27	51.01	21.48	-22.5	-23.0	17.5	0.00e+00	0	43	0	15888023552	20	17343
2026-01-18 22:32:18.28	51.31	21.61	-22.6	-23.2	17.5	0.00e+00	0	43	0	16005464064	20	17617
2026-01-18 22:32:19.29	51.61	21.74	-22.7	-23.2	17.5	0.00e+00	0	43	0	16122904576	20	17698
2026-01-18 22:32:20.30	51.92	21.87	-22.5	-23.0	17.4	0.00e+00	0	43	0	16231956480	20	17355
2026-01-18 22:32:21.31	52.23	22.00	-22.5	-22.9	17.4	0.00e+00	0	43	0	16349396992	20	17199
2026-01-18 22:32:22.32	52.54	22.13	-22.5	-22.9	17.5	0.00e+00	0	43	0	16458448896	20	17177
2026-01-18 22:32:23.33	52.85	22.26	-22.4	-22.9	17.4	0.00e+00	0	43	0	16567500800	20	17086
2026-01-18 22:32:24.34	53.17	22.40	-22.4	-22.9	17.4	0.00e+00	0	43	0	16684941312	20	17174
2026-01-18 22:32:25.35	53.49	22.53	-22.2	-22.7	17.5	0.00e+00	0	43	0	16802381824	20	16676
2026-01-18 22:32:26.36	53.81	22.66	-22.3	-22.8	17.5	0.00e+00	0	43	0	16911433728	20	16826
2026-01-18 22:32:27.37	54.13	22.79	-22.2	-22.7	17.5	0.00e+00	0	43	0	17028874240	20	16741
2026-01-18 22:32:28.37	54.46	22.91	-22.1	-22.6	17.5	0.00e+00	0	43	0	17137926144	20	16456
2026-01-18 22:32:29.38	54.79	23.04	-22.2	-22.7	17.5	0.00e+00	0	43	0	17246978048	20	16762
2026-01-18 22:32:30.39	55.13	23.17	-22.2	-22.7	17.5	0.00e+00	0	43	0	17372807168	20	16630
2026-01-18 22:32:31.40	55.46	23.30	-21.9	-22.4	17.5	0.00e+00	0	43	0	17481859072	20	16160
2026-01-18 22:32:32.41	55.80	23.43	-21.9	-22.4	17.5	0.00e+00	0	43	0	17590910976	20	16143
2026-01-18 22:32:33.42	56.15	23.56	-22.1	-22.6	17.5	0.00e+00	0	43	0	17708351488	20	16443
2026-01-18 22:32:34.43	56.49	23.69	-21.9	-22.4	17.5	0.00e+00	0	43	0	17817403392	20	16092
2026-01-18 22:32:35.44	56.84	23.82	-21.9	-22.4	17.5	0.00e+00	0	43	0	17934843904	20	16122
2026-01-18 22:32:36.45	57.20	23.95	-21.8	-22.3	17.5	0.00e+00	0	43	0	18052284416	20	15909
2026-01-18 22:32:37.46	57.55	24.08	-21.8	-22.3	17.4	0.00e+00	0	43	0	18161336320	18	17983
2026-01-18 22:32:38.47	57.91	24.21	-21.7	-22.2	17.4	0.00e+00	0	43	0	18278776832	18	17689
2026-01-18 22:32:39.48	58.28	24.34	-21.6	-22.1	17.5	0.00e+00	0	43	0	18387828736	18	17469
2026-01-18 22:32:40.49	58.64	24.47	-21.5	-22.0	17.5	0.00e+00	0	43	0	18505269248	18	17384
2026-01-18 22:32:41.50	59.01	24.59	-21.5	-22.0	17.5	0.00e+00	0	43	0	18614321152	18	17265
2026-01-18 22:32:42.51	59.39	24.72	-21.4	-21.9	17.5	0.00e+00	0	43	0	18731761664	18	17177
2026-01-18 22:32:43.52	59.76	24.85	-21.4	-21.9	17.5	0.00e+00	0	43	0	18840813568	18	17082
2026-01-18 22:32:44.53	60.14	24.97	-21.4	-21.9	17.5	0.00e+00	0	43	0	18958254080	18	17100
2026-01-18 22:32:45.54	60.52	25.10	-21.2	-21.7	17.5	0.00e+00	0	43	0	19075694592	18	16788
2026-01-18 22:32:46.55	60.91	25.22	-21.2	-21.7	17.5	0.00e+00	0	43	0	19184746496	18	16739
2026-01-18 22:32:47.56	61.30	25.35	-21.2	-21.7	17.5	0.00e+00	0	43	0	19302187008	18	16776
2026-01-18 22:32:48.57	61.69	25.47	-21.1	-21.6	17.5	0.00e+00	0	43	0	19411238912	18	16519
2026-01-18 22:32:49.58	62.09	25.60	-21.1	-21.6	17.5	0.00e+00	0	43	0	19520290816	18	16616
2026-01-18 22:32:50.59	62.49	25.72	-21.0	-21.5	17.5	0.00e+00	0	43	0	19637731328	18	16246
2026-01-18 22:32:51.60	62.89	25.84	-21.1	-21.6	17.5	0.00e+00	0	43	0	19755171840	18	16561
2026-01-18 22:32:52.60	63.29	25.96	-20.9	-21.4	17.6	0.00e+00	0	43	0	19864223744	18	16178
2026-01-18 22:32:53.61	63.70	26.08	-21.0	-21.5	17.6	0.00e+00	0	43	0	19981664256	18	16261
2026-01-18 22:32:54.62	64.12	26.20	-21.1	-21.6	17.6	0.00e+00	0	43	0	20090716160	18	16468
2026-01-18 22:32:55.63	64.53	26.32	-20.9	-21.4	17.6	0.00e+00	0	43	0	20208156672	18	16087
2026-01-18 22:32:56.64	64.95	26.44	-21.0	-21.5	17.6	0.00e+00	0	43	0	20325597184	18	16249
2026-01-18 22:32:57.65	65.38	26.56	-20.8	-21.3	17.6	0.00e+00	0	43	0	20434649088	18	16013
2026-01-18 22:32:58.66	65.80	26.67	-20.8	-21.3	17.6	0.00e+00	0	43	0	20543700992	18	15941
2026-01-18 22:32:59.67	66.23	26.79	-20.8	-21.3	17.6	0.00e+00	0	43	0	20661141504	16	17821
2026-01-18 22:33:00.68	66.67	26.90	-20.7	-21.2	17.6	0.00e+00	0	43	0	20770193408	16	17714
2026-01-18 22:33:01.69	67.10	27.02	-20.8	-21.3	17.6	0.00e+00	0	43	0	20887633920	16	17883
2026-01-18 22:33:02.70	67.55	27.13	-20.6	-21.1	17.6	0.00e+00	0	43	0	21005074432	16	17581
2026-01-18 22:33:03.71	67.99	27.24	-20.7	-21.1	17.6	0.00e+00	0	43	0	21114126336	16	17551
2026-01-18 22:33:04.72	68.44	27.35	-20.8	-21.3	17.6	0.00e+00	0	43	0	21231566848	16	17944
2026-01-18 22:33:05.73	68.89	27.46	-20.6	-21.1	17.6	0.00e+00	0	43	0	21340618752	16	17530
2026-01-18 22:33:06.74	69.34	27.57	-20.7	-21.2	17.6	0.00e+00	0	44	0	21458059264	16	17668
2026-01-18 22:33:07.75	69.80	27.67	-20.8	-21.3	17.6	0.00e+00	0	43	0	21567111168	16	17879
2026-01-18 22:33:08.76	70.26	27.78	-20.7	-21.2	17.6	0.00e+00	0	43	0	21684551680	16	17633
2026-01-18 22:33:09.77	70.72	27.88	-20.7	-21.1	17.6	0.00e+00	0	43	0	21793603584	16	17572
2026-01-18 22:33:10.78	71.19	27.98	-20.7	-21.1	17.6	0.00e+00	0	43	0	21911044096	16	17549
2026-01-18 22:33:11.79	71.66	28.08	-20.8	-21.2	17.6	0.00e+00	0	44	0	22028484608	16	17762
2026-01-18 22:33:12.80	72.13	28.18	-20.4	-20.9	17.5	0.00e+00	0	43	0	22137536512	16	17140
2026-01-18 22:33:13.81	72.61	28.28	-20.4	-20.9	17.6	0.00e+00	0	43	0	22254977024	16	17113
2026-01-18 22:33:14.82	73.09	28.38	-20.3	-20.8	17.6	0.00e+00	0	43	0	22364028928	16	16867
2026-01-18 22:33:15.83	73.57	28.47	-20.2	-20.7	17.6	0.00e+00	0	43	0	22473080832	16	16644
2026-01-18 22:33:16.84	74.06	28.56	-20.2	-20.7	17.6	0.00e+00	0	43	0	22590521344	16	16644
2026-01-18 22:33:17.84	74.54	28.65	-20.3	-20.8	17.6	0.00e+00	0	43	0	22707961856	16	16830
2026-01-18 22:33:18.86	75.04	28.74	-20.1	-20.6	17.5	0.00e+00	0	43	0	22817013760	16	16474
2026-01-18 22:33:19.86	75.53	28.83	-20.1	-20.6	17.6	0.00e+00	0	43	0	22934454272	16	16507
2026-01-18 22:33:20.87	76.03	28.92	-20.0	-20.5	17.5	0.00e+00	0	43	0	23043506176	16	16375
2026-01-18 22:33:21.88	76.53	29.00	-20.0	-20.6	17.5	0.00e+00	0	43	0	23160946688	16	16432
2026-01-18 22:33:22.89	77.03	29.08	-20.0	-20.5	17.5	0.00e+00	0	43	0	23278387200	16	16265
2026-01-18 22:33:23.90	77.54	29.16	-20.2	-20.7	17.5	0.00e+00	0	43	0	23387439104	16	16674
2026-01-18 22:33:24.90	78.04	29.24	-19.9	-20.4	17.5	0.00e+00	0	43	0	23496491008	16	16185
2026-01-18 22:33:25.91	78.55	29.32	-20.2	-20.7	17.5	0.00e+00	0	44	0	23613931520	16	16692
2026-01-18 22:33:26.92	79.06	29.39	-19.9	-20.4	17.5	0.00e+00	0	43	0	23722983424	16	16160
2026-01-18 22:33:27.93	79.58	29.46	-19.9	-20.4	17.5	0.00e+00	0	44	0	23840423936	16	16133
2026-01-18 22:33:28.94	80.10	29.53	-20.0	-20.5	17.5	0.00e+00	0	43	0	23957864448	16	16267
2026-01-18 22:33:29.95	80.62	29.60	-19.9	-20.4	17.5	0.00e+00	0	43	0	24066916352	16	16090
2026-01-18 22:33:30.96	81.14	29.66	-20.0	-20.4	17.5	0.00e+00	0	43	0	24184356864	16	16234
2026-01-18 22:33:31.97	81.67	29.73	-19.9	-20.3	17.4	0.00e+00	0	43	0	24293408768	16	16021
2026-01-18 22:33:32.98	82.20	29.79	-19.8	-20.3	17.5	0.00e+00	0	43	0	24402460672	16	15936
2026-01-18 22:33:33.99	82.73	29.85	-19.8	-20.3	17.4	0.00e+00	0	43	0	24528289792	16	15975
2026-01-18 22:33:35.00	83.26	29.90	-19.8	-20.3	17.4	0.00e+00	0	43	0	24637341696	16	15991
2026-01-18 22:33:36.01	83.80	29.96	-19.9	-20.4	17.4	0.00e+00	0	43	0	24746393600	16	16112
2026-01-18 22:33:37.02	84.33	30.01	-19.9	-20.4	17.4	0.00e+00	0	43	0	24863834112	16	16145
2026-01-18 22:33:38.02	84.86	30.06	-20.0	-20.5	17.4	0.00e+00	0	43	0	24972886016	16	16322
2026-01-18 22:33:39.03	85.40	30.10	-19.8	-20.3	17.4	0.00e+00	0	43	0	25090326528	16	15920
2026-01-18 22:33:40.04	85.94	30.15	-19.6	-20.1	17.4	0.00e+00	0	44	0	25207767040	14	17492
2026-01-18 22:33:41.05	86.49	30.19	-19.8	-20.3	17.4	0.00e+00	0	43	0	25316818944	14	17851
2026-01-18 22:33:42.06	87.03	30.23	-19.6	-20.1	17.4	0.00e+00	0	43	0	25425870848	14	17520
2026-01-18 22:33:43.07	87.58	30.26	-19.6	-20.1	17.4	0.00e+00	0	43	0	25543311360	14	17497
2026-01-18 22:33:44.08	88.12	30.29	-19.7	-20.2	17.3	0.00e+00	0	43	0	25652363264	14	17728
2026-01-18 22:33:45.09	88.67	30.33	-19.6	-20.1	17.4	0.00e+00	0	43	0	25769803776	14	17534
2026-01-18 22:33:46.10	89.22	30.35	-19.5	-20.0	17.3	0.00e+00	0	43	0	25887244288	14	17260
2026-01-18 22:33:47.11	89.77	30.38	-19.7	-20.1	17.3	0.00e+00	0	43	0	25996296192	14	17571
2026-01-18 22:33:48.12	90.32	30.40	-19.7	-20.1	17.3	0.00e+00	0	43	0	26113736704	14	17575
2026-01-18 22:33:49.13	90.87	30.42	-19.7	-20.2	17.4	0.00e+00	0	44	0	26222788608	14	17629
2026-01-18 22:33:50.14	91.43	30.44	-19.7	-20.2	17.3	0.00e+00	0	44	0	26340229120	14	17670
2026-01-18 22:33:51.15	91.98	30.46	-19.9	-20.3	17.3	0.00e+00	0	43	0	26457669632	14	17964
2026-01-18 22:33:52.16	92.53	30.47	-19.7	-20.2	17.3	0.00e+00	0	43	0	26566721536	14	17616
2026-01-18 22:33:53.17	93.09	30.48	-19.7	-20.1	17.3	0.00e+00	0	43	0	26675773440	14	17598
2026-01-18 22:33:54.18	93.64	30.48	-19.6	-20.1	17.3	0.00e+00	0	43	0	26793213952	14	17428
2026-01-18 22:33:55.19	94.20	30.49	-19.6	-20.1	17.3	0.00e+00	0	43	0	26910654464	14	17470
2026-01-18 22:33:56.20	94.75	30.49	-19.6	-20.1	17.2	0.00e+00	0	43	0	27019706368	14	17525
2026-01-18 22:33:57.21	95.31	30.49	-19.7	-20.2	17.2	0.00e+00	0	43	0	27137146880	14	17606
2026-01-18 22:33:58.21	95.86	30.48	-19.7	-20.1	17.3	0.00e+00	0	44	0	27246198784	14	17584
2026-01-18 22:33:59.22	96.41	30.48	-19.8	-20.2	17.3	0.00e+00	0	43	0	27355250688	14	17750
2026-01-18 22:34:00.23	96.97	30.47	-19.7	-20.1	17.3	0.00e+00	0	44	0	27472691200	14	17543
2026-01-18 22:34:01.24	97.52	30.45	-19.7	-20.1	17.3	0.00e+00	0	43	0	27590131712	14	17572
2026-01-18 22:34:02.25	98.07	30.44	-19.7	-20.1	17.2	0.00e+00	0	43	0	27699183616	14	17600
2026-01-18 22:34:03.26	98.63	30.42	-19.7	-20.2	17.2	0.00e+00	0	43	0	27816624128	14	17697
2026-01-18 22:34:04.27	99.18	30.40	-19.9	-20.3	17.3	0.00e+00	0	43	0	27925676032	14	17904
2026-01-18 22:34:05.28	99.73	30.38	-19.7	-20.2	17.2	0.00e+00	0	43	0	28043116544	14	17652
2026-01-18 22:34:06.29	100.28	30.35	-19.9	-20.4	17.2	0.00e+00	0	43	0	28160557056	14	18055
2026-01-18 22:34:07.30	100.83	30.32	-19.8	-20.3	17.3	0.00e+00	0	43	0	28269608960	14	17861
2026-01-18 22:34:08.31	101.38	30.29	-19.8	-20.2	17.3	0.00e+00	0	44	0	28378660864	14	17709
2026-01-18 22:34:09.32	101.92	30.26	-19.8	-20.3	17.2	0.00e+00	0	43	0	28496101376	14	17837
2026-01-18 22:34:10.33	102.47	30.22	-19.9	-20.3	17.2	0.00e+00	0	43	0	28605153280	14	17890
2026-01-18 22:34:11.34	103.02	30.18	-20.0	-20.4	17.2	0.00e+00	0	44	0	28722593792	14	18093
2026-01-18 22:34:12.34	103.55	30.14	-19.9	-20.3	17.2	0.00e+00	0	43	0	28840034304	14	17970
2026-01-18 22:34:13.35	104.10	30.10	-19.9	-20.4	17.2	0.00e+00	0	44	0	28949086208	14	18014
2026-01-18 22:34:14.36	104.64	30.05	-20.0	-20.5	17.2	0.00e+00	0	44	0	29066526720	14	18247
2026-01-18 22:34:15.37	105.17	30.00	-19.9	-20.4	17.2	0.00e+00	0	43	0	29175578624	14	18056
2026-01-18 22:34:16.38	105.71	29.95	-19.9	-20.3	17.2	0.00e+00	0	44	0	29284630528	14	17996
2026-01-18 22:34:17.39	106.25	29.89	-20.0	-20.4	17.3	0.00e+00	0	44	0	29410459648	14	18135
2026-01-18 22:34:18.40	106.78	29.84	-20.0	-20.4	17.3	0.00e+00	0	43	0	29519511552	14	18160
2026-01-18 22:34:19.41	107.31	29.78	-20.0	-20.4	17.3	0.00e+00	0	44	0	29628563456	14	18193
2026-01-18 22:34:20.42	107.84	29.72	-20.0	-20.4	17.3	0.00e+00	0	43	0	29746003968	14	18160
2026-01-18 22:34:21.43	108.36	29.65	-20.0	-20.5	17.3	0.00e+00	0	43	0	29855055872	14	18235
2026-01-18 22:34:22.44	108.89	29.59	-20.1	-20.5	17.4	0.00e+00	0	43	0	29972496384	14	18396
2026-01-18 22:34:23.45	109.41	29.52	-20.0	-20.4	17.4	0.00e+00	0	44	0	30089936896	14	18190
2026-01-18 22:34:24.46	109.93	29.45	-20.2	-20.6	17.3	0.00e+00	0	43	0	30198988800	14	18487
2026-01-18 22:34:25.47	110.45	29.38	-20.1	-20.5	17.4	0.00e+00	0	44	0	30308040704	14	18392
2026-01-18 22:34:26.48	110.96	29.30	-20.0	-20.4	17.4	0.00e+00	0	43	0	30425481216	14	18197
2026-01-18 22:34:27.49	111.48	29.23	-20.2	-20.6	17.3	0.00e+00	0	43	0	30542921728	14	18608
2026-01-18 22:34:28.50	111.98	29.15	-20.2	-20.6	17.4	0.00e+00	0	43	0	30651973632	14	18485
2026-01-18 22:34:29.51	112.49	29.07	-20.2	-20.6	17.4	0.00e+00	0	44	0	30769414144	14	18570
2026-01-18 22:34:30.52	113.00	28.99	-20.1	-20.6	17.4	0.00e+00	0	44	0	30878466048	14	18461
2026-01-18 22:34:31.53	113.50	28.90	-20.3	-20.7	17.4	0.00e+00	0	44	0	30995906560	14	18787
2026-01-18 22:34:32.54	114.00	28.81	-20.3	-20.7	17.4	0.00e+00	0	43	0	31104958464	14	18851
2026-01-18 22:34:33.55	114.49	28.73	-20.3	-20.8	17.4	0.00e+00	0	43	0	31222398976	14	18864
2026-01-18 22:34:34.56	114.98	28.64	-20.4	-20.9	17.5	0.00e+00	0	43	0	31339839488	14	19087
2026-01-18 22:34:35.57	115.47	28.54	-20.4	-20.9	17.4	0.00e+00	0	44	0	31448891392	14	19082
2026-01-18 22:34:36.58	115.96	28.45	-20.5	-20.9	17.5	0.00e+00	0	44	0	31557943296	14	19207
2026-01-18 22:34:37.59	116.44	28.36	-20.5	-21.0	17.5	0.00e+00	0	44	0	31675383808	14	19302
2026-01-18 22:34:38.60	116.92	28.26	-20.5	-20.9	17.5	0.00e+00	0	44	0	31792824320	14	19267
2026-01-18 22:34:39.61	117.40	28.16	-20.5	-20.9	17.5	0.00e+00	0	44	0	31901876224	14	19169
2026-01-18 22:34:40.61	117.87	28.06	-20.5	-21.0	17.6	0.00e+00	0	43	0	32019316736	14	19340
2026-01-18 22:34:41.62	118.34	27.96	-20.4	-20.9	17.6	0.00e+00	0	44	0	32128368640	14	19099
2026-01-18 22:34:42.63	118.81	27.86	-20.5	-20.9	17.6	0.00e+00	0	44	0	32237420544	14	19234
2026-01-18 22:34:43.64	119.28	27.75	-20.5	-21.0	17.6	0.00e+00	0	43	0	32363249664	14	19336
2026-01-18 22:34:44.65	119.74	27.65	-20.6	-21.0	17.7	0.00e+00	0	43	0	32472301568	14	19395
2026-01-18 22:34:45.66	120.20	27.54	-20.5	-21.0	17.6	0.00e+00	0	44	0	32581353472	14	19305
2026-01-18 22:34:46.67	120.65	27.43	-20.6	-21.0	17.6	0.00e+00	0	44	0	32698793984	14	19455
2026-01-18 22:34:47.68	121.10	27.32	-20.6	-21.0	17.7	0.00e+00	0	43	0	32807845888	14	19429
2026-01-18 22:34:48.69	121.55	27.21	-20.7	-21.1	17.7	0.00e+00	0	44	0	32925286400	16	17501
2026-01-18 22:34:49.70	121.99	27.10	-20.7	-21.1	17.7	0.00e+00	0	43	0	33042726912	16	17602
2026-01-18 22:34:50.71	122.44	26.99	-20.8	-21.2	17.7	0.00e+00	0	43	0	33151778816	16	17721
2026-01-18 22:34:51.72	122.87	26.87	-20.8	-21.2	17.8	0.00e+00	0	43	0	33269219328	16	17700
2026-01-18 22:34:52.73	123.31	26.76	-20.7	-21.1	17.8	0.00e+00	0	43	0	33378271232	16	17502
2026-01-18 22:34:53.74	123.74	26.64	-20.8	-21.2	17.8	0.00e+00	0	43	0	33487323136	16	17665
2026-01-18 22:34:54.75	124.17	26.52	-20.8	-21.2	17.8	0.00e+00	0	43	0	33604763648	16	17742
2026-01-18 22:34:55.76	124.59	26.41	-20.8	-21.3	17.8	0.00e+00	0	43	0	33722204160	16	17829
2026-01-18 22:34:56.76	125.01	26.29	-20.8	-21.2	17.8	0.00e+00	0	43	0	33831256064	16	17719
2026-01-18 22:34:57.77	125.43	26.17	-20.8	-21.2	17.8	0.00e+00	0	44	0	33948696576	16	17780
2026-01-18 22:34:58.78	125.84	26.05	-20.8	-21.2	17.8	0.00e+00	0	44	0	34057748480	16	17689
2026-01-18 22:34:59.79	126.25	25.93	-20.9	-21.3	17.8	0.00e+00	0	43	0	34175188992	16	17868
2026-01-18 22:35:00.80	126.66	25.80	-20.9	-21.3	17.8	0.00e+00	0	44	0	34292629504	16	17892
2026-01-18 22:35:01.81	127.06	25.68	-20.9	-21.3	17.9	0.00e+00	0	44	0	34401681408	16	17925
2026-01-18 22:35:02.82	127.46	25.56	-20.9	-21.3	17.9	0.00e+00	0	44	0	34510733312	16	17943
2026-01-18 22:35:03.83	127.86	25.43	-21.0	-21.4	17.8	0.00e+00	0	44	0	34628173824	16	18213
2026-01-18 22:35:04.84	128.26	25.31	-21.0	-21.4	17.9	0.00e+00	0	43	0	34737225728	16	18165
2026-01-18 22:35:05.84	128.64	25.18	-21.0	-21.4	17.9	0.00e+00	0	43	0	34854666240	16	18164
2026-01-18 22:35:06.85	129.03	25.06	-21.1	-21.6	17.9	0.00e+00	0	43	0	34972106752	16	18467
2026-01-18 22:35:07.86	129.41	24.93	-21.1	-21.5	17.9	0.00e+00	0	44	0	35081158656	16	18423
2026-01-18 22:35:08.87	129.79	24.80	-21.2	-21.7	17.9	0.00e+00	0	44	0	35198599168	16	18689
2026-01-18 22:35:09.88	130.17	24.68	-21.3	-21.7	17.9	0.00e+00	0	44	0	35307651072	16	18795
2026-01-18 22:35:10.88	130.54	24.55	-21.3	-21.7	17.9	0.00e+00	0	44	0	35416702976	16	18773
2026-01-18 22:35:11.89	130.91	24.42	-21.4	-21.8	17.9	0.00e+00	0	43	0	35534143488	16	19043
2026-01-18 22:35:12.90	131.28	24.29	-21.5	-22.0	17.9	0.00e+00	0	44	0	35651584000	16	19371
2026-01-18 22:35:13.91	131.64	24.16	-21.5	-22.0	17.8	0.00e+00	0	43	0	35760635904	16	19347
2026-01-18 22:35:14.92	132.00	24.03	-21.5	-22.0	17.9	0.00e+00	0	43	0	35878076416	16	19366
2026-01-18 22:35:15.93	132.36	23.90	-21.7	-22.1	17.8	0.00e+00	0	44	0	35987128320	16	19738
2026-01-18 22:35:16.94	132.72	23.77	-21.6	-22.1	17.9	0.00e+00	0	44	0	36096180224	18	17429
2026-01-18 22:35:17.95	133.07	23.64	-21.7	-22.2	17.9	0.00e+00	0	44	0	36222009344	18	17696
2026-01-18 22:35:18.95	133.41	23.52	-21.6	-22.1	17.9	0.00e+00	0	44	0	36331061248	18	17483
2026-01-18 22:35:19.97	133.76	23.38	-21.7	-22.2	17.9	0.00e+00	0	44	0	36440113152	18	17696
2026-01-18 22:35:20.98	134.10	23.25	-21.6	-22.1	17.8	0.00e+00	0	44	0	36557553664	18	17477
2026-01-18 22:35:21.98	134.44	23.12	-21.7	-22.2	17.8	0.00e+00	0	44	0	36666605568	18	17636
2026-01-18 22:35:23.00	134.77	22.99	-21.8	-22.3	17.8	0.00e+00	0	44	0	36784046080	18	17857
2026-01-18 22:35:24.00	135.10	22.86	-21.8	-22.2	17.8	0.00e+00	0	44	0	36901486592	18	17774
2026-01-18 22:35:25.01	135.43	22.73	-21.8	-22.3	17.8	0.00e+00	0	44	0	37010538496	18	17827
2026-01-18 22:35:26.02	135.76	22.60	-21.8	-22.3	17.8	0.00e+00	0	44	0	37127979008	18	17912
2026-01-18 22:35:27.03	136.08	22.47	-21.9	-22.4	17.7	0.00e+00	0	44	0	37237030912	18	18037
2026-01-18 22:35:28.04	136.40	22.34	-21.9	-22.3	17.8	0.00e+00	0	44	0	37354471424	18	17976
2026-01-18 22:35:29.05	136.72	22.21	-22.0	-22.5	17.7	0.00e+00	0	44	0	37463523328	18	18272
2026-01-18 22:35:30.06	137.03	22.07	-22.0	-22.5	17.8	0.00e+00	0	44	0	37580963840	18	18227
2026-01-18 22:35:31.07	137.34	21.94	-22.0	-22.5	17.8	0.00e+00	0	44	0	37690015744	18	18233
2026-01-18 22:35:32.08	137.65	21.81	-22.1	-22.6	17.8	0.00e+00	0	44	0	37807456256	18	18440
2026-01-18 22:35:33.09	137.96	21.68	-22.1	-22.6	17.7	0.00e+00	0	43	0	37924896768	18	18529
2026-01-18 22:35:34.10	138.26	21.55	-22.3	-22.7	17.7	0.00e+00	0	43	0	38033948672	18	18842
2026-01-18 22:35:35.11	138.56	21.42	-22.3	-22.7	17.7	0.00e+00	0	44	0	38151389184	18	18839
2026-01-18 22:35:36.11	138.86	21.29	-22.4	-22.8	17.7	0.00e+00	0	44	0	38260441088	18	19031
2026-01-18 22:35:37.12	139.15	21.16	-22.2	-22.7	17.7	0.00e+00	0	44	0	38369492992	18	18646
2026-01-18 22:35:38.13	139.44	21.03	-22.2	-22.7	17.7	0.00e+00	0	44	0	38486933504	18	18752
2026-01-18 22:35:39.14	139.73	20.90	-50.0	-52.5	6.1	0.00e+00	0	43	104	38503710720	60	51550
2026-01-18 22:35:40.15	140.02	20.77	-50.0	-52.5	6.1	0.00e+00	0	43	104	38503710720	60	51700
2026-01-18 22:35:41.16	140.30	20.64	-50.0	-52.5	6.1	0.00e+00	0	43	104	38503710720	60	51763
2026-01-18 22:35:42.17	140.58	20.51	-50.0	-52.5	6.1	0.00e+00	0	43	104	38503710720	60	51622
2026-01-18 22:35:43.18	140.86	20.38	-50.0	-52.5	6.1	0.00e+00	0	43	104	38503710720	60	51648
2026-01-18 22:35:44.19	141.14	20.25	-50.0	-52.5	6.1	0.00e+00	0	43	104	38503710720	60	51701
2026-01-18 22:35:45.20	141.41	20.12	-50.0	-52.5	6.1	0.00e+00	0	43	104	38503710720	60	51410
2026-01-18 22:35:46.21	141.68	19.99	-50.0	-52.5	6.1	0.00e+00	0	43	104	38503710720	60	51575
2026-01-18 22:35:47.22	141.95	19.87	-50.0	-52.5	6.1	0.00e+00	0	43	104	38503710720	60	51591
2026-01-18 22:35:48.23	142.21	19.74	-50.0	-52.5	6.1	0.00e+00	0	43	104	38503710720	60	51398
2026-01-18 22:35:49.24	142.48	19.61	-50.0	-52.4	6.1	0.00e+00	0	43	104	38503710720	60	51245
2026-01-18 22:35:50.25	142.74	19.48	-50.0	-52.5	6.1	0.00e+00	0	43	104	38503710720	60	51586
2026-01-18 22:35:51.26	143.00	19.36	-50.0	-52.4	6.1	0.00e+00	0	43	104	38503710720	60	51185
2026-01-18 22:35:52.27	143.25	19.23	-50.0	-52.5	6.1	0.00e+00	0	43	104	38503710720	60	51465
2026-01-18 22:35:53.27	143.50	19.10	-49.9	-52.4	6.1	0.00e+00	0	43	104	38503710720	60	50946
2026-01-18 22:35:54.28	143.75	18.98	-50.0	-52.5	6.1	0.00e+00	0	43	104	38503710720	60	51465
2026-01-18 22:35:55.29	144.00	18.85	-50.0	-52.4	6.1	0.00e+00	0	43	104	38503710720	60	51115
2026-01-18 22:35:56.30	144.25	18.73	-50.0	-52.5	6.0	0.00e+00	0	43	104	38503710720	60	51353
2026-01-18 22:35:57.31	144.49	18.60	-49.9	-52.4	6.1	0.00e+00	0	43	104	38503710720	60	50847
2026-01-18 22:35:58.32	144.74	18.48	-50.0	-52.4	6.1	0.00e+00	0	43	104	38503710720	60	51308
2026-01-18 22:35:59.33	144.98	18.35	-49.9	-52.4	6.1	0.00e+00	0	43	104	38503710720	60	51062
2026-01-18 22:36:00.34	145.21	18.23	-49.9	-52.4	6.1	0.00e+00	0	43	104	38503710720	60	50958
2026-01-18 22:36:01.35	145.45	18.10	-49.9	-52.4	6.1	0.00e+00	0	43	104	38503710720	60	50866
2026-01-18 22:36:02.36	145.68	17.98	-50.0	-52.4	6.1	0.00e+00	0	43	104	38503710720	60	51107
2026-01-18 22:36:03.36	145.91	17.86	-49.9	-52.4	6.1	0.00e+00	0	43	104	38503710720	60	50950
2026-01-18 22:36:04.37	146.14	17.73	-49.9	-52.4	6.0	0.00e+00	0	43	104	38503710720	60	50828
2026-01-18 22:36:05.38	146.37	17.61	-49.9	-52.3	6.1	0.00e+00	0	43	104	38503710720	60	50577
2026-01-18 22:36:06.39	146.59	17.49	-49.9	-52.4	6.0	0.00e+00	0	43	104	38503710720	60	51087
2026-01-18 22:36:07.40	146.81	17.37	-49.9	-52.3	6.1	0.00e+00	0	43	104	38503710720	60	50740
2026-01-18 22:36:08.41	147.04	17.25	-49.9	-52.3	6.1	0.00e+00	0	43	104	38503710720	60	50668
2026-01-18 22:36:09.42	147.25	17.13	-49.9	-52.4	6.1	0.00e+00	0	43	104	38503710720	60	50901
2026-01-18 22:36:10.43	147.47	17.01	-49.9	-52.4	6.1	0.00e+00	0	43	104	38503710720	60	51141
2026-01-18 22:36:11.44	147.69	16.89	-49.9	-52.3	6.1	0.00e+00	0	43	104	38503710720	60	50673
2026-01-18 22:36:12.45	147.90	16.77	-49.9	-52.4	6.1	0.00e+00	0	43	104	38503710720	60	50831
2026-01-18 22:36:13.46	148.11	16.65	-49.9	-52.3	6.1	0.00e+00	0	43	104	38503710720	60	50648
2026-01-18 22:36:14.47	148.32	16.53	-49.9	-52.4	6.1	0.00e+00	0	43	104	38503710720	60	50865
2026-01-18 22:36:15.48	148.53	16.41	-49.9	-52.3	6.1	0.00e+00	0	43	104	38503710720	60	50534
2026-01-18 22:36:16.44	148.72	16.30	-49.9	-52.3	6.1	0.00e+00	0	43	104	38503710720	60	50585
2026-01-18 22:36:17.45	148.93	16.18	-49.9	-52.3	6.1	0.00e+00	0	43	104	38503710720	60	50531
2026-01-18 22:36:18.46	149.13	16.06	-49.9	-52.3	6.1	0.00e+00	0	43	104	38503710720	60	50743
2026-01-18 22:36:19.47	149.33	15.95	-49.8	-52.3	6.1	0.00e+00	0	43	104	38503710720	60	50285
2026-01-18 22:36:20.48	149.53	15.83	-49.9	-52.3	6.1	0.00e+00	0	43	104	38503710720	60	50506
2026-01-18 22:36:21.49	149.72	15.72	-49.9	-52.3	6.1	0.00e+00	0	43	104	38503710720	60	50374
2026-01-18 22:36:22.50	149.92	15.60	-49.8	-52.3	6.1	0.00e+00	0	43	104	38503710720	60	50529
2026-01-18 22:36:23.51	150.11	15.49	-49.8	-52.3	6.1	0.00e+00	0	43	104	38503710720	60	50588
2026-01-18 22:36:24.52	150.30	15.37	-49.8	-52.3	6.1	0.00e+00	0	43	104	38503710720	60	50675
2026-01-18 22:36:25.52	150.49	15.26	-49.8	-52.3	6.1	0.00e+00	0	43	104	38503710720	60	50443
2026-01-18 22:36:26.53	150.68	15.14	-49.8	-52.3	6.1	0.00e+00	0	43	104	38503710720	60	50339
2026-01-18 22:36:27.54	150.87	15.03	-49.8	-52.3	6.1	0.00e+00	0	43	104	38503710720	60	50318
2026-01-18 22:36:28.55	151.05	14.92	-49.8	-52.3	6.1	0.00e+00	0	43	104	38503710720	60	50220
2026-01-18 22:36:29.56	151.23	14.81	-49.8	-52.3	6.1	0.00e+00	0	43	104	38503710720	60	50210
2026-01-18 22:36:30.57	151.42	14.69	-49.8	-52.3	6.1	0.00e+00	0	43	104	38503710720	60	50578
2026-01-18 22:36:31.58	151.60	14.58	-49.8	-52.2	6.1	0.00e+00	0	43	104	38503710720	60	50092
2026-01-18 22:36:32.59	151.77	14.47	-49.8	-52.3	6.1	0.00e+00	0	43	104	38503710720	60	50242
2026-01-18 22:36:33.60	151.95	14.36	-49.8	-52.3	6.1	0.00e+00	0	43	104	38503710720	60	50326
2026-01-18 22:36:34.60	152.13	14.25	-49.8	-52.2	6.1	0.00e+00	0	43	104	38503710720	60	50135
2026-01-18 22:36:35.61	152.30	14.14	-49.8	-52.3	6.1	0.00e+00	0	43	104	38503710720	60	50442
2026-01-18 22:36:36.62	152.47	14.03	-49.8	-52.2	6.1	0.00e+00	0	43	104	38503710720	60	49827
2026-01-18 22:36:37.63	152.64	13.92	-49.8	-52.2	6.1	0.00e+00	0	43	104	38503710720	60	50162
2026-01-18 22:36:38.64	152.81	13.82	-49.7	-52.2	6.1	0.00e+00	0	43	104	38503710720	60	49909
2026-01-18 22:36:39.65	152.98	13.71	-49.7	-52.2	6.1	0.00e+00	0	43	104	38503710720	60	50009
2026-01-18 22:36:40.66	153.15	13.60	-49.7	-52.2	6.1	0.00e+00	0	43	104	38503710720	60	50091
2026-01-18 22:36:41.67	153.31	13.49	-49.6	-52.1	6.1	0.00e+00	0	43	104	38503710720	60	49553
2026-01-18 22:36:42.68	153.48	13.39	-49.3	-51.8	6.1	0.00e+00	0	43	104	38503710720	60	47456
2026-01-18 22:36:43.69	153.64	13.28	-49.6	-52.1	6.1	0.00e+00	0	43	104	38503710720	60	49225
2026-01-18 22:36:44.70	153.80	13.17	-49.5	-51.9	6.1	0.00e+00	0	43	104	38503710720	60	48437
2026-01-18 22:36:45.71	153.96	13.07	-49.1	-51.5	6.1	0.00e+00	0	43	104	38503710720	60	46265
2026-01-18 22:36:46.71	154.12	12.96	-48.7	-51.2	6.1	0.00e+00	0	43	104	38503710720	60	44561
2026-01-18 22:36:47.72	154.28	12.86	-49.0	-51.5	6.1	0.00e+00	0	43	104	38503710720	60	46087
2026-01-18 22:36:48.73	154.43	12.76	-49.0	-51.5	6.1	0.00e+00	0	43	104	38503710720	60	45771
2026-01-18 22:36:49.74	154.59	12.65	-48.6	-51.1	6.1	0.00e+00	0	43	104	38503710720	60	43848
2026-01-18 22:36:50.75	154.74	12.55	-48.8	-51.3	6.1	0.00e+00	0	43	104	38503710720	60	44732
2026-01-18 22:36:51.76	154.89	12.45	-48.6	-51.1	6.1	0.00e+00	0	43	104	38503710720	60	44061
2026-01-18 22:36:52.77	155.05	12.34	-48.8	-51.2	6.1	0.00e+00	0	43	104	38503710720	60	44643
2026-01-18 22:36:53.78	155.20	12.24	-48.8	-51.3	6.1	0.00e+00	0	43	104	38503710720	60	44750
2026-01-18 22:36:54.79	155.34	12.14	-49.0	-51.5	6.1	0.00e+00	0	43	104	38503710720	60	46071
2026-01-18 22:36:55.80	155.49	12.04	-48.8	-51.3	6.1	0.00e+00	0	43	104	38503710720	60	44850
2026-01-18 22:36:56.81	155.64	11.94	-48.9	-51.4	6.1	0.00e+00	0	43	104	38503710720	60	45479
2026-01-18 22:36:57.82	155.78	11.84	-49.2	-51.7	6.1	0.00e+00	0	43	104	38503710720	60	46861
2026-01-18 22:36:58.83	155.93	11.74	-49.3	-51.8	6.1	0.00e+00	0	43	104	38503710720	60	47791
2026-01-18 22:36:59.84	156.07	11.64	-49.1	-51.6	6.1	0.00e+00	0	43	104	38503710720	60	46349
2026-01-18 22:37:00.85	156.21	11.54	-49.1	-51.6	6.1	0.00e+00	0	43	104	38503710720	60	46747
2026-01-18 22:37:01.86	156.35	11.44	-49.5	-52.0	6.1	0.00e+00	0	43	104	38503710720	60	48655
2026-01-18 22:37:02.87	156.49	11.34	-49.6	-52.1	6.0	0.00e+00	0	43	104	38503710720	60	49132
2026-01-18 22:37:03.88	156.63	11.24	-49.4	-51.9	6.1	0.00e+00	0	43	104	38503710720	60	48026
2026-01-18 22:37:04.88	156.77	11.14	-49.4	-51.9	6.1	0.00e+00	0	43	104	38503710720	60	47993
2026-01-18 22:37:05.89	156.90	11.05	-49.6	-52.1	6.1	0.00e+00	0	43	104	38503710720	60	49325
2026-01-18 22:37:06.90	157.04	10.95	-49.6	-52.1	6.1	0.00e+00	0	43	104	38503710720	60	49220
2026-01-18 22:37:07.91	157.17	10.85	-49.6	-52.0	6.1	0.00e+00	0	43	104	38503710720	60	48938
2026-01-18 22:37:08.92	157.31	10.76	-49.6	-52.0	6.1	0.00e+00	0	43	104	38503710720	60	48813
2026-01-18 22:37:09.93	157.44	10.66	-49.7	-52.1	6.1	0.00e+00	0	43	104	38503710720	60	49472
2026-01-18 22:37:10.94	157.57	10.56	-49.6	-52.1	6.1	0.00e+00	0	43	104	38503710720	60	49507
2026-01-18 22:37:11.95	157.70	10.47	-49.6	-52.1	6.1	0.00e+00	0	43	104	38503710720	60	49360
2026-01-18 22:37:12.96	157.83	10.37	-49.6	-52.1	6.1	0.00e+00	0	43	104	38503710720	60	49045
2026-01-18 22:37:13.97	157.96	10.28	-49.6	-52.1	6.1	0.00e+00	0	43	104	38503710720	60	49426
2026-01-18 22:37:14.98	158.08	10.19	-49.6	-52.1	6.1	0.00e+00	0	43	104	38503710720	60	49158
2026-01-18 22:37:15.99	158.21	10.09	-49.6	-52.1	6.1	0.00e+00	0	43	104	38503710720	60	49229
2026-01-18 22:37:17.00	158.34	10.00	-49.6	-52.1	6.1	0.00e+00	0	43	104	38503710720	60	49144
2026-01-18 22:37:18.01	158.46	9.91	-49.6	-52.1	6.1	0.00e+00	0	43	104	38503710720	60	49373
2026-01-18 22:37:19.02	158.58	9.81	-49.6	-52.0	6.1	0.00e+00	0	43	104	38503710720	60	48996
2026-01-18 22:37:20.03	158.71	9.72	-49.6	-52.1	6.1	0.00e+00	0	43	104	38503710720	60	49171
2026-01-18 22:37:21.04	158.83	9.63	-49.6	-52.0	6.1	0.00e+00	0	43	104	38503710720	60	48727
2026-01-18 22:37:22.05	158.95	9.54	-49.6	-52.1	6.1	0.00e+00	0	43	104	38503710720	60	49416
2026-01-18 22:37:23.06	159.07	9.45	-49.6	-52.1	6.1	0.00e+00	0	43	104	38503710720	60	49174
2026-01-18 22:37:24.07	159.19	9.36	-49.6	-52.1	6.1	0.00e+00	0	43	104	38503710720	60	49215
2026-01-18 22:37:25.08	159.31	9.27	-49.6	-52.0	6.1	0.00e+00	0	43	104	38503710720	60	48899
2026-01-18 22:37:26.09	159.42	9.18	-49.6	-52.1	6.1	0.00e+00	0	43	104	38503710720	60	49316
2026-01-18 22:37:27.10	159.54	9.09	-49.6	-52.0	6.1	0.00e+00	0	43	104	38503710720	60	49038
2026-01-18 22:37:28.11	159.65	9.00	-49.6	-52.1	6.1	0.00e+00	0	43	104	38503710720	60	49240
2026-01-18 22:37:29.12	159.77	8.91	-49.5	-52.0	6.1	0.00e+00	0	43	104	38503710720	60	48938
2026-01-18 22:37:30.13	159.88	8.82	-49.6	-52.1	6.1	0.00e+00	0	43	104	38503710720	60	49440
2026-01-18 22:37:31.13	160.00	8.73	-49.6	-52.0	6.1	0.00e+00	0	43	104	38503710720	60	48901
2026-01-18 22:37:32.14	160.11	8.64	-49.6	-52.1	6.1	0.00e+00	0	43	104	38503710720	60	49145
2026-01-18 22:37:33.15	160.22	8.56	-49.5	-52.0	6.1	0.00e+00	0	43	104	38503710720	60	48847
2026-01-18 22:37:34.16	160.33	8.47	-49.6	-52.1	6.1	0.00e+00	0	43	104	38503710720	60	49227
2026-01-18 22:37:35.17	160.44	8.38	-49.5	-52.0	6.1	0.00e+00	0	43	104	38503710720	60	48745
2026-01-18 22:37:36.18	160.55	8.29	-49.5	-52.0	6.1	0.00e+00	0	43	104	38503710720	60	48784
2026-01-18 22:37:37.19	160.66	8.21	-49.5	-52.0	6.1	0.00e+00	0	43	104	38503710720	60	48592
2026-01-18 22:37:38.20	160.76	8.12	-49.6	-52.1	6.1	0.00e+00	0	43	104	38503710720	60	49164
2026-01-18 22:37:39.21	160.87	8.04	-49.5	-52.0	6.1	0.00e+00	0	43	104	38503710720	60	48672
2026-01-18 22:37:40.22	160.98	7.95	-49.5	-52.0	6.1	0.00e+00	0	43	104	38503710720	60	48810
2026-01-18 22:37:41.22	161.08	7.87	-49.5	-51.9	6.1	0.00e+00	0	43	104	38503710720	60	48268
2026-01-18 22:37:42.23	161.19	7.78	-49.5	-52.0	6.1	0.00e+00	0	43	104	38503710720	60	48928
2026-01-18 22:37:43.24	161.29	7.70	-49.5	-52.0	6.1	0.00e+00	0	43	104	38503710720	60	48541
2026-01-18 22:37:44.25	161.39	7.61	-49.5	-52.0	6.1	0.00e+00	0	43	104	38503710720	60	48882
2026-01-18 22:37:45.26	161.50	7.53	-49.4	-51.9	6.1	0.00e+00	0	43	104	38503710720	60	48302
2026-01-18 22:37:46.27	161.60	7.44	-49.6	-52.0	6.1	0.00e+00	0	43	104	38503710720	60	48757
2026-01-18 22:37:47.28	161.70	7.36	-49.5	-51.9	6.1	0.00e+00	0	43	104	38503710720	60	48404
2026-01-18 22:37:48.29	161.80	7.28	-49.5	-51.9	6.1	0.00e+00	0	43	104	38503710720	60	48428
2026-01-18 22:37:49.30	161.90	7.19	-49.4	-51.9	6.1	0.00e+00	0	43	104	38503710720	60	47964
2026-01-18 22:37:50.31	162.00	7.11	-49.5	-52.0	6.1	0.00e+00	0	43	104	38503710720	60	48517
2026-01-18 22:37:51.32	162.10	7.03	-49.4	-51.9	6.1	0.00e+00	0	43	104	38503710720	60	48125
2026-01-18 22:37:52.33	162.19	6.95	-49.5	-51.9	6.1	0.00e+00	0	43	104	38503710720	60	48446
2026-01-18 22:37:53.34	162.29	6.87	-49.4	-51.9	6.1	0.00e+00	0	43	104	38503710720	60	47938
2026-01-18 22:37:54.35	162.39	6.78	-49.5	-51.9	6.1	0.00e+00	0	43	104	38503710720	60	48252
2026-01-18 22:37:55.36	162.48	6.70	-49.4	-51.8	6.1	0.00e+00	0	43	104	38503710720	60	47880
2026-01-18 22:37:56.37	162.58	6.62	-49.4	-51.9	6.1	0.00e+00	0	43	104	38503710720	60	48083
2026-01-18 22:37:57.38	162.67	6.54	-49.4	-51.8	6.1	0.00e+00	0	43	104	38503710720	60	47747
2026-01-18 22:37:58.39	162.77	6.46	-49.4	-51.9	6.1	0.00e+00	0	43	104	38503710720	60	48177
2026-01-18 22:37:59.40	162.86	6.38	-49.3	-51.8	6.1	0.00e+00	0	43	104	38503710720	60	47481
2026-01-18 22:38:00.41	162.95	6.30	-49.4	-51.8	6.1	0.00e+00	0	43	104	38503710720	60	47758
2026-01-18 22:38:01.42	163.04	6.22	-49.3	-51.8	6.1	0.00e+00	0	43	104	38503710720	60	47748
2026-01-18 22:38:02.43	163.14	6.14	-49.4	-51.9	6.1	0.00e+00	0	43	104	38503710720	60	47955
2026-01-18 22:38:03.44	163.23	6.07	-49.3	-51.8	6.1	0.00e+00	0	43	104	38503710720	60	47590
2026-01-18 22:38:04.45	163.32	5.99	-49.3	-51.8	6.1	0.00e+00	0	43	104	38503710720	60	47821
2026-01-18 22:38:05.46	163.41	5.91	-49.3	-51.8	6.1	0.00e+00	0	43	104	38503710720	60	47435
2026-01-18 22:38:06.47	163.50	5.83	-49.4	-51.8	6.1	0.00e+00	0	43	104	38503710720	60	47742
2026-01-18 22:38:07.48	163.58	5.75	-49.3	-51.8	6.1	0.00e+00	0	43	104	38503710720	60	47426
2026-01-18 22:38:08.49	163.67	5.68	-49.3	-51.8	6.1	0.00e+00	0	43	104	38503710720	60	47477
2026-01-18 22:38:09.50	163.76	5.60	-49.3	-51.8	6.1	0.00e+00	0	43	104	38503710720	60	47686
2026-01-18 22:38:10.50	163.85	5.52	-49.3	-51.8	6.1	0.00e+00	0	43	104	38503710720	60	47482
2026-01-18 22:38:11.51	163.93	5.44	-49.2	-51.7	6.1	0.00e+00	0	43	104	38503710720	60	47109
2026-01-18 22:38:12.52	164.02	5.37	-49.2	-51.7	6.1	0.00e+00	0	43	104	38503710720	60	46980
2026-01-18 22:38:13.53	164.10	5.29	-49.3	-51.8	6.1	0.00e+00	0	43	104	38503710720	60	47466
2026-01-18 22:38:14.54	164.19	5.22	-49.3	-51.7	6.1	0.00e+00	0	43	104	38503710720	60	47250
2026-01-18 22:38:15.55	164.27	5.14	-49.2	-51.7	6.1	0.00e+00	0	43	104	38503710720	60	46981
2026-01-18 22:38:16.56	164.36	5.06	-49.2	-51.7	6.1	0.00e+00	0	43	104	38503710720	60	47126
2026-01-18 22:38:17.57	164.44	4.99	-49.2	-51.7	6.1	0.00e+00	0	43	104	38503710720	60	47151
2026-01-18 22:38:18.57	164.52	4.92	-49.2	-51.7	6.0	0.00e+00	0	43	104	38503710720	60	46922
2026-01-18 22:38:19.58	164.60	4.84	-49.2	-51.7	6.1	0.00e+00	0	43	104	38503710720	60	46851
2026-01-18 22:38:20.59	164.68	4.77	-49.1	-51.6	6.1	0.00e+00	0	43	104	38503710720	60	46375
2026-01-18 22:38:21.60	164.77	4.69	-49.2	-51.6	6.1	0.00e+00	0	43	104	38503710720	60	46723
2026-01-18 22:38:22.61	164.85	4.62	-49.2	-51.6	6.1	0.00e+00	0	43	104	38503710720	60	46780
2026-01-18 22:38:23.62	164.93	4.54	-49.1	-51.6	6.1	0.00e+00	0	43	104	38503710720	60	46633
2026-01-18 22:38:24.63	165.01	4.47	-49.0	-51.5	6.1	0.00e+00	0	43	104	38503710720	60	46138
2026-01-18 22:38:25.64	165.09	4.40	-49.1	-51.6	6.1	0.00e+00	0	43	104	38503710720	60	46514
2026-01-18 22:38:26.65	165.16	4.32	-49.1	-51.5	6.1	0.00e+00	0	43	104	38503710720	60	46164
2026-01-18 22:38:27.66	165.24	4.25	-49.1	-51.5	6.1	0.00e+00	0	43	104	38503710720	60	46229
2026-01-18 22:38:28.67	165.32	4.18	-49.0	-51.5	6.1	0.00e+00	0	43	104	38503710720	60	45844
2026-01-18 22:38:29.68	165.40	4.10	-49.1	-51.6	6.1	0.00e+00	0	43	104	38503710720	60	46366
2026-01-18 22:38:30.69	165.47	4.03	-49.0	-51.5	6.1	0.00e+00	0	43	104	38503710720	60	45988
2026-01-18 22:38:31.70	165.55	3.96	-49.0	-51.5	6.1	0.00e+00	0	43	104	38503710720	60	45781
2026-01-18 22:38:32.71	165.63	3.89	-48.9	-51.3	6.1	0.00e+00	0	43	104	38503710720	60	45130
2026-01-18 22:38:33.71	165.70	3.82	-49.1	-51.6	6.1	0.00e+00	0	43	104	38503710720	60	46350
2026-01-18 22:38:34.72	165.78	3.75	-49.0	-51.4	6.1	0.00e+00	0	43	104	38503710720	60	45475
2026-01-18 22:38:35.73	165.85	3.68	-49.0	-51.4	6.1	0.00e+00	0	43	104	38503710720	60	45437
2026-01-18 22:38:36.74	165.93	3.60	-48.8	-51.2	6.1	0.00e+00	0	43	104	38503710720	60	44665
2026-01-18 22:38:37.75	166.00	3.53	-49.0	-51.5	6.1	0.00e+00	0	43	104	38503710720	60	45901
2026-01-18 22:38:38.76	166.07	3.46	-48.9	-51.3	6.1	0.00e+00	0	43	104	38503710720	60	44883
2026-01-18 22:38:39.77	166.15	3.39	-48.9	-51.4	6.1	0.00e+00	0	43	104	38503710720	60	45250
2026-01-18 22:38:40.78	166.22	3.32	-48.7	-51.1	6.1	0.00e+00	0	43	104	38503710720	60	44189
2026-01-18 22:38:41.79	166.29	3.25	-49.0	-51.4	6.1	0.00e+00	0	43	104	38503710720	60	45546
2026-01-18 22:38:42.80	166.36	3.18	-48.7	-51.2	6.1	0.00e+00	0	43	104	38503710720	60	44303
2026-01-18 22:38:43.81	166.43	3.11	-48.9	-51.4	6.1	0.00e+00	0	43	104	38503710720	60	45395
2026-01-18 22:38:44.82	166.50	3.04	-48.6	-51.1	6.1	0.00e+00	0	43	104	38503710720	60	43852
2026-01-18 22:38:45.83	166.57	2.97	-48.8	-51.2	6.1	0.00e+00	0	43	104	38503710720	60	44550
2026-01-18 22:38:46.84	166.64	2.91	-49.2	-51.6	6.1	0.00e+00	0	43	104	38503710720	60	46759
2026-01-18 22:38:47.85	166.71	2.84	-49.4	-52.0	6.1	0.00e+00	0	43	104	38503710720	60	48656
2026-01-18 22:38:48.86	166.78	2.77	-49.3	-51.7	6.1	0.00e+00	0	43	104	38503710720	60	47308
2026-01-18 22:38:49.87	166.85	2.70	-49.0	-51.5	6.1	0.00e+00	0	43	104	38503710720	60	46192
2026-01-18 22:38:50.88	166.92	2.63	-49.9	-52.4	6.1	0.00e+00	0	43	104	38503710720	60	50885
2026-01-18 22:38:51.89	166.99	2.56	-50.0	-52.5	6.1	0.00e+00	0	43	104	38503710720	60	51377
2026-01-18 22:38:52.90	167.06	2.50	-50.1	-52.5	6.1	0.00e+00	0	43	104	38503710720	60	51704
2026-01-18 22:38:53.90	167.12	2.43	-50.2	-52.7	6.1	0.00e+00	0	43	104	38503710720	60	52668
2026-01-18 22:38:54.91	167.19	2.36	-50.3	-52.7	6.1	0.00e+00	0	43	104	38503710720	60	52999
2026-01-18 22:38:55.92	167.26	2.29	-50.4	-52.8	6.1	0.00e+00	0	43	104	38503710720	60	53669
2026-01-18 22:38:56.93	167.32	2.23	-50.4	-52.9	6.1	0.00e+00	0	43	104	38503710720	60	53811
2026-01-18 22:38:57.94	167.39	2.16	-50.4	-52.9	6.1	0.00e+00	0	43	104	38503710720	60	53940
2026-01-18 22:38:58.95	167.45	2.09	-50.5	-52.9	6.1	0.00e+00	0	43	104	38503710720	60	54067
2026-01-18 22:38:59.95	167.52	2.03	-50.5	-52.9	6.1	0.00e+00	0	43	104	38503710720	60	54156
2026-01-18 22:39:00.96	167.58	1.96	-50.4	-52.9	6.1	0.00e+00	0	43	104	38503710720	60	53952
2026-01-18 22:39:01.98	167.65	1.89	-50.4	-52.9	6.1	0.00e+00	0	43	104	38503710720	60	54056
2026-01-18 22:39:02.98	167.71	1.83	-50.3	-52.8	6.1	0.00e+00	0	43	104	38503710720	60	53572
2026-01-18 22:39:04.00	167.78	1.76	-50.4	-52.8	6.1	0.00e+00	0	43	104	38503710720	60	53752
2026-01-18 22:39:05.01	167.84	1.70	-50.4	-52.8	6.1	0.00e+00	0	43	104	38503710720	60	53766
2026-01-18 22:39:06.02	167.90	1.63	-50.4	-52.8	6.1	0.00e+00	0	43	104	38503710720	60	53527
2026-01-18 22:39:07.03	167.97	1.57	-50.4	-52.9	6.1	0.00e+00	0	43	104	38503710720	60	53794
2026-01-18 22:39:08.03	168.03	1.50	-50.4	-52.9	6.1	0.00e+00	0	43	104	38503710720	60	53787
2026-01-18 22:39:09.04	168.09	1.44	-50.4	-52.9	6.1	0.00e+00	0	43	104	38503710720	60	53858
2026-01-18 22:39:10.05	168.15	1.37	-50.4	-52.9	6.1	0.00e+00	0	43	104	38503710720	60	53880
2026-01-18 22:39:11.06	168.21	1.31	-50.4	-52.9	6.1	0.00e+00	0	43	104	38503710720	60	53986
2026-01-18 22:39:12.07	168.28	1.24	-50.4	-52.8	6.1	0.00e+00	0	43	104	38503710720	60	53576
2026-01-18 22:39:13.08	168.34	1.18	-50.4	-52.8	6.1	0.00e+00	0	43	104	38503710720	60	53640
2026-01-18 22:39:14.09	168.40	1.12	-50.4	-52.8	6.1	0.00e+00	0	43	104	38503710720	60	53726
2026-01-18 22:39:15.10	168.46	1.05	-50.4	-52.8	6.1	0.00e+00	0	43	104	38503710720	60	53645
2026-01-18 22:39:16.11	168.52	0.99	-50.4	-52.9	6.1	0.00e+00	0	43	104	38503710720	60	53908
2026-01-18 22:39:17.12	168.58	0.92	-50.4	-52.8	6.1	0.00e+00	0	43	104	38503710720	60	53589
2026-01-18 22:39:18.13	168.64	0.86	-50.4	-52.8	6.1	0.00e+00	0	43	104	38503710720	60	53599
2026-01-18 22:39:19.14	168.69	0.80	-50.4	-52.8	6.1	0.00e+00	0	43	104	38503710720	60	53650
2026-01-18 22:39:20.15	168.75	0.73	-50.4	-52.8	6.1	0.00e+00	0	43	104	38503710720	60	53573
2026-01-18 22:39:21.16	168.81	0.67	-50.4	-52.9	6.1	0.00e+00	0	43	104	38503710720	60	54217
2026-01-18 22:39:22.17	168.87	0.61	-50.4	-52.8	6.1	0.00e+00	0	43	104	38503710720	60	53637
2026-01-18 22:39:23.18	168.93	0.55	-50.4	-52.9	6.1	0.00e+00	0	43	104	38503710720	60	53929
2026-01-18 22:39:24.19	168.99	0.48	-50.4	-52.8	6.1	0.00e+00	0	43	104	38503710720	60	53558
2026-01-18 22:39:25.20	169.04	0.42	-50.4	-52.8	6.1	0.00e+00	0	43	104	38503710720	60	53659
2026-01-18 22:39:26.21	169.10	0.36	-50.4	-52.8	6.1	0.00e+00	0	43	104	38503710720	60	53739
2026-01-18 22:39:27.22	169.16	0.30	-50.4	-52.8	6.1	0.00e+00	0	43	104	38503710720	60	53343
2026-01-18 22:39:28.23	169.21	0.23	-50.4	-52.8	6.1	0.00e+00	0	43	104	38503710720	60	53758
2026-01-18 22:39:29.24	169.27	0.17	-50.4	-52.8	6.1	0.00e+00	0	43	104	38503710720	60	53660
2026-01-18 22:39:30.25	169.32	0.11	-50.4	-52.8	6.1	0.00e+00	0	43	104	38503710720	60	53589
2026-01-18 22:39:31.26	169.38	0.05	-50.4	-52.9	6.1	0.00e+00	0	43	104	38503710720	60	53799

#Closed at: 2026-01-18 22:39:32
#Recorded file [38503 MB]: D:/lorett/data/35029_260119_102849.dat