passes_logs/2026/01/18/R4.6S_Anadyr/R4.6S_Anadyr__20260118_040335_AQUA_rec.log

#Pass ID: 20260118_040335_AQUA
#Satellite: AQUA
#Configuration: AQUA
#almurnet v.1.7.20251203
#Start time: 2026-01-18 04:03:36

#Version: 2.2.20231116
#Station: R4.6S_Anadyr
#Location: 177.4865 lon 64.73178 lat
#TLE: 1 27424U 02022A   26017.62394888  .00000781  00000+0  16630-3 0  9993
#TLE: 2 27424  98.4086 344.0954 0002010  75.0132 339.4723 14.61825944261279

#Time	Az	El	Level	Level2	SNR	BER	BlckErr	Temp	State	Recorded	gain1	gain2
2026-01-18 04:03:36.31	214.10	0.05	-49.2	-64.1	3.5	1.51e+00	0	26	0	0	60	58058
2026-01-18 04:03:37.32	214.18	0.10	-49.8	-68.1	3.5	3.02e+01	0	27	104	0	60	97262
2026-01-18 04:03:38.33	214.26	0.15	-50.7	-68.6	3.5	3.02e+01	0	27	104	0	60	104121
2026-01-18 04:03:39.33	214.34	0.21	-50.1	-68.2	3.5	3.02e+01	0	27	104	0	60	98493
2026-01-18 04:03:40.34	214.42	0.26	-50.6	-68.6	3.5	3.02e+01	0	27	104	0	60	103092
2026-01-18 04:03:41.35	214.50	0.31	-50.0	-68.0	3.5	3.02e+01	0	27	104	0	60	97133
2026-01-18 04:03:42.36	214.58	0.36	-49.6	-67.7	3.5	3.02e+01	0	27	104	0	60	93381
2026-01-18 04:03:43.37	214.66	0.42	-49.4	-67.5	3.5	3.02e+01	0	27	104	0	60	91020
2026-01-18 04:03:44.38	214.74	0.47	-49.4	-67.5	3.5	3.02e+01	0	27	104	0	60	91209
2026-01-18 04:03:45.39	214.82	0.52	-49.1	-67.1	3.5	3.02e+01	0	27	104	0	60	86958
2026-01-18 04:03:46.40	214.90	0.58	-49.1	-67.0	3.5	3.02e+01	0	27	104	0	60	86142
2026-01-18 04:03:47.41	214.98	0.63	-49.0	-67.0	3.5	3.02e+01	0	27	104	0	60	85929
2026-01-18 04:03:48.42	215.06	0.68	-49.1	-66.9	3.5	3.02e+01	0	27	104	0	60	85453
2026-01-18 04:03:49.43	215.14	0.74	-49.1	-66.9	3.5	3.02e+01	0	27	104	0	60	85192
2026-01-18 04:03:50.44	215.22	0.79	-49.0	-66.9	3.5	3.02e+01	0	27	104	0	60	85184
2026-01-18 04:03:51.45	215.31	0.84	-49.0	-66.8	3.5	3.02e+01	0	27	104	0	60	84620
2026-01-18 04:03:52.46	215.39	0.90	-48.9	-66.8	3.5	3.02e+01	0	27	104	0	60	84246
2026-01-18 04:03:53.47	215.47	0.95	-48.9	-66.9	3.5	3.02e+01	0	27	104	0	60	84684
2026-01-18 04:03:54.48	215.56	1.01	-48.7	-66.8	3.5	3.02e+01	0	27	104	0	60	83851
2026-01-18 04:03:55.49	215.64	1.06	-48.4	-66.8	3.5	3.02e+01	0	27	104	0	60	84083
2026-01-18 04:03:56.50	215.72	1.11	-48.6	-66.6	3.5	3.02e+01	0	27	104	0	60	82621
2026-01-18 04:03:57.51	215.81	1.17	-48.6	-66.5	3.5	3.02e+01	0	27	104	0	60	81348
2026-01-18 04:03:58.52	215.89	1.22	-48.5	-66.4	3.5	3.02e+01	0	27	104	0	60	80785
2026-01-18 04:03:59.53	215.98	1.27	-48.3	-66.2	3.5	3.02e+01	0	27	104	0	60	78340
2026-01-18 04:04:00.54	216.06	1.33	-47.4	-65.3	3.5	3.02e+01	0	27	104	0	60	71096
2026-01-18 04:04:01.55	216.15	1.38	-47.5	-65.4	3.5	3.02e+01	0	27	104	0	60	71610
2026-01-18 04:04:02.56	216.23	1.44	-47.5	-65.4	3.5	3.02e+01	0	27	104	0	60	71378
2026-01-18 04:04:03.57	216.32	1.49	-47.5	-65.3	3.5	3.02e+01	0	28	104	0	60	71141
2026-01-18 04:04:04.58	216.41	1.55	-47.5	-65.2	3.5	3.02e+01	0	27	104	0	60	69999
2026-01-18 04:04:05.59	216.49	1.60	-47.5	-65.1	3.5	3.02e+01	0	27	104	0	60	68873
2026-01-18 04:04:06.60	216.58	1.65	-47.5	-65.2	3.5	3.02e+01	0	28	104	0	60	69678
2026-01-18 04:04:07.61	216.67	1.71	-47.5	-65.3	3.5	3.02e+01	0	28	104	0	60	70792
2026-01-18 04:04:08.62	216.76	1.76	-47.5	-65.3	3.5	3.02e+01	0	27	104	0	60	71222
2026-01-18 04:04:09.63	216.85	1.82	-47.5	-65.3	3.5	3.02e+01	0	27	104	0	60	71065
2026-01-18 04:04:10.64	216.93	1.87	-47.5	-65.3	3.5	3.02e+01	0	27	104	0	60	70582
2026-01-18 04:04:11.65	217.02	1.93	-47.5	-65.2	3.5	3.02e+01	0	27	104	0	60	70024
2026-01-18 04:04:12.66	217.11	1.98	-47.5	-65.2	3.5	3.02e+01	0	27	104	0	60	69708
2026-01-18 04:04:13.67	217.20	2.04	-47.5	-65.4	3.5	3.02e+01	0	28	104	0	60	71688
2026-01-18 04:04:14.68	217.29	2.09	-47.7	-65.5	3.5	3.02e+01	0	28	104	0	60	72420
2026-01-18 04:04:15.69	217.38	2.15	-47.8	-65.6	3.5	3.02e+01	0	28	104	0	60	73309
2026-01-18 04:04:16.70	217.47	2.20	-47.8	-65.5	3.5	3.02e+01	0	28	104	0	60	72710
2026-01-18 04:04:17.71	217.57	2.26	-47.8	-65.5	3.5	3.02e+01	0	28	104	0	60	72511
2026-01-18 04:04:18.71	217.66	2.31	-47.7	-65.2	3.5	3.02e+01	0	28	104	0	60	69893
2026-01-18 04:04:19.72	217.75	2.37	-47.7	-65.0	3.5	3.02e+01	0	28	104	0	60	68526
2026-01-18 04:04:20.73	217.84	2.42	-47.5	-64.5	3.5	3.02e+01	0	28	104	0	60	64484
2026-01-18 04:04:21.74	217.93	2.48	-47.7	-64.6	3.5	3.02e+01	0	28	104	0	60	65636
2026-01-18 04:04:22.75	218.03	2.54	-47.6	-64.7	3.5	3.02e+01	0	28	104	0	60	66092
2026-01-18 04:04:23.77	218.12	2.59	-47.5	-61.7	3.6	3.02e+01	0	28	104	0	60	46936
2026-01-18 04:04:24.77	218.21	2.65	-47.4	-60.7	4.9	3.02e+01	0	28	104	0	60	41625
2026-01-18 04:04:25.79	218.31	2.70	-47.3	-59.7	5.1	3.02e+01	75	28	104	0	60	37363
2026-01-18 04:04:26.79	218.40	2.76	-47.4	-62.2	3.9	3.02e+01	0	28	104	0	60	49300
2026-01-18 04:04:27.80	218.50	2.81	-47.2	-59.3	5.9	3.02e+01	92	28	104	0	60	35410
2026-01-18 04:04:28.81	218.59	2.87	-46.6	-54.2	11.4	3.02e+01	92	28	0	1048576	60	19708
2026-01-18 04:04:29.82	218.69	2.93	-44.5	-48.3	17.1	3.02e+01	91	28	0	3145728	60	10001
2026-01-18 04:04:30.83	218.78	2.98	-43.6	-46.8	18.1	3.02e+01	92	28	0	4718592	60	8404
2026-01-18 04:04:31.84	218.88	3.04	-41.8	-44.1	20.4	3.02e+01	92	28	0	6815744	60	6201
2026-01-18 04:04:32.85	218.98	3.09	-41.6	-43.9	21.0	3.02e+01	91	28	0	8388608	58	6769
2026-01-18 04:04:33.86	219.07	3.15	-42.1	-44.6	20.2	3.02e+01	91	28	0	10485760	58	7335
2026-01-18 04:04:34.87	219.17	3.21	-42.3	-44.9	19.9	3.02e+01	91	28	0	12582912	58	7582
2026-01-18 04:04:35.88	219.27	3.26	-47.0	-58.0	5.9	3.02e+01	92	28	0	14155776	60	30607
2026-01-18 04:04:36.89	219.37	3.32	-39.3	-41.3	22.2	3.02e+01	92	28	104	14680064	58	5040
2026-01-18 04:04:37.90	219.46	3.38	-44.2	-47.6	16.5	3.02e+01	92	28	0	15728640	60	9210
2026-01-18 04:04:38.91	219.56	3.43	-41.1	-43.3	21.3	3.02e+01	92	28	0	17825792	56	7080
2026-01-18 04:04:39.92	219.66	3.49	-42.0	-44.5	20.6	3.02e+01	92	28	0	19398656	60	6450
2026-01-18 04:04:40.92	219.76	3.55	-41.4	-43.5	21.3	3.02e+01	92	28	0	21495808	58	6496
2026-01-18 04:04:41.93	219.86	3.60	-41.5	-43.6	21.7	3.02e+01	92	28	0	23592960	58	6560
2026-01-18 04:04:42.94	219.96	3.66	-40.8	-42.8	22.0	3.02e+01	92	28	0	25165824	56	6713
2026-01-18 04:04:43.95	220.06	3.72	-41.7	-44.0	20.9	3.02e+01	92	28	0	27262976	58	6834
2026-01-18 04:04:44.96	220.17	3.77	-39.9	-41.8	23.5	3.02e+01	92	28	0	29360128	56	5927
2026-01-18 04:04:45.97	220.27	3.83	-41.1	-43.2	21.5	3.02e+01	92	28	0	30932992	54	7887
2026-01-18 04:04:46.98	220.37	3.89	-39.9	-41.8	23.0	3.02e+01	92	28	0	33030144	54	6674
2026-01-18 04:04:47.99	220.47	3.95	-40.4	-42.5	22.5	3.02e+01	92	28	0	34603008	54	7264
2026-01-18 04:04:49.00	220.58	4.00	-40.0	-42.0	22.8	3.02e+01	90	28	0	36700160	54	6865
2026-01-18 04:04:50.01	220.68	4.06	-39.8	-41.7	23.5	3.02e+01	92	28	0	38797312	54	6612
2026-01-18 04:04:51.02	220.78	4.12	-39.9	-41.8	23.1	3.02e+01	90	28	0	40370176	54	6668
2026-01-18 04:04:52.03	220.89	4.17	-39.6	-41.4	23.5	3.02e+01	92	28	0	42467328	54	6414
2026-01-18 04:04:53.04	220.99	4.23	-40.0	-41.9	23.1	3.02e+01	92	28	0	44040192	54	6777
2026-01-18 04:04:54.04	221.10	4.29	-39.4	-41.2	23.8	3.02e+01	92	28	0	46137344	54	6216
2026-01-18 04:04:55.05	221.20	4.35	-39.6	-41.4	23.5	3.02e+01	92	28	0	48234496	54	6402
2026-01-18 04:04:56.06	221.31	4.40	-39.9	-41.8	23.1	3.02e+01	91	28	0	49807360	54	6704
2026-01-18 04:04:57.07	221.42	4.46	-40.0	-41.9	22.9	3.02e+01	92	28	0	51904512	54	6731
2026-01-18 04:04:58.08	221.52	4.52	-39.9	-41.8	22.9	3.02e+01	92	28	0	54001664	54	6696
2026-01-18 04:04:59.09	221.63	4.58	-39.5	-41.4	23.7	3.02e+01	92	28	0	55574528	54	6378
2026-01-18 04:05:00.10	221.74	4.64	-39.0	-40.8	24.3	3.02e+01	88	28	0	57671680	52	6704
2026-01-18 04:05:01.11	221.85	4.69	-39.2	-41.1	24.0	3.02e+01	90	28	0	59244544	52	6916
2026-01-18 04:05:02.12	221.96	4.75	-39.3	-41.3	23.8	3.02e+01	92	28	0	61341696	52	7067
2026-01-18 04:05:03.13	222.07	4.81	-39.5	-41.5	23.8	3.02e+01	91	28	0	63438848	52	7270
2026-01-18 04:05:04.14	222.18	4.87	-39.6	-41.7	23.2	3.02e+01	89	28	0	65011712	52	7398
2026-01-18 04:05:05.14	222.28	4.93	-39.5	-41.8	23.3	3.02e+01	92	28	0	67108864	54	6656
2026-01-18 04:05:06.15	222.40	4.98	-39.5	-42.0	23.4	3.02e+01	92	28	0	68681728	54	6850
2026-01-18 04:05:07.16	222.51	5.04	-39.6	-42.3	23.2	3.02e+01	91	28	0	70778880	54	7077
2026-01-18 04:05:08.17	222.62	5.10	-39.8	-42.7	22.4	3.02e+01	90	28	0	72876032	54	7393
2026-01-18 04:05:09.18	222.73	5.16	-39.1	-41.8	23.3	3.02e+01	90	28	0	74448896	54	6695
2026-01-18 04:05:10.19	222.84	5.22	-39.2	-42.0	23.1	3.02e+01	92	28	0	76546048	54	6873
2026-01-18 04:05:11.20	222.96	5.28	-38.8	-41.6	23.6	3.02e+01	92	28	0	78118912	52	7299
2026-01-18 04:05:12.21	223.07	5.34	-38.5	-41.2	24.0	3.02e+01	91	28	0	80216064	52	6975
2026-01-18 04:05:13.22	223.18	5.39	-38.3	-41.0	24.2	3.02e+01	92	28	0	82313216	52	6862
2026-01-18 04:05:14.23	223.30	5.45	-38.2	-40.9	24.2	3.02e+01	91	28	0	83886080	52	6798
2026-01-18 04:05:15.24	223.41	5.51	-38.1	-41.0	24.2	3.02e+01	92	28	0	85983232	52	6816
2026-01-18 04:05:16.25	223.53	5.57	-38.6	-41.7	23.6	3.02e+01	92	28	0	87556096	52	7414
2026-01-18 04:05:17.26	223.64	5.63	-38.4	-41.3	23.8	3.02e+01	92	28	0	89653248	52	7094
2026-01-18 04:05:18.27	223.76	5.69	-38.2	-41.0	24.3	3.02e+01	88	28	0	91750400	52	6831
2026-01-18 04:05:19.28	223.88	5.75	-38.9	-41.8	23.4	3.02e+01	90	28	0	93323264	52	7506
2026-01-18 04:05:20.29	224.00	5.81	-39.1	-42.0	23.3	3.02e+01	91	28	0	95420416	52	7708
2026-01-18 04:05:21.30	224.11	5.87	-38.4	-40.9	24.3	3.02e+01	92	28	0	96993280	52	6778
2026-01-18 04:05:22.31	224.23	5.93	-39.0	-41.7	23.5	3.02e+01	89	28	0	99090432	52	7450
2026-01-18 04:05:23.32	224.35	5.98	-38.3	-40.6	24.6	3.02e+01	91	28	0	101187584	52	6547
2026-01-18 04:05:24.33	224.47	6.04	-39.2	-41.7	23.6	3.02e+01	90	28	0	102760448	52	7408
2026-01-18 04:05:25.34	224.59	6.10	-39.0	-41.4	23.9	3.02e+01	86	28	0	104857600	52	7135
2026-01-18 04:05:26.35	224.71	6.16	-39.2	-41.5	23.9	3.02e+01	90	28	0	106954752	52	7236
2026-01-18 04:05:27.36	224.83	6.22	-39.0	-41.2	24.1	3.02e+01	91	28	0	108527616	52	7019
2026-01-18 04:05:28.37	224.95	6.28	-39.3	-41.5	23.8	3.02e+01	92	28	0	110624768	52	7266
2026-01-18 04:05:29.38	225.08	6.34	-39.3	-41.6	23.8	3.02e+01	92	28	0	112197632	52	7319
2026-01-18 04:05:30.40	225.20	6.40	-39.3	-41.7	23.6	3.02e+01	92	28	0	114294784	52	7414
2026-01-18 04:05:31.40	225.32	6.46	-39.4	-41.8	23.5	3.02e+01	92	28	0	116391936	52	7463
2026-01-18 04:05:32.41	225.45	6.52	-39.4	-41.8	23.6	3.02e+01	92	28	0	117964800	52	7465
2026-01-18 04:05:33.42	225.57	6.58	-39.1	-41.3	23.9	3.02e+01	92	28	0	120061952	52	7123
2026-01-18 04:05:34.43	225.69	6.64	-39.1	-41.4	23.9	3.02e+01	90	28	0	122159104	52	7156
2026-01-18 04:05:35.45	225.82	6.70	-39.0	-41.3	24.1	3.02e+01	92	28	0	123731968	52	7056
2026-01-18 04:05:36.46	225.95	6.76	-39.3	-41.7	23.6	3.02e+01	90	28	0	125829120	52	7412
2026-01-18 04:05:37.47	226.07	6.82	-39.1	-41.6	23.7	3.02e+01	92	28	0	127401984	52	7367
2026-01-18 04:05:38.48	226.20	6.88	-39.1	-41.8	23.5	3.02e+01	92	28	0	129499136	52	7521
2026-01-18 04:05:39.48	226.33	6.94	-39.0	-41.7	23.6	3.02e+01	92	28	0	131596288	52	7431
2026-01-18 04:05:40.49	226.45	7.00	-39.1	-41.9	23.5	3.02e+01	92	28	0	133169152	52	7572
2026-01-18 04:05:41.50	226.58	7.06	-39.3	-41.9	23.5	3.02e+01	92	28	0	135266304	52	7552
2026-01-18 04:05:42.51	226.71	7.12	-39.4	-41.8	23.5	3.02e+01	92	28	0	136839168	52	7546
2026-01-18 04:05:43.52	226.84	7.18	-39.7	-42.0	23.3	3.02e+01	92	28	0	138936320	52	7721
2026-01-18 04:05:44.53	226.97	7.24	-39.8	-42.0	23.4	3.02e+01	92	28	0	141033472	52	7723
2026-01-18 04:05:45.54	227.10	7.30	-39.8	-42.1	23.3	3.02e+01	92	28	0	142606336	52	7730
2026-01-18 04:05:46.55	227.23	7.36	-40.0	-42.2	23.2	3.02e+01	92	28	0	144703488	54	6966
2026-01-18 04:05:47.56	227.37	7.42	-40.1	-42.0	23.3	3.02e+01	91	28	0	146276352	54	6870
2026-01-18 04:05:48.57	227.50	7.48	-40.2	-42.1	23.2	3.02e+01	91	28	0	148373504	54	6910
2026-01-18 04:05:49.58	227.63	7.54	-40.4	-42.5	22.9	3.02e+01	91	28	0	150470656	54	7277
2026-01-18 04:05:50.59	227.76	7.60	-40.2	-42.5	22.9	3.02e+01	92	28	0	152043520	54	7261
2026-01-18 04:05:51.60	227.90	7.66	-40.1	-42.5	23.0	3.02e+01	92	28	0	154140672	54	7229
2026-01-18 04:05:52.61	228.03	7.72	-40.0	-42.2	23.3	3.02e+01	92	28	0	155713536	54	7012
2026-01-18 04:05:53.62	228.17	7.79	-39.9	-42.1	23.4	3.02e+01	92	28	0	157810688	54	6897
2026-01-18 04:05:54.63	228.31	7.85	-40.2	-42.4	22.9	3.02e+01	91	28	0	159907840	54	7199
2026-01-18 04:05:55.64	228.44	7.91	-39.8	-42.2	23.2	3.02e+01	91	28	0	161480704	54	7031
2026-01-18 04:05:56.64	228.58	7.97	-39.7	-42.3	23.1	3.02e+01	92	28	0	163577856	54	7119
2026-01-18 04:05:57.65	228.72	8.03	-39.9	-42.5	22.9	3.02e+01	92	28	0	165150720	54	7222
2026-01-18 04:05:58.66	228.85	8.09	-39.9	-42.2	23.2	3.02e+01	92	28	0	167247872	54	6988
2026-01-18 04:05:59.67	228.99	8.15	-40.2	-42.3	23.1	3.02e+01	91	28	0	169345024	54	7110
2026-01-18 04:06:00.68	229.13	8.21	-40.4	-42.3	23.2	3.02e+01	91	28	0	170917888	54	7052
2026-01-18 04:06:01.69	229.27	8.27	-40.4	-42.2	23.2	3.02e+01	91	28	0	173015040	54	7013
2026-01-18 04:06:02.70	229.41	8.33	-40.6	-42.5	23.0	3.02e+01	89	28	0	175112192	54	7235
2026-01-18 04:06:03.71	229.56	8.39	-40.9	-42.8	22.6	3.02e+01	92	28	0	176685056	54	7547
2026-01-18 04:06:04.72	229.70	8.45	-40.6	-42.4	23.1	3.02e+01	89	28	0	178782208	54	7180
2026-01-18 04:06:05.73	229.84	8.51	-40.6	-42.5	23.0	3.02e+01	92	28	0	180355072	54	7263
2026-01-18 04:06:06.74	229.98	8.58	-40.6	-42.5	22.9	3.02e+01	91	28	0	182452224	54	7283
2026-01-18 04:06:07.74	230.13	8.64	-40.4	-42.4	23.1	3.02e+01	91	28	0	184549376	54	7193
2026-01-18 04:06:08.75	230.27	8.70	-40.4	-42.6	23.0	3.02e+01	92	28	0	186122240	54	7316
2026-01-18 04:06:09.76	230.42	8.76	-40.5	-42.8	22.8	3.02e+01	86	28	0	188219392	54	7516
2026-01-18 04:06:10.77	230.56	8.82	-40.3	-42.4	23.1	3.02e+01	90	28	0	190316544	54	7189
2026-01-18 04:06:11.78	230.71	8.88	-40.5	-42.6	23.0	3.02e+01	92	28	0	191889408	54	7334
2026-01-18 04:06:12.79	230.86	8.94	-40.6	-42.6	23.0	3.02e+01	92	28	0	193986560	54	7315
2026-01-18 04:06:13.80	231.00	9.00	-40.8	-42.7	22.9	3.02e+01	92	28	0	195559424	54	7400
2026-01-18 04:06:14.81	231.15	9.06	-40.7	-42.6	22.9	3.02e+01	92	28	0	197656576	54	7348
2026-01-18 04:06:15.82	231.30	9.12	-40.8	-42.7	22.8	3.02e+01	92	28	0	199229440	54	7453
2026-01-18 04:06:16.83	231.45	9.19	-40.6	-42.6	22.9	3.02e+01	89	28	0	201326592	54	7360
2026-01-18 04:06:17.84	231.60	9.25	-40.5	-42.5	23.0	3.02e+01	92	28	0	203423744	54	7276
2026-01-18 04:06:18.85	231.75	9.31	-40.5	-42.5	23.0	3.02e+01	92	28	0	204996608	54	7258
2026-01-18 04:06:19.86	231.90	9.37	-40.5	-42.5	23.0	3.02e+01	91	28	0	207093760	54	7267
2026-01-18 04:06:20.87	232.06	9.43	-40.5	-42.5	23.0	3.02e+01	94	28	0	209190912	54	7221
2026-01-18 04:06:21.88	232.21	9.49	-40.4	-42.2	23.4	3.02e+01	92	28	0	210763776	54	6985
2026-01-18 04:06:22.89	232.36	9.55	-40.6	-42.5	23.0	3.02e+01	92	28	0	212860928	54	7239
2026-01-18 04:06:23.90	232.52	9.61	-40.7	-42.5	23.0	3.02e+01	92	28	0	214433792	54	7287
2026-01-18 04:06:24.91	232.67	9.67	-40.6	-42.4	23.2	3.02e+01	91	28	0	216530944	54	7160
2026-01-18 04:06:25.92	232.83	9.74	-40.5	-42.2	23.3	3.02e+01	89	28	0	218628096	54	7035
2026-01-18 04:06:26.93	232.99	9.80	-40.4	-42.2	23.3	3.02e+01	91	28	0	220200960	54	7014
2026-01-18 04:06:27.94	233.14	9.86	-40.4	-42.2	23.3	3.02e+01	91	28	0	222298112	54	7033
2026-01-18 04:06:28.95	233.30	9.92	-40.8	-42.7	23.0	3.02e+01	91	28	0	223870976	54	7418
2026-01-18 04:06:29.95	233.46	9.98	-40.6	-42.4	23.1	3.02e+01	92	28	0	225968128	54	7189
2026-01-18 04:06:30.96	233.62	10.04	-40.8	-42.7	22.8	3.02e+01	92	28	0	228065280	54	7446
2026-01-18 04:06:31.97	233.78	10.10	-41.0	-42.8	22.8	3.02e+01	92	28	0	229638144	56	6713
2026-01-18 04:06:32.98	233.94	10.16	-40.8	-42.6	23.2	3.02e+01	90	28	0	231735296	56	6538
2026-01-18 04:06:33.99	234.10	10.22	-40.5	-42.3	23.5	3.02e+01	91	28	0	233308160	56	6329
2026-01-18 04:06:35.00	234.26	10.28	-40.2	-41.9	23.8	3.02e+01	90	28	0	235405312	56	6059
2026-01-18 04:06:36.01	234.42	10.35	-39.9	-41.6	24.0	3.02e+01	91	28	0	237502464	54	6544
2026-01-18 04:06:37.01	234.59	10.41	-40.0	-41.7	23.9	3.02e+01	92	28	0	239075328	54	6648
2026-01-18 04:06:38.02	234.75	10.47	-40.0	-41.6	23.9	3.02e+01	92	28	0	241172480	54	6560
2026-01-18 04:06:39.03	234.92	10.53	-39.8	-41.5	24.1	3.02e+01	92	28	0	243269632	54	6436
2026-01-18 04:06:40.04	235.08	10.59	-39.7	-41.4	24.2	3.02e+01	92	28	0	244842496	54	6361
2026-01-18 04:06:41.05	235.25	10.65	-39.5	-41.1	24.4	3.02e+01	92	28	0	246939648	54	6201
2026-01-18 04:06:42.06	235.41	10.71	-39.7	-41.3	24.3	3.02e+01	92	28	0	248512512	54	6313
2026-01-18 04:06:43.07	235.58	10.77	-39.5	-41.1	24.4	3.02e+01	92	28	0	250609664	54	6205
2026-01-18 04:06:44.09	235.75	10.83	-39.5	-41.1	24.4	3.02e+01	90	28	0	252706816	54	6193
2026-01-18 04:06:45.10	235.92	10.89	-39.4	-41.1	24.4	3.02e+01	91	28	0	254279680	54	6173
2026-01-18 04:06:46.10	236.09	10.95	-39.4	-41.1	24.5	3.02e+01	92	28	0	256376832	54	6142
2026-01-18 04:06:47.11	236.26	11.01	-39.1	-40.7	24.8	3.02e+01	92	28	0	257949696	54	5897
2026-01-18 04:06:48.12	236.43	11.07	-39.2	-40.8	24.8	3.02e+01	89	28	0	260046848	54	5956
2026-01-18 04:06:49.13	236.60	11.13	-39.0	-40.6	25.0	3.02e+01	92	28	0	262144000	54	5842
2026-01-18 04:06:50.14	236.78	11.19	-39.1	-40.7	24.8	3.02e+01	90	28	0	263716864	54	5890
2026-01-18 04:06:51.15	236.95	11.26	-39.2	-40.8	24.7	3.02e+01	92	28	0	265814016	54	5963
2026-01-18 04:06:52.16	237.13	11.32	-39.0	-40.6	25.0	3.02e+01	90	28	0	267386880	54	5820
2026-01-18 04:06:53.17	237.30	11.38	-38.7	-40.2	25.3	3.02e+01	91	28	0	269484032	52	6236
2026-01-18 04:06:54.18	237.48	11.44	-38.8	-40.3	25.3	3.02e+01	90	28	0	271581184	52	6317
2026-01-18 04:06:55.19	237.65	11.50	-38.5	-40.0	25.5	3.02e+01	94	28	0	273154048	52	6104
2026-01-18 04:06:56.20	237.83	11.56	-38.5	-40.0	25.5	3.02e+01	92	28	0	275251200	52	6112
2026-01-18 04:06:57.21	238.01	11.62	-38.6	-40.1	25.4	3.02e+01	90	28	0	276824064	52	6203
2026-01-18 04:06:58.22	238.19	11.68	-38.7	-40.3	25.3	3.02e+01	91	28	0	278921216	52	6278
2026-01-18 04:06:59.23	238.37	11.74	-38.4	-39.9	25.7	3.02e+01	90	28	0	281018368	52	6022
2026-01-18 04:07:00.23	238.55	11.80	-38.3	-39.8	25.7	3.02e+01	92	28	0	282591232	52	5971
2026-01-18 04:07:01.24	238.73	11.85	-38.3	-39.8	25.7	3.02e+01	92	28	0	284688384	52	5957
2026-01-18 04:07:02.25	238.91	11.91	-38.3	-39.7	25.8	3.02e+01	91	28	0	286785536	52	5913
2026-01-18 04:07:03.26	239.09	11.97	-38.2	-39.6	25.9	3.02e+01	92	28	0	288358400	52	5846
2026-01-18 04:07:04.27	239.28	12.03	-37.9	-39.4	26.0	3.02e+01	90	28	0	290455552	52	5666
2026-01-18 04:07:05.28	239.46	12.09	-37.5	-38.8	26.7	3.02e+01	92	28	0	292028416	50	5990
2026-01-18 04:07:06.29	239.65	12.15	-37.3	-38.7	26.9	3.02e+01	91	28	0	294125568	50	5864
2026-01-18 04:07:07.30	239.83	12.21	-37.1	-38.5	27.0	3.02e+01	88	28	0	296222720	50	5746
2026-01-18 04:07:08.31	240.02	12.27	-37.4	-38.8	26.8	3.02e+01	92	28	0	297795584	50	5955
2026-01-18 04:07:09.32	240.21	12.33	-37.2	-38.6	27.0	3.02e+01	92	28	0	299892736	50	5820
2026-01-18 04:07:10.33	240.39	12.39	-37.1	-38.5	27.1	3.02e+01	91	28	0	301465600	50	5738
2026-01-18 04:07:11.34	240.58	12.45	-37.1	-38.5	27.1	3.02e+01	92	28	0	303562752	50	5731
2026-01-18 04:07:12.35	240.77	12.51	-37.1	-38.4	27.2	3.02e+01	92	28	0	305659904	48	6380
2026-01-18 04:07:13.36	240.96	12.56	-36.9	-38.3	27.2	3.02e+01	92	28	0	307232768	48	6288
2026-01-18 04:07:14.36	241.15	12.62	-36.9	-38.3	27.4	3.02e+01	91	28	0	309329920	48	6283
2026-01-18 04:07:15.37	241.34	12.68	-36.6	-37.9	27.6	3.02e+01	92	28	0	311427072	48	6047
2026-01-18 04:07:16.38	241.54	12.74	-36.6	-38.0	27.6	3.02e+01	92	28	0	312999936	48	6065
2026-01-18 04:07:17.39	241.73	12.80	-36.2	-37.5	28.1	3.02e+01	91	28	0	315097088	48	5739
2026-01-18 04:07:18.40	241.93	12.85	-36.3	-37.6	27.9	3.02e+01	92	28	0	316669952	48	5804
2026-01-18 04:07:19.41	242.12	12.91	-36.5	-37.8	27.7	3.02e+01	92	28	0	318767104	48	5959
2026-01-18 04:07:20.42	242.32	12.97	-36.4	-37.6	27.9	3.02e+01	92	28	0	320339968	48	5852
2026-01-18 04:07:21.43	242.51	13.03	-36.4	-37.7	27.9	3.02e+01	92	28	0	322437120	48	5882
2026-01-18 04:07:22.44	242.71	13.08	-36.0	-37.3	28.2	3.02e+01	92	28	0	324534272	48	5616
2026-01-18 04:07:23.44	242.91	13.14	-36.1	-37.4	28.1	3.02e+01	92	28	0	326107136	48	5672
2026-01-18 04:07:24.45	243.11	13.20	-35.9	-37.2	28.3	3.02e+01	92	28	0	328204288	46	6226
2026-01-18 04:07:25.46	243.31	13.25	-35.8	-37.1	28.4	3.02e+01	91	28	0	329777152	46	6157
2026-01-18 04:07:26.47	243.51	13.31	-35.8	-37.1	28.4	3.02e+01	86	28	0	331874304	46	6166
2026-01-18 04:07:27.48	243.71	13.37	-35.9	-37.1	28.4	3.02e+01	92	28	0	333971456	46	6192
2026-01-18 04:07:28.49	243.91	13.42	-36.0	-37.2	28.3	3.02e+01	92	28	0	335544320	46	6270
2026-01-18 04:07:29.50	244.12	13.48	-35.9	-37.1	28.5	3.02e+01	92	28	0	337641472	46	6199
2026-01-18 04:07:30.51	244.32	13.54	-35.6	-36.8	28.7	3.02e+01	92	28	0	339738624	46	5960
2026-01-18 04:07:31.52	244.53	13.59	-35.6	-36.9	28.6	3.02e+01	92	28	0	341311488	46	6008
2026-01-18 04:07:32.53	244.73	13.65	-35.5	-36.7	28.7	3.02e+01	92	28	0	343408640	46	5909
2026-01-18 04:07:33.54	244.94	13.70	-35.7	-36.9	28.6	3.02e+01	92	28	0	344981504	46	6039
2026-01-18 04:07:34.55	245.15	13.76	-35.5	-36.7	28.8	3.02e+01	90	28	0	347078656	46	5892
2026-01-18 04:07:35.56	245.35	13.81	-35.6	-36.8	28.7	3.02e+01	91	28	0	349175808	46	5973
2026-01-18 04:07:36.57	245.56	13.87	-35.6	-36.9	28.7	3.02e+01	92	28	0	350748672	46	5997
2026-01-18 04:07:37.58	245.77	13.92	-35.5	-36.7	28.9	3.02e+01	91	28	0	352845824	46	5883
2026-01-18 04:07:38.59	245.98	13.98	-35.5	-36.7	28.8	3.02e+01	91	28	0	354942976	46	5919
2026-01-18 04:07:39.60	246.19	14.03	-35.4	-36.6	28.9	3.02e+01	90	28	0	356515840	46	5835
2026-01-18 04:07:40.61	246.41	14.09	-35.5	-36.7	28.8	3.02e+01	91	28	0	358612992	46	5890
2026-01-18 04:07:41.62	246.62	14.14	-35.5	-36.7	28.8	3.02e+01	92	28	0	360185856	46	5884
2026-01-18 04:07:42.63	246.83	14.19	-35.5	-36.8	28.8	3.02e+01	92	28	0	362283008	46	5932
2026-01-18 04:07:43.63	247.05	14.25	-35.6	-36.9	28.8	3.02e+01	92	28	0	364380160	46	6023
2026-01-18 04:07:44.64	247.26	14.30	-35.6	-36.9	28.7	3.02e+01	92	28	0	365953024	46	6003
2026-01-18 04:07:45.65	247.48	14.35	-35.7	-36.9	28.7	3.02e+01	91	28	0	368050176	46	6050
2026-01-18 04:07:46.66	247.69	14.41	-35.8	-37.1	28.6	3.02e+01	92	28	0	369623040	46	6173
2026-01-18 04:07:47.67	247.91	14.46	-35.5	-36.7	28.9	3.02e+01	92	28	0	371720192	46	5918
2026-01-18 04:07:48.68	248.13	14.51	-35.4	-36.7	28.9	3.02e+01	87	28	0	373817344	46	5865
2026-01-18 04:07:49.69	248.35	14.56	-35.4	-36.6	28.9	3.02e+01	91	28	0	375390208	46	5856
2026-01-18 04:07:50.69	248.57	14.61	-35.4	-36.6	28.9	3.02e+01	91	28	0	377487360	46	5851
2026-01-18 04:07:51.70	248.79	14.66	-35.4	-36.6	28.9	3.02e+01	90	28	0	379060224	46	5829
2026-01-18 04:07:52.71	249.01	14.72	-35.4	-36.7	28.9	3.02e+01	91	28	0	381157376	46	5869
2026-01-18 04:07:53.72	249.23	14.77	-35.5	-36.8	28.7	3.02e+01	92	28	0	383254528	46	5942
2026-01-18 04:07:54.73	249.46	14.82	-35.7	-36.9	28.7	3.02e+01	91	28	0	384827392	46	6044
2026-01-18 04:07:55.74	249.68	14.87	-35.7	-36.9	28.6	3.02e+01	91	28	0	386924544	46	6032
2026-01-18 04:07:56.75	249.91	14.92	-35.9	-37.1	28.5	3.02e+01	90	28	0	388497408	46	6180
2026-01-18 04:07:57.76	250.13	14.97	-35.5	-36.7	28.8	3.02e+01	91	28	0	390594560	46	5925
2026-01-18 04:07:58.77	250.36	15.02	-35.7	-36.9	28.6	3.02e+01	90	28	0	392691712	46	6048
2026-01-18 04:07:59.78	250.58	15.07	-35.8	-37.1	28.6	3.02e+01	92	28	0	394264576	46	6154
2026-01-18 04:08:00.79	250.81	15.12	-35.7	-37.0	28.5	3.02e+01	92	28	0	396361728	46	6072
2026-01-18 04:08:01.80	251.04	15.17	-36.0	-37.3	28.6	3.02e+01	90	28	0	397934592	46	6303
2026-01-18 04:08:02.81	251.27	15.21	-35.7	-36.9	28.6	3.02e+01	92	28	0	400031744	46	6062
2026-01-18 04:08:03.82	251.50	15.26	-35.4	-36.6	28.9	3.02e+01	92	28	0	402128896	46	5824
2026-01-18 04:08:04.82	251.73	15.31	-35.4	-36.6	29.0	3.02e+01	91	28	0	403701760	46	5815
2026-01-18 04:08:05.84	251.96	15.36	-35.6	-36.8	28.8	3.02e+01	89	28	0	405798912	46	5989
2026-01-18 04:08:06.85	252.20	15.40	-35.5	-36.7	29.0	3.02e+01	92	28	0	407896064	46	5891
2026-01-18 04:08:07.85	252.43	15.45	-35.5	-36.7	29.0	3.02e+01	86	28	0	409468928	46	5920
2026-01-18 04:08:08.86	252.66	15.50	-35.5	-36.7	28.8	3.02e+01	92	28	0	411566080	46	5914
2026-01-18 04:08:09.88	252.90	15.54	-35.4	-36.6	29.0	3.02e+01	92	28	0	413138944	46	5858
2026-01-18 04:08:10.88	253.13	15.59	-35.2	-36.5	29.1	3.02e+01	92	28	0	415236096	46	5732
2026-01-18 04:08:11.89	253.37	15.63	-35.5	-36.7	28.9	3.02e+01	92	28	0	417333248	46	5917
2026-01-18 04:08:12.90	253.61	15.68	-35.2	-36.4	29.1	3.02e+01	92	28	0	418906112	46	5701
2026-01-18 04:08:13.91	253.84	15.72	-35.4	-36.6	28.9	3.02e+01	92	28	0	421003264	46	5830
2026-01-18 04:08:14.92	254.08	15.77	-35.3	-36.5	29.1	3.02e+01	92	28	0	422576128	46	5780
2026-01-18 04:08:15.92	254.32	15.81	-35.4	-36.6	29.0	3.02e+01	92	28	0	424673280	46	5856
2026-01-18 04:08:16.93	254.56	15.86	-35.4	-36.7	28.9	3.02e+01	92	28	0	426770432	46	5864
2026-01-18 04:08:17.94	254.80	15.90	-35.4	-36.6	29.0	3.02e+01	92	28	0	428343296	46	5831
2026-01-18 04:08:18.95	255.04	15.94	-35.3	-36.5	29.1	3.02e+01	90	28	0	430440448	46	5762
2026-01-18 04:08:19.96	255.28	15.99	-35.5	-36.7	28.8	3.02e+01	92	28	0	432013312	46	5911
2026-01-18 04:08:20.97	255.53	16.03	-35.2	-36.4	29.1	3.02e+01	90	28	0	434110464	46	5716
2026-01-18 04:08:21.98	255.77	16.07	-35.4	-36.6	29.0	3.02e+01	92	28	0	436207616	46	5832
2026-01-18 04:08:22.99	256.02	16.11	-35.4	-36.6	29.0	3.02e+01	90	28	0	437780480	46	5820
2026-01-18 04:08:24.00	256.26	16.15	-35.2	-36.4	29.1	3.02e+01	92	28	0	439877632	46	5668
2026-01-18 04:08:25.01	256.51	16.19	-35.3	-36.6	29.1	3.02e+01	92	28	0	441450496	46	5803
2026-01-18 04:08:26.02	256.75	16.23	-35.1	-36.4	29.2	3.02e+01	92	28	0	443547648	46	5664
2026-01-18 04:08:27.03	257.00	16.27	-35.4	-36.7	28.9	3.02e+01	92	28	0	445644800	46	5868
2026-01-18 04:08:28.04	257.25	16.31	-35.3	-36.5	29.0	3.02e+01	92	28	0	447217664	46	5779
2026-01-18 04:08:29.05	257.50	16.35	-35.3	-36.5	29.0	3.02e+01	90	28	0	449314816	46	5778
2026-01-18 04:08:30.06	257.75	16.39	-35.3	-36.6	29.1	3.02e+01	88	28	0	451411968	46	5802
2026-01-18 04:08:31.07	257.99	16.43	-35.5	-36.7	29.0	3.02e+01	90	28	0	452984832	46	5887
2026-01-18 04:08:32.08	258.25	16.47	-35.4	-36.6	29.0	3.02e+01	92	28	0	455081984	46	5831
2026-01-18 04:08:33.08	258.49	16.50	-35.4	-36.6	29.1	3.02e+01	90	28	0	456654848	46	5820
2026-01-18 04:08:34.09	258.75	16.54	-35.4	-36.7	29.0	3.02e+01	92	28	0	458752000	46	5865
2026-01-18 04:08:35.10	259.00	16.58	-35.2	-36.4	29.2	3.02e+01	90	28	0	460849152	46	5720
2026-01-18 04:08:36.11	259.25	16.61	-35.4	-36.7	29.0	3.02e+01	92	28	0	462422016	46	5869
2026-01-18 04:08:37.12	259.50	16.65	-35.5	-36.8	28.9	3.02e+01	92	28	0	464519168	46	5933
2026-01-18 04:08:38.13	259.76	16.68	-35.2	-36.4	29.3	3.02e+01	91	28	0	466092032	46	5663
2026-01-18 04:08:39.14	260.01	16.72	-35.2	-36.4	29.1	3.02e+01	90	28	0	468189184	46	5705
2026-01-18 04:08:40.15	260.27	16.75	-35.4	-36.7	29.0	3.02e+01	91	28	0	470286336	46	5866
2026-01-18 04:08:41.16	260.52	16.79	-35.4	-36.6	29.0	3.02e+01	90	28	0	471859200	46	5844
2026-01-18 04:08:42.17	260.78	16.82	-35.4	-36.7	29.0	3.02e+01	92	28	0	473956352	46	5861
2026-01-18 04:08:43.17	261.04	16.85	-35.4	-36.6	29.0	3.02e+01	92	28	0	476053504	46	5808
2026-01-18 04:08:44.18	261.29	16.88	-35.9	-37.2	28.6	3.02e+01	92	28	0	477626368	46	6234
2026-01-18 04:08:45.19	261.55	16.91	-35.6	-36.8	28.8	3.02e+01	89	28	0	479723520	46	5959
2026-01-18 04:08:46.20	261.81	16.95	-35.2	-36.4	29.2	3.02e+01	90	28	0	481296384	46	5691
2026-01-18 04:08:47.21	262.07	16.98	-35.3	-36.5	29.1	3.02e+01	92	28	0	483393536	46	5776
2026-01-18 04:08:48.22	262.33	17.01	-35.4	-36.6	29.1	3.02e+01	90	28	0	485490688	46	5813
2026-01-18 04:08:49.23	262.59	17.04	-35.3	-36.5	29.1	3.02e+01	90	28	0	487063552	46	5750
2026-01-18 04:08:50.23	262.85	17.07	-35.5	-36.8	29.0	3.02e+01	92	28	0	489160704	46	5942
2026-01-18 04:08:51.25	263.11	17.09	-35.5	-36.7	29.0	3.02e+01	91	28	0	490733568	46	5899
2026-01-18 04:08:52.25	263.37	17.12	-35.6	-36.8	28.9	3.02e+01	90	28	0	492830720	46	5987
2026-01-18 04:08:53.27	263.64	17.15	-35.3	-36.5	29.1	3.02e+01	92	28	0	494403584	46	5783
2026-01-18 04:08:54.27	263.90	17.18	-35.4	-36.7	28.9	3.02e+01	91	28	0	496500736	46	5859
2026-01-18 04:08:55.29	264.16	17.20	-35.7	-37.0	28.7	3.02e+01	92	28	0	498597888	46	6067
2026-01-18 04:08:56.30	264.43	17.23	-35.6	-36.9	28.9	3.02e+01	91	28	0	500170752	46	6008
2026-01-18 04:08:57.31	264.69	17.26	-49.1	-58.3	26.1	3.02e+01	92	28	0	502267904	60	31496
2026-01-18 04:08:58.32	264.96	17.28	-36.2	-37.4	27.8	3.02e+01	91	28	0	503840768	48	5707
2026-01-18 04:08:59.33	265.22	17.31	-36.4	-37.6	28.4	3.02e+01	92	28	0	505937920	46	6567
2026-01-18 04:09:00.34	265.49	17.33	-35.8	-37.0	29.0	3.02e+01	91	28	0	508035072	46	6116
2026-01-18 04:09:01.35	265.75	17.35	-35.4	-36.7	29.0	3.02e+01	92	28	0	509607936	46	5867
2026-01-18 04:09:02.35	266.02	17.38	-35.5	-36.7	29.0	3.02e+01	89	28	0	511705088	46	5900
2026-01-18 04:09:03.36	266.29	17.40	-35.7	-37.0	28.7	3.02e+01	92	28	0	513277952	46	6075
2026-01-18 04:09:04.37	266.55	17.42	-35.4	-36.6	29.0	3.02e+01	91	28	0	515375104	46	5848
2026-01-18 04:09:05.38	266.82	17.44	-35.3	-36.5	29.2	3.02e+01	91	28	0	517472256	46	5728
2026-01-18 04:09:06.39	267.09	17.46	-35.3	-36.5	29.2	3.02e+01	90	28	0	519045120	46	5746
2026-01-18 04:09:07.40	267.36	17.48	-35.6	-36.8	28.9	3.02e+01	92	28	0	521142272	46	5987
2026-01-18 04:09:08.41	267.63	17.50	-35.4	-36.7	29.0	3.02e+01	87	28	0	523239424	46	5868
2026-01-18 04:09:09.42	267.90	17.52	-35.5	-36.8	28.9	3.02e+01	92	28	0	524812288	46	5932
2026-01-18 04:09:10.43	268.16	17.54	-35.4	-36.6	28.9	3.02e+01	92	28	0	526909440	46	5858
2026-01-18 04:09:11.44	268.43	17.56	-35.5	-36.7	29.0	3.02e+01	93	28	0	528482304	46	5890
2026-01-18 04:09:12.45	268.70	17.58	-35.2	-36.4	29.1	3.02e+01	92	28	0	530579456	46	5699
2026-01-18 04:09:13.46	268.98	17.59	-35.2	-36.4	29.2	3.02e+01	92	28	0	532676608	46	5680
2026-01-18 04:09:14.46	269.24	17.61	-35.3	-36.5	29.0	3.02e+01	92	28	0	534249472	46	5761
2026-01-18 04:09:15.48	269.52	17.62	-35.2	-36.4	29.3	3.02e+01	92	28	0	536346624	46	5684
2026-01-18 04:09:16.48	269.79	17.64	-35.4	-36.6	29.0	3.02e+01	92	28	0	537919488	46	5841
2026-01-18 04:09:17.49	270.06	17.65	-35.4	-36.6	28.9	3.02e+01	92	28	0	540016640	46	5841
2026-01-18 04:09:18.50	270.33	17.67	-35.3	-36.5	29.1	3.02e+01	92	28	0	542113792	46	5774
2026-01-18 04:09:19.51	270.60	17.68	-35.4	-36.6	29.1	3.02e+01	92	28	0	543686656	46	5827
2026-01-18 04:09:20.52	270.87	17.69	-35.3	-36.5	29.0	3.02e+01	92	28	0	545783808	46	5759
2026-01-18 04:09:21.53	271.15	17.70	-35.3	-36.6	29.0	3.02e+01	92	28	0	547880960	46	5802
2026-01-18 04:09:22.53	271.42	17.72	-35.4	-36.6	29.0	3.02e+01	92	28	0	549453824	46	5831
2026-01-18 04:09:23.55	271.69	17.73	-35.1	-36.3	29.3	3.02e+01	92	28	0	551550976	46	5659
2026-01-18 04:09:24.55	271.96	17.74	-35.2	-36.4	29.2	3.02e+01	92	28	0	553123840	46	5715
2026-01-18 04:09:25.56	272.24	17.75	-35.3	-36.5	29.1	3.02e+01	92	28	0	555220992	46	5757
2026-01-18 04:09:26.57	272.51	17.76	-35.3	-36.5	29.1	3.02e+01	92	28	0	557318144	46	5775
2026-01-18 04:09:27.58	272.78	17.76	-35.4	-36.6	29.1	3.02e+01	87	28	0	558891008	46	5810
2026-01-18 04:09:28.59	273.06	17.77	-35.3	-36.5	29.2	3.02e+01	90	28	0	560988160	46	5738
2026-01-18 04:09:29.60	273.33	17.78	-35.3	-36.6	29.1	3.02e+01	91	28	0	562561024	46	5794
2026-01-18 04:09:30.61	273.61	17.79	-35.4	-36.6	29.1	3.02e+01	90	28	0	564658176	46	5841
2026-01-18 04:09:31.62	273.88	17.79	-35.4	-36.6	29.1	3.02e+01	92	28	0	566231040	46	5826
2026-01-18 04:09:32.63	274.15	17.80	-35.2	-36.5	29.2	3.02e+01	92	28	0	568328192	46	5737
2026-01-18 04:09:33.64	274.43	17.80	-35.2	-36.4	29.1	3.02e+01	91	28	0	570425344	46	5715
2026-01-18 04:09:34.65	274.70	17.81	-35.4	-36.6	29.0	3.02e+01	92	28	0	571998208	46	5821
2026-01-18 04:09:35.66	274.98	17.81	-35.2	-36.4	29.2	3.02e+01	92	28	0	574095360	46	5714
2026-01-18 04:09:36.67	275.25	17.81	-35.2	-36.4	29.2	3.02e+01	90	28	0	576192512	46	5665
2026-01-18 04:09:37.67	275.52	17.82	-35.2	-36.4	29.2	3.02e+01	91	28	0	577765376	46	5715
2026-01-18 04:09:38.69	275.80	17.82	-35.1	-36.4	29.2	3.02e+01	91	28	0	579862528	46	5665
2026-01-18 04:09:39.69	276.07	17.82	-35.1	-36.3	29.3	3.02e+01	91	28	0	581435392	46	5639
2026-01-18 04:09:40.70	276.35	17.82	-35.4	-36.6	29.1	3.02e+01	91	28	0	583532544	46	5840
2026-01-18 04:09:41.71	276.62	17.82	-35.5	-36.7	28.9	3.02e+01	92	28	0	585629696	46	5906
2026-01-18 04:09:42.72	276.90	17.82	-35.8	-37.0	28.5	3.02e+01	92	28	0	587202560	46	6134
2026-01-18 04:09:43.73	277.17	17.82	-36.0	-37.3	28.5	3.02e+01	92	28	0	589299712	46	6315
2026-01-18 04:09:44.74	277.45	17.82	-35.8	-37.1	28.7	3.02e+01	92	28	0	591396864	46	6147
2026-01-18 04:09:45.75	277.72	17.81	-35.8	-37.1	28.7	3.02e+01	92	28	0	592969728	46	6139
2026-01-18 04:09:46.76	278.00	17.81	-35.9	-37.1	28.7	3.02e+01	92	28	0	595066880	46	6190
2026-01-18 04:09:47.77	278.27	17.81	-35.9	-37.2	28.3	3.02e+01	92	28	0	596639744	46	6215
2026-01-18 04:09:48.78	278.55	17.80	-36.0	-37.3	28.7	3.02e+01	92	28	0	598736896	46	6309
2026-01-18 04:09:49.79	278.82	17.80	-36.1	-37.3	28.2	3.02e+01	92	28	0	600834048	46	6343
2026-01-18 04:09:50.80	279.09	17.79	-36.3	-37.6	28.6	3.02e+01	90	28	0	602406912	46	6502
2026-01-18 04:09:51.80	279.37	17.79	-35.8	-37.0	28.6	3.02e+01	91	28	0	604504064	46	6113
2026-01-18 04:09:52.81	279.64	17.78	-36.4	-37.7	28.0	3.02e+01	92	28	0	606076928	46	6579
2026-01-18 04:09:53.82	279.91	17.77	-36.5	-37.8	28.1	3.02e+01	91	28	0	608174080	46	6685
2026-01-18 04:09:54.83	280.19	17.76	-36.5	-37.8	28.1	3.02e+01	91	28	0	610271232	46	6697
2026-01-18 04:09:55.84	280.46	17.76	-36.0	-37.3	28.4	3.02e+01	92	28	0	611844096	46	6311
2026-01-18 04:09:56.85	280.73	17.75	-36.4	-37.6	28.0	3.02e+01	91	28	0	613941248	46	6563
2026-01-18 04:09:57.86	281.01	17.74	-36.1	-37.4	28.4	3.02e+01	92	28	0	615514112	46	6402
2026-01-18 04:09:58.87	281.28	17.73	-35.6	-36.8	28.8	3.02e+01	91	28	0	617611264	46	5990
2026-01-18 04:09:59.88	281.55	17.72	-35.6	-36.9	28.8	3.02e+01	92	28	0	619708416	46	6009
2026-01-18 04:10:00.89	281.83	17.70	-35.4	-36.6	29.1	3.02e+01	92	28	0	621281280	46	5852
2026-01-18 04:10:01.90	282.10	17.69	-35.6	-36.8	28.9	3.02e+01	92	28	0	623378432	46	5972
2026-01-18 04:10:02.91	282.37	17.68	-35.9	-37.2	28.6	3.02e+01	90	28	0	624951296	46	6210
2026-01-18 04:10:03.91	282.64	17.67	-35.4	-36.6	29.1	3.02e+01	92	28	0	627048448	46	5833
2026-01-18 04:10:04.92	282.91	17.65	-35.3	-36.5	29.1	3.02e+01	92	28	0	629145600	46	5753
2026-01-18 04:10:05.93	283.18	17.64	-35.2	-36.4	29.3	3.02e+01	92	28	0	630718464	46	5712
2026-01-18 04:10:06.94	283.45	17.62	-35.6	-36.8	29.0	3.02e+01	92	28	0	632815616	46	5959
2026-01-18 04:10:07.95	283.72	17.61	-35.3	-36.5	29.2	3.02e+01	90	28	0	634388480	46	5757
2026-01-18 04:10:08.96	283.99	17.59	-35.0	-36.2	29.4	3.02e+01	87	28	0	636485632	46	5580
2026-01-18 04:10:09.97	284.27	17.58	-35.2	-36.4	29.3	3.02e+01	92	28	0	638582784	46	5679
2026-01-18 04:10:10.98	284.53	17.56	-35.3	-36.5	29.2	3.02e+01	91	28	0	640155648	46	5751
2026-01-18 04:10:11.99	284.80	17.54	-35.1	-36.3	29.3	3.02e+01	89	28	0	642252800	46	5637
2026-01-18 04:10:13.00	285.07	17.52	-35.1	-36.3	29.3	3.02e+01	90	28	0	644349952	46	5635
2026-01-18 04:10:14.01	285.34	17.50	-35.3	-36.6	29.2	3.02e+01	92	28	0	645922816	46	5798
2026-01-18 04:10:15.02	285.61	17.48	-35.3	-36.5	29.2	3.02e+01	92	28	0	648019968	46	5733
2026-01-18 04:10:16.03	285.88	17.46	-35.2	-36.5	29.2	3.02e+01	92	28	0	649592832	46	5728
2026-01-18 04:10:17.04	286.15	17.44	-35.3	-36.5	29.2	3.02e+01	90	28	0	651689984	46	5791
2026-01-18 04:10:18.04	286.41	17.42	-35.4	-36.7	29.1	3.02e+01	92	28	0	653787136	46	5870
2026-01-18 04:10:19.05	286.68	17.40	-35.3	-36.5	29.3	3.02e+01	92	28	0	655360000	46	5784
2026-01-18 04:10:20.06	286.94	17.38	-35.1	-36.3	29.4	3.02e+01	90	28	0	657457152	46	5653
2026-01-18 04:10:21.07	287.21	17.35	-35.6	-36.8	29.3	3.02e+01	92	28	0	659554304	46	5992
2026-01-18 04:10:22.08	287.48	17.33	-35.4	-36.6	29.2	3.02e+01	92	28	0	661127168	46	5855
2026-01-18 04:10:23.09	287.74	17.31	-35.4	-36.6	29.2	3.02e+01	90	28	0	663224320	46	5853
2026-01-18 04:10:24.10	288.01	17.28	-35.6	-36.8	29.0	3.02e+01	92	28	0	664797184	46	5979
2026-01-18 04:10:25.11	288.27	17.26	-35.5	-36.8	29.1	3.02e+01	92	28	0	666894336	46	5935
2026-01-18 04:10:26.12	288.53	17.23	-35.5	-36.7	29.1	3.02e+01	92	28	0	668991488	46	5894
2026-01-18 04:10:27.13	288.80	17.21	-35.1	-36.3	29.3	3.02e+01	91	28	0	670564352	46	5597
2026-01-18 04:10:28.14	289.06	17.18	-35.2	-36.4	29.4	3.02e+01	92	28	0	672661504	46	5674
2026-01-18 04:10:29.15	289.32	17.15	-35.3	-36.5	29.3	3.02e+01	90	28	0	674234368	46	5774
2026-01-18 04:10:30.16	289.58	17.12	-35.2	-36.4	29.5	3.02e+01	89	28	0	676331520	46	5695
2026-01-18 04:10:31.17	289.85	17.10	-35.3	-36.5	29.3	3.02e+01	91	28	0	677904384	46	5726
2026-01-18 04:10:32.18	290.11	17.07	-35.4	-36.6	29.3	3.02e+01	92	28	0	680001536	46	5831
2026-01-18 04:10:33.19	290.37	17.04	-35.4	-36.6	29.3	3.02e+01	91	28	0	682098688	46	5823
2026-01-18 04:10:34.20	290.63	17.01	-35.2	-36.5	29.3	3.02e+01	91	28	0	683671552	46	5728
2026-01-18 04:10:35.20	290.88	16.98	-35.1	-36.3	29.4	3.02e+01	91	28	0	685768704	46	5621
2026-01-18 04:10:36.21	291.14	16.95	-35.4	-36.6	29.4	3.02e+01	90	28	0	687865856	46	5811
2026-01-18 04:10:37.22	291.40	16.92	-35.1	-36.3	29.4	3.02e+01	92	28	0	689438720	46	5620
2026-01-18 04:10:38.23	291.66	16.89	-35.4	-36.6	29.3	3.02e+01	90	28	0	691535872	46	5833
2026-01-18 04:10:39.24	291.91	16.85	-35.3	-36.5	29.3	3.02e+01	90	28	0	693108736	46	5764
2026-01-18 04:10:40.25	292.17	16.82	-35.3	-36.6	29.2	3.02e+01	92	28	0	695205888	46	5794
2026-01-18 04:10:41.26	292.43	16.79	-35.3	-36.6	29.3	3.02e+01	92	28	0	697303040	46	5796
2026-01-18 04:10:42.27	292.68	16.75	-35.0	-36.2	29.5	3.02e+01	91	28	0	698875904	46	5566
2026-01-18 04:10:43.28	292.94	16.72	-35.1	-36.3	29.3	3.02e+01	90	28	0	700973056	46	5628
2026-01-18 04:10:44.29	293.19	16.69	-35.3	-36.5	29.4	3.02e+01	92	28	0	702545920	46	5747
2026-01-18 04:10:45.29	293.44	16.65	-35.4	-36.6	29.3	3.02e+01	91	28	0	704643072	46	5806
2026-01-18 04:10:46.31	293.70	16.62	-35.4	-36.6	29.4	3.02e+01	92	28	0	706740224	46	5808
2026-01-18 04:10:47.31	293.95	16.58	-35.2	-36.4	29.3	3.02e+01	92	28	0	708313088	46	5725
2026-01-18 04:10:48.33	294.20	16.54	-35.2	-36.4	29.3	3.02e+01	90	28	0	710410240	46	5724
2026-01-18 04:10:49.34	294.45	16.51	-35.3	-36.6	29.2	3.02e+01	92	28	0	712507392	46	5800
2026-01-18 04:10:50.35	294.70	16.47	-35.2	-36.5	29.3	3.02e+01	87	28	0	714080256	46	5737
2026-01-18 04:10:51.35	294.95	16.43	-35.2	-36.4	29.4	3.02e+01	92	28	0	716177408	46	5672
2026-01-18 04:10:52.36	295.20	16.39	-35.1	-36.3	29.4	3.02e+01	90	28	0	717750272	46	5631
2026-01-18 04:10:53.37	295.45	16.36	-35.1	-36.3	29.5	3.02e+01	92	28	0	719847424	46	5599
2026-01-18 04:10:54.38	295.69	16.32	-35.2	-36.4	29.3	3.02e+01	92	28	0	721944576	46	5719
2026-01-18 04:10:55.39	295.94	16.28	-35.0	-36.2	29.4	3.02e+01	92	28	0	723517440	46	5593
2026-01-18 04:10:56.40	296.19	16.24	-35.1	-36.3	29.6	3.02e+01	90	28	0	725614592	46	5595
2026-01-18 04:10:57.40	296.43	16.20	-35.2	-36.4	29.4	3.02e+01	92	28	0	727187456	46	5673
2026-01-18 04:10:58.41	296.67	16.16	-35.3	-36.5	29.4	3.02e+01	92	28	0	729284608	46	5757
2026-01-18 04:10:59.42	296.92	16.12	-35.1	-36.3	29.3	3.02e+01	92	28	0	730857472	46	5602
2026-01-18 04:11:00.43	297.16	16.08	-35.2	-36.4	29.4	3.02e+01	91	28	0	732954624	46	5716
2026-01-18 04:11:01.44	297.41	16.03	-35.4	-36.6	29.2	3.02e+01	92	28	0	735051776	46	5829
2026-01-18 04:11:02.45	297.65	15.99	-35.5	-36.7	29.0	3.02e+01	92	28	0	736624640	46	5887
2026-01-18 04:11:03.46	297.89	15.95	-35.4	-36.6	29.1	3.02e+01	92	28	0	738721792	46	5844
2026-01-18 04:11:04.47	298.13	15.91	-35.3	-36.5	29.1	3.02e+01	92	28	0	740818944	46	5786
2026-01-18 04:11:05.48	298.37	15.86	-35.5	-36.7	28.9	3.02e+01	90	28	0	742391808	46	5886
2026-01-18 04:11:06.49	298.61	15.82	-35.6	-36.8	29.0	3.02e+01	92	28	0	744488960	46	5988
2026-01-18 04:11:07.50	298.85	15.78	-35.2	-36.4	29.2	3.02e+01	90	28	0	746061824	46	5682
2026-01-18 04:11:08.51	299.08	15.73	-35.3	-36.6	29.1	3.02e+01	92	28	0	748158976	46	5808
2026-01-18 04:11:09.52	299.32	15.69	-35.5	-36.7	29.0	3.02e+01	92	28	0	750256128	46	5910
2026-01-18 04:11:10.53	299.56	15.64	-35.3	-36.5	29.1	3.02e+01	92	28	0	751828992	46	5763
2026-01-18 04:11:11.54	299.79	15.60	-35.0	-36.2	29.5	3.02e+01	59	28	0	753926144	46	5586
2026-01-18 04:11:12.55	300.03	15.55	-35.2	-36.4	29.2	3.02e+01	52	28	0	756023296	46	5720
2026-01-18 04:11:13.56	300.26	15.51	-35.3	-36.5	29.1	3.02e+01	45	28	0	757596160	46	5758
2026-01-18 04:11:14.57	300.49	15.46	-35.3	-36.5	29.2	3.02e+01	58	28	0	759693312	46	5783
2026-01-18 04:11:15.58	300.73	15.41	-35.0	-36.2	29.4	3.02e+01	60	28	0	761266176	46	5588
2026-01-18 04:11:16.59	300.96	15.37	-34.9	-36.1	29.5	3.02e+01	56	28	0	763363328	44	6151
2026-01-18 04:11:17.60	301.19	15.32	-35.0	-36.3	29.4	3.02e+01	62	28	0	765460480	44	6281
2026-01-18 04:11:18.61	301.42	15.27	-35.0	-36.2	29.4	3.02e+01	60	28	0	767033344	44	6243
2026-01-18 04:11:19.62	301.65	15.22	-35.2	-36.4	29.2	3.02e+01	61	28	0	769130496	44	6396
2026-01-18 04:11:20.63	301.88	15.18	-34.9	-36.1	29.4	3.02e+01	58	28	0	770703360	44	6200
2026-01-18 04:11:21.63	302.10	15.13	-35.1	-36.3	29.4	3.02e+01	50	28	0	772800512	44	6308
2026-01-18 04:11:22.64	302.33	15.08	-34.8	-36.0	29.5	3.02e+01	59	28	0	774897664	44	6123
2026-01-18 04:11:23.65	302.56	15.03	-35.1	-36.4	29.3	3.02e+01	59	28	0	776470528	44	6356
2026-01-18 04:11:24.66	302.78	14.98	-35.2	-36.4	29.4	3.02e+01	59	28	0	778567680	44	6375
2026-01-18 04:11:25.67	303.01	14.93	-35.2	-36.4	29.4	3.02e+01	59	28	0	780140544	44	6386
2026-01-18 04:11:26.68	303.23	14.88	-35.1	-36.3	29.5	3.02e+01	52	28	0	782237696	44	6305
2026-01-18 04:11:27.69	303.45	14.83	-35.0	-36.2	29.4	3.02e+01	61	28	0	784334848	44	6245
2026-01-18 04:11:28.69	303.67	14.78	-35.0	-36.2	29.3	3.02e+01	58	28	0	785907712	44	6277
2026-01-18 04:11:29.70	303.90	14.73	-35.4	-36.7	29.1	3.02e+01	45	28	0	788004864	44	6589
2026-01-18 04:11:30.72	304.12	14.68	-35.3	-36.6	29.3	3.02e+01	58	28	0	789577728	44	6515
2026-01-18 04:11:31.72	304.34	14.63	-35.1	-36.4	29.4	3.02e+01	47	28	0	791674880	44	6364
2026-01-18 04:11:32.73	304.56	14.58	-35.2	-36.5	29.3	3.02e+01	60	28	0	793772032	44	6426
2026-01-18 04:11:33.74	304.78	14.53	-35.4	-36.6	29.1	3.02e+01	57	28	0	795344896	44	6567
2026-01-18 04:11:34.75	304.99	14.47	-35.1	-36.3	29.4	3.02e+01	54	28	0	797442048	44	6312
2026-01-18 04:11:35.76	305.21	14.42	-35.1	-36.3	29.5	3.02e+01	60	28	0	799014912	44	6329
2026-01-18 04:11:36.77	305.43	14.37	-35.2	-36.4	29.4	3.02e+01	58	28	0	801112064	44	6403
2026-01-18 04:11:37.78	305.64	14.32	-35.5	-36.7	29.2	3.02e+01	62	28	0	803209216	44	6605
2026-01-18 04:11:38.79	305.86	14.26	-35.6	-36.9	29.1	3.02e+01	59	28	0	804782080	44	6732
2026-01-18 04:11:39.80	306.07	14.21	-35.3	-36.5	29.2	3.02e+01	46	28	0	806879232	44	6474
2026-01-18 04:11:40.81	306.28	14.16	-35.6	-36.8	29.3	3.02e+01	61	28	0	808976384	44	6679
2026-01-18 04:11:41.81	306.49	14.11	-35.2	-36.4	29.3	3.02e+01	60	28	0	810549248	44	6375
2026-01-18 04:11:42.83	306.71	14.05	-35.3	-36.6	29.3	3.02e+01	47	28	0	812646400	44	6501
2026-01-18 04:11:43.83	306.91	14.00	-35.5	-36.7	29.2	3.02e+01	58	28	0	814219264	44	6643
2026-01-18 04:11:44.84	307.12	13.94	-35.5	-36.7	29.1	3.02e+01	58	28	0	816316416	44	6606
2026-01-18 04:11:45.86	307.33	13.89	-35.3	-36.5	29.3	3.02e+01	57	28	0	818413568	44	6471
2026-01-18 04:11:46.86	307.54	13.83	-35.5	-36.7	29.1	3.02e+01	61	28	0	819986432	44	6647
2026-01-18 04:11:47.87	307.75	13.78	-35.5	-36.7	29.3	3.02e+01	59	28	0	822083584	44	6643
2026-01-18 04:11:48.88	307.95	13.73	-35.1	-36.3	29.5	3.02e+01	58	28	0	824180736	44	6290
2026-01-18 04:11:49.89	308.16	13.67	-35.1	-36.3	29.4	3.02e+01	59	28	0	825753600	44	6346
2026-01-18 04:11:50.90	308.36	13.61	-35.3	-36.5	29.3	3.02e+01	47	28	0	827850752	44	6495
2026-01-18 04:11:51.91	308.57	13.56	-35.3	-36.5	29.2	3.02e+01	56	28	0	829423616	44	6473
2026-01-18 04:11:52.92	308.77	13.50	-35.7	-36.9	29.2	3.02e+01	59	28	0	831520768	46	6026
2026-01-18 04:11:53.93	308.97	13.45	-35.9	-37.2	29.2	3.02e+01	58	28	0	833617920	46	6230
2026-01-18 04:11:54.94	309.18	13.39	-35.4	-36.6	29.1	3.02e+01	59	28	0	835190784	46	5855
2026-01-18 04:11:55.95	309.38	13.34	-35.8	-37.1	28.9	3.02e+01	45	28	0	837287936	46	6158
2026-01-18 04:11:56.96	309.58	13.28	-35.4	-36.6	29.3	3.02e+01	58	28	0	838860800	46	5849
2026-01-18 04:11:57.97	309.78	13.22	-35.6	-36.8	29.0	3.02e+01	61	28	0	840957952	46	5977
2026-01-18 04:11:58.98	309.97	13.17	-35.3	-36.5	29.2	3.02e+01	45	28	0	843055104	46	5735
2026-01-18 04:11:59.98	310.17	13.11	-35.6	-36.8	29.1	3.02e+01	60	28	0	844627968	46	5961
2026-01-18 04:12:00.99	310.37	13.05	-35.4	-36.6	29.2	3.02e+01	62	28	0	846725120	46	5819
2026-01-18 04:12:02.01	310.56	13.00	-35.2	-36.5	29.2	3.02e+01	59	28	0	848297984	46	5741
2026-01-18 04:12:03.01	310.76	12.94	-35.4	-36.7	29.2	3.02e+01	64	28	0	850395136	46	5859
2026-01-18 04:12:04.02	310.95	12.88	-35.5	-36.7	29.0	3.02e+01	58	28	0	852492288	46	5920
2026-01-18 04:12:05.04	311.15	12.82	-35.4	-36.6	29.1	3.02e+01	60	28	0	854065152	46	5838
2026-01-18 04:12:06.04	311.34	12.77	-35.6	-36.8	29.0	3.02e+01	59	28	0	856162304	46	5956
2026-01-18 04:12:07.05	311.53	12.71	-35.4	-36.6	29.1	3.02e+01	58	28	0	857735168	46	5841
2026-01-18 04:12:08.06	311.72	12.65	-35.6	-36.8	29.0	3.02e+01	60	28	0	859832320	46	5960
2026-01-18 04:12:09.07	311.91	12.59	-35.7	-37.0	28.9	3.02e+01	52	28	0	861929472	46	6070
2026-01-18 04:12:10.08	312.10	12.54	-35.4	-36.7	29.1	3.02e+01	58	28	0	863502336	46	5861
2026-01-18 04:12:11.09	312.29	12.48	-35.5	-36.7	29.0	3.02e+01	60	28	0	865599488	46	5904
2026-01-18 04:12:12.10	312.48	12.42	-35.7	-36.9	28.9	3.02e+01	53	28	0	867172352	46	6023
2026-01-18 04:12:13.10	312.67	12.36	-35.6	-36.8	28.9	3.02e+01	52	28	0	869269504	46	5970
2026-01-18 04:12:14.11	312.85	12.30	-36.0	-37.2	28.7	3.02e+01	57	28	0	871366656	46	6262
2026-01-18 04:12:15.12	313.04	12.25	-35.8	-37.1	28.7	3.02e+01	59	28	0	872939520	46	6164
2026-01-18 04:12:16.13	313.22	12.19	-36.6	-37.9	28.3	3.02e+01	59	28	0	875036672	46	6735
2026-01-18 04:12:17.14	313.41	12.13	-36.1	-37.4	28.6	3.02e+01	51	28	0	877133824	46	6381
2026-01-18 04:12:18.15	313.59	12.07	-35.9	-37.1	28.9	3.02e+01	58	28	0	878706688	46	6181
2026-01-18 04:12:19.16	313.77	12.01	-36.9	-38.2	28.2	3.02e+01	60	28	0	880803840	46	6986
2026-01-18 04:12:20.17	313.96	11.95	-36.2	-37.5	28.6	3.02e+01	45	28	0	882376704	48	5755
2026-01-18 04:12:21.18	314.14	11.89	-36.7	-38.0	28.6	3.02e+01	61	28	0	884473856	48	6092
2026-01-18 04:12:22.19	314.32	11.83	-36.3	-37.6	28.5	3.02e+01	63	28	0	886571008	48	5806
2026-01-18 04:12:23.20	314.50	11.77	-35.9	-37.1	28.9	3.02e+01	57	28	0	888143872	46	6184
2026-01-18 04:12:24.21	314.68	11.71	-36.0	-37.2	29.0	3.02e+01	62	28	0	890241024	46	6238
2026-01-18 04:12:25.21	314.85	11.66	-35.8	-37.0	28.8	3.02e+01	56	28	0	891813888	46	6100
2026-01-18 04:12:26.22	315.03	11.60	-35.8	-37.0	28.7	3.02e+01	56	28	0	893911040	46	6104
2026-01-18 04:12:27.23	315.21	11.54	-36.1	-37.4	28.5	3.02e+01	59	28	0	896008192	46	6386
2026-01-18 04:12:28.24	315.38	11.48	-35.6	-36.8	28.9	3.02e+01	52	28	0	897581056	46	5975
2026-01-18 04:12:29.25	315.56	11.42	-35.5	-36.8	29.0	3.02e+01	59	28	0	899678208	46	5936
2026-01-18 04:12:30.26	315.73	11.36	-35.6	-36.8	28.9	3.02e+01	60	28	0	901251072	46	5978
2026-01-18 04:12:31.27	315.91	11.30	-35.8	-37.0	28.7	3.02e+01	59	28	0	903348224	46	6093
2026-01-18 04:12:32.28	316.08	11.24	-35.4	-36.7	29.0	3.02e+01	59	28	0	905445376	46	5865
2026-01-18 04:12:33.29	316.25	11.18	-35.8	-37.0	28.6	3.02e+01	53	28	0	907018240	46	6097
2026-01-18 04:12:34.30	316.42	11.12	-35.8	-37.1	28.6	3.02e+01	58	28	0	909115392	46	6135
2026-01-18 04:12:35.31	316.59	11.06	-35.6	-36.8	28.7	3.02e+01	60	28	0	910688256	46	5986
2026-01-18 04:12:36.31	316.76	11.00	-36.1	-37.4	28.4	3.02e+01	46	28	0	912785408	46	6352
2026-01-18 04:12:37.33	316.93	10.94	-36.0	-37.2	28.6	3.02e+01	59	28	0	914882560	46	6240
2026-01-18 04:12:38.34	317.10	10.88	-35.9	-37.2	28.7	3.02e+01	57	28	0	916455424	46	6221
2026-01-18 04:12:39.34	317.27	10.82	-35.8	-37.1	28.7	3.02e+01	60	28	0	918552576	46	6159
2026-01-18 04:12:40.35	317.44	10.76	-36.0	-37.2	28.5	3.02e+01	58	28	0	920649728	46	6271
2026-01-18 04:12:41.36	317.60	10.70	-35.9	-37.1	28.5	3.02e+01	49	28	0	922222592	46	6180
2026-01-18 04:12:42.37	317.77	10.64	-36.2	-37.4	28.4	3.02e+01	59	28	0	924319744	46	6413
2026-01-18 04:12:43.38	317.93	10.58	-35.8	-37.0	28.6	3.02e+01	59	28	0	925892608	46	6105
2026-01-18 04:12:44.39	318.10	10.52	-36.0	-37.3	28.6	3.02e+01	60	28	0	927989760	46	6316
2026-01-18 04:12:45.40	318.26	10.46	-35.9	-37.1	28.5	3.02e+01	59	28	0	930086912	46	6190
2026-01-18 04:12:46.41	318.42	10.40	-35.9	-37.2	28.6	3.02e+01	45	28	0	931659776	46	6212
2026-01-18 04:12:47.42	318.59	10.34	-35.8	-37.1	28.4	3.02e+01	60	28	0	933756928	46	6153
2026-01-18 04:12:48.43	318.75	10.28	-35.7	-37.0	28.5	3.02e+01	58	28	0	935329792	46	6095
2026-01-18 04:12:49.44	318.91	10.21	-35.7	-36.9	28.5	3.02e+01	54	28	0	937426944	46	6060
2026-01-18 04:12:50.45	319.07	10.15	-35.7	-36.9	28.5	3.02e+01	59	28	0	939524096	46	6058
2026-01-18 04:12:51.45	319.23	10.09	-35.9	-37.1	28.3	3.02e+01	60	28	0	941096960	46	6192
2026-01-18 04:12:52.46	319.38	10.03	-35.6	-36.9	28.5	3.02e+01	58	28	0	943194112	46	6014
2026-01-18 04:12:53.47	319.54	9.97	-35.7	-36.9	28.5	3.02e+01	57	28	0	945291264	46	6048
2026-01-18 04:12:54.48	319.70	9.91	-35.8	-37.0	28.4	3.02e+01	54	28	0	946864128	46	6134
2026-01-18 04:12:55.49	319.86	9.85	-35.9	-37.2	28.3	3.02e+01	59	28	0	948961280	46	6242
2026-01-18 04:12:56.49	320.01	9.79	-36.2	-37.5	28.0	3.02e+01	60	28	0	950534144	46	6494
2026-01-18 04:12:57.50	320.17	9.73	-36.2	-37.5	28.2	3.02e+01	46	28	0	952631296	46	6439
2026-01-18 04:12:58.51	320.32	9.67	-36.2	-37.5	28.2	3.02e+01	60	28	0	954204160	46	6470
2026-01-18 04:12:59.52	320.47	9.61	-36.5	-37.7	28.2	3.02e+01	59	28	0	956301312	46	6645
2026-01-18 04:13:00.53	320.63	9.55	-36.5	-37.8	28.1	3.02e+01	61	28	0	958398464	46	6657
2026-01-18 04:13:01.54	320.78	9.49	-36.2	-37.4	28.3	3.02e+01	58	28	0	959971328	46	6402
2026-01-18 04:13:02.55	320.93	9.43	-36.7	-38.0	28.1	3.02e+01	55	28	0	962068480	46	6814
2026-01-18 04:13:03.56	321.08	9.37	-36.3	-37.5	28.1	3.02e+01	58	28	0	963641344	46	6489
2026-01-18 04:13:04.57	321.23	9.31	-36.4	-37.6	28.3	3.02e+01	60	28	0	965738496	46	6548
2026-01-18 04:13:05.58	321.38	9.25	-36.3	-37.6	28.3	3.02e+01	44	28	0	967835648	46	6511
2026-01-18 04:13:06.58	321.53	9.19	-36.3	-37.6	28.2	3.02e+01	63	28	0	969408512	46	6509
2026-01-18 04:13:07.59	321.68	9.13	-36.1	-37.4	28.3	3.02e+01	59	28	0	971505664	46	6366
2026-01-18 04:13:08.60	321.83	9.07	-36.1	-37.3	28.2	3.02e+01	59	28	0	973602816	46	6350
2026-01-18 04:13:09.61	321.98	9.01	-36.2	-37.4	28.0	3.02e+01	61	28	0	975175680	46	6423
2026-01-18 04:13:10.62	322.12	8.95	-36.6	-37.9	27.6	3.02e+01	52	28	0	977272832	46	6741
2026-01-18 04:13:11.63	322.27	8.88	-36.4	-37.6	28.0	3.02e+01	59	28	0	978845696	48	5845
2026-01-18 04:13:12.64	322.41	8.82	-36.7	-38.0	27.8	3.02e+01	60	28	0	980942848	48	6114
2026-01-18 04:13:13.65	322.56	8.76	-36.6	-37.9	27.8	3.02e+01	38	28	0	983040000	48	6014
2026-01-18 04:13:14.66	322.70	8.70	-36.6	-37.9	27.8	3.02e+01	58	28	0	984612864	48	6055
2026-01-18 04:13:15.67	322.85	8.64	-36.3	-37.6	27.8	3.02e+01	57	28	0	986710016	48	5850
2026-01-18 04:13:16.68	322.99	8.58	-36.1	-37.4	27.9	3.02e+01	60	28	0	988807168	48	5716
2026-01-18 04:13:17.69	323.13	8.52	-36.3	-37.6	27.8	3.02e+01	59	28	0	990380032	48	5845
2026-01-18 04:13:18.69	323.27	8.46	-36.5	-37.8	27.6	3.02e+01	51	28	0	992477184	48	5955
2026-01-18 04:13:19.70	323.41	8.40	-36.5	-37.8	27.8	3.02e+01	57	28	0	994050048	48	5977
2026-01-18 04:13:20.71	323.56	8.34	-36.4	-37.7	27.7	3.02e+01	59	28	0	996147200	48	5894
2026-01-18 04:13:21.72	323.69	8.28	-36.4	-37.7	27.7	3.02e+01	53	28	0	998244352	48	5886
2026-01-18 04:13:22.73	323.83	8.22	-36.4	-37.7	27.8	3.02e+01	61	28	0	999817216	48	5873
2026-01-18 04:13:23.74	323.97	8.16	-36.6	-37.9	27.6	3.02e+01	52	28	0	1001914368	48	6062
2026-01-18 04:13:24.75	324.11	8.10	-36.6	-37.9	27.7	3.02e+01	62	28	0	1003487232	48	6040
2026-01-18 04:13:25.76	324.25	8.04	-36.5	-37.8	27.6	3.02e+01	59	28	0	1005584384	48	5928
2026-01-18 04:13:26.77	324.39	7.98	-37.2	-38.5	27.1	3.02e+01	53	28	0	1007157248	48	6463
2026-01-18 04:13:27.77	324.52	7.92	-37.1	-38.4	27.0	3.02e+01	61	28	0	1009254400	48	6403
2026-01-18 04:13:28.78	324.66	7.86	-37.4	-38.8	26.9	3.02e+01	61	28	0	1011351552	48	6680
2026-01-18 04:13:29.79	324.79	7.80	-37.3	-38.6	27.0	3.02e+01	61	28	0	1012924416	48	6558
2026-01-18 04:13:30.80	324.93	7.74	-37.7	-39.1	26.4	3.02e+01	61	28	0	1015021568	48	6919
2026-01-18 04:13:31.81	325.06	7.68	-37.6	-39.0	26.8	3.02e+01	46	28	0	1017118720	48	6864
2026-01-18 04:13:32.82	325.19	7.62	-37.7	-39.1	26.3	3.02e+01	61	28	0	1018691584	50	6192
2026-01-18 04:13:33.83	325.33	7.56	-37.7	-39.1	26.5	3.02e+01	59	28	0	1020788736	50	6149
2026-01-18 04:13:34.84	325.46	7.50	-37.6	-39.0	26.9	3.02e+01	47	28	0	1022361600	48	6855
2026-01-18 04:13:35.85	325.59	7.44	-37.7	-39.1	26.4	3.02e+01	60	28	0	1024458752	48	6909
2026-01-18 04:13:36.86	325.72	7.38	-37.9	-39.3	26.5	3.02e+01	60	28	0	1026555904	50	6329
2026-01-18 04:13:37.87	325.85	7.32	-37.5	-38.8	26.6	3.02e+01	59	28	0	1028128768	50	5979
2026-01-18 04:13:38.88	325.98	7.26	-37.5	-38.9	26.8	3.02e+01	58	28	0	1030225920	50	6029
2026-01-18 04:13:39.89	326.11	7.20	-38.2	-39.6	26.0	3.02e+01	54	28	0	1031798784	50	6558
2026-01-18 04:13:40.90	326.24	7.14	-38.8	-40.3	25.5	3.02e+01	58	28	0	1033895936	50	7071
2026-01-18 04:13:41.91	326.37	7.08	-37.6	-39.0	26.5	3.02e+01	58	28	0	1035993088	50	6100
2026-01-18 04:13:42.91	326.50	7.02	-37.6	-48.0	3.6	3.02e+01	0	28	104	1037041664	50	17125
2026-01-18 04:13:43.93	326.62	6.96	-37.6	-47.9	3.6	3.02e+01	0	28	104	1037041664	50	16967
2026-01-18 04:13:44.93	326.75	6.90	-37.8	-48.1	3.6	3.02e+01	0	28	104	1037041664	50	17395
2026-01-18 04:13:45.94	326.88	6.84	-40.1	-50.6	3.5	3.02e+01	0	28	104	1037041664	52	20597
2026-01-18 04:13:46.95	327.00	6.78	-41.9	-52.6	3.6	3.02e+01	0	28	104	1037041664	56	20761
2026-01-18 04:13:47.96	327.13	6.73	-44.4	-56.4	3.4	3.02e+01	0	28	104	1037041664	54	35775
2026-01-18 04:13:48.98	327.25	6.67	-45.7	-58.8	3.5	3.02e+01	0	28	104	1037041664	60	33384
2026-01-18 04:13:49.98	327.37	6.61	-38.9	-49.3	3.6	3.02e+01	0	28	104	1037041664	50	20058
2026-01-18 04:13:51.00	327.50	6.55	-40.0	-50.6	3.6	3.02e+01	0	28	104	1037041664	56	16355
2026-01-18 04:13:52.00	327.62	6.49	-39.3	-49.8	3.6	3.02e+01	0	28	104	1037041664	54	16731
2026-01-18 04:13:53.01	327.74	6.43	-39.8	-50.5	3.4	3.02e+01	0	28	104	1037041664	54	18126
2026-01-18 04:13:54.02	327.87	6.37	-39.8	-50.4	3.6	3.02e+01	0	28	104	1037041664	52	20158
2026-01-18 04:13:55.03	327.99	6.31	-37.7	-48.1	3.6	3.02e+01	0	28	104	1037041664	50	17358
2026-01-18 04:13:56.04	328.11	6.25	-41.1	-51.9	3.5	3.02e+01	0	28	104	1037041664	54	21448
2026-01-18 04:13:57.05	328.23	6.19	-42.1	-53.2	3.5	3.02e+01	0	28	104	1037041664	54	24811
2026-01-18 04:13:58.06	328.35	6.13	-47.7	-63.7	3.5	3.02e+01	0	28	104	1037041664	60	59117
2026-01-18 04:13:59.07	328.47	6.08	-38.7	-49.2	4.0	3.02e+01	0	28	104	1037041664	50	19668
2026-01-18 04:14:00.08	328.59	6.02	-38.5	-48.9	3.9	3.02e+01	0	28	104	1037041664	54	15136
2026-01-18 04:14:01.09	328.71	5.96	-38.5	-49.0	4.1	3.02e+01	0	28	104	1037041664	52	17123
2026-01-18 04:14:02.10	328.82	5.90	-38.5	-49.0	4.1	3.02e+01	0	28	104	1037041664	52	17150
2026-01-18 04:14:03.10	328.94	5.84	-38.1	-48.5	4.1	3.02e+01	0	28	104	1037041664	50	18261
2026-01-18 04:14:04.11	329.06	5.78	-38.1	-48.5	3.4	3.02e+01	0	28	104	1037041664	50	18249
2026-01-18 04:14:05.12	329.17	5.72	-41.9	-52.9	4.1	3.02e+01	0	28	104	1037041664	54	24020
2026-01-18 04:14:06.13	329.29	5.67	-47.3	-63.5	3.5	3.02e+01	0	28	104	1037041664	60	57546
2026-01-18 04:14:07.14	329.40	5.61	-45.6	-58.8	3.5	3.02e+01	0	28	104	1037041664	60	33595
2026-01-18 04:14:08.15	329.52	5.55	-42.4	-53.6	3.5	3.02e+01	0	28	104	1037041664	56	23212
2026-01-18 04:14:09.16	329.63	5.49	-39.0	-49.5	3.5	3.02e+01	0	28	104	1037041664	54	16186
2026-01-18 04:14:10.17	329.75	5.43	-38.4	-49.0	3.5	3.02e+01	0	28	104	1037041664	52	17110
2026-01-18 04:14:11.18	329.86	5.37	-38.9	-49.4	3.5	3.02e+01	0	28	104	1037041664	52	18069
2026-01-18 04:14:12.19	329.97	5.32	-39.0	-49.6	3.6	3.02e+01	0	28	104	1037041664	52	18352
2026-01-18 04:14:13.19	330.09	5.26	-39.6	-50.3	3.5	3.02e+01	0	28	104	1037041664	54	17753
2026-01-18 04:14:14.21	330.20	5.20	-43.2	-54.6	3.5	3.02e+01	0	28	104	1037041664	60	20778
2026-01-18 04:14:15.22	330.31	5.14	-45.0	-57.5	3.5	3.02e+01	0	28	104	1037041664	60	28996
2026-01-18 04:14:16.23	330.42	5.08	-47.2	-63.8	3.5	3.02e+01	0	28	104	1037041664	60	59728
2026-01-18 04:14:17.24	330.53	5.03	-42.1	-53.3	3.5	3.02e+01	0	28	104	1037041664	56	22318
2026-01-18 04:14:18.25	330.64	4.97	-39.9	-50.6	3.5	3.02e+01	0	28	104	1037041664	54	18359
2026-01-18 04:14:19.25	330.75	4.91	-39.3	-49.9	3.5	3.02e+01	0	28	104	1037041664	54	17040
2026-01-18 04:14:20.26	330.86	4.85	-39.5	-50.0	3.5	3.02e+01	0	28	104	1037041664	54	17289
2026-01-18 04:14:21.27	330.97	4.80	-39.4	-50.0	3.5	3.02e+01	0	28	104	1037041664	54	17178
2026-01-18 04:14:22.28	331.08	4.74	-38.5	-49.0	3.5	3.02e+01	0	28	104	1037041664	50	19354
2026-01-18 04:14:23.29	331.19	4.68	-42.7	-54.0	3.5	3.02e+01	0	28	104	1037041664	56	24284
2026-01-18 04:14:24.30	331.29	4.62	-46.7	-63.3	3.5	3.02e+01	0	28	104	1037041664	60	56118
2026-01-18 04:14:25.31	331.40	4.57	-44.8	-58.1	3.5	3.02e+01	0	28	104	1037041664	60	30766
2026-01-18 04:14:26.32	331.51	4.51	-43.0	-54.6	3.5	3.02e+01	0	28	104	1037041664	60	20654
2026-01-18 04:14:27.33	331.61	4.45	-40.2	-51.0	3.5	3.02e+01	0	28	104	1037041664	56	17188
2026-01-18 04:14:28.34	331.72	4.40	-39.7	-50.3	3.5	3.02e+01	0	28	104	1037041664	54	17781
2026-01-18 04:14:29.35	331.83	4.34	-39.4	-50.0	3.5	3.02e+01	0	28	104	1037041664	54	17229
2026-01-18 04:14:30.36	331.93	4.28	-39.6	-50.3	3.6	3.02e+01	0	28	104	1037041664	54	17858
2026-01-18 04:14:31.37	332.04	4.22	-41.9	-53.8	3.5	3.02e+01	0	28	104	1037041664	58	21101
2026-01-18 04:14:32.38	332.14	4.17	-43.9	-56.3	3.6	3.02e+01	0	28	104	1037041664	60	24999
2026-01-18 04:14:33.39	332.24	4.11	-45.1	-61.9	3.5	3.02e+01	0	28	104	1037041664	60	47851
2026-01-18 04:14:34.39	332.35	4.05	-44.0	-58.9	3.5	3.02e+01	0	28	104	1037041664	60	33823
2026-01-18 04:14:35.40	332.45	4.00	-43.6	-56.0	3.5	3.02e+01	0	28	104	1037041664	60	24337
2026-01-18 04:14:36.41	332.55	3.94	-43.3	-56.3	3.5	3.02e+01	0	28	104	1037041664	60	25172
2026-01-18 04:14:37.42	332.65	3.89	-43.9	-57.9	3.5	3.02e+01	0	28	104	1037041664	60	30222
2026-01-18 04:14:38.43	332.75	3.83	-43.8	-58.2	3.5	3.02e+01	0	28	104	1037041664	60	31136
2026-01-18 04:14:39.44	332.86	3.77	-44.2	-59.9	3.5	3.02e+01	0	28	104	1037041664	60	37869
2026-01-18 04:14:40.45	332.96	3.72	-44.1	-61.1	3.5	3.02e+01	0	28	104	1037041664	60	43574
2026-01-18 04:14:41.46	333.06	3.66	-44.7	-61.5	3.5	3.02e+01	0	28	104	1037041664	60	45909
2026-01-18 04:14:42.47	333.16	3.60	-44.4	-62.2	3.5	3.02e+01	0	28	104	1037041664	60	49480
2026-01-18 04:14:43.48	333.26	3.55	-44.5	-62.3	3.5	3.02e+01	0	28	104	1037041664	60	50094
2026-01-18 04:14:44.49	333.36	3.49	-44.5	-62.3	3.5	3.02e+01	0	28	104	1037041664	60	50030
2026-01-18 04:14:45.50	333.46	3.43	-44.3	-62.0	3.5	3.02e+01	0	28	104	1037041664	60	48508
2026-01-18 04:14:46.51	333.55	3.38	-44.3	-62.1	3.5	3.02e+01	0	28	104	1037041664	60	48921
2026-01-18 04:14:47.51	333.65	3.32	-44.3	-62.2	3.5	3.02e+01	0	28	104	1037041664	60	49386
2026-01-18 04:14:48.52	333.75	3.27	-44.3	-62.2	3.5	3.02e+01	0	28	104	1037041664	60	49520
2026-01-18 04:14:49.53	333.85	3.21	-44.3	-62.2	3.5	3.02e+01	0	28	104	1037041664	60	49432
2026-01-18 04:14:50.54	333.94	3.16	-44.3	-62.1	3.5	3.02e+01	0	28	104	1037041664	60	49285
2026-01-18 04:14:51.55	334.04	3.10	-44.4	-62.3	3.5	3.02e+01	0	28	104	1037041664	60	50178
2026-01-18 04:14:52.56	334.14	3.04	-44.3	-62.3	3.5	3.02e+01	0	28	104	1037041664	60	50001
2026-01-18 04:14:53.57	334.23	2.99	-44.4	-62.3	3.5	3.02e+01	0	28	104	1037041664	60	50316
2026-01-18 04:14:54.58	334.33	2.93	-48.0	-65.9	3.5	3.02e+01	0	28	104	1037041664	60	75592
2026-01-18 04:14:55.59	334.42	2.88	-47.8	-66.3	3.5	3.02e+01	0	28	104	1037041664	60	79662
2026-01-18 04:14:56.60	334.52	2.82	-48.7	-66.5	3.5	3.02e+01	0	28	104	1037041664	60	81154
2026-01-18 04:14:57.61	334.61	2.77	-48.8	-66.7	3.5	3.02e+01	0	28	104	1037041664	60	83412
2026-01-18 04:14:58.62	334.70	2.71	-48.9	-66.7	3.5	3.02e+01	0	28	104	1037041664	60	83178
2026-01-18 04:14:59.63	334.80	2.66	-48.7	-66.9	3.5	3.02e+01	0	28	104	1037041664	60	85030
2026-01-18 04:15:00.63	334.89	2.60	-49.1	-66.9	3.5	3.02e+01	0	28	104	1037041664	60	85632
2026-01-18 04:15:01.64	334.98	2.55	-49.0	-67.0	3.5	3.02e+01	0	28	104	1037041664	60	85952
2026-01-18 04:15:02.65	335.08	2.49	-49.3	-67.2	3.5	3.02e+01	0	28	104	1037041664	60	87735
2026-01-18 04:15:03.66	335.17	2.44	-49.4	-67.3	3.5	3.02e+01	0	28	104	1037041664	60	89413
