passes_logs/2026/01/18/R4.6S_Anadyr/R4.6S_Anadyr__20260118_131823_NOAA_21_JPSS-2_rec.log

#Pass ID: 20260118_131823_NOAA 21 (JPSS-2)
#Satellite: NOAA 21 (JPSS-2)
#Configuration: NOAA-21
#almurnet v.1.7.20251203
#Start time: 2026-01-18 13:18:25

#Version: 2.2.20231116
#Station: R4.6S_Anadyr
#Location: 177.4865 lon 64.73178 lat
#TLE: 1 54234U 22150A   26017.62066529  .00000042  00000+0  40984-4 0  9994
#TLE: 2 54234  98.7502 318.4887 0000613 271.5460  88.5645 14.19535234165189

#Time	Az	El	Level	Level2	SNR	BER	BlckErr	Temp	State	Recorded	gain1	gain2
2026-01-18 13:18:25.00	18.78	0.08	-49.6	-64.5	3.5	1.51e+00	0	32	0	0	60	60463
2026-01-18 13:18:26.01	18.83	0.14	-49.6	-62.4	3.5	1.52e+00	0	33	104	0	60	46133
2026-01-18 13:18:27.02	18.87	0.20	-49.5	-62.4	3.5	1.51e+00	0	34	104	0	60	46243
2026-01-18 13:18:28.03	18.92	0.25	-49.5	-62.4	3.5	1.51e+00	0	34	104	0	60	46466
2026-01-18 13:18:29.04	18.97	0.31	-49.6	-62.4	3.5	1.52e+00	0	34	104	0	60	46427
2026-01-18 13:18:30.05	19.01	0.37	-49.6	-62.4	3.5	1.52e+00	0	34	104	0	60	46296
2026-01-18 13:18:31.05	19.06	0.42	-49.6	-62.5	3.5	1.52e+00	0	34	104	0	60	46667
2026-01-18 13:18:32.06	19.11	0.48	-49.6	-62.5	3.5	1.51e+00	0	34	104	0	60	46781
2026-01-18 13:18:33.07	19.16	0.54	-49.7	-62.5	3.5	1.52e+00	0	34	104	0	60	46766
2026-01-18 13:18:34.08	19.21	0.59	-49.6	-62.5	3.5	1.52e+00	0	34	104	0	60	46925
2026-01-18 13:18:35.09	19.25	0.65	-49.7	-62.5	3.5	1.51e+00	0	34	104	0	60	46707
2026-01-18 13:18:36.10	19.30	0.71	-49.6	-62.5	3.5	1.51e+00	0	34	104	0	60	46701
2026-01-18 13:18:37.11	19.35	0.76	-49.6	-62.4	3.5	1.52e+00	0	34	104	0	60	46417
2026-01-18 13:18:38.12	19.40	0.82	-49.5	-62.4	3.5	1.52e+00	0	34	104	0	60	46131
2026-01-18 13:18:39.13	19.45	0.88	-49.5	-62.3	3.5	1.52e+00	0	34	104	0	60	45770
2026-01-18 13:18:40.14	19.50	0.94	-49.4	-62.3	3.5	1.52e+00	0	34	104	0	60	45505
2026-01-18 13:18:41.15	19.55	0.99	-49.3	-62.2	3.5	1.52e+00	0	34	104	0	60	45250
2026-01-18 13:18:42.16	19.60	1.05	-49.2	-62.1	3.5	1.51e+00	0	34	104	0	60	44637
2026-01-18 13:18:43.16	19.65	1.11	-49.1	-61.9	3.5	1.52e+00	0	34	104	0	60	43828
2026-01-18 13:18:44.17	19.70	1.17	-48.9	-61.8	3.5	1.52e+00	0	34	104	0	60	43218
2026-01-18 13:18:45.18	19.75	1.22	-48.9	-61.7	3.5	1.52e+00	0	34	104	0	60	42738
2026-01-18 13:18:46.19	19.80	1.28	-48.7	-61.6	3.5	1.52e+00	0	34	104	0	60	42121
2026-01-18 13:18:47.20	19.85	1.34	-48.6	-61.4	3.5	1.52e+00	0	34	104	0	60	41221
2026-01-18 13:18:48.21	19.90	1.40	-48.3	-61.2	3.5	1.52e+00	0	34	104	0	60	40205
2026-01-18 13:18:49.22	19.95	1.46	-48.1	-60.9	3.5	1.52e+00	0	34	104	0	60	38994
2026-01-18 13:18:50.22	20.00	1.52	-48.1	-60.8	3.5	1.52e+00	0	34	104	0	60	38512
2026-01-18 13:18:51.23	20.05	1.57	-48.1	-60.8	3.5	1.51e+00	0	34	104	0	60	38656
2026-01-18 13:18:52.24	20.10	1.63	-48.0	-60.8	3.5	1.52e+00	0	34	104	0	60	38549
2026-01-18 13:18:53.25	20.15	1.69	-48.0	-60.8	3.5	1.52e+00	0	34	104	0	60	38473
2026-01-18 13:18:54.26	20.20	1.75	-48.0	-60.8	3.5	1.52e+00	0	34	104	0	60	38446
2026-01-18 13:18:55.27	20.25	1.81	-48.0	-60.8	3.5	1.52e+00	0	34	104	0	60	38515
2026-01-18 13:18:56.28	20.31	1.87	-48.0	-60.9	3.5	1.52e+00	0	34	104	0	60	38757
2026-01-18 13:18:57.28	20.36	1.93	-48.1	-60.9	3.5	1.51e+00	0	35	104	0	60	38787
2026-01-18 13:18:58.29	20.41	1.99	-48.0	-60.8	3.5	1.52e+00	0	34	104	0	60	38706
2026-01-18 13:18:59.30	20.46	2.05	-48.1	-60.9	3.5	1.52e+00	0	34	104	0	60	38722
2026-01-18 13:19:00.31	20.52	2.11	-48.0	-60.7	3.5	1.52e+00	0	34	104	0	60	38221
2026-01-18 13:19:01.32	20.57	2.17	-48.0	-60.7	3.5	1.52e+00	0	34	104	0	60	38000
2026-01-18 13:19:02.33	20.62	2.23	-48.0	-60.4	3.5	1.52e+00	0	34	104	0	60	36630
2026-01-18 13:19:03.34	20.68	2.29	-48.0	-59.9	3.5	1.52e+00	0	34	104	0	60	34862
2026-01-18 13:19:04.35	20.73	2.35	-47.9	-59.5	3.5	1.51e+00	0	34	104	0	60	33243
2026-01-18 13:19:05.36	20.78	2.41	-47.9	-59.4	3.5	1.51e+00	0	35	104	0	60	32689
2026-01-18 13:19:06.37	20.84	2.47	-48.0	-60.0	3.5	1.51e+00	0	34	104	0	60	35261
2026-01-18 13:19:07.38	20.89	2.53	-48.0	-60.9	3.5	1.52e+00	0	34	104	0	60	38711
2026-01-18 13:19:08.39	20.95	2.59	-48.0	-60.0	3.5	1.52e+00	0	35	104	0	60	35048
2026-01-18 13:19:09.39	21.00	2.65	-47.5	-56.4	4.8	1.41e+00	122	35	104	0	60	23144
2026-01-18 13:19:10.40	21.05	2.71	-46.5	-51.3	8.4	1.08e-01	120	34	0	2097152	60	12957
2026-01-18 13:19:11.41	21.11	2.77	-44.9	-48.0	12.3	1.29e-03	123	34	0	5242880	60	8830
2026-01-18 13:19:12.42	21.16	2.83	-43.4	-45.7	14.5	1.50e-06	123	35	0	8388608	60	6765
2026-01-18 13:19:13.43	21.22	2.89	-41.6	-43.3	16.9	0.00e+00	123	35	0	11534336	58	5736
2026-01-18 13:19:14.44	21.27	2.95	-40.7	-42.2	18.0	0.00e+00	123	35	0	14680064	56	5682
2026-01-18 13:19:15.45	21.33	3.01	-39.3	-40.6	19.3	0.00e+00	122	34	0	17825792	52	5979
2026-01-18 13:19:16.46	21.39	3.07	-39.0	-40.3	19.7	0.00e+00	123	34	0	20971520	52	5729
2026-01-18 13:19:17.47	21.44	3.14	-39.2	-40.5	19.6	0.00e+00	122	35	0	24117248	52	5876
2026-01-18 13:19:18.48	21.50	3.20	-39.5	-40.9	19.0	0.00e+00	122	34	0	27262976	52	6149
2026-01-18 13:19:19.49	21.56	3.26	-40.1	-41.5	18.4	0.00e+00	122	35	0	30408704	52	6635
2026-01-18 13:19:20.50	21.61	3.32	-41.2	-42.8	17.2	0.00e+00	123	35	0	33554432	54	6851
2026-01-18 13:19:21.50	21.67	3.38	-42.7	-44.7	15.3	0.00e+00	123	35	0	36700160	56	7586
2026-01-18 13:19:22.51	21.73	3.44	-44.5	-47.3	12.5	9.10e-06	120	34	0	39845888	60	8138
2026-01-18 13:19:23.52	21.78	3.51	-44.1	-46.6	14.5	9.49e-04	123	35	0	42991616	60	7536
2026-01-18 13:19:24.53	21.84	3.57	-40.2	-41.6	18.9	0.00e+00	120	35	0	46137344	54	5990
2026-01-18 13:19:25.54	21.90	3.63	-42.4	-44.3	10.9	0.00e+00	123	35	0	49283072	52	9138
2026-01-18 13:19:26.55	21.96	3.69	-48.0	-60.2	3.7	1.52e+00	0	35	104	50331648	60	35945
2026-01-18 13:19:27.56	22.02	3.76	-39.6	-41.2	19.9	9.94e-03	122	35	104	50331648	56	5088
2026-01-18 13:19:28.57	22.07	3.82	-42.4	-44.2	16.8	7.12e-03	120	35	0	53477376	60	5698
2026-01-18 13:19:29.58	22.13	3.88	-39.7	-41.1	19.1	0.00e+00	123	34	0	56623104	52	6288
2026-01-18 13:19:30.59	22.19	3.95	-39.8	-41.1	19.1	0.00e+00	123	35	0	59768832	52	6336
2026-01-18 13:19:31.60	22.25	4.01	-39.8	-41.1	19.0	0.00e+00	123	35	0	62914560	52	6316
2026-01-18 13:19:32.61	22.31	4.07	-40.0	-41.3	19.0	0.00e+00	123	35	0	65011712	52	6461
2026-01-18 13:19:33.62	22.37	4.14	-39.8	-41.1	19.0	0.00e+00	122	35	0	69206016	52	6309
2026-01-18 13:19:34.62	22.43	4.20	-40.0	-41.4	19.2	0.00e+00	123	35	0	72351744	52	6518
2026-01-18 13:19:35.63	22.49	4.26	-39.8	-41.1	19.2	0.00e+00	122	35	0	75497472	52	6330
2026-01-18 13:19:36.64	22.55	4.33	-39.8	-41.1	19.2	0.00e+00	123	35	0	78643200	52	6321
2026-01-18 13:19:37.65	22.61	4.39	-40.0	-41.4	18.8	0.00e+00	123	35	0	81788928	52	6554
2026-01-18 13:19:38.66	22.67	4.45	-40.1	-41.4	19.1	0.00e+00	122	35	0	84934656	52	6530
2026-01-18 13:19:39.66	22.73	4.52	-39.6	-40.9	19.4	0.00e+00	123	35	0	87031808	52	6149
2026-01-18 13:19:40.67	22.80	4.58	-39.7	-41.0	19.6	0.00e+00	120	35	0	91226112	52	6242
2026-01-18 13:19:41.68	22.86	4.65	-39.5	-40.8	19.2	0.00e+00	123	35	0	94371840	52	6084
2026-01-18 13:19:42.69	22.92	4.71	-40.1	-41.4	19.1	0.00e+00	122	35	0	97517568	52	6554
2026-01-18 13:19:43.70	22.98	4.78	-39.7	-41.0	19.0	0.00e+00	122	35	0	100663296	52	6277
2026-01-18 13:19:44.71	23.04	4.84	-40.1	-41.5	19.2	0.00e+00	122	35	0	103809024	52	6611
2026-01-18 13:19:45.72	23.11	4.91	-39.8	-41.1	19.2	0.00e+00	123	35	0	106954752	52	6313
2026-01-18 13:19:46.73	23.17	4.97	-39.6	-40.8	19.6	0.00e+00	122	35	0	110100480	52	6130
2026-01-18 13:19:47.74	23.23	5.04	-39.7	-41.0	19.2	0.00e+00	123	35	0	113246208	52	6248
2026-01-18 13:19:48.75	23.30	5.10	-40.3	-41.7	18.8	0.00e+00	123	35	0	116391936	52	6781
2026-01-18 13:19:49.76	23.36	5.17	-40.4	-41.8	19.0	0.00e+00	120	35	0	119537664	52	6870
2026-01-18 13:19:50.77	23.42	5.23	-40.5	-41.9	18.6	0.00e+00	123	35	0	122683392	52	6935
2026-01-18 13:19:51.78	23.49	5.30	-39.4	-40.7	19.7	0.00e+00	122	35	0	125829120	52	6016
2026-01-18 13:19:52.79	23.55	5.36	-38.8	-40.0	20.3	0.00e+00	122	35	0	128974848	52	5575
2026-01-18 13:19:53.79	23.62	5.43	-38.6	-39.8	20.5	0.00e+00	122	35	0	132120576	50	6074
2026-01-18 13:19:54.80	23.68	5.50	-38.6	-39.8	20.5	0.00e+00	120	35	0	135266304	50	6085
2026-01-18 13:19:55.81	23.75	5.56	-38.4	-39.6	20.7	0.00e+00	123	35	0	138412032	50	5947
2026-01-18 13:19:56.82	23.81	5.63	-38.6	-39.8	20.5	0.00e+00	123	35	0	141557760	50	6079
2026-01-18 13:19:57.82	23.88	5.70	-38.4	-39.6	20.8	0.00e+00	121	35	0	144703488	50	5949
2026-01-18 13:19:58.83	23.95	5.76	-38.4	-39.6	20.7	0.00e+00	122	35	0	147849216	50	5938
2026-01-18 13:19:59.84	24.01	5.83	-38.4	-39.6	20.7	0.00e+00	123	35	0	150994944	50	5928
2026-01-18 13:20:00.85	24.08	5.90	-38.4	-39.5	20.9	0.00e+00	122	35	0	154140672	50	5915
2026-01-18 13:20:01.86	24.15	5.96	-38.3	-39.4	20.9	0.00e+00	121	35	0	157286400	50	5848
2026-01-18 13:20:02.87	24.21	6.03	-38.2	-39.4	21.0	0.00e+00	123	35	0	160432128	50	5799
2026-01-18 13:20:03.88	24.28	6.10	-38.1	-39.2	21.1	0.00e+00	123	35	0	163577856	50	5708
2026-01-18 13:20:04.89	24.35	6.17	-38.3	-39.4	20.9	0.00e+00	122	35	0	166723584	50	5849
2026-01-18 13:20:05.90	24.42	6.23	-38.2	-39.3	21.0	0.00e+00	122	35	0	169869312	50	5788
2026-01-18 13:20:06.91	24.49	6.30	-38.1	-39.2	21.0	0.00e+00	123	35	0	173015040	50	5722
2026-01-18 13:20:07.92	24.55	6.37	-38.4	-39.5	20.8	0.00e+00	123	35	0	176160768	50	5888
2026-01-18 13:20:08.93	24.62	6.44	-38.2	-39.4	21.0	0.00e+00	122	35	0	179306496	50	5797
2026-01-18 13:20:09.94	24.69	6.51	-38.4	-39.6	20.9	0.00e+00	122	35	0	182452224	50	5956
2026-01-18 13:20:10.94	24.76	6.57	-38.5	-39.6	20.8	0.00e+00	123	35	0	185597952	50	5972
2026-01-18 13:20:11.95	24.83	6.64	-38.3	-39.4	21.0	0.00e+00	123	35	0	188743680	50	5837
2026-01-18 13:20:12.96	24.90	6.71	-38.3	-39.4	21.0	0.00e+00	123	35	0	191889408	50	5801
2026-01-18 13:20:13.97	24.97	6.78	-38.3	-39.5	21.0	0.00e+00	120	35	0	195035136	50	5859
2026-01-18 13:20:14.98	25.04	6.85	-38.2	-39.3	21.0	0.00e+00	123	35	0	198180864	50	5774
2026-01-18 13:20:15.99	25.12	6.92	-38.0	-39.2	21.2	0.00e+00	123	35	0	201326592	50	5665
2026-01-18 13:20:17.00	25.19	6.99	-38.1	-39.2	21.2	0.00e+00	123	35	0	204472320	50	5678
2026-01-18 13:20:18.01	25.26	7.06	-37.8	-38.9	21.4	0.00e+00	123	35	0	207618048	48	6187
2026-01-18 13:20:19.02	25.33	7.13	-37.9	-39.0	21.3	0.00e+00	122	35	0	210763776	48	6254
2026-01-18 13:20:20.02	25.40	7.20	-37.9	-39.0	21.5	0.00e+00	121	35	0	213909504	48	6255
2026-01-18 13:20:21.03	25.48	7.27	-38.1	-39.3	21.0	0.00e+00	122	35	0	217055232	48	6431
2026-01-18 13:20:22.04	25.55	7.34	-38.0	-39.1	21.5	0.00e+00	123	35	0	220200960	48	6344
2026-01-18 13:20:23.05	25.62	7.41	-37.7	-38.8	21.6	0.00e+00	123	35	0	223346688	48	6111
2026-01-18 13:20:24.06	25.70	7.48	-37.8	-38.8	21.6	0.00e+00	122	35	0	226492416	48	6123
2026-01-18 13:20:25.07	25.77	7.55	-37.7	-38.7	21.6	0.00e+00	120	35	0	229638144	48	6054
2026-01-18 13:20:26.08	25.85	7.62	-37.7	-38.7	21.7	0.00e+00	122	35	0	232783872	48	6035
2026-01-18 13:20:27.08	25.92	7.69	-37.6	-38.6	21.8	0.00e+00	123	35	0	235929600	48	5979
2026-01-18 13:20:28.09	26.00	7.76	-37.6	-38.7	21.7	0.00e+00	123	35	0	239075328	48	6035
2026-01-18 13:20:29.10	26.07	7.83	-37.5	-38.6	21.8	0.00e+00	123	35	0	242221056	48	5942
2026-01-18 13:20:30.11	26.15	7.90	-37.6	-38.7	21.7	0.00e+00	122	35	0	245366784	48	6026
2026-01-18 13:20:31.12	26.22	7.97	-37.7	-38.7	21.7	0.00e+00	120	35	0	248512512	48	6052
2026-01-18 13:20:32.13	26.30	8.05	-37.6	-38.6	21.8	0.00e+00	122	35	0	251658240	48	5994
2026-01-18 13:20:33.14	26.38	8.12	-37.4	-38.4	22.0	0.00e+00	122	35	0	254803968	48	5833
2026-01-18 13:20:34.15	26.45	8.19	-37.5	-38.6	21.9	0.00e+00	122	35	0	257949696	48	5930
2026-01-18 13:20:35.16	26.53	8.26	-37.5	-38.5	21.9	0.00e+00	120	35	0	261095424	48	5896
2026-01-18 13:20:36.17	26.61	8.34	-37.5	-38.5	22.0	0.00e+00	123	35	0	264241152	48	5923
2026-01-18 13:20:37.18	26.69	8.41	-37.5	-38.5	22.0	0.00e+00	123	35	0	267386880	48	5890
2026-01-18 13:20:38.18	26.77	8.48	-37.3	-38.4	22.0	0.00e+00	123	35	0	270532608	48	5818
2026-01-18 13:20:39.19	26.85	8.55	-37.4	-38.5	22.0	0.00e+00	122	35	0	273678336	48	5876
2026-01-18 13:20:40.20	26.92	8.63	-37.2	-38.3	22.1	0.00e+00	123	35	0	276824064	48	5737
2026-01-18 13:20:41.21	27.00	8.70	-37.2	-38.3	22.2	0.00e+00	122	35	0	279969792	48	5734
2026-01-18 13:20:42.22	27.09	8.77	-37.2	-38.2	22.3	0.00e+00	122	35	0	283115520	48	5680
2026-01-18 13:20:43.23	27.17	8.85	-37.2	-38.2	22.2	0.00e+00	123	35	0	286261248	48	5690
2026-01-18 13:20:44.24	27.25	8.92	-37.1	-38.1	22.3	0.00e+00	123	35	0	289406976	48	5631
2026-01-18 13:20:45.25	27.33	8.99	-37.0	-38.0	22.4	0.00e+00	123	35	0	292552704	48	5570
2026-01-18 13:20:46.26	27.41	9.07	-37.0	-38.1	22.4	0.00e+00	123	35	0	295698432	48	5604
2026-01-18 13:20:47.27	27.49	9.14	-37.0	-38.0	22.4	0.00e+00	123	35	0	298844160	48	5575
2026-01-18 13:20:48.28	27.58	9.22	-36.9	-37.9	22.5	0.00e+00	123	35	0	301989888	48	5515
2026-01-18 13:20:49.28	27.66	9.29	-36.9	-37.9	22.5	0.00e+00	122	35	0	305135616	48	5504
2026-01-18 13:20:50.29	27.74	9.37	-36.9	-37.8	22.6	0.00e+00	123	35	0	308281344	48	5463
2026-01-18 13:20:51.30	27.82	9.44	-36.8	-37.8	22.6	0.00e+00	122	35	0	311427072	48	5431
2026-01-18 13:20:52.31	27.91	9.52	-36.9	-37.8	22.6	0.00e+00	123	35	0	314572800	48	5465
2026-01-18 13:20:53.32	27.99	9.59	-36.9	-37.9	22.5	0.00e+00	122	35	0	317718528	48	5510
2026-01-18 13:20:54.33	28.08	9.67	-36.8	-37.8	22.6	0.00e+00	120	35	0	320864256	48	5416
2026-01-18 13:20:55.33	28.16	9.74	-36.8	-37.8	22.7	0.00e+00	122	35	0	324009984	48	5434
2026-01-18 13:20:56.34	28.25	9.82	-36.8	-37.8	22.6	0.00e+00	123	35	0	327155712	48	5461
2026-01-18 13:20:57.35	28.34	9.89	-36.8	-37.8	22.6	0.00e+00	123	35	0	330301440	48	5445
2026-01-18 13:20:58.36	28.42	9.97	-36.9	-37.9	22.6	0.00e+00	122	35	0	333447168	48	5484
2026-01-18 13:20:59.37	28.51	10.05	-36.8	-37.8	22.6	0.00e+00	122	35	0	336592896	48	5462
2026-01-18 13:21:00.38	28.60	10.12	-36.9	-37.8	22.6	0.00e+00	121	35	0	339738624	48	5467
2026-01-18 13:21:01.38	28.68	10.20	-36.9	-37.9	22.6	0.00e+00	122	35	0	342884352	48	5487
2026-01-18 13:21:02.39	28.77	10.28	-36.9	-37.9	22.6	0.00e+00	123	35	0	346030080	48	5491
2026-01-18 13:21:03.40	28.86	10.35	-36.9	-37.9	22.7	0.00e+00	122	35	0	349175808	48	5491
2026-01-18 13:21:04.41	28.95	10.43	-36.9	-37.9	22.6	0.00e+00	120	35	0	352321536	48	5475
2026-01-18 13:21:05.42	29.04	10.51	-36.7	-37.7	22.7	0.00e+00	122	35	0	355467264	46	6043
2026-01-18 13:21:06.43	29.13	10.59	-36.7	-37.7	22.8	0.00e+00	123	35	0	358612992	46	6001
2026-01-18 13:21:07.44	29.22	10.66	-36.9	-37.9	22.6	0.00e+00	123	35	0	361758720	46	6161
2026-01-18 13:21:08.45	29.31	10.74	-36.7	-37.7	22.8	0.00e+00	122	35	0	364904448	46	6028
2026-01-18 13:21:09.46	29.40	10.82	-36.8	-37.8	22.7	0.00e+00	123	35	0	368050176	46	6099
2026-01-18 13:21:10.47	29.50	10.90	-36.6	-37.6	22.9	0.00e+00	120	35	0	371195904	46	5960
2026-01-18 13:21:11.48	29.59	10.98	-36.6	-37.6	22.9	0.00e+00	123	35	0	374341632	46	5936
2026-01-18 13:21:12.49	29.68	11.06	-36.6	-37.6	22.9	0.00e+00	121	35	0	377487360	46	5965
2026-01-18 13:21:13.50	29.78	11.13	-36.6	-37.6	22.9	0.00e+00	123	35	0	380633088	46	5927
2026-01-18 13:21:14.51	29.87	11.21	-36.4	-37.4	23.0	0.00e+00	122	35	0	383778816	46	5821
2026-01-18 13:21:15.51	29.96	11.29	-36.4	-37.4	23.0	0.00e+00	122	35	0	386924544	46	5801
2026-01-18 13:21:16.52	30.06	11.37	-36.4	-37.3	23.1	0.00e+00	122	35	0	390070272	46	5787
2026-01-18 13:21:17.53	30.15	11.45	-36.3	-37.3	23.1	0.00e+00	123	35	0	393216000	46	5763
2026-01-18 13:21:18.53	30.25	11.53	-36.3	-37.3	23.1	0.00e+00	122	35	0	396361728	46	5764
2026-01-18 13:21:19.54	30.34	11.61	-36.4	-37.3	23.1	0.00e+00	123	35	0	399507456	46	5784
2026-01-18 13:21:20.55	30.44	11.69	-36.4	-37.4	23.1	0.00e+00	122	35	0	402653184	46	5819
2026-01-18 13:21:21.56	30.54	11.77	-36.4	-37.4	23.1	0.00e+00	123	35	0	405798912	46	5796
2026-01-18 13:21:22.56	30.64	11.85	-36.3	-37.3	23.2	0.00e+00	122	35	0	408944640	46	5773
2026-01-18 13:21:23.57	30.73	11.93	-36.4	-37.4	23.1	0.00e+00	122	35	0	412090368	46	5831
2026-01-18 13:21:24.58	30.83	12.01	-36.3	-37.3	23.2	0.00e+00	122	35	0	415236096	46	5727
2026-01-18 13:21:25.59	30.93	12.10	-36.3	-37.2	23.2	0.00e+00	123	35	0	418381824	46	5716
2026-01-18 13:21:26.60	31.03	12.18	-36.2	-37.1	23.2	0.00e+00	123	35	0	421527552	46	5659
2026-01-18 13:21:27.61	31.13	12.26	-36.2	-37.1	23.3	0.00e+00	122	35	0	424673280	46	5647
2026-01-18 13:21:28.62	31.23	12.34	-36.2	-37.1	23.3	0.00e+00	123	35	0	427819008	46	5643
2026-01-18 13:21:29.63	31.34	12.42	-36.1	-37.1	23.4	0.00e+00	123	35	0	430964736	46	5600
2026-01-18 13:21:30.64	31.44	12.51	-36.0	-37.0	23.5	0.00e+00	123	35	0	434110464	46	5559
2026-01-18 13:21:31.64	31.54	12.59	-36.1	-37.0	23.4	0.00e+00	122	35	0	437256192	46	5591
2026-01-18 13:21:32.65	31.64	12.67	-36.0	-37.0	23.5	0.00e+00	122	35	0	440401920	46	5542
2026-01-18 13:21:33.66	31.75	12.75	-36.0	-36.9	23.5	0.00e+00	123	35	0	443547648	46	5506
2026-01-18 13:21:34.67	31.85	12.84	-36.1	-37.0	23.4	0.00e+00	122	35	0	446693376	46	5561
2026-01-18 13:21:35.68	31.96	12.92	-36.0	-36.9	23.6	0.00e+00	120	35	0	449839104	46	5501
2026-01-18 13:21:36.69	32.06	13.00	-36.0	-37.0	23.4	0.00e+00	123	35	0	452984832	46	5557
2026-01-18 13:21:37.69	32.17	13.09	-35.8	-36.7	23.6	0.00e+00	123	35	0	456130560	46	5404
2026-01-18 13:21:38.70	32.27	13.17	-35.7	-36.6	23.7	0.00e+00	120	35	0	459276288	44	5994
2026-01-18 13:21:39.71	32.38	13.25	-35.8	-36.8	23.6	0.00e+00	122	35	0	462422016	44	6097
2026-01-18 13:21:40.72	32.49	13.34	-35.8	-36.7	23.6	0.00e+00	120	35	0	465567744	44	6045
2026-01-18 13:21:41.73	32.60	13.42	-35.7	-36.7	23.7	0.00e+00	122	35	0	468713472	44	6005
2026-01-18 13:21:42.74	32.71	13.51	-35.8	-36.7	23.7	0.00e+00	121	35	0	471859200	44	6048
2026-01-18 13:21:43.75	32.82	13.59	-35.8	-36.7	23.7	0.00e+00	123	35	0	475004928	44	6031
2026-01-18 13:21:44.76	32.93	13.68	-35.9	-36.8	23.6	0.00e+00	123	35	0	478150656	44	6120
2026-01-18 13:21:45.77	33.04	13.76	-35.9	-36.8	23.6	0.00e+00	123	35	0	481296384	44	6113
2026-01-18 13:21:46.78	33.15	13.85	-35.8	-36.7	23.7	0.00e+00	123	35	0	484442112	44	6043
2026-01-18 13:21:47.79	33.26	13.94	-35.8	-36.8	23.7	0.00e+00	123	35	0	487587840	44	6065
2026-01-18 13:21:48.79	33.37	14.02	-35.7	-36.7	23.7	0.00e+00	123	35	0	490733568	44	5996
2026-01-18 13:21:49.80	33.48	14.11	-35.8	-36.7	23.7	0.00e+00	122	35	0	493879296	44	6062
2026-01-18 13:21:50.82	33.60	14.19	-35.8	-36.7	23.7	0.00e+00	120	35	0	497025024	44	6038
2026-01-18 13:21:51.83	33.71	14.28	-35.7	-36.6	23.8	0.00e+00	123	35	0	500170752	44	5987
2026-01-18 13:21:52.83	33.83	14.37	-35.7	-36.6	23.8	0.00e+00	123	35	0	503316480	44	5942
2026-01-18 13:21:53.84	33.94	14.45	-35.9	-36.8	23.7	0.00e+00	120	35	0	506462208	44	6097
2026-01-18 13:21:54.85	34.06	14.54	-35.7	-36.6	23.8	0.00e+00	122	35	0	509607936	44	5987
2026-01-18 13:21:55.86	34.18	14.63	-35.8	-36.7	23.7	0.00e+00	123	35	0	512753664	44	6048
2026-01-18 13:21:56.87	34.30	14.72	-35.8	-36.7	23.7	0.00e+00	122	35	0	516947968	44	6046
2026-01-18 13:21:57.88	34.41	14.80	-35.8	-36.8	23.6	0.00e+00	123	35	0	520093696	44	6083
2026-01-18 13:21:58.89	34.53	14.89	-36.0	-36.9	23.5	0.00e+00	120	35	0	523239424	44	6163
2026-01-18 13:21:59.90	34.65	14.98	-35.8	-36.8	23.7	0.00e+00	123	35	0	525336576	44	6074
2026-01-18 13:22:00.91	34.77	15.07	-35.9	-36.8	23.6	0.00e+00	123	35	0	528482304	44	6098
2026-01-18 13:22:01.91	34.89	15.16	-35.8	-36.7	23.7	0.00e+00	123	35	0	531628032	44	6062
2026-01-18 13:22:02.92	35.02	15.25	-35.8	-36.7	23.7	0.00e+00	122	35	0	535822336	44	6060
2026-01-18 13:22:03.93	35.14	15.33	-35.9	-36.9	23.6	0.00e+00	122	35	0	538968064	44	6143
2026-01-18 13:22:04.94	35.26	15.42	-36.0	-37.0	23.5	0.00e+00	122	35	0	542113792	44	6222
2026-01-18 13:22:05.95	35.38	15.51	-35.9	-36.8	23.6	0.00e+00	122	35	0	545259520	44	6111
2026-01-18 13:22:06.96	35.51	15.60	-35.8	-36.7	23.7	0.00e+00	123	35	0	547356672	44	6061
2026-01-18 13:22:07.97	35.63	15.69	-35.8	-36.7	23.7	0.00e+00	120	35	0	551550976	44	6038
2026-01-18 13:22:08.98	35.76	15.78	-35.7	-36.7	23.8	0.00e+00	121	35	0	554696704	44	5999
2026-01-18 13:22:09.99	35.89	15.87	-35.8	-36.8	23.7	0.00e+00	123	35	0	557842432	44	6080
2026-01-18 13:22:11.00	36.02	15.96	-35.7	-36.6	23.8	0.00e+00	123	36	0	560988160	44	5958
2026-01-18 13:22:12.01	36.14	16.06	-35.8	-36.7	23.7	0.00e+00	122	35	0	564133888	44	6042
2026-01-18 13:22:13.02	36.27	16.15	-35.9	-36.9	23.6	0.00e+00	120	36	0	567279616	44	6136
2026-01-18 13:22:14.03	36.40	16.24	-35.9	-36.8	23.7	0.00e+00	123	35	0	570425344	44	6129
2026-01-18 13:22:15.03	36.53	16.33	-35.9	-36.9	23.7	0.00e+00	122	36	0	573571072	44	6154
2026-01-18 13:22:16.04	36.66	16.42	-35.9	-36.9	23.6	0.00e+00	120	35	0	576716800	44	6142
2026-01-18 13:22:17.05	36.80	16.51	-35.9	-36.9	23.6	0.00e+00	122	35	0	579862528	44	6160
2026-01-18 13:22:18.06	36.93	16.60	-36.0	-36.9	23.5	0.00e+00	122	35	0	583008256	44	6175
2026-01-18 13:22:19.07	37.06	16.70	-35.9	-36.9	23.7	0.00e+00	123	35	0	586153984	44	6138
2026-01-18 13:22:20.08	37.20	16.79	-36.1	-37.0	23.6	0.00e+00	122	36	0	589299712	44	6270
2026-01-18 13:22:21.09	37.33	16.88	-35.9	-36.8	23.8	0.00e+00	123	35	0	592445440	44	6091
2026-01-18 13:22:22.10	37.47	16.97	-35.9	-36.9	23.7	0.00e+00	123	35	0	595591168	44	6155
2026-01-18 13:22:23.10	37.60	17.07	-36.0	-36.9	23.6	0.00e+00	123	35	0	598736896	44	6160
2026-01-18 13:22:24.11	37.74	17.16	-36.2	-37.1	23.6	0.00e+00	123	35	0	601882624	44	6350
2026-01-18 13:22:25.12	37.88	17.25	-36.0	-37.0	23.6	0.00e+00	123	35	0	605028352	44	6240
2026-01-18 13:22:26.13	38.02	17.35	-36.1	-37.0	23.5	0.00e+00	123	35	0	608174080	44	6249
2026-01-18 13:22:27.14	38.16	17.44	-35.9	-36.8	23.7	0.00e+00	122	35	0	611319808	44	6126
2026-01-18 13:22:28.15	38.30	17.53	-36.0	-36.9	23.7	0.00e+00	123	35	0	614465536	44	6174
2026-01-18 13:22:29.15	38.44	17.63	-36.0	-36.9	23.6	0.00e+00	123	35	0	617611264	44	6193
2026-01-18 13:22:30.16	38.59	17.72	-36.2	-37.2	23.5	0.00e+00	123	35	0	620756992	44	6353
2026-01-18 13:22:31.17	38.73	17.82	-36.0	-37.0	23.6	0.00e+00	123	36	0	623902720	44	6237
2026-01-18 13:22:32.18	38.87	17.91	-36.1	-37.1	23.6	0.00e+00	120	35	0	627048448	44	6293
2026-01-18 13:22:33.19	39.02	18.01	-36.0	-37.0	23.6	0.00e+00	123	36	0	630194176	44	6221
2026-01-18 13:22:34.20	39.17	18.10	-35.9	-36.9	23.7	0.00e+00	120	35	0	633339904	44	6151
2026-01-18 13:22:35.21	39.31	18.20	-35.8	-36.7	23.8	0.00e+00	122	35	0	636485632	44	6038
2026-01-18 13:22:36.21	39.46	18.29	-35.9	-36.8	23.7	0.00e+00	123	35	0	639631360	44	6119
2026-01-18 13:22:37.22	39.61	18.39	-35.8	-36.7	23.8	0.00e+00	123	35	0	642777088	44	6054
2026-01-18 13:22:38.23	39.76	18.48	-35.8	-36.7	23.8	0.00e+00	120	35	0	645922816	44	6025
2026-01-18 13:22:39.24	39.91	18.58	-35.7	-36.7	23.9	0.00e+00	122	36	0	649068544	44	5995
2026-01-18 13:22:40.25	40.06	18.68	-35.7	-36.6	23.8	0.00e+00	123	36	0	652214272	44	5977
2026-01-18 13:22:41.26	40.21	18.77	-35.6	-36.5	24.0	0.00e+00	123	35	0	655360000	44	5886
2026-01-18 13:22:42.27	40.37	18.87	-35.6	-36.6	23.9	0.00e+00	123	35	0	658505728	44	5939
2026-01-18 13:22:43.28	40.52	18.97	-35.6	-36.5	23.9	0.00e+00	123	35	0	661651456	44	5907
2026-01-18 13:22:44.29	40.68	19.06	-35.5	-36.5	24.1	0.00e+00	123	35	0	664797184	44	5864
2026-01-18 13:22:45.30	40.83	19.16	-35.6	-36.6	24.0	0.00e+00	123	35	0	667942912	44	5929
2026-01-18 13:22:46.31	40.99	19.26	-35.6	-36.5	23.9	0.00e+00	122	35	0	671088640	44	5898
2026-01-18 13:22:47.32	41.15	19.36	-35.3	-36.2	24.1	0.00e+00	123	35	0	674234368	44	5710
2026-01-18 13:22:48.33	41.31	19.45	-35.3	-36.2	24.2	0.00e+00	123	35	0	677380096	44	5665
2026-01-18 13:22:49.34	41.47	19.55	-35.4	-36.3	24.2	0.00e+00	120	35	0	680525824	44	5752
2026-01-18 13:22:50.35	41.63	19.65	-35.5	-36.4	24.1	0.00e+00	119	35	0	683671552	44	5833
2026-01-18 13:22:51.36	41.79	19.75	-35.3	-36.2	24.2	0.00e+00	120	35	0	686817280	44	5708
2026-01-18 13:22:52.36	41.96	19.85	-35.4	-36.4	24.1	0.00e+00	122	35	0	689963008	44	5801
2026-01-18 13:22:53.37	42.12	19.95	-35.3	-36.2	24.2	0.00e+00	123	36	0	693108736	44	5721
2026-01-18 13:22:54.38	42.29	20.04	-35.2	-36.1	24.3	0.00e+00	122	36	0	696254464	44	5613
2026-01-18 13:22:55.39	42.45	20.14	-35.2	-36.1	24.3	0.00e+00	120	35	0	699400192	44	5648
2026-01-18 13:22:56.40	42.62	20.24	-35.2	-36.1	24.3	0.00e+00	122	35	0	702545920	44	5649
2026-01-18 13:22:57.41	42.79	20.34	-35.2	-36.1	24.3	0.00e+00	123	35	0	705691648	44	5612
2026-01-18 13:22:58.41	42.96	20.44	-35.2	-36.1	24.4	0.00e+00	123	35	0	708837376	44	5624
2026-01-18 13:22:59.42	43.13	20.54	-35.2	-36.1	24.3	0.00e+00	122	35	0	711983104	44	5623
2026-01-18 13:23:00.43	43.30	20.64	-35.1	-36.1	24.4	0.00e+00	119	36	0	715128832	44	5598
2026-01-18 13:23:01.44	43.47	20.74	-35.1	-36.0	24.5	0.00e+00	123	35	0	718274560	44	5566
2026-01-18 13:23:02.44	43.64	20.84	-35.2	-36.1	24.3	0.00e+00	122	35	0	721420288	44	5615
2026-01-18 13:23:03.45	43.82	20.94	-35.1	-36.0	24.4	0.00e+00	123	36	0	724566016	44	5548
2026-01-18 13:23:04.46	44.00	21.04	-35.1	-36.0	24.4	0.00e+00	122	35	0	727711744	44	5578
2026-01-18 13:23:05.47	44.17	21.14	-35.1	-36.0	24.4	0.00e+00	122	36	0	730857472	44	5585
2026-01-18 13:23:06.48	44.35	21.24	-35.2	-36.1	24.4	0.00e+00	123	35	0	734003200	44	5597
2026-01-18 13:23:07.49	44.53	21.34	-35.0	-35.9	24.4	0.00e+00	122	36	0	737148928	44	5529
2026-01-18 13:23:08.49	44.71	21.44	-35.1	-36.0	24.4	0.00e+00	122	36	0	740294656	44	5539
2026-01-18 13:23:09.50	44.89	21.54	-34.9	-35.8	24.5	0.00e+00	123	35	0	743440384	44	5413
2026-01-18 13:23:10.51	45.07	21.64	-35.1	-36.0	24.4	0.00e+00	121	35	0	746586112	44	5547
2026-01-18 13:23:11.52	45.26	21.75	-35.0	-35.9	24.5	0.00e+00	123	36	0	749731840	44	5479
2026-01-18 13:23:12.53	45.44	21.85	-35.0	-35.9	24.5	0.00e+00	123	36	0	752877568	44	5502
2026-01-18 13:23:13.54	45.63	21.95	-34.9	-35.8	24.6	0.00e+00	120	35	0	756023296	44	5440
2026-01-18 13:23:14.55	45.82	22.05	-35.0	-35.9	24.4	0.00e+00	123	35	0	759169024	44	5518
2026-01-18 13:23:15.56	46.01	22.15	-34.9	-35.8	24.5	0.00e+00	120	36	0	762314752	44	5431
2026-01-18 13:23:16.56	46.20	22.25	-34.8	-35.7	24.6	0.00e+00	122	36	0	765460480	42	6031
2026-01-18 13:23:17.57	46.39	22.35	-34.8	-35.7	24.6	0.00e+00	123	36	0	768606208	42	6055
2026-01-18 13:23:18.58	46.58	22.46	-35.0	-35.9	24.5	0.00e+00	123	35	0	771751936	42	6145
2026-01-18 13:23:19.59	46.77	22.56	-34.9	-35.8	24.6	0.00e+00	120	35	0	774897664	42	6097
2026-01-18 13:23:20.60	46.97	22.66	-35.0	-35.9	24.5	0.00e+00	122	35	0	778043392	42	6156
2026-01-18 13:23:21.60	47.16	22.76	-34.9	-35.8	24.5	0.00e+00	120	35	0	781189120	42	6075
2026-01-18 13:23:22.61	47.36	22.86	-34.7	-35.7	24.6	0.00e+00	122	35	0	784334848	42	5996
2026-01-18 13:23:23.62	47.56	22.97	-34.8	-35.7	24.6	0.00e+00	122	35	0	787480576	42	6032
2026-01-18 13:23:24.63	47.76	23.07	-34.9	-35.8	24.6	0.00e+00	120	36	0	790626304	42	6082
2026-01-18 13:23:25.64	47.96	23.17	-34.8	-35.7	24.6	0.00e+00	123	35	0	793772032	42	6047
2026-01-18 13:23:26.64	48.16	23.27	-34.9	-35.8	24.6	0.00e+00	122	36	0	796917760	42	6112
2026-01-18 13:23:27.65	48.37	23.37	-35.0	-35.9	24.5	0.00e+00	123	36	0	800063488	42	6166
2026-01-18 13:23:28.66	48.57	23.48	-34.9	-35.8	24.6	0.00e+00	123	36	0	803209216	42	6076
2026-01-18 13:23:29.67	48.78	23.58	-34.8	-35.7	24.7	0.00e+00	123	35	0	806354944	42	5996
2026-01-18 13:23:30.68	48.99	23.68	-34.6	-35.5	24.7	0.00e+00	122	35	0	809500672	42	5896
2026-01-18 13:23:31.68	49.19	23.78	-34.6	-35.5	24.8	0.00e+00	120	35	0	812646400	42	5867
2026-01-18 13:23:32.69	49.40	23.89	-34.7	-35.6	24.8	0.00e+00	122	35	0	815792128	42	5945
2026-01-18 13:23:33.70	49.62	23.99	-34.6	-35.5	24.9	0.00e+00	122	36	0	818937856	42	5886
2026-01-18 13:23:34.71	49.83	24.09	-34.7	-35.6	24.8	0.00e+00	120	36	0	822083584	42	5983
2026-01-18 13:23:35.72	50.05	24.19	-34.8	-35.7	24.7	0.00e+00	122	35	0	825229312	42	5999
2026-01-18 13:23:36.72	50.26	24.30	-34.9	-35.7	24.6	0.00e+00	120	35	0	828375040	42	6054
2026-01-18 13:23:37.73	50.48	24.40	-34.9	-35.8	24.7	0.00e+00	120	36	0	831520768	42	6083
2026-01-18 13:23:38.74	50.70	24.50	-35.0	-35.9	24.6	0.00e+00	123	36	0	834666496	42	6150
2026-01-18 13:23:39.75	50.92	24.60	-35.1	-36.0	24.4	0.00e+00	122	35	0	837812224	42	6208
2026-01-18 13:23:40.76	51.14	24.71	-35.1	-36.0	24.4	0.00e+00	122	35	0	840957952	42	6241
2026-01-18 13:23:41.77	51.36	24.81	-35.3	-36.2	24.3	0.00e+00	123	36	0	844103680	42	6371
2026-01-18 13:23:42.78	51.59	24.91	-35.4	-36.3	24.3	0.00e+00	123	35	0	847249408	42	6448
2026-01-18 13:23:43.79	51.81	25.01	-35.4	-36.3	24.3	0.00e+00	120	35	0	850395136	42	6472
2026-01-18 13:23:44.80	52.04	25.12	-35.4	-36.3	24.3	0.00e+00	122	36	0	853540864	42	6445
2026-01-18 13:23:45.80	52.27	25.22	-35.3	-36.2	24.2	0.00e+00	120	36	0	856686592	42	6381
2026-01-18 13:23:46.81	52.50	25.32	-35.4	-36.4	24.3	0.00e+00	123	36	0	859832320	42	6514
2026-01-18 13:23:47.82	52.73	25.42	-35.2	-36.2	24.4	0.00e+00	123	36	0	862978048	42	6355
2026-01-18 13:23:48.83	52.96	25.52	-35.2	-36.1	24.4	0.00e+00	122	36	0	866123776	42	6338
2026-01-18 13:23:49.84	53.20	25.63	-35.3	-36.2	24.3	0.00e+00	123	36	0	869269504	42	6389
2026-01-18 13:23:50.85	53.43	25.73	-35.0	-35.9	24.6	0.00e+00	122	36	0	872415232	42	6155
2026-01-18 13:23:51.86	53.67	25.83	-34.9	-35.8	24.6	0.00e+00	122	36	0	875560960	42	6071
2026-01-18 13:23:52.87	53.91	25.93	-35.0	-35.9	24.6	0.00e+00	123	36	0	878706688	42	6150
2026-01-18 13:23:53.88	54.15	26.03	-34.9	-35.7	24.7	0.00e+00	123	36	0	881852416	42	6064
2026-01-18 13:23:54.89	54.39	26.13	-34.9	-35.7	24.6	0.00e+00	123	36	0	884998144	42	6051
2026-01-18 13:23:55.89	54.63	26.23	-35.0	-35.9	24.6	0.00e+00	122	35	0	888143872	42	6152
2026-01-18 13:23:56.90	54.88	26.34	-35.2	-36.1	24.5	0.00e+00	123	36	0	891289600	42	6299
2026-01-18 13:23:57.91	55.12	26.44	-35.3	-36.2	24.4	0.00e+00	123	36	0	894435328	42	6367
2026-01-18 13:23:58.92	55.37	26.54	-35.4	-36.3	24.3	0.00e+00	123	35	0	897581056	42	6442
2026-01-18 13:23:59.92	55.62	26.64	-35.4	-36.3	24.4	0.00e+00	123	36	0	900726784	42	6466
2026-01-18 13:24:00.93	55.87	26.74	-35.3	-36.1	24.4	0.00e+00	120	36	0	903872512	42	6344
2026-01-18 13:24:01.94	56.12	26.84	-35.2	-36.1	24.5	0.00e+00	123	36	0	907018240	42	6300
2026-01-18 13:24:02.95	56.38	26.94	-35.3	-36.2	24.4	0.00e+00	122	36	0	910163968	42	6355
2026-01-18 13:24:03.96	56.64	27.04	-35.2	-36.1	24.4	0.00e+00	123	35	0	913309696	42	6278
2026-01-18 13:24:04.96	56.89	27.14	-35.3	-36.2	24.4	0.00e+00	123	35	0	916455424	42	6373
2026-01-18 13:24:05.97	57.15	27.23	-35.2	-36.1	24.4	0.00e+00	123	36	0	919601152	42	6336
2026-01-18 13:24:06.98	57.41	27.33	-35.2	-36.1	24.4	0.00e+00	123	36	0	922746880	42	6307
2026-01-18 13:24:07.99	57.67	27.43	-35.1	-36.0	24.4	0.00e+00	123	36	0	925892608	42	6276
2026-01-18 13:24:08.99	57.93	27.53	-35.3	-36.2	24.3	0.00e+00	121	35	0	929038336	42	6360
2026-01-18 13:24:10.00	58.20	27.63	-35.1	-36.0	24.4	0.00e+00	122	36	0	932184064	42	6274
2026-01-18 13:24:11.01	58.47	27.73	-35.3	-36.2	24.3	0.00e+00	123	36	0	935329792	42	6396
2026-01-18 13:24:12.02	58.74	27.82	-35.5	-36.4	24.2	0.00e+00	122	35	0	938475520	42	6569
2026-01-18 13:24:13.03	59.01	27.92	-35.7	-36.7	24.0	0.00e+00	123	36	0	941621248	42	6739
2026-01-18 13:24:14.04	59.28	28.02	-35.8	-36.8	23.9	0.00e+00	122	36	0	944766976	44	6098
2026-01-18 13:24:15.04	59.55	28.11	-35.9	-36.8	23.9	0.00e+00	121	36	0	947912704	44	6105
2026-01-18 13:24:16.05	59.82	28.21	-35.9	-36.8	23.8	0.00e+00	122	36	0	951058432	44	6125
2026-01-18 13:24:17.06	60.10	28.30	-35.7	-36.6	24.0	0.00e+00	123	36	0	954204160	44	5991
2026-01-18 13:24:18.07	60.38	28.40	-35.6	-36.5	24.1	0.00e+00	123	35	0	957349888	44	5870
2026-01-18 13:24:19.08	60.66	28.49	-35.5	-36.4	24.2	0.00e+00	123	36	0	960495616	44	5843
2026-01-18 13:24:20.09	60.94	28.59	-35.4	-36.3	24.2	0.00e+00	123	36	0	963641344	44	5750
2026-01-18 13:24:21.10	61.23	28.68	-35.4	-36.4	24.2	0.00e+00	123	36	0	966787072	44	5796
2026-01-18 13:24:22.11	61.51	28.78	-35.5	-36.4	24.2	0.00e+00	123	36	0	969932800	44	5836
2026-01-18 13:24:23.12	61.80	28.87	-35.5	-36.4	24.1	0.00e+00	123	36	0	973078528	44	5813
2026-01-18 13:24:24.12	62.08	28.96	-35.4	-36.3	24.2	0.00e+00	124	35	0	976224256	44	5749
2026-01-18 13:24:25.14	62.38	29.06	-35.5	-36.4	24.1	0.00e+00	123	36	0	979369984	44	5807
2026-01-18 13:24:26.14	62.66	29.15	-35.2	-36.1	24.3	0.00e+00	122	36	0	982515712	44	5652
2026-01-18 13:24:27.15	62.96	29.24	-35.3	-36.2	24.3	0.00e+00	122	36	0	985661440	44	5668
2026-01-18 13:24:28.16	63.25	29.33	-35.1	-36.0	24.4	0.00e+00	123	36	0	988807168	44	5559
2026-01-18 13:24:29.17	63.55	29.42	-35.1	-36.0	24.3	0.00e+00	122	36	0	991952896	44	5585
2026-01-18 13:24:30.18	63.85	29.51	-35.1	-36.0	24.5	0.00e+00	123	35	0	995098624	44	5534
2026-01-18 13:24:31.19	64.15	29.60	-35.1	-36.0	24.5	0.00e+00	123	36	0	998244352	44	5548
2026-01-18 13:24:32.20	64.45	29.69	-35.2	-36.0	24.5	0.00e+00	120	36	0	1001390080	44	5593
2026-01-18 13:24:33.21	64.75	29.78	-35.1	-36.0	24.5	0.00e+00	122	35	0	1004535808	44	5549
2026-01-18 13:24:34.22	65.06	29.86	-35.2	-36.1	24.5	0.00e+00	123	36	0	1007681536	44	5607
2026-01-18 13:24:35.23	65.36	29.95	-35.2	-36.0	24.5	0.00e+00	123	36	0	1010827264	44	5594
2026-01-18 13:24:36.24	65.67	30.04	-35.2	-36.1	24.4	0.00e+00	123	36	0	1013972992	44	5641
2026-01-18 13:24:37.25	65.98	30.12	-35.1	-36.0	24.5	0.00e+00	123	36	0	1017118720	44	5538
2026-01-18 13:24:38.25	66.29	30.21	-35.3	-36.2	24.4	0.00e+00	123	36	0	1020264448	44	5680
2026-01-18 13:24:39.26	66.60	30.29	-35.3	-36.2	24.2	0.00e+00	123	36	0	1023410176	44	5717
2026-01-18 13:24:40.27	66.92	30.37	-35.5	-36.4	24.1	0.00e+00	123	36	0	1027604480	44	5850
2026-01-18 13:24:41.28	67.23	30.46	-35.7	-36.6	24.0	0.00e+00	122	36	0	1029701632	44	5943
2026-01-18 13:24:42.29	67.55	30.54	-35.4	-36.3	24.2	0.00e+00	122	36	0	1032847360	44	5791
2026-01-18 13:24:43.29	67.87	30.62	-35.2	-36.1	24.4	0.00e+00	123	36	0	1035993088	44	5649
2026-01-18 13:24:44.30	68.19	30.70	-35.2	-36.1	24.4	0.00e+00	123	36	0	1039138816	44	5635
2026-01-18 13:24:45.31	68.51	30.78	-35.1	-36.0	24.4	0.00e+00	123	36	0	1042284544	44	5585
2026-01-18 13:24:46.32	68.83	30.86	-35.4	-36.3	24.3	0.00e+00	120	35	0	1046478848	44	5734
2026-01-18 13:24:47.33	69.16	30.94	-35.6	-36.5	24.1	0.00e+00	122	36	0	1049624576	44	5899
2026-01-18 13:24:48.33	69.48	31.02	-35.7	-36.6	24.0	0.00e+00	123	36	0	1052770304	44	5983
2026-01-18 13:24:49.34	69.81	31.09	-35.8	-36.7	23.9	0.00e+00	123	36	0	1054867456	44	6040
2026-01-18 13:24:50.35	70.14	31.17	-35.7	-36.7	24.0	0.00e+00	123	36	0	1058013184	44	6007
2026-01-18 13:24:51.36	70.47	31.25	-35.7	-36.6	24.1	0.00e+00	122	36	0	1061158912	44	5954
2026-01-18 13:24:52.37	70.81	31.32	-35.6	-36.5	24.1	0.00e+00	123	36	0	1065353216	44	5873
2026-01-18 13:24:53.38	71.14	31.39	-35.5	-36.4	24.1	0.00e+00	123	36	0	1068498944	44	5805
2026-01-18 13:24:54.39	71.48	31.47	-35.5	-36.5	24.1	0.00e+00	123	36	0	1071644672	44	5876
2026-01-18 13:24:55.39	71.81	31.54	-35.8	-36.7	23.9	0.00e+00	120	36	0	1074790400	44	6020
2026-01-18 13:24:56.40	72.15	31.61	-36.0	-37.0	23.8	0.00e+00	123	36	0	1077936128	44	6224
2026-01-18 13:24:57.41	72.49	31.68	-36.1	-37.1	23.7	0.00e+00	120	36	0	1080033280	44	6288
2026-01-18 13:24:58.42	72.83	31.75	-36.0	-36.9	23.8	0.00e+00	122	36	0	1084227584	44	6162
2026-01-18 13:24:59.43	73.18	31.82	-36.0	-36.9	23.7	0.00e+00	122	35	0	1087373312	44	6168
2026-01-18 13:25:00.44	73.52	31.88	-36.1	-37.0	23.6	0.00e+00	122	36	0	1090519040	44	6239
2026-01-18 13:25:01.45	73.87	31.95	-36.1	-37.1	23.3	0.00e+00	123	35	0	1093664768	44	6285
2026-01-18 13:25:02.46	74.22	32.02	-36.3	-37.3	23.3	0.00e+00	123	36	0	1096810496	44	6473
2026-01-18 13:25:03.46	74.56	32.08	-36.2	-37.2	23.5	0.00e+00	123	36	0	1099956224	44	6387
2026-01-18 13:25:04.47	74.91	32.14	-36.1	-37.0	23.7	0.00e+00	123	36	0	1103101952	44	6260
2026-01-18 13:25:05.48	75.27	32.21	-36.1	-37.0	23.8	0.00e+00	120	36	0	1106247680	44	6225
2026-01-18 13:25:06.49	75.62	32.27	-35.6	-36.5	24.1	0.00e+00	123	36	0	1109393408	44	5925
2026-01-18 13:25:07.50	75.97	32.33	-35.6	-36.5	24.1	0.00e+00	123	36	0	1112539136	44	5898
2026-01-18 13:25:08.51	76.33	32.39	-35.7	-36.6	24.0	0.00e+00	120	36	0	1115684864	44	5971
2026-01-18 13:25:09.51	76.68	32.44	-35.9	-36.8	23.8	0.00e+00	123	36	0	1118830592	44	6078
2026-01-18 13:25:10.52	77.04	32.50	-35.9	-36.8	23.9	0.00e+00	123	36	0	1121976320	44	6111
2026-01-18 13:25:11.53	77.40	32.56	-35.7	-36.6	24.0	0.00e+00	122	36	0	1125122048	44	5951
2026-01-18 13:25:12.54	77.76	32.61	-35.5	-36.4	24.2	0.00e+00	122	35	0	1128267776	44	5843
2026-01-18 13:25:13.55	78.12	32.66	-35.5	-36.4	24.1	0.00e+00	123	36	0	1131413504	44	5841
2026-01-18 13:25:14.56	78.49	32.72	-35.5	-36.4	24.0	0.00e+00	120	36	0	1134559232	44	5833
2026-01-18 13:25:15.56	78.85	32.77	-35.5	-36.4	23.9	0.00e+00	122	36	0	1137704960	44	5828
2026-01-18 13:25:16.57	79.21	32.82	-35.7	-36.6	23.8	0.00e+00	123	36	0	1140850688	44	5974
2026-01-18 13:25:17.58	79.58	32.87	-35.8	-36.7	23.9	0.00e+00	123	36	0	1143996416	44	6053
2026-01-18 13:25:18.59	79.95	32.91	-35.9	-36.8	24.0	0.00e+00	121	36	0	1147142144	44	6096
2026-01-18 13:25:19.60	80.32	32.96	-35.9	-36.8	23.9	0.00e+00	122	36	0	1150287872	44	6069
2026-01-18 13:25:20.60	80.68	33.01	-36.0	-36.9	23.8	0.00e+00	123	36	0	1153433600	44	6197
2026-01-18 13:25:21.61	81.05	33.05	-36.1	-37.1	23.6	0.00e+00	122	36	0	1156579328	44	6295
2026-01-18 13:25:22.62	81.42	33.09	-36.3	-37.3	23.5	0.00e+00	123	36	0	1159725056	44	6463
2026-01-18 13:25:23.63	81.80	33.13	-36.2	-37.1	23.6	0.00e+00	121	36	0	1162870784	44	6334
2026-01-18 13:25:24.64	82.17	33.17	-36.0	-36.9	23.8	0.00e+00	123	36	0	1166016512	44	6191
2026-01-18 13:25:25.64	82.54	33.21	-36.0	-37.0	23.8	0.00e+00	120	36	0	1169162240	44	6221
2026-01-18 13:25:26.65	82.92	33.25	-35.8	-36.7	23.9	0.00e+00	122	36	0	1172307968	44	6038
2026-01-18 13:25:27.66	83.29	33.29	-35.9	-36.8	23.8	0.00e+00	123	36	0	1175453696	44	6126
2026-01-18 13:25:28.67	83.67	33.32	-35.8	-36.8	23.9	0.00e+00	123	36	0	1178599424	44	6066
2026-01-18 13:25:29.68	84.05	33.36	-35.8	-36.8	23.9	0.00e+00	123	36	0	1181745152	44	6068
2026-01-18 13:25:30.68	84.42	33.39	-35.8	-36.7	24.0	0.00e+00	122	36	0	1184890880	44	6031
2026-01-18 13:25:31.69	84.80	33.42	-35.7	-36.6	24.1	0.00e+00	120	36	0	1188036608	44	5933
2026-01-18 13:25:32.70	85.18	33.45	-35.7	-36.6	24.0	0.00e+00	123	36	0	1191182336	44	5986
2026-01-18 13:25:33.71	85.56	33.48	-35.9	-36.8	23.8	0.00e+00	122	36	0	1194328064	44	6094
2026-01-18 13:25:34.72	85.94	33.50	-36.1	-37.0	23.7	0.00e+00	120	36	0	1197473792	44	6273
2026-01-18 13:25:35.72	86.32	33.53	-36.1	-37.1	23.7	0.00e+00	123	36	0	1200619520	44	6279
2026-01-18 13:25:36.73	86.70	33.55	-36.3	-37.2	23.5	0.00e+00	122	36	0	1203765248	44	6384
2026-01-18 13:25:37.74	87.09	33.58	-36.4	-37.3	23.5	0.00e+00	123	35	0	1206910976	44	6495
2026-01-18 13:25:38.75	87.47	33.60	-36.4	-37.3	23.4	0.00e+00	122	36	0	1210056704	44	6489
2026-01-18 13:25:39.76	87.86	33.62	-36.5	-37.5	23.3	0.00e+00	120	36	0	1213202432	44	6605
2026-01-18 13:25:40.76	88.24	33.64	-36.2	-37.1	23.5	0.00e+00	123	36	0	1216348160	44	6350
2026-01-18 13:25:41.77	88.62	33.66	-36.2	-37.1	23.6	0.00e+00	122	36	0	1219493888	44	6338
2026-01-18 13:25:42.78	89.01	33.67	-36.0	-37.0	23.7	0.00e+00	122	36	0	1222639616	44	6221
2026-01-18 13:25:43.79	89.39	33.69	-36.1	-37.0	23.6	0.00e+00	120	36	0	1225785344	44	6271
2026-01-18 13:25:44.80	89.78	33.70	-36.2	-37.1	23.6	0.00e+00	123	36	0	1228931072	44	6305
2026-01-18 13:25:45.80	90.16	33.71	-36.0	-36.9	23.8	0.00e+00	123	36	0	1232076800	44	6159
2026-01-18 13:25:46.81	90.55	33.72	-35.9	-36.8	23.9	0.00e+00	122	36	0	1235222528	44	6075
2026-01-18 13:25:47.82	90.94	33.73	-35.9	-36.8	23.8	0.00e+00	123	36	0	1238368256	44	6074
2026-01-18 13:25:48.83	91.32	33.74	-36.0	-37.0	23.6	0.00e+00	122	36	0	1241513984	44	6218
2026-01-18 13:25:49.84	91.71	33.74	-36.2	-37.1	23.6	0.00e+00	123	36	0	1244659712	44	6328
2026-01-18 13:25:50.84	92.09	33.75	-36.4	-37.3	23.5	0.00e+00	120	36	0	1247805440	44	6487
2026-01-18 13:25:51.85	92.48	33.75	-36.5	-37.5	23.4	0.00e+00	123	36	0	1250951168	44	6584
2026-01-18 13:25:52.86	92.87	33.75	-36.3	-37.3	23.5	0.00e+00	123	36	0	1254096896	44	6451
2026-01-18 13:25:53.87	93.26	33.75	-36.4	-37.3	23.4	0.00e+00	120	36	0	1257242624	44	6471
2026-01-18 13:25:54.87	93.64	33.75	-36.3	-37.3	23.5	0.00e+00	123	36	0	1260388352	44	6450
2026-01-18 13:25:55.88	94.03	33.75	-36.5	-37.4	23.5	0.00e+00	120	36	0	1263534080	44	6560
2026-01-18 13:25:56.89	94.42	33.75	-36.2	-37.1	23.6	0.00e+00	122	36	0	1266679808	44	6318
2026-01-18 13:25:57.90	94.80	33.74	-36.2	-37.1	23.6	0.00e+00	123	36	0	1269825536	44	6316
2026-01-18 13:25:58.91	95.19	33.73	-36.1	-37.0	23.7	0.00e+00	123	36	0	1272971264	44	6271
2026-01-18 13:25:59.92	95.58	33.73	-36.0	-36.9	23.8	0.00e+00	122	36	0	1276116992	44	6172
2026-01-18 13:26:00.92	95.96	33.72	-36.1	-37.0	23.7	0.00e+00	120	36	0	1279262720	44	6266
2026-01-18 13:26:01.93	96.35	33.71	-35.9	-36.8	23.8	0.00e+00	122	36	0	1282408448	44	6129
2026-01-18 13:26:02.94	96.73	33.69	-35.9	-36.9	23.8	0.00e+00	121	36	0	1285554176	44	6147
2026-01-18 13:26:03.95	97.12	33.68	-36.1	-37.1	23.6	0.00e+00	122	36	0	1288699904	44	6282
2026-01-18 13:26:04.96	97.51	33.66	-36.0	-36.9	23.7	0.00e+00	123	36	0	1291845632	44	6196
2026-01-18 13:26:05.97	97.89	33.65	-36.1	-37.0	23.6	0.00e+00	122	36	0	1294991360	44	6248
2026-01-18 13:26:06.98	98.28	33.63	-36.1	-37.1	23.5	0.00e+00	123	36	0	1298137088	44	6297
2026-01-18 13:26:07.99	98.66	33.61	-36.3	-37.2	23.5	0.00e+00	123	36	0	1301282816	44	6413
2026-01-18 13:26:08.99	99.04	33.59	-36.3	-37.3	23.5	0.00e+00	122	36	0	1304428544	44	6441
2026-01-18 13:26:10.00	99.43	33.57	-36.2	-37.2	23.5	0.00e+00	123	36	0	1307574272	44	6377
2026-01-18 13:26:11.01	99.81	33.54	-36.2	-37.2	23.5	0.00e+00	122	36	0	1310720000	44	6388
2026-01-18 13:26:12.02	100.19	33.52	-36.3	-37.2	23.5	0.00e+00	123	36	0	1313865728	44	6402
2026-01-18 13:26:13.03	100.57	33.49	-36.0	-36.9	23.8	0.00e+00	122	36	0	1317011456	44	6170
2026-01-18 13:26:14.03	100.95	33.46	-36.0	-37.0	23.6	0.00e+00	123	36	0	1320157184	44	6217
2026-01-18 13:26:15.05	101.34	33.43	-36.0	-37.0	23.7	0.00e+00	123	36	0	1323302912	44	6217
2026-01-18 13:26:16.05	101.71	33.40	-36.0	-37.0	23.7	0.00e+00	123	36	0	1326448640	44	6220
2026-01-18 13:26:17.06	102.09	33.37	-35.9	-36.9	23.8	0.00e+00	123	36	0	1329594368	44	6153
2026-01-18 13:26:18.07	102.47	33.34	-35.8	-36.7	23.9	0.00e+00	120	36	0	1332740096	44	6059
2026-01-18 13:26:19.08	102.85	33.31	-35.9	-36.8	23.8	0.00e+00	127	36	0	1335885824	44	6132
2026-01-18 13:26:20.09	103.23	33.27	-35.7	-36.7	24.0	0.00e+00	122	36	0	1339031552	44	5997
2026-01-18 13:26:21.10	103.60	33.23	-36.0	-36.9	23.7	0.00e+00	123	36	0	1342177280	44	6186
2026-01-18 13:26:22.11	103.98	33.19	-36.2	-37.1	23.6	0.00e+00	122	36	0	1345323008	44	6327
2026-01-18 13:26:23.12	104.35	33.15	-36.1	-37.0	23.7	0.00e+00	120	36	0	1348468736	44	6236
2026-01-18 13:26:24.12	104.72	33.11	-36.0	-36.9	23.7	0.00e+00	123	36	0	1351614464	44	6189
2026-01-18 13:26:25.13	105.10	33.07	-35.9	-36.9	23.7	0.00e+00	122	36	0	1354760192	44	6164
2026-01-18 13:26:26.14	105.47	33.03	-36.0	-36.9	23.8	0.00e+00	122	36	0	1357905920	44	6165
2026-01-18 13:26:27.15	105.84	32.98	-35.9	-36.9	23.8	0.00e+00	123	36	0	1361051648	44	6142
2026-01-18 13:26:28.16	106.21	32.94	-35.8	-36.7	23.9	0.00e+00	123	36	0	1364197376	44	6027
2026-01-18 13:26:29.16	106.57	32.89	-35.8	-36.7	23.9	0.00e+00	123	36	0	1367343104	44	6037
2026-01-18 13:26:30.17	106.94	32.84	-35.8	-36.7	23.9	0.00e+00	123	36	0	1370488832	44	6034
2026-01-18 13:26:31.18	107.31	32.79	-36.0	-37.0	23.6	0.00e+00	123	36	0	1373634560	44	6250
2026-01-18 13:26:32.19	107.67	32.74	-36.1	-37.1	23.7	0.00e+00	123	36	0	1376780288	44	6291
2026-01-18 13:26:33.19	108.03	32.69	-36.0	-37.0	23.8	0.00e+00	123	36	0	1379926016	44	6235
2026-01-18 13:26:34.20	108.40	32.64	-36.0	-37.0	23.7	0.00e+00	122	36	0	1383071744	44	6211
2026-01-18 13:26:35.21	108.76	32.58	-35.8	-36.7	23.9	0.00e+00	122	36	0	1386217472	44	6017
2026-01-18 13:26:36.22	109.12	32.53	-35.8	-36.7	23.9	0.00e+00	120	36	0	1389363200	44	6064
2026-01-18 13:26:37.23	109.48	32.47	-35.7	-36.7	23.8	0.00e+00	123	36	0	1392508928	44	6023
2026-01-18 13:26:38.24	109.84	32.41	-36.0	-37.0	23.6	0.00e+00	123	36	0	1395654656	44	6209
2026-01-18 13:26:39.25	110.20	32.36	-36.0	-36.9	23.8	0.00e+00	122	36	0	1398800384	44	6166
2026-01-18 13:26:40.25	110.55	32.30	-36.0	-37.0	23.6	0.00e+00	120	36	0	1401946112	44	6223
2026-01-18 13:26:41.26	110.90	32.23	-36.0	-36.9	23.6	0.00e+00	123	36	0	1405091840	44	6161
2026-01-18 13:26:42.27	111.26	32.17	-36.1	-37.1	23.6	0.00e+00	122	36	0	1408237568	44	6291
2026-01-18 13:26:43.28	111.61	32.11	-36.2	-37.1	23.6	0.00e+00	123	36	0	1411383296	44	6338
2026-01-18 13:26:44.29	111.96	32.05	-36.0	-36.9	23.7	0.00e+00	120	36	0	1414529024	44	6182
2026-01-18 13:26:45.30	112.31	31.98	-35.9	-36.8	23.6	0.00e+00	123	36	0	1417674752	44	6097
2026-01-18 13:26:46.31	112.66	31.91	-36.0	-37.0	23.5	0.00e+00	123	36	0	1420820480	44	6239
2026-01-18 13:26:47.32	113.00	31.85	-36.0	-37.0	23.6	0.00e+00	122	36	0	1423966208	44	6243
2026-01-18 13:26:48.33	113.35	31.78	-36.1	-37.1	23.6	0.00e+00	120	36	0	1427111936	44	6281
2026-01-18 13:26:49.34	113.69	31.71	-36.2	-37.1	23.6	0.00e+00	120	36	0	1430257664	44	6329
2026-01-18 13:26:50.34	114.03	31.64	-36.2	-37.2	23.5	0.00e+00	122	36	0	1433403392	44	6379
2026-01-18 13:26:51.35	114.37	31.57	-36.1	-37.0	23.5	0.00e+00	120	36	0	1436549120	44	6240
2026-01-18 13:26:52.36	114.71	31.50	-36.1	-37.0	23.6	0.00e+00	123	36	0	1439694848	44	6271
2026-01-18 13:26:53.37	115.05	31.43	-35.9	-36.8	23.8	0.00e+00	122	36	0	1442840576	44	6129
2026-01-18 13:26:54.38	115.39	31.35	-36.0	-37.0	23.7	0.00e+00	123	36	0	1445986304	44	6218
2026-01-18 13:26:55.38	115.72	31.28	-35.6	-36.5	24.0	0.00e+00	121	36	0	1449132032	44	5917
2026-01-18 13:26:56.39	116.05	31.20	-35.5	-36.4	24.1	0.00e+00	123	36	0	1452277760	44	5818
2026-01-18 13:26:57.40	116.38	31.13	-35.6	-36.5	24.1	0.00e+00	120	36	0	1455423488	44	5893
2026-01-18 13:26:58.41	116.71	31.05	-35.6	-36.5	24.0	0.00e+00	122	36	0	1458569216	44	5879
2026-01-18 13:26:59.42	117.04	30.97	-35.5	-36.4	24.1	0.00e+00	120	36	0	1461714944	44	5839
2026-01-18 13:27:00.43	117.37	30.89	-35.6	-36.5	24.1	0.00e+00	122	36	0	1464860672	44	5896
2026-01-18 13:27:01.44	117.69	30.81	-35.3	-36.2	24.3	0.00e+00	122	36	0	1468006400	44	5708
2026-01-18 13:27:02.45	118.02	30.73	-35.0	-35.9	24.5	0.00e+00	122	36	0	1471152128	44	5473
2026-01-18 13:27:03.46	118.34	30.65	-35.0	-35.9	24.4	0.00e+00	123	36	0	1474297856	44	5512
2026-01-18 13:27:04.47	118.66	30.57	-34.9	-35.8	24.5	0.00e+00	123	36	0	1477443584	44	5443
2026-01-18 13:27:05.48	118.98	30.49	-34.9	-35.8	24.6	0.00e+00	123	36	0	1480589312	44	5435
2026-01-18 13:27:06.49	119.30	30.41	-34.9	-35.8	24.6	0.00e+00	122	36	0	1483735040	44	5424
2026-01-18 13:27:07.49	119.61	30.32	-34.9	-35.8	24.6	0.00e+00	123	36	0	1486880768	44	5443
2026-01-18 13:27:08.50	119.93	30.24	-34.9	-35.7	24.6	0.00e+00	123	36	0	1490026496	44	5394
2026-01-18 13:27:09.51	120.24	30.15	-35.1	-36.0	24.4	0.00e+00	123	36	0	1493172224	44	5539
2026-01-18 13:27:10.52	120.55	30.07	-35.2	-36.1	24.2	0.00e+00	123	36	0	1496317952	44	5612
2026-01-18 13:27:11.53	120.86	29.98	-35.3	-36.2	24.2	0.00e+00	122	36	0	1499463680	44	5676
2026-01-18 13:27:12.54	121.17	29.89	-35.1	-35.9	24.4	0.00e+00	120	36	0	1502609408	44	5530
2026-01-18 13:27:13.55	121.48	29.81	-34.9	-35.8	24.6	0.00e+00	123	36	0	1505755136	44	5439
2026-01-18 13:27:14.56	121.78	29.72	-34.7	-35.6	24.7	0.00e+00	122	36	0	1508900864	42	5960
2026-01-18 13:27:15.57	122.08	29.63	-34.8	-35.7	24.7	0.00e+00	123	36	0	1512046592	42	5999
2026-01-18 13:27:16.57	122.38	29.54	-34.9	-35.7	24.6	0.00e+00	123	36	0	1515192320	42	6051
2026-01-18 13:27:17.58	122.68	29.45	-34.9	-35.7	24.7	0.00e+00	123	36	0	1518338048	42	6063
2026-01-18 13:27:18.59	122.98	29.36	-35.0	-35.8	24.6	0.00e+00	122	36	0	1521483776	42	6130
2026-01-18 13:27:19.60	123.28	29.27	-35.0	-35.9	24.6	0.00e+00	123	36	0	1524629504	42	6176
2026-01-18 13:27:20.61	123.57	29.18	-34.8	-35.7	24.7	0.00e+00	122	36	0	1527775232	42	6036
2026-01-18 13:27:21.62	123.87	29.08	-34.7	-35.6	24.8	0.00e+00	123	36	0	1530920960	42	5971
2026-01-18 13:27:22.63	124.16	28.99	-34.8	-35.7	24.7	0.00e+00	123	36	0	1534066688	42	6016
2026-01-18 13:27:23.64	124.45	28.90	-35.0	-35.9	24.6	0.00e+00	123	36	0	1537212416	42	6167
2026-01-18 13:27:24.65	124.74	28.80	-35.0	-35.9	24.5	0.00e+00	123	36	0	1540358144	42	6187
2026-01-18 13:27:25.66	125.02	28.71	-35.1	-36.0	24.5	0.00e+00	122	36	0	1543503872	42	6249
2026-01-18 13:27:26.67	125.31	28.62	-35.2	-36.1	24.4	0.00e+00	120	36	0	1546649600	42	6292
2026-01-18 13:27:27.68	125.59	28.52	-35.2	-36.1	24.5	0.00e+00	122	36	0	1549795328	42	6319
2026-01-18 13:27:28.68	125.87	28.43	-35.1	-36.0	24.4	0.00e+00	123	36	0	1552941056	42	6257
2026-01-18 13:27:29.69	126.15	28.33	-35.2	-36.1	24.3	0.00e+00	123	36	0	1556086784	42	6308
2026-01-18 13:27:30.70	126.43	28.23	-34.9	-35.7	24.7	0.00e+00	122	36	0	1559232512	42	6053
2026-01-18 13:27:31.71	126.71	28.14	-34.7	-35.6	24.8	0.00e+00	123	36	0	1562378240	42	5967
2026-01-18 13:27:32.72	126.98	28.04	-34.7	-35.6	24.7	0.00e+00	121	36	0	1565523968	42	5970
2026-01-18 13:27:33.73	127.26	27.94	-34.6	-35.5	24.8	0.00e+00	123	36	0	1568669696	42	5886
2026-01-18 13:27:34.74	127.53	27.85	-34.8	-35.6	24.8	0.00e+00	119	36	0	1571815424	42	5984
2026-01-18 13:27:35.75	127.80	27.75	-34.5	-35.4	24.8	0.00e+00	120	36	0	1574961152	42	5808
2026-01-18 13:27:36.76	128.07	27.65	-34.6	-35.5	24.8	0.00e+00	123	36	0	1578106880	42	5899
2026-01-18 13:27:37.77	128.33	27.55	-34.7	-35.6	24.7	0.00e+00	120	36	0	1582301184	42	5939
2026-01-18 13:27:38.78	128.60	27.45	-34.6	-35.5	24.8	0.00e+00	122	36	0	1584398336	42	5880
2026-01-18 13:27:39.79	128.86	27.35	-34.6	-35.5	24.8	0.00e+00	123	36	0	1587544064	42	5875
2026-01-18 13:27:40.80	129.13	27.25	-34.6	-35.5	24.8	0.00e+00	122	36	0	1590689792	42	5916
2026-01-18 13:27:41.81	129.39	27.15	-34.6	-35.5	24.8	0.00e+00	122	36	0	1593835520	42	5907
2026-01-18 13:27:42.82	129.65	27.05	-34.5	-35.4	24.9	0.00e+00	120	36	0	1596981248	42	5848
2026-01-18 13:27:43.82	129.90	26.96	-34.5	-35.4	24.8	0.00e+00	123	36	0	1601175552	42	5827
2026-01-18 13:27:44.83	130.16	26.86	-34.6	-35.5	24.7	0.00e+00	123	36	0	1604321280	42	5865
2026-01-18 13:27:45.84	130.41	26.75	-34.7	-35.7	24.6	0.00e+00	122	36	0	1606418432	42	5997
2026-01-18 13:27:46.85	130.67	26.65	-34.9	-35.8	24.6	0.00e+00	120	36	0	1609564160	42	6080
2026-01-18 13:27:47.86	130.92	26.55	-34.9	-35.8	24.6	0.00e+00	123	36	0	1612709888	42	6109
2026-01-18 13:27:48.87	131.17	26.45	-34.7	-35.6	24.7	0.00e+00	122	36	0	1616904192	42	5961
2026-01-18 13:27:49.88	131.42	26.35	-34.9	-35.8	24.6	0.00e+00	123	36	0	1620049920	42	6102
2026-01-18 13:27:50.89	131.66	26.25	-34.8	-35.7	24.7	0.00e+00	122	36	0	1623195648	42	6053
2026-01-18 13:27:51.89	131.91	26.15	-34.9	-35.8	24.6	0.00e+00	123	36	0	1626341376	42	6110
2026-01-18 13:27:52.90	132.15	26.05	-34.9	-35.8	24.5	0.00e+00	120	36	0	1629487104	42	6108
2026-01-18 13:27:53.91	132.39	25.94	-35.0	-35.9	24.6	0.00e+00	123	36	0	1631584256	42	6169
2026-01-18 13:27:54.92	132.63	25.84	-34.9	-35.9	24.5	0.00e+00	120	36	0	1635778560	42	6139
2026-01-18 13:27:55.93	132.87	25.74	-34.9	-35.9	24.6	0.00e+00	123	36	0	1638924288	42	6136
2026-01-18 13:27:56.94	133.11	25.64	-34.8	-35.7	24.6	0.00e+00	120	36	0	1642070016	42	6051
2026-01-18 13:27:57.95	133.34	25.53	-35.0	-35.9	24.6	0.00e+00	120	36	0	1645215744	42	6143
2026-01-18 13:27:58.96	133.58	25.43	-35.0	-35.8	24.5	0.00e+00	122	36	0	1648361472	42	6127
2026-01-18 13:27:59.97	133.81	25.33	-34.9	-35.8	24.5	0.00e+00	123	36	0	1651507200	42	6112
2026-01-18 13:28:00.98	134.04	25.23	-34.9	-35.8	24.6	0.00e+00	123	36	0	1654652928	42	6087
2026-01-18 13:28:01.99	134.27	25.12	-34.9	-35.8	24.6	0.00e+00	122	36	0	1657798656	42	6087
2026-01-18 13:28:03.00	134.50	25.02	-34.9	-35.8	24.5	0.00e+00	123	36	0	1660944384	42	6097
2026-01-18 13:28:04.00	134.73	24.92	-34.9	-35.8	24.4	0.00e+00	123	36	0	1664090112	42	6095
2026-01-18 13:28:05.01	134.95	24.81	-34.7	-35.6	24.5	0.00e+00	123	36	0	1667235840	42	5986
2026-01-18 13:28:06.02	135.18	24.71	-34.8	-35.7	24.4	0.00e+00	123	36	0	1670381568	42	6039
2026-01-18 13:28:07.03	135.40	24.61	-34.9	-35.8	24.3	0.00e+00	120	36	0	1673527296	42	6109
2026-01-18 13:28:08.04	135.62	24.50	-35.0	-35.9	24.4	0.00e+00	123	36	0	1676673024	42	6159
2026-01-18 13:28:09.05	135.84	24.40	-35.0	-35.9	24.4	0.00e+00	123	36	0	1679818752	42	6196
2026-01-18 13:28:10.06	136.06	24.30	-35.0	-36.0	24.4	0.00e+00	122	36	0	1682964480	42	6210
2026-01-18 13:28:11.07	136.28	24.19	-35.1	-36.0	24.4	0.00e+00	123	36	0	1686110208	42	6244
2026-01-18 13:28:12.08	136.50	24.09	-35.1	-36.0	24.3	0.00e+00	123	36	0	1689255936	42	6233
2026-01-18 13:28:13.08	136.71	23.99	-35.2	-36.1	24.3	0.00e+00	122	36	0	1692401664	42	6322
2026-01-18 13:28:14.10	136.92	23.88	-35.2	-36.1	24.2	0.00e+00	123	36	0	1695547392	42	6305
2026-01-18 13:28:15.10	137.13	23.78	-35.3	-36.2	24.2	0.00e+00	122	36	0	1698693120	42	6397
2026-01-18 13:28:16.11	137.34	23.68	-35.2	-36.1	24.3	0.00e+00	123	36	0	1701838848	42	6332
2026-01-18 13:28:17.12	137.55	23.57	-35.0	-35.9	24.5	0.00e+00	122	36	0	1704984576	42	6152
2026-01-18 13:28:18.13	137.76	23.47	-35.0	-35.9	24.4	0.00e+00	122	36	0	1708130304	42	6191
2026-01-18 13:28:19.15	137.97	23.37	-34.9	-35.8	24.5	0.00e+00	123	36	0	1711276032	42	6130
2026-01-18 13:28:20.16	138.17	23.26	-35.1	-36.0	24.4	0.00e+00	120	36	0	1714421760	42	6227
2026-01-18 13:28:21.17	138.38	23.16	-35.0	-36.0	24.4	0.00e+00	122	36	0	1717567488	42	6209
2026-01-18 13:28:22.18	138.58	23.06	-35.0	-36.0	24.4	0.00e+00	122	36	0	1720713216	42	6215
2026-01-18 13:28:23.19	138.78	22.95	-35.0	-35.9	24.5	0.00e+00	122	36	0	1723858944	42	6141
2026-01-18 13:28:24.20	138.98	22.85	-35.0	-35.9	24.5	0.00e+00	123	36	0	1727004672	42	6196
2026-01-18 13:28:25.21	139.18	22.75	-35.1	-36.1	24.3	0.00e+00	123	36	0	1730150400	42	6278
2026-01-18 13:28:26.22	139.38	22.65	-35.2	-36.1	24.4	0.00e+00	123	36	0	1733296128	42	6304
2026-01-18 13:28:27.23	139.57	22.54	-35.2	-36.1	24.4	0.00e+00	123	36	0	1736441856	42	6280
2026-01-18 13:28:28.24	139.77	22.44	-35.3	-36.2	24.2	0.00e+00	122	36	0	1739587584	42	6404
2026-01-18 13:28:29.25	139.96	22.34	-35.2	-36.2	24.3	0.00e+00	122	36	0	1742733312	42	6351
2026-01-18 13:28:30.25	140.15	22.24	-35.2	-36.1	24.3	0.00e+00	123	36	0	1745879040	42	6326
2026-01-18 13:28:31.26	140.35	22.13	-35.1	-36.0	24.3	0.00e+00	122	36	0	1749024768	42	6274
2026-01-18 13:28:32.27	140.54	22.03	-35.2	-36.1	24.2	0.00e+00	123	36	0	1752170496	42	6328
2026-01-18 13:28:33.28	140.72	21.93	-35.2	-36.1	24.3	0.00e+00	123	36	0	1755316224	42	6327
2026-01-18 13:28:34.29	140.91	21.83	-35.2	-36.1	24.3	0.00e+00	123	36	0	1758461952	42	6322
2026-01-18 13:28:35.30	141.10	21.72	-35.2	-36.1	24.3	0.00e+00	122	36	0	1761607680	42	6290
2026-01-18 13:28:36.31	141.28	21.62	-35.3	-36.2	24.2	0.00e+00	123	36	0	1764753408	42	6368
2026-01-18 13:28:37.32	141.47	21.52	-35.0	-35.9	24.4	0.00e+00	122	36	0	1767899136	42	6185
2026-01-18 13:28:38.33	141.65	21.42	-35.1	-36.0	24.4	0.00e+00	122	36	0	1771044864	42	6224
2026-01-18 13:28:39.34	141.83	21.32	-35.1	-36.0	24.3	0.00e+00	123	36	0	1774190592	42	6261
2026-01-18 13:28:40.34	142.01	21.22	-35.2	-36.1	24.3	0.00e+00	123	36	0	1777336320	42	6300
2026-01-18 13:28:41.35	142.19	21.11	-35.2	-36.2	24.2	0.00e+00	122	36	0	1780482048	42	6359
2026-01-18 13:28:42.36	142.37	21.01	-35.2	-36.1	24.3	0.00e+00	122	36	0	1783627776	42	6338
2026-01-18 13:28:43.37	142.54	20.91	-35.4	-36.3	24.1	0.00e+00	121	36	0	1786773504	42	6446
2026-01-18 13:28:44.38	142.72	20.81	-35.3	-36.2	24.2	0.00e+00	120	36	0	1789919232	42	6387
2026-01-18 13:28:45.39	142.90	20.71	-35.4	-36.4	24.0	0.00e+00	120	36	0	1793064960	42	6502
2026-01-18 13:28:46.40	143.07	20.61	-35.4	-36.3	24.1	0.00e+00	123	36	0	1796210688	42	6443
2026-01-18 13:28:47.41	143.24	20.51	-35.3	-36.2	24.2	0.00e+00	120	36	0	1799356416	42	6379
2026-01-18 13:28:48.42	143.41	20.41	-35.2	-36.1	24.3	0.00e+00	123	36	0	1802502144	42	6316
2026-01-18 13:28:49.43	143.58	20.31	-35.2	-36.1	24.3	0.00e+00	120	36	0	1805647872	42	6297
2026-01-18 13:28:50.44	143.75	20.21	-35.2	-36.2	24.2	0.00e+00	120	36	0	1808793600	42	6351
2026-01-18 13:28:51.44	143.92	20.11	-35.0	-35.9	24.4	0.00e+00	120	36	0	1811939328	42	6172
2026-01-18 13:28:52.45	144.09	20.01	-35.1	-36.0	24.3	0.00e+00	123	36	0	1815085056	42	6234
2026-01-18 13:28:53.46	144.25	19.91	-35.0	-35.9	24.3	0.00e+00	123	36	0	1818230784	42	6170
2026-01-18 13:28:54.48	144.42	19.81	-35.0	-35.9	24.3	0.00e+00	123	36	0	1821376512	42	6189
2026-01-18 13:28:55.48	144.58	19.71	-35.0	-35.9	24.3	0.00e+00	123	36	0	1824522240	42	6205
2026-01-18 13:28:56.49	144.75	19.61	-34.9	-35.8	24.3	0.00e+00	122	36	0	1827667968	42	6133
2026-01-18 13:28:57.51	144.91	19.51	-35.0	-35.9	24.3	0.00e+00	123	36	0	1830813696	42	6154
2026-01-18 13:28:58.52	145.07	19.41	-34.8	-35.7	24.4	0.00e+00	123	36	0	1833959424	42	6036
2026-01-18 13:28:59.52	145.23	19.32	-34.9	-35.8	24.4	0.00e+00	122	36	0	1837105152	42	6086
2026-01-18 13:29:00.53	145.39	19.22	-34.7	-35.6	24.5	0.00e+00	123	36	0	1840250880	42	5951
2026-01-18 13:29:01.54	145.55	19.12	-34.8	-35.6	24.4	0.00e+00	123	36	0	1843396608	42	5988
2026-01-18 13:29:02.55	145.70	19.02	-34.6	-35.6	24.5	0.00e+00	123	36	0	1846542336	42	5933
2026-01-18 13:29:03.56	145.86	18.92	-34.7	-35.6	24.4	0.00e+00	121	36	0	1849688064	42	5956
2026-01-18 13:29:04.57	146.02	18.83	-34.8	-35.7	24.2	0.00e+00	123	36	0	1852833792	42	6063
2026-01-18 13:29:05.58	146.17	18.73	-35.0	-35.9	24.1	0.00e+00	123	36	0	1855979520	42	6185
2026-01-18 13:29:06.59	146.32	18.63	-35.2	-36.1	24.0	0.00e+00	123	36	0	1859125248	42	6302
2026-01-18 13:29:07.60	146.48	18.53	-35.1	-36.0	24.1	0.00e+00	123	36	0	1862270976	42	6273
2026-01-18 13:29:08.61	146.63	18.44	-35.2	-36.1	24.1	0.00e+00	123	36	0	1865416704	42	6299
2026-01-18 13:29:09.62	146.78	18.34	-35.2	-36.2	24.1	0.00e+00	123	36	0	1868562432	42	6362
2026-01-18 13:29:10.62	146.93	18.24	-35.1	-36.1	24.2	0.00e+00	122	36	0	1871708160	42	6278
2026-01-18 13:29:11.63	147.07	18.15	-35.1	-36.1	24.2	0.00e+00	123	36	0	1874853888	42	6279
2026-01-18 13:29:12.64	147.22	18.05	-35.3	-36.2	24.1	0.00e+00	123	36	0	1877999616	42	6367
2026-01-18 13:29:13.65	147.37	17.95	-35.2	-36.2	24.2	0.00e+00	120	36	0	1881145344	42	6360
2026-01-18 13:29:14.66	147.51	17.86	-35.1	-36.0	24.2	0.00e+00	123	36	0	1884291072	42	6237
2026-01-18 13:29:15.67	147.66	17.76	-35.2	-36.1	24.2	0.00e+00	120	36	0	1887436800	42	6331
2026-01-18 13:29:16.68	147.80	17.67	-35.1	-36.0	24.2	0.00e+00	123	36	0	1890582528	42	6249
2026-01-18 13:29:17.68	147.95	17.57	-35.1	-36.1	24.2	0.00e+00	122	36	0	1893728256	42	6284
2026-01-18 13:29:18.69	148.09	17.48	-35.1	-36.0	24.2	0.00e+00	123	36	0	1896873984	42	6269
2026-01-18 13:29:19.70	148.23	17.38	-35.2	-36.1	24.2	0.00e+00	122	36	0	1900019712	42	6293
2026-01-18 13:29:20.71	148.37	17.29	-35.2	-36.1	24.1	0.00e+00	122	36	0	1903165440	42	6310
2026-01-18 13:29:21.72	148.51	17.19	-35.4	-36.3	24.0	0.00e+00	122	36	0	1906311168	42	6494
2026-01-18 13:29:22.73	148.65	17.10	-35.2	-36.1	24.0	0.00e+00	122	36	0	1909456896	42	6332
2026-01-18 13:29:23.74	148.79	17.01	-35.3	-36.3	24.0	0.00e+00	123	36	0	1912602624	42	6436
2026-01-18 13:29:24.75	148.92	16.91	-35.4	-36.3	24.0	0.00e+00	120	36	0	1915748352	42	6438
2026-01-18 13:29:25.76	149.06	16.82	-35.5	-36.4	23.9	0.00e+00	123	36	0	1918894080	42	6561
2026-01-18 13:29:26.76	149.20	16.73	-35.5	-36.4	23.9	0.00e+00	122	36	0	1922039808	42	6524
2026-01-18 13:29:27.78	149.33	16.63	-35.5	-36.4	23.9	0.00e+00	123	36	0	1925185536	42	6558
2026-01-18 13:29:28.78	149.46	16.54	-35.7	-36.6	23.8	0.00e+00	123	36	0	1928331264	42	6692
2026-01-18 13:29:29.79	149.60	16.45	-35.6	-36.6	23.8	0.00e+00	123	36	0	1931476992	42	6664
2026-01-18 13:29:30.80	149.73	16.36	-35.7	-36.7	23.6	0.00e+00	123	36	0	1934622720	44	6019
2026-01-18 13:29:31.82	149.86	16.26	-35.8	-36.7	23.6	0.00e+00	123	36	0	1937768448	44	6061
2026-01-18 13:29:32.82	149.99	16.17	-35.8	-36.7	23.6	0.00e+00	120	36	0	1940914176	44	6057
2026-01-18 13:29:33.83	150.12	16.08	-35.9	-36.8	23.6	0.00e+00	123	36	0	1944059904	44	6110
2026-01-18 13:29:34.84	150.25	15.99	-35.9	-36.9	23.5	0.00e+00	122	36	0	1947205632	44	6140
2026-01-18 13:29:35.84	150.38	15.90	-35.9	-36.8	23.5	0.00e+00	123	36	0	1950351360	44	6107
2026-01-18 13:29:36.85	150.51	15.81	-35.9	-36.9	23.4	0.00e+00	123	36	0	1953497088	44	6153
2026-01-18 13:29:37.86	150.63	15.71	-35.9	-36.8	23.4	0.00e+00	122	36	0	1956642816	44	6130
2026-01-18 13:29:38.87	150.76	15.62	-36.0	-36.9	23.3	0.00e+00	123	36	0	1959788544	44	6186
2026-01-18 13:29:39.88	150.89	15.53	-36.0	-37.0	23.3	0.00e+00	123	36	0	1962934272	44	6234
2026-01-18 13:29:40.89	151.01	15.44	-36.0	-37.0	23.3	0.00e+00	122	36	0	1966080000	44	6217
2026-01-18 13:29:41.90	151.14	15.35	-36.2	-37.1	23.2	0.00e+00	123	36	0	1969225728	44	6338
2026-01-18 13:29:42.91	151.26	15.26	-36.1	-37.0	23.3	0.00e+00	123	36	0	1972371456	44	6257
2026-01-18 13:29:43.92	151.38	15.17	-36.2	-37.1	23.3	0.00e+00	123	36	0	1975517184	44	6325
2026-01-18 13:29:44.93	151.50	15.08	-36.2	-37.1	23.3	0.00e+00	123	36	0	1978662912	44	6337
2026-01-18 13:29:45.94	151.63	14.99	-36.1	-37.1	23.3	0.00e+00	122	36	0	1981808640	44	6297
