passes_logs/2026/01/18/R4.6S_Anadyr/R4.6S_Anadyr__20260118_234335_SUOMI_NPP_rec.log

#Pass ID: 20260118_234335_SUOMI NPP
#Satellite: SUOMI NPP
#Configuration: NPP
#almurnet v.1.7.20251203
#Start time: 2026-01-18 23:43:38

#Version: 2.2.20231116
#Station: R4.6S_Anadyr
#Location: 177.4865 lon 64.73178 lat
#TLE: 1 37849U 11061A   26018.62828014  .00000065  00000+0  51921-4 0  9990
#TLE: 2 37849  98.7815 320.6456 0002372  57.2989 302.8415 14.19526102737226

#Time	Az	El	Level	Level2	SNR	BER	BlckErr	Temp	State	Recorded	gain1	gain2
2026-01-18 23:43:38.06	142.25	0.16	-50.0	-62.5	3.4	1.52e+00	0	38	0	0	60	47038
2026-01-18 23:43:39.06	142.24	0.22	-49.9	-65.2	3.6	1.51e+00	0	39	104	0	60	65917
2026-01-18 23:43:40.07	142.23	0.28	-50.0	-65.2	3.6	1.51e+00	0	39	104	0	60	65687
2026-01-18 23:43:41.08	142.21	0.34	-50.0	-65.2	3.6	1.51e+00	0	39	104	0	60	65744
2026-01-18 23:43:42.09	142.20	0.40	-49.9	-65.1	3.6	1.51e+00	0	39	104	0	60	65287
2026-01-18 23:43:43.10	142.19	0.46	-49.9	-65.2	3.6	1.51e+00	0	39	104	0	60	65531
2026-01-18 23:43:44.11	142.18	0.52	-49.9	-65.1	3.6	1.51e+00	0	39	104	0	60	65335
2026-01-18 23:43:45.12	142.16	0.58	-50.0	-65.2	3.6	1.51e+00	0	39	104	0	60	65721
2026-01-18 23:43:46.13	142.15	0.64	-50.0	-65.2	3.6	1.51e+00	0	39	104	0	60	65516
2026-01-18 23:43:47.14	142.14	0.71	-49.9	-65.2	3.6	1.51e+00	0	39	104	0	60	65787
2026-01-18 23:43:48.15	142.12	0.77	-49.9	-65.2	3.6	1.51e+00	0	39	104	0	60	65478
2026-01-18 23:43:49.16	142.11	0.83	-49.9	-65.2	3.6	1.51e+00	0	39	104	0	60	65498
2026-01-18 23:43:50.17	142.10	0.89	-49.9	-65.1	3.6	1.51e+00	0	39	104	0	60	64843
2026-01-18 23:43:51.18	142.08	0.95	-49.9	-65.1	3.6	1.51e+00	0	40	104	0	60	64979
2026-01-18 23:43:52.19	142.07	1.02	-49.8	-65.0	3.6	1.51e+00	0	40	104	0	60	64295
2026-01-18 23:43:53.20	142.06	1.08	-49.6	-65.0	3.6	1.51e+00	0	40	104	0	60	64117
2026-01-18 23:43:54.21	142.04	1.14	-49.7	-64.8	3.6	1.51e+00	0	40	104	0	60	63064
2026-01-18 23:43:55.22	142.03	1.20	-49.5	-64.8	3.6	1.51e+00	0	40	104	0	60	62678
2026-01-18 23:43:56.23	142.02	1.27	-49.4	-64.7	3.6	1.51e+00	0	40	104	0	60	62285
2026-01-18 23:43:57.24	142.00	1.33	-49.3	-64.5	3.6	1.51e+00	0	40	104	0	60	60545
2026-01-18 23:43:58.25	141.99	1.39	-49.1	-64.3	3.6	1.51e+00	0	40	104	0	60	59518
2026-01-18 23:43:59.25	141.97	1.46	-48.7	-64.0	3.6	1.51e+00	0	40	104	0	60	57185
2026-01-18 23:44:00.26	141.96	1.52	-48.3	-63.7	3.6	1.51e+00	0	40	104	0	60	55164
2026-01-18 23:44:01.27	141.95	1.58	-47.8	-63.1	3.6	1.51e+00	0	40	104	0	60	51617
2026-01-18 23:44:02.28	141.93	1.65	-46.5	-62.4	3.6	1.51e+00	0	40	104	0	60	47728
2026-01-18 23:44:03.29	141.92	1.71	-46.8	-62.1	3.6	1.51e+00	0	40	104	0	60	45896
2026-01-18 23:44:04.30	141.90	1.77	-46.8	-62.0	3.6	1.51e+00	0	40	104	0	60	45630
2026-01-18 23:44:05.31	141.89	1.84	-46.8	-62.0	3.6	1.51e+00	0	40	104	0	60	45538
2026-01-18 23:44:06.31	141.88	1.90	-46.8	-62.0	3.6	1.51e+00	0	40	104	0	60	45498
2026-01-18 23:44:07.32	141.86	1.97	-46.8	-62.0	3.6	1.51e+00	0	40	104	0	60	45370
2026-01-18 23:44:08.33	141.85	2.03	-46.8	-62.0	3.6	1.51e+00	0	40	104	0	60	45709
2026-01-18 23:44:09.34	141.83	2.10	-46.8	-62.0	3.6	1.51e+00	0	40	104	0	60	45324
2026-01-18 23:44:10.35	141.82	2.16	-46.8	-61.9	3.6	1.51e+00	0	40	104	0	60	44986
2026-01-18 23:44:11.36	141.80	2.23	-46.8	-61.9	3.6	1.51e+00	0	40	104	0	60	44899
2026-01-18 23:44:12.37	141.79	2.29	-46.8	-61.9	3.6	1.51e+00	0	40	104	0	60	44962
2026-01-18 23:44:13.38	141.77	2.36	-46.8	-61.9	3.6	1.51e+00	0	40	104	0	60	44952
2026-01-18 23:44:14.39	141.76	2.42	-46.8	-61.9	3.6	1.51e+00	0	40	104	0	60	44966
2026-01-18 23:44:15.40	141.74	2.49	-46.7	-62.0	3.6	1.51e+00	0	40	104	0	60	45282
2026-01-18 23:44:16.41	141.73	2.55	-46.7	-61.9	3.6	1.51e+00	0	40	104	0	60	44773
2026-01-18 23:44:17.41	141.71	2.62	-46.8	-61.9	3.6	1.51e+00	0	40	104	0	60	44775
2026-01-18 23:44:18.42	141.70	2.68	-46.8	-62.0	3.6	1.51e+00	0	40	104	0	60	45303
2026-01-18 23:44:19.44	141.68	2.75	-46.8	-62.0	3.6	1.51e+00	0	40	104	0	60	45258
2026-01-18 23:44:20.45	141.67	2.82	-46.8	-62.0	3.6	1.51e+00	0	40	104	0	60	45501
2026-01-18 23:44:21.46	141.65	2.88	-46.8	-61.8	3.6	1.51e+00	0	40	104	0	60	44681
2026-01-18 23:44:22.47	141.63	2.95	-46.7	-61.7	3.6	1.51e+00	0	40	104	0	60	44012
2026-01-18 23:44:23.48	141.62	3.02	-46.7	-61.4	3.6	1.51e+00	0	40	104	0	60	42686
2026-01-18 23:44:24.48	141.60	3.08	-46.7	-61.2	3.6	1.51e+00	0	40	104	0	60	41304
2026-01-18 23:44:25.49	141.59	3.15	-46.7	-60.7	3.6	1.51e+00	0	40	104	0	60	39396
2026-01-18 23:44:26.51	141.57	3.22	-46.7	-60.9	3.6	1.51e+00	0	40	104	0	60	40143
2026-01-18 23:44:27.52	141.55	3.29	-46.7	-60.9	3.6	1.51e+00	0	40	104	0	60	39961
2026-01-18 23:44:28.52	141.54	3.35	-46.7	-61.2	3.6	1.51e+00	0	40	104	0	60	41533
2026-01-18 23:44:29.53	141.52	3.42	-46.6	-61.3	3.6	1.51e+00	0	40	104	0	60	42215
2026-01-18 23:44:30.54	141.51	3.49	-46.6	-61.6	3.6	1.51e+00	0	40	104	0	60	43487
2026-01-18 23:44:31.55	141.49	3.56	-46.1	-61.7	3.6	1.51e+00	0	40	104	0	60	44145
2026-01-18 23:44:32.56	141.47	3.63	-46.4	-61.8	3.7	1.51e+00	0	40	104	0	60	44557
2026-01-18 23:44:33.57	141.46	3.69	-46.7	-61.9	3.6	1.51e+00	0	40	104	0	60	45081
2026-01-18 23:44:34.58	141.44	3.76	-46.3	-61.9	3.6	1.51e+00	0	40	104	0	60	45030
2026-01-18 23:44:35.59	141.42	3.83	-46.5	-61.9	3.6	1.51e+00	0	40	104	0	60	44799
2026-01-18 23:44:36.60	141.41	3.90	-46.4	-60.4	3.6	1.51e+00	0	40	104	0	60	38037
2026-01-18 23:44:37.61	141.39	3.97	-46.7	-60.6	3.6	1.51e+00	0	40	104	0	60	38855
2026-01-18 23:44:38.62	141.37	4.04	-46.6	-61.8	3.6	1.51e+00	0	40	104	0	60	44283
2026-01-18 23:44:39.63	141.35	4.11	-46.4	-58.1	3.7	1.48e+00	0	40	104	0	60	28947
2026-01-18 23:44:40.64	141.34	4.18	-46.8	-60.5	3.6	1.51e+00	0	40	104	0	60	38268
2026-01-18 23:44:41.65	141.32	4.25	-46.9	-61.1	3.6	1.51e+00	0	40	104	0	60	41167
2026-01-18 23:44:42.66	141.30	4.32	-46.9	-60.9	3.6	1.51e+00	0	40	104	0	60	39974
2026-01-18 23:44:43.67	141.28	4.39	-46.9	-61.0	3.6	1.51e+00	0	40	104	0	60	40518
2026-01-18 23:44:44.68	141.27	4.46	-47.0	-61.0	3.6	1.51e+00	0	40	104	0	60	40647
2026-01-18 23:44:45.69	141.25	4.53	-46.9	-61.1	3.6	1.51e+00	0	40	104	0	60	40837
2026-01-18 23:44:46.70	141.23	4.60	-46.9	-61.4	3.6	1.51e+00	0	40	104	0	60	42348
2026-01-18 23:44:47.71	141.21	4.67	-46.7	-61.4	3.6	1.51e+00	0	40	104	0	60	42704
2026-01-18 23:44:48.72	141.19	4.74	-46.7	-58.1	3.9	1.51e+00	0	40	104	0	60	28933
2026-01-18 23:44:49.73	141.18	4.81	-46.5	-61.6	3.6	1.50e+00	0	40	104	0	60	43428
2026-01-18 23:44:50.74	141.16	4.89	-46.6	-58.1	3.9	1.51e+00	0	40	104	0	60	29196
2026-01-18 23:44:51.75	141.14	4.96	-46.6	-56.9	4.6	8.99e-01	0	40	0	0	60	25316
2026-01-18 23:44:52.76	141.12	5.03	-46.3	-54.8	5.6	4.72e-01	0	40	0	1048576	60	19778
2026-01-18 23:44:53.77	141.10	5.10	-46.0	-53.7	6.6	2.54e-01	0	40	0	3145728	60	17589
2026-01-18 23:44:54.78	141.08	5.17	-45.8	-53.2	7.2	1.73e-01	0	40	0	5242880	60	16440
2026-01-18 23:44:55.78	141.06	5.24	-45.7	-52.9	7.6	1.01e-01	0	40	0	7340032	60	15975
2026-01-18 23:44:56.79	141.05	5.32	-45.7	-52.9	7.7	8.69e-02	0	40	0	9437184	60	15936
2026-01-18 23:44:57.80	141.03	5.39	-45.7	-52.9	7.6	8.66e-02	0	40	0	10485760	60	16042
2026-01-18 23:44:58.81	141.01	5.46	-45.8	-53.2	7.4	8.15e-02	0	40	0	12582912	60	16454
2026-01-18 23:44:59.82	140.99	5.54	-46.0	-53.1	7.7	7.46e-02	0	40	0	14680064	60	16261
2026-01-18 23:45:00.81	140.97	5.61	-46.0	-52.3	8.3	9.41e-02	0	40	0	16777216	60	14920
2026-01-18 23:45:01.82	140.95	5.68	-46.2	-52.9	7.9	6.16e-02	0	40	0	18874368	60	15909
2026-01-18 23:45:02.83	140.93	5.76	-46.2	-52.6	8.0	5.96e-02	0	40	0	19922944	60	15386
2026-01-18 23:45:03.84	140.91	5.83	-46.3	-52.8	7.9	4.83e-02	0	40	0	22020096	60	15740
2026-01-18 23:45:04.85	140.89	5.90	-46.2	-52.5	8.4	6.40e-02	0	40	0	24117248	60	15218
2026-01-18 23:45:05.86	140.87	5.98	-46.2	-52.6	8.0	9.67e-02	0	40	0	26214400	60	15385
2026-01-18 23:45:06.87	140.85	6.05	-46.1	-52.1	9.2	4.13e-02	0	40	0	28311552	60	14476
2026-01-18 23:45:07.88	140.83	6.13	-46.0	-51.9	9.2	1.79e-02	0	40	0	29360128	60	14202
2026-01-18 23:45:08.89	140.81	6.20	-46.0	-52.2	9.1	2.59e-02	0	40	0	31457280	60	14759
2026-01-18 23:45:09.90	140.79	6.28	-45.8	-51.4	9.7	1.20e-02	0	40	0	33554432	60	13453
2026-01-18 23:45:10.91	140.77	6.35	-45.6	-51.0	10.2	9.09e-03	0	40	0	35651584	60	12862
2026-01-18 23:45:11.92	140.75	6.43	-45.2	-50.0	11.5	2.59e-03	0	40	0	37748736	60	11392
2026-01-18 23:45:12.93	140.73	6.51	-45.0	-49.6	11.9	5.90e-04	0	40	0	38797312	60	10869
2026-01-18 23:45:13.94	140.71	6.58	-44.8	-49.4	12.1	2.39e-04	0	40	0	40894464	60	10702
2026-01-18 23:45:14.95	140.68	6.66	-44.6	-49.2	12.4	1.41e-04	0	40	0	42991616	60	10423
2026-01-18 23:45:15.95	140.66	6.73	-44.5	-48.7	13.0	3.96e-05	0	40	0	45088768	60	9834
2026-01-18 23:45:16.96	140.64	6.81	-44.4	-48.0	13.6	1.67e-05	0	40	0	47185920	60	9108
2026-01-18 23:45:17.97	140.62	6.89	-44.5	-47.9	13.9	3.00e-06	0	40	0	48234496	60	8963
2026-01-18 23:45:18.98	140.60	6.97	-44.3	-47.3	14.5	7.00e-07	0	40	0	50331648	60	8410
2026-01-18 23:45:19.99	140.58	7.04	-44.2	-47.3	14.5	0.00e+00	0	40	0	52428800	60	8363
2026-01-18 23:45:21.00	140.56	7.12	-44.4	-47.4	14.3	1.50e-06	0	40	0	54525952	60	8486
2026-01-18 23:45:22.01	140.53	7.20	-44.1	-46.8	15.1	7.00e-07	0	40	0	56623104	60	7945
2026-01-18 23:45:23.02	140.51	7.28	-44.1	-46.8	15.2	0.00e+00	0	40	0	58720256	60	7870
2026-01-18 23:45:24.03	140.49	7.36	-44.0	-46.6	15.5	0.00e+00	0	40	0	59768832	60	7755
2026-01-18 23:45:25.04	140.47	7.43	-43.9	-46.4	15.7	0.00e+00	0	40	0	61865984	60	7594
2026-01-18 23:45:26.05	140.44	7.51	-43.7	-46.2	15.9	0.00e+00	0	40	0	63963136	60	7383
2026-01-18 23:45:27.06	140.42	7.59	-43.5	-45.9	16.4	0.00e+00	0	40	0	66060288	60	7127
2026-01-18 23:45:28.07	140.40	7.67	-43.1	-45.3	16.9	0.00e+00	0	40	0	67108864	60	6640
2026-01-18 23:45:29.07	140.38	7.75	-42.9	-45.1	17.2	0.00e+00	0	40	0	69206016	60	6471
2026-01-18 23:45:30.08	140.35	7.83	-42.8	-44.9	17.3	0.00e+00	0	40	0	71303168	60	6344
2026-01-18 23:45:31.09	140.33	7.91	-42.7	-44.7	17.6	0.00e+00	0	40	0	73400320	58	6996
2026-01-18 23:45:32.10	140.31	7.99	-42.4	-44.3	18.1	0.00e+00	0	40	0	75497472	58	6618
2026-01-18 23:45:33.11	140.28	8.07	-42.0	-43.7	18.5	0.00e+00	0	40	0	76546048	58	6231
2026-01-18 23:45:34.12	140.26	8.15	-41.9	-43.7	18.7	0.00e+00	0	40	0	78643200	58	6185
2026-01-18 23:45:35.13	140.24	8.23	-41.8	-43.5	18.9	0.00e+00	0	40	0	80740352	56	6791
2026-01-18 23:45:36.14	140.21	8.32	-41.8	-43.5	18.9	0.00e+00	0	40	0	82837504	56	6807
2026-01-18 23:45:37.15	140.19	8.40	-41.7	-43.2	19.2	0.00e+00	0	40	0	84934656	56	6592
2026-01-18 23:45:38.16	140.16	8.48	-42.0	-43.6	18.9	0.00e+00	0	40	0	87031808	56	6880
2026-01-18 23:45:39.17	140.14	8.56	-41.8	-43.3	19.3	0.00e+00	0	40	0	88080384	56	6653
2026-01-18 23:45:40.18	140.11	8.64	-41.8	-43.4	19.2	0.00e+00	0	40	0	90177536	56	6700
2026-01-18 23:45:41.18	140.09	8.73	-41.6	-43.1	19.5	0.00e+00	0	40	0	92274688	56	6504
2026-01-18 23:45:42.19	140.06	8.81	-41.5	-42.9	19.8	0.00e+00	0	40	0	94371840	56	6368
2026-01-18 23:45:43.20	140.04	8.89	-41.3	-42.7	19.9	0.00e+00	0	40	0	96468992	56	6215
2026-01-18 23:45:44.21	140.01	8.98	-41.4	-42.8	19.8	0.00e+00	0	40	0	97517568	56	6307
2026-01-18 23:45:45.22	139.99	9.06	-41.4	-42.9	19.9	0.00e+00	0	40	0	99614720	56	6375
2026-01-18 23:45:46.23	139.96	9.14	-41.0	-42.4	20.3	0.00e+00	0	40	0	101711872	56	6015
2026-01-18 23:45:47.24	139.94	9.23	-40.6	-42.0	20.5	0.00e+00	0	40	0	103809024	54	6421
2026-01-18 23:45:48.25	139.91	9.31	-40.5	-41.8	20.8	0.00e+00	0	40	0	105906176	54	6281
2026-01-18 23:45:49.26	139.89	9.40	-40.5	-41.8	20.7	0.00e+00	0	40	0	106954752	54	6300
2026-01-18 23:45:50.27	139.86	9.48	-40.3	-41.6	21.0	0.00e+00	0	40	0	109051904	54	6110
2026-01-18 23:45:51.28	139.83	9.57	-40.3	-41.5	21.1	0.00e+00	0	40	0	111149056	54	6078
2026-01-18 23:45:52.29	139.81	9.65	-40.2	-41.5	21.2	0.00e+00	0	40	0	113246208	54	6040
2026-01-18 23:45:53.30	139.78	9.74	-40.3	-41.5	21.1	0.00e+00	0	40	0	115343360	54	6077
2026-01-18 23:45:54.30	139.75	9.83	-40.0	-41.2	21.3	0.00e+00	0	40	0	116391936	54	5867
2026-01-18 23:45:55.31	139.73	9.91	-40.0	-41.1	21.4	0.00e+00	0	40	0	118489088	54	5803
2026-01-18 23:45:56.32	139.70	10.00	-40.0	-41.2	21.3	0.00e+00	0	40	0	120586240	54	5865
2026-01-18 23:45:57.33	139.67	10.09	-39.9	-41.1	21.4	0.00e+00	0	40	0	122683392	54	5768
2026-01-18 23:45:58.34	139.64	10.18	-40.1	-41.2	21.3	0.00e+00	0	40	0	124780544	54	5895
2026-01-18 23:45:59.35	139.62	10.26	-40.0	-41.1	21.4	0.00e+00	0	40	0	125829120	54	5822
2026-01-18 23:46:00.36	139.59	10.35	-39.8	-40.9	21.6	0.00e+00	0	40	0	127926272	54	5669
2026-01-18 23:46:01.37	139.56	10.44	-40.0	-41.2	21.4	0.00e+00	0	40	0	130023424	52	6556
2026-01-18 23:46:02.38	139.53	10.53	-39.6	-40.7	21.9	0.00e+00	0	40	0	132120576	52	6224
2026-01-18 23:46:03.38	139.50	10.62	-39.6	-40.8	21.8	0.00e+00	0	40	0	134217728	52	6247
2026-01-18 23:46:04.39	139.47	10.71	-39.5	-40.6	22.0	0.00e+00	0	40	0	135266304	52	6121
2026-01-18 23:46:05.40	139.44	10.80	-39.3	-40.4	22.1	0.00e+00	0	40	0	137363456	52	5996
2026-01-18 23:46:06.41	139.42	10.89	-39.2	-40.2	22.2	0.00e+00	0	40	0	139460608	52	5885
2026-01-18 23:46:07.42	139.39	10.98	-39.4	-40.4	22.2	0.00e+00	0	40	0	141557760	52	6017
2026-01-18 23:46:08.43	139.36	11.07	-39.3	-40.3	22.3	0.00e+00	0	40	0	143654912	52	5928
2026-01-18 23:46:09.44	139.33	11.16	-39.4	-40.4	22.2	0.00e+00	0	40	0	144703488	52	6028
2026-01-18 23:46:10.45	139.30	11.25	-39.3	-40.3	22.2	0.00e+00	0	40	0	146800640	52	5959
2026-01-18 23:46:11.46	139.27	11.34	-39.1	-40.1	22.4	0.00e+00	0	40	0	148897792	52	5808
2026-01-18 23:46:12.47	139.24	11.43	-39.2	-40.2	22.4	0.00e+00	0	40	0	150994944	52	5845
2026-01-18 23:46:13.48	139.21	11.53	-39.2	-40.2	22.3	0.00e+00	0	40	0	153092096	52	5874
2026-01-18 23:46:14.49	139.17	11.62	-39.2	-40.2	22.4	0.00e+00	0	40	0	155189248	52	5872
2026-01-18 23:46:15.49	139.14	11.71	-39.1	-40.1	22.5	0.00e+00	0	40	0	156237824	52	5775
2026-01-18 23:46:16.50	139.11	11.80	-38.8	-39.7	22.8	0.00e+00	0	40	0	158334976	50	6239
2026-01-18 23:46:17.51	139.08	11.90	-38.8	-39.8	22.6	0.00e+00	0	40	0	160432128	50	6247
2026-01-18 23:46:18.52	139.05	11.99	-38.6	-39.5	23.0	0.00e+00	0	40	0	162529280	50	6081
2026-01-18 23:46:19.53	139.02	12.09	-38.6	-39.6	22.9	0.00e+00	0	40	0	164626432	50	6108
2026-01-18 23:46:20.54	138.99	12.18	-38.6	-39.6	22.8	0.00e+00	0	40	0	165675008	50	6116
2026-01-18 23:46:21.55	138.95	12.28	-38.8	-39.7	22.8	0.00e+00	0	40	0	167772160	50	6222
2026-01-18 23:46:22.56	138.92	12.37	-38.4	-39.3	22.6	0.00e+00	0	41	0	169869312	50	5942
2026-01-18 23:46:23.57	138.89	12.47	-38.4	-39.3	23.2	0.00e+00	0	40	0	171966464	50	5936
2026-01-18 23:46:24.58	138.85	12.56	-38.4	-39.3	22.8	0.00e+00	0	40	0	174063616	50	5960
2026-01-18 23:46:25.59	138.82	12.66	-38.2	-39.1	23.3	0.00e+00	0	40	0	175112192	50	5786
2026-01-18 23:46:26.60	138.79	12.76	-38.2	-39.1	23.4	0.00e+00	0	40	0	177209344	50	5766
2026-01-18 23:46:27.61	138.75	12.86	-38.4	-39.3	23.2	0.00e+00	0	40	0	179306496	50	5930
2026-01-18 23:46:28.62	138.72	12.95	-38.1	-39.0	23.4	0.00e+00	0	40	0	181403648	50	5752
2026-01-18 23:46:29.63	138.69	13.05	-38.3	-39.3	23.2	0.00e+00	0	40	0	183500800	50	5907
2026-01-18 23:46:30.64	138.65	13.15	-38.4	-39.3	23.1	0.00e+00	0	40	0	184549376	50	5949
2026-01-18 23:46:31.65	138.62	13.25	-38.4	-39.3	23.2	0.00e+00	0	40	0	186646528	50	5938
2026-01-18 23:46:32.66	138.58	13.35	-38.3	-39.2	23.2	0.00e+00	0	40	0	188743680	50	5883
2026-01-18 23:46:33.67	138.55	13.45	-38.3	-39.2	23.3	0.00e+00	0	40	0	190840832	50	5865
2026-01-18 23:46:34.68	138.51	13.55	-38.5	-39.4	23.1	0.00e+00	0	40	0	192937984	50	6002
2026-01-18 23:46:35.69	138.47	13.65	-38.2	-39.1	23.4	0.00e+00	0	40	0	193986560	50	5784
2026-01-18 23:46:36.70	138.44	13.75	-38.2	-39.1	23.5	0.00e+00	0	40	0	196083712	50	5803
2026-01-18 23:46:37.71	138.40	13.85	-38.4	-39.4	23.2	0.00e+00	0	40	0	198180864	50	5971
2026-01-18 23:46:38.72	138.36	13.95	-38.3	-39.2	23.3	0.00e+00	0	40	0	200278016	50	5865
2026-01-18 23:46:39.73	138.33	14.06	-38.3	-39.2	23.3	0.00e+00	0	40	0	202375168	50	5854
2026-01-18 23:46:40.74	138.29	14.16	-38.6	-39.5	23.1	0.00e+00	0	40	0	203423744	50	6089
2026-01-18 23:46:41.75	138.25	14.26	-38.5	-39.4	23.2	0.00e+00	0	40	0	205520896	50	6009
2026-01-18 23:46:42.76	138.22	14.37	-38.5	-39.4	23.2	0.00e+00	0	40	0	207618048	50	6031
2026-01-18 23:46:43.77	138.18	14.47	-38.5	-39.4	23.2	0.00e+00	0	40	0	209715200	50	5992
2026-01-18 23:46:44.78	138.14	14.57	-38.5	-39.4	23.1	0.00e+00	0	40	0	211812352	50	6027
2026-01-18 23:46:45.79	138.10	14.68	-38.2	-39.1	23.4	0.00e+00	0	40	0	212860928	50	5812
2026-01-18 23:46:46.80	138.06	14.78	-38.5	-39.4	23.2	0.00e+00	0	40	0	214958080	50	6003
2026-01-18 23:46:47.81	138.02	14.89	-38.4	-39.3	23.4	0.00e+00	0	40	0	217055232	50	5899
2026-01-18 23:46:48.82	137.98	15.00	-38.2	-39.1	23.5	0.00e+00	0	40	0	219152384	50	5763
2026-01-18 23:46:49.83	137.94	15.10	-38.3	-39.2	23.4	0.00e+00	0	41	0	221249536	50	5836
2026-01-18 23:46:50.84	137.90	15.21	-38.3	-39.2	23.3	0.00e+00	0	40	0	223346688	50	5891
2026-01-18 23:46:51.85	137.86	15.32	-38.3	-39.2	23.4	0.00e+00	0	40	0	224395264	50	5879
2026-01-18 23:46:52.86	137.82	15.42	-38.1	-39.0	23.6	0.00e+00	0	40	0	226492416	50	5698
2026-01-18 23:46:53.87	137.78	15.53	-38.1	-39.1	23.5	0.00e+00	0	40	0	228589568	50	5763
2026-01-18 23:46:54.88	137.74	15.64	-38.1	-38.9	23.7	0.00e+00	0	40	0	230686720	50	5695
2026-01-18 23:46:55.89	137.70	15.75	-38.2	-39.1	23.5	0.00e+00	0	40	0	232783872	50	5768
2026-01-18 23:46:56.90	137.66	15.86	-38.2	-39.1	23.5	0.00e+00	0	40	0	233832448	50	5772
2026-01-18 23:46:57.91	137.61	15.97	-38.3	-39.2	23.4	0.00e+00	0	40	0	235929600	50	5870
2026-01-18 23:46:58.92	137.57	16.08	-38.4	-39.3	23.4	0.00e+00	0	40	0	238026752	50	5902
2026-01-18 23:46:59.93	137.53	16.19	-38.1	-39.0	23.6	0.00e+00	0	40	0	240123904	50	5727
2026-01-18 23:47:00.93	137.48	16.30	-38.3	-39.2	23.4	0.00e+00	0	40	0	242221056	50	5854
2026-01-18 23:47:01.94	137.44	16.42	-38.1	-38.9	23.7	0.00e+00	0	40	0	243269632	50	5687
2026-01-18 23:47:02.95	137.40	16.53	-38.1	-39.0	23.5	0.00e+00	0	40	0	245366784	50	5706
2026-01-18 23:47:03.96	137.35	16.64	-38.0	-38.8	23.8	0.00e+00	0	40	0	247463936	50	5610
2026-01-18 23:47:04.97	137.31	16.76	-38.0	-38.8	23.7	0.00e+00	0	40	0	249561088	50	5618
2026-01-18 23:47:05.98	137.26	16.87	-37.7	-38.6	23.9	0.00e+00	0	40	0	251658240	50	5443
2026-01-18 23:47:06.99	137.22	16.98	-38.0	-38.8	23.8	0.00e+00	0	40	0	252706816	48	6292
2026-01-18 23:47:08.00	137.17	17.10	-38.1	-38.9	23.6	0.00e+00	0	40	0	254803968	48	6371
2026-01-18 23:47:09.01	137.12	17.22	-38.0	-38.9	23.8	0.00e+00	0	40	0	256901120	48	6360
2026-01-18 23:47:10.02	137.08	17.33	-38.0	-38.9	23.6	0.00e+00	0	40	0	258998272	48	6352
2026-01-18 23:47:11.03	137.03	17.45	-38.1	-39.0	23.7	0.00e+00	0	40	0	261095424	48	6441
2026-01-18 23:47:12.04	136.98	17.57	-38.3	-39.3	23.5	0.00e+00	0	40	0	262144000	48	6621
2026-01-18 23:47:13.05	136.94	17.68	-38.3	-39.2	23.5	0.00e+00	0	40	0	264241152	48	6572
2026-01-18 23:47:14.06	136.89	17.80	-38.3	-39.3	23.4	0.00e+00	0	40	0	266338304	48	6628
2026-01-18 23:47:15.07	136.84	17.92	-38.3	-39.2	23.4	0.00e+00	0	40	0	268435456	48	6587
2026-01-18 23:47:16.08	136.79	18.04	-38.4	-39.3	23.4	0.00e+00	0	40	0	270532608	48	6649
2026-01-18 23:47:17.09	136.74	18.16	-38.3	-39.2	23.4	0.00e+00	0	40	0	271581184	48	6588
2026-01-18 23:47:18.10	136.69	18.28	-38.2	-39.1	23.5	0.00e+00	0	40	0	273678336	48	6503
2026-01-18 23:47:19.11	136.64	18.40	-38.2	-39.1	23.5	0.00e+00	0	40	0	275775488	48	6504
2026-01-18 23:47:20.11	136.59	18.52	-38.3	-39.2	23.5	0.00e+00	0	40	0	277872640	48	6597
2026-01-18 23:47:21.13	136.54	18.65	-38.2	-39.2	23.5	0.00e+00	0	40	0	279969792	48	6548
2026-01-18 23:47:22.13	136.49	18.77	-38.3	-39.3	23.3	0.00e+00	0	40	0	281018368	48	6618
2026-01-18 23:47:23.15	136.43	18.90	-38.2	-39.1	23.5	0.00e+00	0	40	0	283115520	48	6529
2026-01-18 23:47:24.16	136.38	19.02	-38.4	-39.3	23.3	0.00e+00	0	40	0	285212672	48	6636
2026-01-18 23:47:25.16	136.33	19.14	-38.7	-39.7	23.1	0.00e+00	0	40	0	287309824	48	6969
2026-01-18 23:47:26.17	136.28	19.27	-38.5	-39.4	23.3	0.00e+00	0	40	0	289406976	50	6026
2026-01-18 23:47:27.18	136.22	19.39	-38.5	-39.4	23.3	0.00e+00	0	40	0	291504128	50	5988
2026-01-18 23:47:28.19	136.17	19.52	-38.7	-39.6	23.2	0.00e+00	0	40	0	292552704	50	6172
2026-01-18 23:47:29.20	136.11	19.65	-38.6	-39.6	23.1	0.00e+00	0	40	0	294649856	50	6133
2026-01-18 23:47:30.21	136.06	19.78	-38.6	-39.5	23.2	0.00e+00	0	40	0	296747008	50	6103
2026-01-18 23:47:31.22	136.00	19.91	-38.7	-39.7	23.1	0.00e+00	0	40	0	298844160	50	6193
2026-01-18 23:47:32.23	135.95	20.03	-38.3	-39.2	23.5	0.00e+00	0	40	0	300941312	50	5873
2026-01-18 23:47:33.24	135.89	20.16	-38.4	-39.3	23.4	0.00e+00	0	40	0	301989888	50	5932
2026-01-18 23:47:34.25	135.83	20.29	-38.3	-39.2	23.5	0.00e+00	0	40	0	304087040	50	5854
2026-01-18 23:47:35.26	135.77	20.43	-38.2	-39.2	23.6	0.00e+00	0	40	0	306184192	50	5833
2026-01-18 23:47:36.27	135.71	20.56	-38.2	-39.1	23.6	0.00e+00	0	40	0	308281344	50	5825
2026-01-18 23:47:37.28	135.66	20.69	-38.2	-39.1	23.6	0.00e+00	0	40	0	310378496	50	5781
2026-01-18 23:47:38.29	135.60	20.82	-38.4	-39.4	23.4	0.00e+00	0	40	0	311427072	50	5976
2026-01-18 23:47:39.30	135.54	20.96	-38.5	-39.4	23.4	0.00e+00	0	40	0	313524224	50	5988
2026-01-18 23:47:40.30	135.48	21.09	-38.4	-39.4	23.4	0.00e+00	0	40	0	315621376	50	5971
2026-01-18 23:47:41.31	135.42	21.23	-38.9	-39.9	23.0	0.00e+00	0	40	0	317718528	50	6361
2026-01-18 23:47:42.32	135.35	21.36	-38.6	-39.5	23.3	0.00e+00	0	40	0	319815680	50	6053
2026-01-18 23:47:43.33	135.29	21.50	-38.5	-39.5	23.4	0.00e+00	0	41	0	320864256	50	6037
2026-01-18 23:47:44.34	135.23	21.63	-38.7	-39.6	23.3	0.00e+00	0	40	0	322961408	50	6127
2026-01-18 23:47:45.35	135.17	21.77	-38.6	-39.5	23.3	0.00e+00	0	40	0	325058560	50	6052
2026-01-18 23:47:46.36	135.10	21.91	-38.8	-39.7	23.1	0.00e+00	0	40	0	327155712	50	6196
2026-01-18 23:47:47.37	135.04	22.05	-39.0	-39.9	23.0	0.00e+00	0	40	0	329252864	50	6388
2026-01-18 23:47:48.38	134.97	22.19	-39.0	-40.0	23.0	0.00e+00	0	40	0	330301440	50	6392
2026-01-18 23:47:49.39	134.91	22.33	-39.1	-40.1	23.0	0.00e+00	0	40	0	332398592	50	6467
2026-01-18 23:47:50.40	134.84	22.47	-39.0	-39.9	23.0	0.00e+00	0	40	0	334495744	50	6364
2026-01-18 23:47:51.41	134.77	22.62	-38.9	-39.8	23.1	0.00e+00	0	40	0	336592896	50	6306
2026-01-18 23:47:52.42	134.70	22.76	-38.8	-39.7	23.1	0.00e+00	0	40	0	338690048	50	6232
2026-01-18 23:47:53.43	134.64	22.90	-38.8	-39.8	23.2	0.00e+00	0	40	0	339738624	50	6261
2026-01-18 23:47:54.44	134.57	23.05	-39.1	-40.0	22.8	0.00e+00	0	41	0	341835776	50	6437
2026-01-18 23:47:55.44	134.50	23.19	-38.9	-39.9	22.9	0.00e+00	0	40	0	343932928	50	6356
2026-01-18 23:47:56.46	134.43	23.34	-38.9	-39.9	23.0	0.00e+00	0	40	0	346030080	50	6328
2026-01-18 23:47:57.47	134.36	23.49	-39.0	-40.0	23.0	0.00e+00	0	40	0	348127232	50	6423
2026-01-18 23:47:58.48	134.28	23.63	-39.0	-39.9	23.1	0.00e+00	0	40	0	349175808	50	6382
2026-01-18 23:47:59.48	134.21	23.78	-39.0	-40.0	22.9	0.00e+00	0	40	0	351272960	50	6430
2026-01-18 23:48:00.49	134.14	23.93	-39.3	-40.3	22.8	0.00e+00	0	40	0	353370112	50	6672
2026-01-18 23:48:01.50	134.07	24.08	-39.4	-40.4	22.6	0.00e+00	0	41	0	355467264	50	6722
2026-01-18 23:48:02.51	133.99	24.23	-39.8	-40.8	22.3	0.00e+00	0	40	0	357564416	50	7036
2026-01-18 23:48:03.52	133.92	24.38	-40.0	-41.1	22.0	0.00e+00	0	40	0	359661568	52	6470
2026-01-18 23:48:04.53	133.84	24.53	-39.8	-40.8	22.3	0.00e+00	0	40	0	360710144	52	6308
2026-01-18 23:48:05.54	133.76	24.69	-39.9	-41.0	22.3	0.00e+00	0	40	0	362807296	52	6404
2026-01-18 23:48:06.55	133.68	24.84	-39.9	-41.0	22.2	0.00e+00	0	40	0	364904448	52	6445
2026-01-18 23:48:07.56	133.61	25.00	-39.9	-41.0	22.4	0.00e+00	0	40	0	367001600	52	6396
2026-01-18 23:48:08.57	133.53	25.15	-40.0	-41.1	22.2	0.00e+00	0	40	0	368050176	52	6494
2026-01-18 23:48:09.57	133.45	25.31	-39.9	-41.0	22.2	0.00e+00	0	40	0	370147328	52	6427
2026-01-18 23:48:10.58	133.37	25.47	-39.8	-40.8	22.3	0.00e+00	0	40	0	372244480	52	6313
2026-01-18 23:48:11.59	133.28	25.62	-39.8	-40.9	22.3	0.00e+00	0	40	0	374341632	52	6323
2026-01-18 23:48:12.60	133.20	25.78	-39.8	-40.9	22.3	0.00e+00	0	40	0	376438784	52	6339
2026-01-18 23:48:13.61	133.12	25.94	-39.8	-40.9	22.3	0.00e+00	0	40	0	377487360	52	6378
2026-01-18 23:48:14.62	133.03	26.11	-39.9	-41.1	22.3	0.00e+00	0	40	0	379584512	52	6465
2026-01-18 23:48:15.63	132.95	26.27	-39.7	-40.8	22.3	0.00e+00	0	41	0	381681664	52	6263
2026-01-18 23:48:16.64	132.86	26.43	-39.9	-41.0	22.3	0.00e+00	0	41	0	383778816	52	6436
2026-01-18 23:48:17.65	132.78	26.59	-39.8	-40.9	22.4	0.00e+00	0	41	0	385875968	52	6348
2026-01-18 23:48:18.66	132.69	26.76	-39.8	-40.8	22.3	0.00e+00	0	41	0	387973120	52	6308
2026-01-18 23:48:19.67	132.60	26.93	-40.2	-41.3	22.2	0.00e+00	0	41	0	389021696	52	6640
2026-01-18 23:48:20.68	132.51	27.09	-40.5	-41.6	21.9	0.00e+00	0	41	0	391118848	52	6878
2026-01-18 23:48:21.69	132.42	27.26	-40.4	-41.4	21.9	0.00e+00	0	41	0	393216000	52	6746
2026-01-18 23:48:22.70	132.33	27.43	-40.1	-41.2	21.9	0.00e+00	0	40	0	395313152	52	6551
2026-01-18 23:48:23.71	132.23	27.60	-40.2	-41.2	22.0	0.00e+00	0	41	0	397410304	52	6585
2026-01-18 23:48:24.72	132.14	27.77	-40.0	-41.0	22.3	0.00e+00	0	40	0	398458880	52	6452
2026-01-18 23:48:25.73	132.04	27.94	-39.9	-40.9	22.3	0.00e+00	0	40	0	400556032	52	6358
2026-01-18 23:48:26.73	131.95	28.11	-40.0	-41.0	22.3	0.00e+00	0	41	0	402653184	52	6457
2026-01-18 23:48:27.75	131.85	28.29	-39.9	-40.9	22.2	0.00e+00	0	40	0	404750336	52	6359
2026-01-18 23:48:28.75	131.75	28.46	-40.0	-41.0	22.1	0.00e+00	0	41	0	406847488	52	6395
2026-01-18 23:48:29.76	131.65	28.63	-39.9	-40.9	22.3	0.00e+00	0	41	0	407896064	52	6373
2026-01-18 23:48:30.77	131.55	28.81	-40.3	-41.4	21.9	0.00e+00	0	41	0	409993216	52	6703
2026-01-18 23:48:31.78	131.45	28.99	-41.1	-42.2	21.2	0.00e+00	0	41	0	412090368	52	7402
2026-01-18 23:48:32.79	131.35	29.17	-40.7	-41.8	21.6	0.00e+00	0	41	0	414187520	54	6281
2026-01-18 23:48:33.80	131.24	29.35	-41.0	-42.2	21.3	0.00e+00	0	41	0	416284672	54	6589
2026-01-18 23:48:34.81	131.14	29.53	-41.5	-42.7	21.0	0.00e+00	0	40	0	417333248	56	6201
2026-01-18 23:48:35.82	131.03	29.71	-41.4	-42.6	21.0	0.00e+00	0	41	0	419430400	56	6135
2026-01-18 23:48:36.83	130.93	29.89	-41.6	-42.9	20.6	0.00e+00	0	41	0	421527552	56	6322
2026-01-18 23:48:37.84	130.82	30.07	-41.8	-43.1	20.6	0.00e+00	0	40	0	423624704	56	6505
2026-01-18 23:48:38.85	130.71	30.26	-41.5	-42.8	20.7	0.00e+00	0	40	0	425721856	56	6254
2026-01-18 23:48:39.86	130.59	30.44	-42.0	-43.3	20.6	0.00e+00	0	40	0	426770432	56	6652
2026-01-18 23:48:40.87	130.48	30.63	-41.3	-42.5	21.1	0.00e+00	0	40	0	428867584	56	6063
2026-01-18 23:48:41.88	130.37	30.82	-41.4	-42.6	20.9	0.00e+00	0	41	0	430964736	56	6130
2026-01-18 23:48:42.89	130.25	31.01	-41.3	-42.5	21.2	0.00e+00	0	41	0	433061888	56	6050
2026-01-18 23:48:43.90	130.13	31.20	-41.4	-42.6	21.2	0.00e+00	0	40	0	435159040	56	6133
2026-01-18 23:48:44.90	130.02	31.39	-41.4	-42.6	20.5	0.00e+00	0	41	0	436207616	56	6165
2026-01-18 23:48:45.92	129.90	31.58	-41.5	-42.7	21.0	0.00e+00	0	41	0	438304768	56	6201
2026-01-18 23:48:46.92	129.78	31.77	-41.6	-42.8	20.9	0.00e+00	0	41	0	440401920	56	6283
2026-01-18 23:48:47.93	129.65	31.97	-42.3	-43.6	20.2	0.00e+00	0	40	0	442499072	56	6891
2026-01-18 23:48:48.94	129.53	32.16	-42.0	-43.3	20.5	0.00e+00	0	41	0	444596224	56	6657
2026-01-18 23:48:49.95	129.40	32.36	-42.0	-43.3	20.4	0.00e+00	0	41	0	445644800	56	6643
2026-01-18 23:48:50.96	129.28	32.56	-41.6	-42.9	20.8	0.00e+00	0	40	0	447741952	56	6320
2026-01-18 23:48:51.97	129.15	32.76	-41.6	-42.9	20.9	0.00e+00	0	41	0	449839104	56	6336
2026-01-18 23:48:52.98	129.02	32.96	-41.8	-43.1	20.7	0.00e+00	0	41	0	451936256	56	6506
2026-01-18 23:48:53.99	128.88	33.16	-41.8	-43.0	20.6	0.00e+00	0	41	0	454033408	56	6455
2026-01-18 23:48:55.00	128.75	33.36	-42.1	-43.5	20.4	0.00e+00	0	40	0	456130560	56	6804
2026-01-18 23:48:56.01	128.62	33.57	-42.7	-44.2	19.6	0.00e+00	0	41	0	457179136	56	7416
2026-01-18 23:48:57.02	128.48	33.77	-42.8	-44.3	19.4	0.00e+00	0	41	0	459276288	58	6644
2026-01-18 23:48:58.03	128.34	33.98	-43.4	-45.1	19.0	0.00e+00	0	40	0	461373440	58	7312
2026-01-18 23:48:59.04	128.20	34.18	-43.3	-44.9	18.9	0.00e+00	0	40	0	463470592	58	7152
2026-01-18 23:49:00.04	128.06	34.39	-43.2	-44.8	18.8	0.00e+00	0	41	0	465567744	58	7035
2026-01-18 23:49:01.05	127.91	34.60	-42.9	-44.4	19.5	0.00e+00	0	41	0	466616320	58	6721
2026-01-18 23:49:02.06	127.76	34.81	-42.9	-44.4	19.3	0.00e+00	0	40	0	468713472	58	6713
2026-01-18 23:49:03.07	127.62	35.02	-43.1	-44.8	19.1	0.00e+00	0	40	0	470810624	58	7027
2026-01-18 23:49:04.08	127.47	35.24	-43.5	-45.2	18.7	0.00e+00	0	41	0	472907776	58	7363
2026-01-18 23:49:05.09	127.31	35.45	-43.8	-45.6	18.3	0.00e+00	0	41	0	475004928	60	6914
2026-01-18 23:49:06.10	127.16	35.67	-43.7	-45.5	18.4	0.00e+00	0	41	0	476053504	60	6824
2026-01-18 23:49:07.11	127.00	35.88	-43.9	-45.9	18.2	0.00e+00	0	40	0	478150656	60	7118
2026-01-18 23:49:08.12	126.84	36.10	-43.7	-45.5	18.4	0.00e+00	0	40	0	480247808	60	6844
2026-01-18 23:49:09.13	126.68	36.32	-42.6	-44.1	19.8	0.00e+00	0	41	0	482344960	60	5807
2026-01-18 23:49:10.14	126.52	36.54	-42.3	-43.7	19.9	0.00e+00	0	41	0	484442112	58	6235
2026-01-18 23:49:11.15	126.35	36.76	-42.2	-43.6	20.5	0.00e+00	0	41	0	485490688	58	6107
2026-01-18 23:49:12.16	126.18	36.99	-41.5	-42.8	20.8	0.00e+00	0	41	0	487587840	56	6279
2026-01-18 23:49:13.16	126.02	37.21	-41.6	-42.8	20.9	0.00e+00	0	41	0	489684992	56	6310
2026-01-18 23:49:14.17	125.84	37.43	-41.7	-43.0	20.8	0.00e+00	0	41	0	491782144	56	6448
2026-01-18 23:49:15.18	125.67	37.66	-41.7	-43.0	20.5	0.00e+00	0	41	0	493879296	56	6425
2026-01-18 23:49:16.19	125.49	37.89	-41.9	-43.2	20.4	0.00e+00	0	41	0	494927872	56	6575
2026-01-18 23:49:17.20	125.31	38.12	-41.7	-42.9	20.7	0.00e+00	0	41	0	497025024	56	6380
2026-01-18 23:49:18.21	125.13	38.35	-41.8	-43.0	20.6	0.00e+00	0	41	0	499122176	56	6450
2026-01-18 23:49:19.22	124.94	38.58	-41.9	-43.2	20.6	0.00e+00	0	41	0	501219328	56	6551
2026-01-18 23:49:20.23	124.75	38.81	-41.6	-42.8	20.8	0.00e+00	0	41	0	503316480	56	6302
2026-01-18 23:49:21.24	124.56	39.05	-41.5	-42.7	20.9	0.00e+00	0	41	0	504365056	56	6220
2026-01-18 23:49:22.25	124.37	39.28	-41.4	-42.6	21.4	0.00e+00	0	40	0	506462208	56	6130
2026-01-18 23:49:23.26	124.17	39.52	-41.0	-42.1	21.4	0.00e+00	0	41	0	508559360	54	6511
2026-01-18 23:49:24.27	123.97	39.75	-40.9	-42.0	21.5	0.00e+00	0	41	0	510656512	54	6436
2026-01-18 23:49:25.28	123.77	39.99	-41.0	-42.2	21.4	0.00e+00	0	41	0	512753664	54	6547
2026-01-18 23:49:26.29	123.57	40.23	-41.3	-42.6	21.0	0.00e+00	0	41	0	513802240	54	6860
2026-01-18 23:49:27.30	123.36	40.47	-41.4	-42.7	20.8	0.00e+00	0	41	0	515899392	54	6932
2026-01-18 23:49:28.31	123.15	40.72	-41.4	-42.7	20.9	0.00e+00	0	40	0	517996544	54	6955
2026-01-18 23:49:29.32	122.93	40.96	-41.3	-42.5	21.1	0.00e+00	0	41	0	520093696	54	6833
2026-01-18 23:49:30.33	122.71	41.21	-41.2	-42.4	21.0	0.00e+00	0	41	0	522190848	54	6702
2026-01-18 23:49:31.34	122.49	41.45	-41.0	-42.1	20.8	0.00e+00	0	41	0	524288000	54	6501
2026-01-18 23:49:32.35	122.27	41.70	-40.4	-41.4	22.0	0.00e+00	0	41	0	525336576	54	6031
2026-01-18 23:49:33.36	122.04	41.95	-41.2	-42.3	21.4	0.00e+00	0	40	0	527433728	54	6681
2026-01-18 23:49:34.37	121.80	42.20	-40.9	-42.0	21.6	0.00e+00	0	41	0	529530880	54	6456
2026-01-18 23:49:35.38	121.57	42.45	-41.1	-42.3	21.3	0.00e+00	0	41	0	531628032	54	6627
2026-01-18 23:49:36.39	121.33	42.70	-41.0	-42.1	21.6	0.00e+00	0	40	0	533725184	56	5827
2026-01-18 23:49:37.40	121.08	42.95	-41.2	-42.3	21.2	0.00e+00	0	40	0	534773760	56	5941
2026-01-18 23:49:38.40	120.84	43.20	-42.2	-43.6	20.2	0.00e+00	0	41	0	536870912	56	6870
2026-01-18 23:49:39.41	120.59	43.46	-42.1	-43.5	20.3	0.00e+00	0	41	0	538968064	56	6806
2026-01-18 23:49:40.42	120.33	43.72	-42.2	-43.6	20.2	0.00e+00	0	41	0	541065216	56	6868
2026-01-18 23:49:41.43	120.07	43.97	-41.9	-43.2	20.6	0.00e+00	0	41	0	543162368	56	6591
2026-01-18 23:49:42.44	119.81	44.23	-41.3	-42.5	21.3	0.00e+00	0	41	0	544210944	56	6062
2026-01-18 23:49:43.45	119.54	44.49	-41.1	-42.2	21.5	0.00e+00	0	41	0	546308096	56	5866
2026-01-18 23:49:44.46	119.27	44.75	-41.5	-42.7	21.0	0.00e+00	0	41	0	548405248	56	6204
2026-01-18 23:49:45.47	118.99	45.01	-41.4	-42.6	21.1	0.00e+00	0	41	0	550502400	56	6164
2026-01-18 23:49:46.48	118.71	45.27	-40.8	-41.9	21.6	0.00e+00	0	41	0	552599552	56	5683
2026-01-18 23:49:47.48	118.42	45.53	-40.8	-42.0	21.6	0.00e+00	0	40	0	553648128	56	5719
2026-01-18 23:49:48.49	118.13	45.80	-40.6	-41.7	21.8	0.00e+00	0	41	0	555745280	54	6233
2026-01-18 23:49:49.50	117.84	46.06	-41.1	-42.3	21.6	0.00e+00	0	41	0	557842432	54	6616
2026-01-18 23:49:50.51	117.54	46.33	-40.9	-42.1	21.4	0.00e+00	0	41	0	559939584	54	6465
2026-01-18 23:49:51.52	117.23	46.59	-41.2	-42.4	21.4	0.00e+00	0	41	0	562036736	54	6758
2026-01-18 23:49:52.53	116.92	46.86	-40.7	-41.8	21.7	0.00e+00	0	40	0	563085312	54	6291
2026-01-18 23:49:53.54	116.60	47.13	-40.2	-41.2	22.5	0.00e+00	0	41	0	565182464	54	5865
2026-01-18 23:49:54.54	116.28	47.40	-40.2	-41.2	22.0	0.00e+00	0	41	0	567279616	54	5880
2026-01-18 23:49:55.56	115.95	47.67	-40.3	-41.4	22.1	0.00e+00	0	41	0	569376768	54	5991
2026-01-18 23:49:56.56	115.62	47.94	-40.4	-41.5	21.9	0.00e+00	0	41	0	571473920	54	6086
2026-01-18 23:49:57.57	115.28	48.21	-40.4	-41.5	22.0	0.00e+00	0	41	0	572522496	54	6091
2026-01-18 23:49:58.58	114.93	48.48	-40.4	-41.5	21.7	0.00e+00	0	41	0	574619648	54	6067
2026-01-18 23:49:59.59	114.58	48.75	-40.1	-41.2	22.2	0.00e+00	0	41	0	576716800	54	5834
2026-01-18 23:50:00.60	114.22	49.02	-39.8	-40.8	22.5	0.00e+00	0	41	0	578813952	54	5630
2026-01-18 23:50:01.61	113.85	49.29	-39.8	-40.8	22.6	0.00e+00	0	41	0	580911104	52	6312
2026-01-18 23:50:02.62	113.48	49.57	-39.8	-40.9	22.5	0.00e+00	0	41	0	581959680	52	6326
2026-01-18 23:50:03.63	113.10	49.84	-39.7	-40.7	22.6	0.00e+00	0	41	0	584056832	52	6208
2026-01-18 23:50:04.64	112.71	50.11	-39.5	-40.5	22.7	0.00e+00	0	41	0	586153984	52	6071
2026-01-18 23:50:05.65	112.32	50.39	-39.5	-40.5	22.8	0.00e+00	0	41	0	588251136	52	6076
2026-01-18 23:50:06.66	111.92	50.66	-39.4	-40.4	23.0	0.00e+00	0	41	0	590348288	52	5976
2026-01-18 23:50:07.67	111.51	50.94	-39.0	-39.9	23.2	0.00e+00	0	41	0	591396864	52	5691
2026-01-18 23:50:08.68	111.10	51.21	-38.9	-39.8	23.3	0.00e+00	0	41	0	593494016	50	6315
2026-01-18 23:50:09.69	110.68	51.48	-39.1	-40.1	22.9	0.00e+00	0	41	0	595591168	50	6502
2026-01-18 23:50:10.70	110.25	51.76	-39.7	-40.8	22.4	0.00e+00	0	41	0	597688320	52	6253
2026-01-18 23:50:11.70	109.81	52.03	-39.7	-40.7	22.5	0.00e+00	0	41	0	599785472	52	6236
2026-01-18 23:50:12.71	109.36	52.30	-39.1	-40.1	23.0	0.00e+00	0	41	0	600834048	52	5801
2026-01-18 23:50:13.72	108.91	52.58	-38.8	-39.7	23.4	0.00e+00	0	41	0	602931200	52	5506
2026-01-18 23:50:14.73	108.45	52.85	-39.4	-40.4	22.9	0.00e+00	0	41	0	605028352	52	5984
2026-01-18 23:50:15.73	107.98	53.12	-39.7	-40.7	22.6	0.00e+00	0	40	0	607125504	52	6239
2026-01-18 23:50:16.75	107.49	53.39	-39.5	-40.5	22.7	0.00e+00	0	40	0	609222656	52	6044
2026-01-18 23:50:17.75	107.01	53.66	-39.9	-41.0	22.5	0.00e+00	0	41	0	610271232	52	6400
2026-01-18 23:50:18.76	106.51	53.93	-40.9	-42.1	21.5	0.00e+00	0	41	0	612368384	54	6535
2026-01-18 23:50:19.77	106.00	54.20	-41.0	-42.2	21.5	0.00e+00	0	41	0	614465536	54	6577
2026-01-18 23:50:20.78	105.48	54.47	-40.1	-41.2	22.0	0.00e+00	0	41	0	616562688	54	5840
2026-01-18 23:50:21.79	104.95	54.74	-40.5	-41.6	21.9	0.00e+00	0	41	0	618659840	54	6136
2026-01-18 23:50:22.80	104.41	55.01	-40.5	-41.6	21.8	0.00e+00	0	41	0	620756992	54	6169
2026-01-18 23:50:23.81	103.86	55.27	-40.4	-41.5	22.1	0.00e+00	0	41	0	621805568	54	6051
2026-01-18 23:50:24.81	103.31	55.53	-39.4	-40.4	23.0	0.00e+00	0	41	0	623902720	52	6004
2026-01-18 23:50:25.83	102.73	55.80	-39.0	-39.9	23.2	0.00e+00	0	41	0	625999872	52	5680
2026-01-18 23:50:26.83	102.16	56.05	-39.2	-40.1	23.0	0.00e+00	0	40	0	628097024	52	5828
2026-01-18 23:50:27.84	101.56	56.31	-39.3	-40.3	23.0	0.00e+00	0	41	0	630194176	52	5915
2026-01-18 23:50:28.85	100.96	56.57	-39.2	-40.1	22.9	0.00e+00	0	41	0	631242752	52	5798
2026-01-18 23:50:29.86	100.35	56.83	-39.8	-40.8	22.5	0.00e+00	0	41	0	633339904	52	6290
2026-01-18 23:50:30.87	99.72	57.08	-40.3	-41.4	22.0	0.00e+00	0	41	0	635437056	52	6739
2026-01-18 23:50:31.88	99.08	57.33	-39.7	-40.7	22.4	0.00e+00	0	40	0	637534208	52	6192
2026-01-18 23:50:32.89	98.43	57.58	-39.8	-40.8	22.7	0.00e+00	0	41	0	639631360	52	6248
2026-01-18 23:50:33.90	97.77	57.83	-39.3	-40.2	23.0	0.00e+00	0	41	0	640679936	52	5843
2026-01-18 23:50:34.91	97.10	58.07	-39.3	-40.3	22.8	0.00e+00	0	40	0	642777088	52	5907
2026-01-18 23:50:35.92	96.41	58.31	-40.5	-41.6	21.7	0.00e+00	0	41	0	644874240	52	6895
2026-01-18 23:50:36.93	95.72	58.55	-41.0	-42.2	21.3	0.00e+00	0	41	0	646971392	54	6599
2026-01-18 23:50:37.94	95.01	58.78	-40.7	-41.9	21.7	0.00e+00	0	41	0	649068544	54	6375
2026-01-18 23:50:38.94	94.29	59.01	-39.2	-40.2	23.0	0.00e+00	0	41	0	650117120	52	5845
2026-01-18 23:50:39.96	93.55	59.24	-38.9	-39.8	23.4	0.00e+00	0	40	0	652214272	50	6264
2026-01-18 23:50:40.96	92.80	59.46	-38.9	-39.8	23.4	0.00e+00	0	40	0	654311424	50	6264
2026-01-18 23:50:41.98	92.03	59.69	-39.0	-40.0	23.2	0.00e+00	0	40	0	656408576	50	6400
2026-01-18 23:50:42.98	91.27	59.90	-38.8	-39.7	23.4	0.00e+00	0	41	0	658505728	50	6240
2026-01-18 23:50:43.99	90.48	60.11	-39.2	-40.2	23.0	0.00e+00	0	41	0	659554304	50	6545
2026-01-18 23:50:45.00	89.68	60.32	-39.2	-40.2	22.8	0.00e+00	0	41	0	661651456	50	6594
2026-01-18 23:50:46.01	88.86	60.52	-38.7	-39.6	23.5	0.00e+00	0	41	0	663748608	50	6157
2026-01-18 23:50:47.02	88.04	60.72	-38.1	-39.0	24.0	0.00e+00	0	41	0	665845760	50	5730
2026-01-18 23:50:48.03	87.20	60.92	-38.1	-39.0	24.0	0.00e+00	0	41	0	667942912	50	5725
2026-01-18 23:50:49.04	86.34	61.11	-38.0	-38.8	23.8	0.00e+00	0	41	0	668991488	50	5612
2026-01-18 23:50:50.05	85.48	61.29	-38.0	-38.9	24.1	0.00e+00	0	41	0	671088640	50	5667
2026-01-18 23:50:51.06	84.60	61.47	-38.0	-38.9	24.2	0.00e+00	0	41	0	673185792	50	5650
2026-01-18 23:50:52.07	83.71	61.64	-37.7	-38.6	24.2	0.00e+00	0	41	0	675282944	48	6132
2026-01-18 23:50:53.08	82.80	61.81	-37.1	-37.9	24.7	0.00e+00	0	41	0	677380096	48	5632
2026-01-18 23:50:54.09	81.89	61.97	-37.2	-38.0	24.6	0.00e+00	0	41	0	678428672	48	5718
2026-01-18 23:50:55.10	80.96	62.13	-37.8	-38.6	24.2	0.00e+00	0	40	0	680525824	48	6143
2026-01-18 23:50:56.10	80.03	62.28	-38.3	-39.2	23.8	0.00e+00	0	41	0	682622976	48	6564
2026-01-18 23:50:57.11	79.08	62.42	-37.6	-38.4	24.4	0.00e+00	0	41	0	684720128	48	5991
2026-01-18 23:50:58.12	78.12	62.56	-36.9	-37.6	25.0	0.00e+00	0	41	0	686817280	48	5501
2026-01-18 23:50:59.13	77.15	62.69	-36.9	-37.7	24.9	0.00e+00	0	41	0	688914432	46	6176
2026-01-18 23:51:00.14	76.16	62.81	-37.4	-38.2	24.4	0.00e+00	0	41	0	689963008	46	6602
2026-01-18 23:51:01.15	75.17	62.93	-38.0	-38.9	23.9	0.00e+00	0	41	0	692060160	48	6366
2026-01-18 23:51:02.16	74.17	63.04	-39.0	-40.0	23.3	0.00e+00	0	41	0	694157312	48	7178
2026-01-18 23:51:03.16	73.17	63.14	-39.5	-40.5	22.7	0.00e+00	0	41	0	696254464	50	6819
2026-01-18 23:51:04.17	72.15	63.23	-39.1	-40.1	22.9	0.00e+00	0	41	0	698351616	50	6493
2026-01-18 23:51:05.18	71.12	63.32	-38.6	-39.6	23.6	0.00e+00	0	41	0	699400192	50	6116
2026-01-18 23:51:06.18	70.10	63.40	-37.9	-38.7	24.4	0.00e+00	0	41	0	701497344	48	6222
2026-01-18 23:51:07.20	69.04	63.47	-36.7	-37.4	25.0	0.00e+00	0	41	0	703594496	48	5366
2026-01-18 23:51:08.21	68.00	63.54	-36.2	-37.0	25.3	0.00e+00	0	41	0	705691648	46	5718
2026-01-18 23:51:09.22	66.94	63.59	-36.2	-37.0	25.4	0.00e+00	0	41	0	707788800	46	5709
2026-01-18 23:51:10.23	65.89	63.64	-36.1	-36.9	25.3	0.00e+00	0	41	0	708837376	46	5651
2026-01-18 23:51:11.24	64.83	63.68	-35.7	-36.4	25.8	0.00e+00	0	41	0	710934528	44	6003
2026-01-18 23:51:12.24	63.77	63.72	-35.9	-36.6	25.7	0.00e+00	0	41	0	713031680	44	6132
2026-01-18 23:51:13.25	62.70	63.74	-35.9	-36.7	25.5	0.00e+00	0	41	0	715128832	44	6216
2026-01-18 23:51:14.26	61.63	63.76	-36.4	-37.2	25.2	0.00e+00	0	41	0	717225984	44	6554
2026-01-18 23:51:15.27	60.56	63.76	-36.7	-37.5	24.9	0.00e+00	0	41	0	718274560	44	6808
2026-01-18 23:51:16.28	59.49	63.76	-37.0	-37.8	24.7	0.00e+00	0	41	0	720371712	46	6296
2026-01-18 23:51:17.29	58.42	63.76	-37.1	-37.9	24.7	0.00e+00	0	41	0	722468864	46	6377
2026-01-18 23:51:18.30	57.35	63.74	-37.1	-38.0	24.6	0.00e+00	0	41	0	724566016	46	6392
2026-01-18 23:51:19.31	56.29	63.71	-37.8	-38.7	24.2	0.00e+00	0	41	0	726663168	46	6959
2026-01-18 23:51:20.32	55.22	63.68	-37.2	-38.1	24.4	0.00e+00	0	41	0	727711744	48	5783
2026-01-18 23:51:21.33	54.16	63.64	-36.6	-37.4	24.9	0.00e+00	0	41	0	729808896	46	6028
2026-01-18 23:51:22.34	53.10	63.59	-36.7	-37.4	24.9	0.00e+00	0	41	0	731906048	46	6015
2026-01-18 23:51:23.35	52.05	63.54	-36.7	-37.4	24.9	0.00e+00	0	41	0	734003200	46	6027
2026-01-18 23:51:24.35	51.02	63.47	-37.4	-38.2	24.5	0.00e+00	0	41	0	736100352	46	6586
2026-01-18 23:51:25.36	49.98	63.40	-38.0	-38.9	24.0	0.00e+00	0	41	0	737148928	46	7116
2026-01-18 23:51:26.37	48.94	63.32	-38.6	-39.5	23.8	0.00e+00	0	41	0	739246080	48	6844
2026-01-18 23:51:27.38	47.91	63.23	-38.9	-39.8	23.1	0.00e+00	0	41	0	741343232	50	6283
2026-01-18 23:51:28.39	46.90	63.14	-39.2	-40.2	23.2	0.00e+00	0	41	0	743440384	50	6576
2026-01-18 23:51:29.40	45.89	63.03	-37.8	-38.7	24.4	0.00e+00	0	41	0	745537536	50	5538
2026-01-18 23:51:30.41	44.88	62.92	-37.5	-38.3	24.6	0.00e+00	0	40	0	746586112	48	5933
2026-01-18 23:51:31.42	43.89	62.81	-37.1	-37.9	24.6	0.00e+00	0	40	0	748683264	48	5649
2026-01-18 23:51:32.43	42.91	62.68	-37.0	-37.8	24.7	0.00e+00	0	41	0	750780416	48	5591
2026-01-18 23:51:33.44	41.94	62.55	-36.8	-37.6	24.9	0.00e+00	0	41	0	752877568	48	5475
2026-01-18 23:51:34.45	40.98	62.42	-36.5	-37.2	25.2	0.00e+00	0	40	0	754974720	46	5877
2026-01-18 23:51:35.46	40.03	62.27	-36.4	-37.2	25.2	0.00e+00	0	41	0	756023296	46	5843
2026-01-18 23:51:36.47	39.09	62.12	-36.9	-37.7	24.8	0.00e+00	0	41	0	758120448	46	6192
2026-01-18 23:51:37.48	38.17	61.97	-36.8	-37.6	24.5	0.00e+00	0	40	0	760217600	46	6139
2026-01-18 23:51:38.49	37.25	61.81	-36.3	-37.1	25.0	0.00e+00	0	41	0	762314752	46	5787
2026-01-18 23:51:39.50	36.35	61.64	-37.2	-38.0	24.7	0.00e+00	0	40	0	764411904	46	6406
2026-01-18 23:51:40.51	35.46	61.46	-37.8	-38.6	24.2	0.00e+00	0	41	0	765460480	46	6926
2026-01-18 23:51:41.52	34.58	61.29	-37.6	-38.5	24.3	0.00e+00	0	40	0	767557632	48	6068
2026-01-18 23:51:42.53	33.72	61.10	-38.0	-38.9	24.0	0.00e+00	0	41	0	769654784	48	6332
2026-01-18 23:51:43.54	32.87	60.91	-38.1	-39.0	23.9	0.00e+00	0	41	0	771751936	48	6428
2026-01-18 23:51:44.55	32.03	60.72	-39.6	-40.7	22.8	0.00e+00	0	41	0	773849088	50	6972
2026-01-18 23:51:45.56	31.20	60.52	-40.6	-41.8	21.8	0.00e+00	0	40	0	774897664	52	7047
2026-01-18 23:51:46.57	30.39	60.31	-41.0	-42.3	21.5	0.00e+00	0	41	0	776994816	54	6627
2026-01-18 23:51:47.58	29.59	60.11	-41.1	-42.3	21.4	0.00e+00	0	41	0	779091968	54	6642
2026-01-18 23:51:48.59	28.80	59.89	-40.9	-42.0	21.6	0.00e+00	0	40	0	781189120	54	6429
2026-01-18 23:51:49.60	28.03	59.68	-40.4	-41.4	22.0	0.00e+00	0	41	0	783286272	54	5984
2026-01-18 23:51:50.61	27.27	59.46	-40.7	-41.8	21.9	0.00e+00	0	41	0	785383424	54	6247
2026-01-18 23:51:51.62	26.52	59.23	-41.5	-42.7	21.2	0.00e+00	0	41	0	786432000	54	6974
2026-01-18 23:51:52.63	25.79	59.01	-41.7	-42.9	20.9	0.00e+00	0	41	0	788529152	56	6370
2026-01-18 23:51:53.64	25.07	58.78	-42.1	-43.4	20.3	0.00e+00	0	41	0	790626304	56	6731
2026-01-18 23:51:54.65	24.36	58.54	-42.4	-43.8	19.8	0.00e+00	0	41	0	792723456	56	7012
2026-01-18 23:51:55.66	23.66	58.30	-42.2	-43.6	20.2	0.00e+00	0	41	0	794820608	56	6887
2026-01-18 23:51:56.67	22.98	58.06	-41.3	-42.5	21.4	0.00e+00	0	41	0	795869184	56	6052
2026-01-18 23:51:57.68	22.31	57.82	-39.9	-40.9	22.6	0.00e+00	0	41	0	797966336	54	5691
2026-01-18 23:51:58.69	21.65	57.58	-39.4	-40.4	22.9	0.00e+00	0	41	0	800063488	52	5979
2026-01-18 23:51:59.70	21.00	57.33	-40.2	-41.3	21.7	0.00e+00	0	40	0	802160640	52	6635
2026-01-18 23:52:00.70	20.37	57.08	-40.8	-41.9	21.6	0.00e+00	0	41	0	804257792	54	6344
2026-01-18 23:52:01.71	19.74	56.83	-39.9	-40.9	22.5	0.00e+00	0	41	0	805306368	54	5639
2026-01-18 23:52:02.72	19.13	56.57	-39.4	-40.3	23.0	0.00e+00	0	41	0	807403520	52	5941
2026-01-18 23:52:03.73	18.53	56.32	-40.4	-41.5	22.0	0.00e+00	0	41	0	809500672	52	6821
2026-01-18 23:52:04.74	17.94	56.06	-41.8	-43.1	20.5	0.00e+00	0	41	0	811597824	56	6493
2026-01-18 23:52:05.75	17.36	55.80	-42.2	-43.6	20.6	0.00e+00	0	41	0	813694976	56	6899
2026-01-18 23:52:06.76	16.79	55.53	-41.9	-43.2	20.7	0.00e+00	0	41	0	814743552	56	6584
2026-01-18 23:52:07.77	16.23	55.27	-41.8	-43.1	20.6	0.00e+00	0	41	0	816840704	56	6493
2026-01-18 23:52:08.78	15.69	55.01	-41.2	-42.4	21.2	0.00e+00	0	41	0	818937856	56	6018
2026-01-18 23:52:09.79	15.15	54.74	-40.7	-41.9	21.5	0.00e+00	0	40	0	821035008	54	6334
2026-01-18 23:52:10.80	14.62	54.47	-42.5	-44.1	19.6	0.00e+00	0	41	0	823132160	56	7273
2026-01-18 23:52:11.81	14.10	54.21	-42.3	-43.9	20.1	0.00e+00	0	41	0	824180736	56	7110
2026-01-18 23:52:12.82	13.59	53.94	-41.3	-42.6	21.1	0.00e+00	0	41	0	826277888	56	6170
2026-01-18 23:52:13.83	13.10	53.67	-39.9	-40.9	22.5	0.00e+00	0	41	0	828375040	54	5673
2026-01-18 23:52:14.84	12.61	53.40	-39.7	-40.7	22.9	0.00e+00	0	41	0	830472192	52	6185
2026-01-18 23:52:15.85	12.13	53.13	-39.9	-40.9	22.8	0.00e+00	0	41	0	832569344	52	6385
2026-01-18 23:52:16.86	11.66	52.85	-40.7	-41.8	21.7	0.00e+00	0	41	0	833617920	52	7077
2026-01-18 23:52:17.87	11.19	52.58	-40.6	-41.8	21.8	0.00e+00	0	41	0	835715072	54	6265
2026-01-18 23:52:18.88	10.74	52.31	-40.1	-41.2	22.2	0.00e+00	0	41	0	837812224	54	5830
2026-01-18 23:52:19.88	10.30	52.04	-39.8	-40.9	22.5	0.00e+00	0	41	0	839909376	52	6327
2026-01-18 23:52:20.89	9.86	51.77	-40.7	-41.9	21.7	0.00e+00	0	41	0	842006528	52	7127
2026-01-18 23:52:21.90	9.43	51.49	-40.5	-41.6	21.8	0.00e+00	0	41	0	843055104	54	6146
2026-01-18 23:52:22.90	9.01	51.22	-40.4	-41.5	21.8	0.00e+00	0	41	0	845152256	54	6076
2026-01-18 23:52:23.91	8.60	50.95	-38.5	-39.4	23.6	0.00e+00	0	41	0	847249408	50	6006
2026-01-18 23:52:24.92	8.19	50.68	-38.5	-39.3	23.7	0.00e+00	0	41	0	849346560	50	5963
2026-01-18 23:52:25.93	7.79	50.40	-38.9	-39.7	23.4	0.00e+00	0	41	0	851443712	50	6242
2026-01-18 23:52:26.94	7.40	50.13	-39.7	-40.6	22.8	0.00e+00	0	40	0	853540864	52	6167
2026-01-18 23:52:27.95	7.02	49.86	-39.7	-40.7	22.8	0.00e+00	0	41	0	854589440	52	6195
2026-01-18 23:52:28.96	6.64	49.58	-39.9	-40.9	22.6	0.00e+00	0	41	0	856686592	52	6339
2026-01-18 23:52:29.97	6.27	49.31	-41.3	-42.6	21.0	0.00e+00	0	41	0	858783744	54	6859
2026-01-18 23:52:30.98	5.90	49.04	-41.9	-43.3	20.6	0.00e+00	0	41	0	860880896	56	6658
2026-01-18 23:52:31.99	5.55	48.77	-42.0	-43.4	20.5	0.00e+00	0	41	0	862978048	56	6736
2026-01-18 23:52:33.00	5.19	48.50	-43.1	-44.8	19.3	0.00e+00	0	41	0	864026624	58	7020
2026-01-18 23:52:34.01	4.85	48.23	-42.7	-44.2	19.7	0.00e+00	0	41	0	866123776	58	6553
2026-01-18 23:52:35.02	4.51	47.96	-41.5	-42.7	21.6	0.00e+00	0	41	0	868220928	56	6216
2026-01-18 23:52:36.03	4.18	47.69	-40.3	-41.4	22.3	0.00e+00	0	41	0	870318080	54	5965
2026-01-18 23:52:37.04	3.85	47.42	-40.9	-42.0	21.9	0.00e+00	0	41	0	872415232	54	6448
2026-01-18 23:52:38.05	3.53	47.15	-40.5	-41.5	22.0	0.00e+00	0	41	0	873463808	54	6101
2026-01-18 23:52:39.05	3.21	46.89	-39.2	-40.2	23.2	0.00e+00	0	41	0	875560960	52	5832
2026-01-18 23:52:40.06	2.90	46.62	-38.7	-39.5	23.4	0.00e+00	0	41	0	877658112	50	6095
2026-01-18 23:52:41.07	2.60	46.36	-39.7	-40.8	22.6	0.00e+00	0	41	0	879755264	52	6249
2026-01-18 23:52:42.08	2.29	46.09	-41.1	-42.3	21.4	0.00e+00	0	41	0	881852416	54	6679
2026-01-18 23:52:43.08	2.00	45.83	-42.1	-43.5	20.4	0.00e+00	0	41	0	882900992	56	6781
2026-01-18 23:52:44.09	1.71	45.57	-42.3	-43.8	20.1	0.00e+00	0	41	0	884998144	56	7016
2026-01-18 23:52:45.10	1.43	45.31	-42.4	-43.9	19.9	0.00e+00	0	41	0	887095296	58	6343
2026-01-18 23:52:46.11	1.14	45.04	-42.1	-43.5	20.2	0.00e+00	0	41	0	889192448	58	6034
2026-01-18 23:52:47.12	0.87	44.78	-42.0	-43.3	20.4	0.00e+00	0	41	0	891289600	58	5933
2026-01-18 23:52:48.13	0.60	44.52	-42.2	-43.5	20.3	0.00e+00	0	41	0	892338176	58	6084
2026-01-18 23:52:49.14	0.33	44.27	-42.0	-43.3	20.8	0.00e+00	0	41	0	894435328	58	5947
2026-01-18 23:52:50.14	0.07	44.01	-41.8	-43.1	20.7	0.00e+00	0	41	0	896532480	56	6497
2026-01-18 23:52:51.15	359.81	43.76	-40.9	-42.0	21.7	0.00e+00	0	41	0	898629632	56	5723
2026-01-18 23:52:52.16	359.55	43.50	-40.3	-41.3	22.3	0.00e+00	0	41	0	900726784	54	5928
2026-01-18 23:52:53.17	359.30	43.25	-39.9	-40.9	22.6	0.00e+00	0	41	0	901775360	52	6379
2026-01-18 23:52:54.18	359.06	42.99	-39.7	-40.6	22.8	0.00e+00	0	41	0	903872512	52	6170
2026-01-18 23:52:55.19	358.81	42.74	-39.7	-40.7	22.9	0.00e+00	0	41	0	905969664	52	6196
2026-01-18 23:52:56.20	358.57	42.49	-39.3	-40.2	23.0	0.00e+00	0	41	0	908066816	52	5861
2026-01-18 23:52:57.21	358.34	42.24	-40.4	-41.5	22.2	0.00e+00	0	41	0	910163968	52	6793
2026-01-18 23:52:58.22	358.11	41.99	-40.9	-42.0	21.5	0.00e+00	0	41	0	911212544	54	6461
2026-01-18 23:52:59.23	357.88	41.74	-42.7	-44.3	19.7	0.00e+00	0	41	0	913309696	56	7435
2026-01-18 23:53:00.24	357.65	41.50	-43.6	-45.4	18.5	0.00e+00	0	41	0	915406848	58	7551
2026-01-18 23:53:01.25	357.43	41.25	-44.6	-46.7	17.1	0.00e+00	0	41	0	917504000	60	7859
2026-01-18 23:53:02.26	357.22	41.01	-44.4	-46.5	17.6	0.00e+00	0	41	0	919601152	60	7634
2026-01-18 23:53:03.27	357.00	40.77	-44.2	-46.2	17.9	0.00e+00	0	41	0	920649728	60	7349
2026-01-18 23:53:04.28	356.79	40.52	-43.0	-44.6	19.3	0.00e+00	0	41	0	922746880	60	6106
2026-01-18 23:53:05.28	356.58	40.29	-42.5	-44.0	19.9	0.00e+00	0	41	0	924844032	58	6414
2026-01-18 23:53:06.29	356.38	40.05	-41.0	-42.1	21.5	0.00e+00	0	41	0	926941184	56	5782
2026-01-18 23:53:07.30	356.18	39.81	-40.6	-41.7	21.8	0.00e+00	0	41	0	929038336	54	6210
2026-01-18 23:53:08.31	355.98	39.57	-40.6	-41.6	21.7	0.00e+00	0	41	0	930086912	54	6171
2026-01-18 23:53:09.32	355.78	39.34	-40.3	-41.3	22.1	0.00e+00	0	41	0	932184064	54	5951
2026-01-18 23:53:10.33	355.59	39.10	-39.9	-40.8	22.4	0.00e+00	0	41	0	934281216	54	5618
2026-01-18 23:53:11.34	355.40	38.87	-40.2	-41.2	22.4	0.00e+00	0	41	0	936378368	52	6571
2026-01-18 23:53:12.35	355.21	38.64	-40.7	-41.8	21.8	0.00e+00	0	41	0	938475520	54	6264
2026-01-18 23:53:13.36	355.03	38.41	-40.9	-42.0	21.5	0.00e+00	0	41	0	939524096	54	6421
2026-01-18 23:53:14.37	354.84	38.18	-41.5	-42.8	20.8	0.00e+00	0	41	0	941621248	54	7023
2026-01-18 23:53:15.38	354.67	37.95	-42.5	-43.9	18.8	0.00e+00	0	40	0	943718400	56	7160
2026-01-18 23:53:16.39	354.49	37.72	-43.3	-45.0	18.8	0.00e+00	0	41	0	945815552	58	7200
2026-01-18 23:53:17.40	354.31	37.50	-42.7	-44.2	19.6	0.00e+00	0	41	0	947912704	58	6555
2026-01-18 23:53:18.41	354.14	37.27	-42.6	-44.0	19.5	0.00e+00	0	41	0	950009856	58	6459
2026-01-18 23:53:19.42	353.97	37.05	-42.8	-44.3	19.4	0.00e+00	0	41	0	951058432	58	6677
2026-01-18 23:53:20.43	353.80	36.82	-43.4	-45.0	18.9	0.00e+00	0	41	0	953155584	58	7222
2026-01-18 23:53:21.43	353.64	36.61	-42.9	-44.5	19.2	0.00e+00	0	41	0	955252736	58	6822
2026-01-18 23:53:22.44	353.48	36.39	-43.0	-44.6	19.2	0.00e+00	0	41	0	957349888	58	6864
2026-01-18 23:53:23.45	353.32	36.17	-42.6	-44.1	19.6	0.00e+00	0	41	0	959447040	58	6503
2026-01-18 23:53:24.46	353.16	35.95	-42.2	-43.6	20.1	0.00e+00	0	41	0	960495616	58	6154
2026-01-18 23:53:25.47	353.00	35.73	-41.8	-43.1	20.8	0.00e+00	0	41	0	962592768	56	6488
2026-01-18 23:53:26.48	352.85	35.52	-41.8	-43.1	20.7	0.00e+00	0	41	0	964689920	56	6468
2026-01-18 23:53:27.49	352.70	35.31	-41.4	-42.6	20.9	0.00e+00	0	41	0	966787072	56	6153
2026-01-18 23:53:28.50	352.55	35.09	-41.1	-42.3	21.6	0.00e+00	0	41	0	968884224	56	5931
2026-01-18 23:53:29.51	352.40	34.88	-39.9	-41.0	22.4	0.00e+00	0	41	0	969932800	54	5714
2026-01-18 23:53:30.52	352.25	34.67	-39.9	-40.9	22.5	0.00e+00	0	41	0	972029952	54	5672
2026-01-18 23:53:31.52	352.11	34.47	-39.9	-40.9	22.4	0.00e+00	0	41	0	974127104	52	6371
2026-01-18 23:53:32.53	351.97	34.26	-40.9	-42.1	21.2	0.00e+00	0	41	0	976224256	52	7277
2026-01-18 23:53:33.54	351.83	34.05	-42.6	-44.2	19.6	0.00e+00	0	41	0	978321408	56	7352
2026-01-18 23:53:34.55	351.69	33.85	-43.1	-44.8	19.0	0.00e+00	0	41	0	979369984	58	7041
2026-01-18 23:53:35.56	351.55	33.64	-43.8	-45.6	18.3	0.00e+00	0	41	0	981467136	60	6860
2026-01-18 23:53:36.57	351.42	33.44	-42.9	-44.4	19.5	0.00e+00	0	41	0	983564288	60	6006
2026-01-18 23:53:37.58	351.28	33.24	-42.6	-44.0	19.7	0.00e+00	0	41	0	985661440	58	6459
2026-01-18 23:53:38.59	351.15	33.04	-41.9	-43.2	20.5	0.00e+00	0	41	0	987758592	58	5856
2026-01-18 23:53:39.60	351.02	32.84	-42.2	-43.6	20.1	0.00e+00	0	41	0	988807168	58	6127
2026-01-18 23:53:40.61	350.89	32.64	-42.0	-43.4	20.3	0.00e+00	0	41	0	990904320	58	5970
2026-01-18 23:53:41.61	350.77	32.44	-42.0	-43.3	20.0	0.00e+00	0	41	0	993001472	58	5964
2026-01-18 23:53:42.62	350.64	32.25	-41.5	-42.7	21.0	0.00e+00	0	41	0	995098624	56	6206
2026-01-18 23:53:43.63	350.52	32.05	-41.4	-42.6	21.1	0.00e+00	0	41	0	997195776	56	6166
2026-01-18 23:53:44.64	350.40	31.86	-41.3	-42.5	21.0	0.00e+00	0	41	0	998244352	56	6077
2026-01-18 23:53:45.65	350.27	31.66	-41.4	-42.6	21.0	0.00e+00	0	41	0	1000341504	56	6139
2026-01-18 23:53:46.65	350.16	31.47	-41.5	-42.8	20.7	0.00e+00	0	41	0	1002438656	56	6260
2026-01-18 23:53:47.66	350.04	31.28	-41.5	-42.8	20.9	0.00e+00	0	41	0	1004535808	56	6275
2026-01-18 23:53:48.67	349.92	31.09	-41.4	-42.6	21.1	0.00e+00	0	41	0	1006632960	56	6168
2026-01-18 23:53:49.68	349.81	30.91	-40.8	-41.9	21.5	0.00e+00	0	41	0	1007681536	54	6357
2026-01-18 23:53:50.69	349.69	30.72	-40.7	-41.8	21.8	0.00e+00	0	41	0	1009778688	54	6279
2026-01-18 23:53:51.70	349.58	30.53	-40.4	-41.5	21.9	0.00e+00	0	41	0	1011875840	54	6067
2026-01-18 23:53:52.71	349.47	30.35	-40.9	-42.0	21.4	0.00e+00	0	41	0	1013972992	54	6455
2026-01-18 23:53:53.72	349.36	30.16	-41.4	-42.6	21.0	0.00e+00	0	41	0	1016070144	54	6913
2026-01-18 23:53:54.73	349.25	29.98	-42.0	-43.3	20.3	0.00e+00	0	41	0	1018167296	56	6689
2026-01-18 23:53:55.74	349.14	29.80	-43.2	-44.8	18.7	0.00e+00	0	41	0	1019215872	58	7063
2026-01-18 23:53:56.75	349.04	29.62	-44.1	-46.0	17.6	0.00e+00	0	41	0	1021313024	58	8109
2026-01-18 23:53:57.76	348.93	29.44	-44.4	-46.5	17.6	0.00e+00	0	41	0	1023410176	60	7658
2026-01-18 23:53:58.77	348.83	29.26	-43.9	-45.8	18.1	0.00e+00	0	41	0	1025507328	60	7046
2026-01-18 23:53:59.77	348.73	29.08	-43.3	-44.9	19.0	0.00e+00	0	41	0	1027604480	60	6390
2026-01-18 23:54:00.78	348.63	28.91	-43.1	-44.7	19.2	0.00e+00	0	41	0	1028653056	60	6227
2026-01-18 23:54:01.79	348.53	28.73	-42.9	-44.4	19.5	0.00e+00	0	41	0	1030750208	60	6020
2026-01-18 23:54:02.80	348.43	28.56	-42.9	-44.4	19.4	0.00e+00	0	41	0	1032847360	60	6001
2026-01-18 23:54:03.81	348.33	28.38	-43.0	-44.6	19.3	0.00e+00	0	41	0	1034944512	60	6114
2026-01-18 23:54:04.82	348.23	28.21	-43.3	-45.0	19.1	0.00e+00	0	41	0	1037041664	60	6463
2026-01-18 23:54:05.83	348.14	28.04	-43.0	-44.6	19.3	0.00e+00	0	41	0	1038090240	60	6111
2026-01-18 23:54:06.84	348.04	27.87	-42.9	-44.4	19.3	0.00e+00	0	41	0	1040187392	60	6032
2026-01-18 23:54:07.85	347.95	27.70	-43.1	-44.7	19.1	0.00e+00	0	41	0	1042284544	60	6203
2026-01-18 23:54:08.86	347.86	27.53	-42.5	-44.0	19.9	0.00e+00	0	41	0	1044381696	58	6392
2026-01-18 23:54:09.87	347.77	27.36	-42.1	-43.5	20.3	0.00e+00	0	41	0	1046478848	58	6053
2026-01-18 23:54:10.88	347.68	27.19	-41.9	-43.2	20.7	0.00e+00	0	41	0	1047527424	56	6581
2026-01-18 23:54:11.89	347.59	27.03	-41.7	-43.0	20.4	0.00e+00	0	41	0	1049624576	56	6434
2026-01-18 23:54:12.90	347.50	26.86	-41.4	-42.6	20.7	0.00e+00	0	41	0	1051721728	56	6122
2026-01-18 23:54:13.91	347.41	26.70	-41.6	-42.9	20.9	0.00e+00	0	41	0	1053818880	56	6326
2026-01-18 23:54:14.92	347.32	26.53	-41.6	-42.9	20.6	0.00e+00	0	41	0	1055916032	56	6367
2026-01-18 23:54:15.93	347.24	26.37	-41.2	-42.4	20.9	0.00e+00	0	41	0	1056964608	56	6007
2026-01-18 23:54:16.93	347.15	26.21	-41.5	-42.7	20.8	0.00e+00	0	41	0	1059061760	56	6227
2026-01-18 23:54:17.94	347.07	26.05	-41.6	-42.8	20.7	0.00e+00	0	41	0	1061158912	56	6307
2026-01-18 23:54:18.95	346.99	25.89	-42.0	-43.3	20.3	0.00e+00	0	41	0	1063256064	56	6675
2026-01-18 23:54:19.96	346.91	25.73	-42.1	-43.5	20.2	0.00e+00	0	41	0	1065353216	56	6824
2026-01-18 23:54:20.97	346.82	25.57	-42.0	-43.3	20.0	0.00e+00	0	41	0	1066401792	56	6688
2026-01-18 23:54:21.97	346.74	25.42	-42.4	-43.9	19.8	0.00e+00	0	41	0	1068498944	56	7112
2026-01-18 23:54:22.98	346.66	25.26	-42.5	-44.0	19.4	0.00e+00	0	41	0	1070596096	56	7229
2026-01-18 23:54:23.99	346.59	25.11	-42.5	-43.9	19.7	0.00e+00	0	41	0	1072693248	58	6375
2026-01-18 23:54:25.00	346.51	24.95	-42.4	-43.8	19.9	0.00e+00	0	41	0	1074790400	58	6309
2026-01-18 23:54:26.01	346.43	24.80	-42.2	-43.5	20.1	0.00e+00	0	41	0	1075838976	58	6097
2026-01-18 23:54:27.02	346.35	24.64	-41.7	-43.0	20.6	0.00e+00	0	41	0	1077936128	56	6439
2026-01-18 23:54:28.03	346.28	24.49	-41.4	-42.6	21.2	0.00e+00	0	41	0	1080033280	56	6137
2026-01-18 23:54:29.04	346.20	24.34	-40.9	-42.0	21.3	0.00e+00	0	41	0	1082130432	56	5745
2026-01-18 23:54:30.04	346.13	24.19	-40.5	-41.6	21.7	0.00e+00	0	41	0	1084227584	54	6154
2026-01-18 23:54:31.05	346.06	24.04	-40.3	-41.4	21.8	0.00e+00	0	41	0	1085276160	54	6016
2026-01-18 23:54:32.06	345.98	23.89	-40.3	-41.3	22.0	0.00e+00	0	41	0	1087373312	54	5943
2026-01-18 23:54:33.07	345.91	23.75	-40.3	-41.4	21.9	0.00e+00	0	41	0	1089470464	54	5997
2026-01-18 23:54:34.08	345.84	23.60	-40.8	-42.0	21.4	0.00e+00	0	41	0	1091567616	54	6420
2026-01-18 23:54:35.09	345.77	23.45	-40.7	-41.8	21.4	0.00e+00	0	41	0	1093664768	54	6287
2026-01-18 23:54:36.10	345.70	23.31	-40.7	-41.9	21.3	0.00e+00	0	41	0	1094713344	54	6332
2026-01-18 23:54:37.11	345.63	23.16	-41.2	-42.4	21.0	0.00e+00	0	41	0	1096810496	54	6763
2026-01-18 23:54:38.12	345.56	23.02	-41.1	-42.3	21.1	0.00e+00	0	41	0	1098907648	54	6636
2026-01-18 23:54:39.13	345.49	22.87	-40.9	-42.1	21.3	0.00e+00	0	41	0	1101004800	54	6480
2026-01-18 23:54:40.14	345.43	22.73	-41.2	-42.4	21.0	0.00e+00	0	41	0	1103101952	54	6728
2026-01-18 23:54:41.15	345.36	22.59	-40.6	-41.8	21.4	0.00e+00	0	41	0	1104150528	54	6254
2026-01-18 23:54:42.16	345.29	22.45	-40.8	-42.0	21.2	0.00e+00	0	41	0	1106247680	54	6411
2026-01-18 23:54:43.16	345.23	22.31	-40.6	-41.7	21.5	0.00e+00	0	41	0	1108344832	54	6236
2026-01-18 23:54:44.17	345.17	22.17	-40.5	-41.7	21.6	0.00e+00	0	41	0	1110441984	54	6198
2026-01-18 23:54:45.18	345.10	22.03	-40.4	-41.6	21.8	0.00e+00	0	41	0	1112539136	54	6109
2026-01-18 23:54:46.19	345.04	21.89	-40.4	-41.5	21.7	0.00e+00	0	41	0	1114636288	54	6085
2026-01-18 23:54:47.20	344.97	21.75	-40.4	-41.6	21.7	0.00e+00	0	41	0	1115684864	54	6117
2026-01-18 23:54:48.21	344.91	21.62	-40.6	-41.8	21.4	0.00e+00	0	41	0	1117782016	54	6295
2026-01-18 23:54:49.22	344.85	21.48	-40.7	-41.9	21.3	0.00e+00	0	41	0	1119879168	54	6363
2026-01-18 23:54:50.23	344.79	21.35	-40.5	-41.7	21.3	0.00e+00	0	41	0	1121976320	54	6206
2026-01-18 23:54:51.24	344.73	21.21	-41.1	-42.3	21.0	0.00e+00	0	41	0	1124073472	54	6672
2026-01-18 23:54:52.25	344.67	21.08	-41.4	-42.7	20.6	0.00e+00	0	41	0	1125122048	54	6979
2026-01-18 23:54:53.26	344.61	20.94	-41.4	-42.7	20.7	0.00e+00	0	41	0	1127219200	54	6954
2026-01-18 23:54:54.27	344.55	20.81	-41.3	-42.6	20.7	0.00e+00	0	41	0	1129316352	54	6881
2026-01-18 23:54:55.28	344.49	20.68	-41.4	-42.7	20.7	0.00e+00	0	41	0	1131413504	54	6968
2026-01-18 23:54:56.29	344.43	20.55	-41.1	-42.3	21.0	0.00e+00	0	41	0	1133510656	54	6659
2026-01-18 23:54:57.30	344.38	20.42	-41.1	-42.3	21.0	0.00e+00	0	41	0	1134559232	54	6671
2026-01-18 23:54:58.31	344.32	20.29	-41.1	-42.3	20.9	0.00e+00	0	41	0	1136656384	54	6678
2026-01-18 23:54:59.32	344.26	20.16	-41.2	-42.5	20.8	0.00e+00	0	41	0	1138753536	54	6794
2026-01-18 23:55:00.33	344.21	20.03	-40.8	-42.0	21.3	0.00e+00	0	41	0	1140850688	54	6394
2026-01-18 23:55:01.34	344.15	19.90	-40.7	-41.9	21.3	0.00e+00	0	41	0	1142947840	54	6352
2026-01-18 23:55:02.35	344.10	19.77	-40.7	-41.8	21.4	0.00e+00	0	41	0	1143996416	54	6297
2026-01-18 23:55:03.36	344.04	19.64	-40.4	-41.6	21.6	0.00e+00	0	41	0	1146093568	54	6107
2026-01-18 23:55:04.37	343.99	19.52	-40.6	-41.8	21.4	0.00e+00	0	41	0	1148190720	54	6265
2026-01-18 23:55:05.38	343.94	19.39	-40.5	-41.6	21.6	0.00e+00	0	41	0	1150287872	54	6130
2026-01-18 23:55:06.39	343.88	19.27	-40.5	-41.6	21.6	0.00e+00	0	41	0	1152385024	54	6161
2026-01-18 23:55:07.39	343.83	19.14	-40.3	-41.4	21.6	0.00e+00	0	41	0	1153433600	54	6012
2026-01-18 23:55:08.40	343.78	19.02	-40.4	-41.5	21.7	0.00e+00	0	41	0	1155530752	54	6076
2026-01-18 23:55:09.41	343.73	18.90	-40.6	-41.7	21.4	0.00e+00	0	41	0	1157627904	54	6224
2026-01-18 23:55:10.43	343.68	18.77	-40.3	-41.3	21.8	0.00e+00	0	41	0	1159725056	54	5963
2026-01-18 23:55:11.44	343.63	18.65	-40.3	-41.4	21.7	0.00e+00	0	41	0	1161822208	54	6025
2026-01-18 23:55:12.44	343.58	18.53	-40.3	-41.4	21.7	0.00e+00	0	41	0	1162870784	54	5966
2026-01-18 23:55:13.45	343.53	18.41	-40.3	-41.4	21.7	0.00e+00	0	41	0	1164967936	54	6005
2026-01-18 23:55:14.46	343.48	18.29	-40.2	-41.3	21.8	0.00e+00	0	41	0	1167065088	54	5928
2026-01-18 23:55:15.47	343.43	18.17	-40.1	-41.2	21.9	0.00e+00	0	41	0	1169162240	54	5880
