passes_logs/2026/01/18/R4.6S_Anadyr/R4.6S_Anadyr__20260118_202635_SUOMI_NPP_rec.log

#Pass ID: 20260118_202635_SUOMI NPP
#Satellite: SUOMI NPP
#Configuration: NPP
#almurnet v.1.7.20251203
#Start time: 2026-01-18 20:26:37

#Version: 2.2.20231116
#Station: R4.6S_Anadyr
#Location: 177.4865 lon 64.73178 lat
#TLE: 1 37849U 11061A   26017.92342359  .00000077  00000+0  57567-4 0  9990
#TLE: 2 37849  98.7814 319.9468 0002389  58.5705 301.5704 14.19525998737125

#Time	Az	El	Level	Level2	SNR	BER	BlckErr	Temp	State	Recorded	gain1	gain2
2026-01-18 20:26:37.35	68.76	0.07	-49.7	-61.3	3.5	8.45e-01	0	38	0	0	60	42054
2026-01-18 20:26:38.36	68.69	0.12	-49.6	-64.8	3.6	1.51e+00	0	39	104	0	60	63043
2026-01-18 20:26:39.37	68.62	0.17	-49.5	-64.8	3.5	1.51e+00	0	39	104	0	60	62705
2026-01-18 20:26:40.38	68.54	0.22	-49.6	-64.8	3.6	1.51e+00	0	39	104	0	60	62962
2026-01-18 20:26:41.39	68.47	0.27	-49.6	-64.8	3.6	1.51e+00	0	39	104	0	60	62906
2026-01-18 20:26:42.40	68.39	0.32	-49.6	-64.9	3.6	1.51e+00	0	39	104	0	60	63371
2026-01-18 20:26:43.41	68.32	0.37	-49.6	-64.8	3.6	1.51e+00	0	39	104	0	60	62862
2026-01-18 20:26:44.42	68.24	0.42	-49.6	-64.8	3.6	1.51e+00	0	39	104	0	60	62918
2026-01-18 20:26:45.42	68.17	0.47	-49.5	-64.8	3.6	1.51e+00	0	39	104	0	60	63082
2026-01-18 20:26:46.43	68.09	0.52	-49.6	-64.8	3.6	1.51e+00	0	39	104	0	60	63004
2026-01-18 20:26:47.44	68.02	0.57	-49.6	-64.8	3.6	1.51e+00	0	39	104	0	60	63094
2026-01-18 20:26:48.45	67.94	0.62	-49.6	-64.8	3.6	1.51e+00	0	39	104	0	60	62869
2026-01-18 20:26:49.46	67.87	0.67	-49.6	-64.8	3.6	1.51e+00	0	39	104	0	60	62906
2026-01-18 20:26:50.47	67.79	0.73	-49.5	-64.8	3.6	1.51e+00	0	39	104	0	60	62809
2026-01-18 20:26:51.48	67.71	0.78	-49.5	-64.8	3.6	1.51e+00	0	39	104	0	60	62975
2026-01-18 20:26:52.49	67.64	0.83	-49.5	-64.8	3.6	1.51e+00	0	39	104	0	60	62668
2026-01-18 20:26:53.50	67.56	0.88	-49.5	-64.7	3.6	1.51e+00	0	39	104	0	60	62392
2026-01-18 20:26:54.51	67.48	0.93	-49.5	-64.8	3.6	1.51e+00	0	39	104	0	60	62487
2026-01-18 20:26:55.52	67.40	0.98	-49.3	-64.6	3.6	1.51e+00	0	39	104	0	60	61320
2026-01-18 20:26:56.53	67.32	1.03	-49.1	-64.5	3.6	1.51e+00	0	39	104	0	60	60937
2026-01-18 20:26:57.54	67.25	1.08	-49.1	-64.4	3.6	1.51e+00	0	39	104	0	60	60048
2026-01-18 20:26:58.55	67.17	1.13	-49.1	-64.4	3.6	1.51e+00	0	39	104	0	60	59841
2026-01-18 20:26:59.56	67.09	1.18	-48.9	-64.2	3.6	1.51e+00	0	39	104	0	60	58753
2026-01-18 20:27:00.57	67.01	1.23	-48.7	-64.0	3.6	1.51e+00	0	39	104	0	60	57139
2026-01-18 20:27:01.58	66.93	1.28	-48.4	-63.6	3.6	1.51e+00	0	39	104	0	60	54471
2026-01-18 20:27:02.59	66.85	1.33	-47.8	-63.0	3.6	1.51e+00	0	39	104	0	60	50789
2026-01-18 20:27:03.60	66.77	1.38	-47.7	-62.9	3.5	1.51e+00	0	39	104	0	60	50241
2026-01-18 20:27:04.61	66.69	1.44	-47.7	-62.9	3.6	1.51e+00	0	40	104	0	60	50437
2026-01-18 20:27:05.62	66.61	1.49	-47.7	-62.9	3.6	1.51e+00	0	39	104	0	60	50531
2026-01-18 20:27:06.62	66.53	1.54	-47.7	-62.9	3.6	1.51e+00	0	40	104	0	60	50615
2026-01-18 20:27:07.63	66.45	1.59	-47.7	-62.8	3.6	1.51e+00	0	40	104	0	60	50019
2026-01-18 20:27:08.64	66.36	1.64	-47.7	-62.8	3.6	1.51e+00	0	40	104	0	60	50180
2026-01-18 20:27:09.65	66.28	1.69	-47.7	-62.9	3.6	1.51e+00	0	40	104	0	60	50207
2026-01-18 20:27:10.66	66.20	1.74	-47.7	-62.9	3.6	1.51e+00	0	40	104	0	60	50416
2026-01-18 20:27:11.67	66.12	1.79	-47.7	-62.9	3.6	1.51e+00	0	40	104	0	60	50390
2026-01-18 20:27:12.68	66.04	1.84	-47.7	-62.8	3.6	1.51e+00	0	40	104	0	60	50169
2026-01-18 20:27:13.69	65.95	1.89	-47.7	-62.9	3.6	1.51e+00	0	40	104	0	60	50451
2026-01-18 20:27:14.70	65.87	1.95	-47.7	-62.8	3.5	1.51e+00	0	40	104	0	60	49952
2026-01-18 20:27:15.71	65.79	2.00	-47.7	-62.8	3.6	1.51e+00	0	40	104	0	60	50047
2026-01-18 20:27:16.72	65.70	2.05	-47.7	-62.6	3.6	1.51e+00	0	40	104	0	60	48842
2026-01-18 20:27:17.72	65.62	2.10	-47.7	-62.4	3.6	1.51e+00	0	40	104	0	60	47783
2026-01-18 20:27:18.73	65.53	2.15	-47.7	-62.5	3.6	1.51e+00	0	40	104	0	60	47941
2026-01-18 20:27:19.74	65.45	2.20	-47.7	-62.5	3.6	1.51e+00	0	40	104	0	60	48089
2026-01-18 20:27:20.75	65.36	2.25	-47.7	-62.7	3.6	1.51e+00	0	40	104	0	60	49226
2026-01-18 20:27:21.76	65.28	2.31	-47.7	-62.8	3.6	1.51e+00	0	40	104	0	60	50013
2026-01-18 20:27:22.78	65.19	2.36	-47.7	-62.9	3.6	1.51e+00	0	40	104	0	60	50337
2026-01-18 20:27:23.78	65.11	2.41	-47.7	-62.8	3.6	1.51e+00	0	40	104	0	60	49651
2026-01-18 20:27:24.79	65.02	2.46	-47.7	-62.5	3.6	1.51e+00	0	40	104	0	60	48330
2026-01-18 20:27:25.80	64.93	2.51	-47.7	-62.7	3.5	1.51e+00	0	40	104	0	60	49113
2026-01-18 20:27:26.81	64.85	2.56	-47.7	-62.8	3.6	1.51e+00	0	40	104	0	60	49703
2026-01-18 20:27:27.82	64.76	2.62	-47.7	-62.6	3.6	1.51e+00	0	40	104	0	60	48857
2026-01-18 20:27:28.83	64.67	2.67	-47.7	-62.0	3.6	1.51e+00	0	40	104	0	60	45336
2026-01-18 20:27:29.84	64.58	2.72	-47.6	-61.4	3.6	1.51e+00	0	40	104	0	60	42539
2026-01-18 20:27:30.85	64.49	2.77	-47.6	-60.7	3.7	1.50e+00	0	40	104	0	60	39305
2026-01-18 20:27:31.86	64.41	2.82	-47.6	-61.4	3.6	1.50e+00	0	40	104	0	60	42635
2026-01-18 20:27:32.87	64.32	2.88	-47.7	-62.1	3.6	1.51e+00	0	40	104	0	60	46298
2026-01-18 20:27:33.88	64.23	2.93	-47.6	-60.7	3.7	1.51e+00	0	40	104	0	60	39242
2026-01-18 20:27:34.89	64.14	2.98	-47.3	-57.4	5.2	1.50e+00	0	40	104	0	60	26643
2026-01-18 20:27:35.90	64.05	3.03	-46.7	-53.1	8.1	1.25e-01	92	40	0	0	60	16408
2026-01-18 20:27:36.91	63.96	3.08	-48.0	-62.2	3.6	9.03e-02	0	40	104	2097152	60	46752
2026-01-18 20:27:37.92	63.87	3.14	-47.9	-62.1	3.6	1.51e+00	0	40	104	2097152	60	45981
2026-01-18 20:27:38.92	63.78	3.19	-45.7	-50.3	11.4	1.16e+00	92	40	104	2097152	60	11790
2026-01-18 20:27:39.93	63.69	3.24	-42.9	-45.0	17.0	8.55e-04	0	40	0	2097152	60	6399
2026-01-18 20:27:40.94	63.59	3.29	-47.5	-59.6	3.6	0.00e+00	40	40	0	4194304	60	34635
2026-01-18 20:27:41.95	63.50	3.34	-45.8	-50.4	11.9	1.50e+00	0	40	104	4194304	60	12036
2026-01-18 20:27:42.96	63.41	3.40	-43.5	-45.9	16.2	0.00e+00	92	40	0	5242880	60	7089
2026-01-18 20:27:43.97	63.32	3.45	-43.4	-45.7	16.3	0.00e+00	9	40	0	7340032	60	6971
2026-01-18 20:27:44.98	63.22	3.50	-43.0	-45.1	17.1	0.00e+00	92	40	0	9437184	60	6465
2026-01-18 20:27:45.99	63.13	3.55	-43.3	-45.5	16.4	0.00e+00	92	40	0	11534336	60	6822
2026-01-18 20:27:47.00	63.04	3.61	-43.2	-45.3	16.8	0.00e+00	0	40	0	12582912	60	6681
2026-01-18 20:27:48.01	62.94	3.66	-43.1	-45.3	16.7	0.00e+00	92	40	0	14680064	60	6676
2026-01-18 20:27:49.02	62.85	3.71	-43.2	-45.5	16.6	0.00e+00	0	40	0	16777216	60	6804
2026-01-18 20:27:50.02	62.75	3.76	-43.2	-45.4	16.9	0.00e+00	92	40	0	18874368	60	6745
2026-01-18 20:27:51.03	62.66	3.81	-43.0	-45.2	16.8	0.00e+00	0	40	0	20971520	60	6546
2026-01-18 20:27:52.04	62.56	3.87	-43.4	-45.6	16.7	0.00e+00	92	40	0	22020096	60	6905
2026-01-18 20:27:53.05	62.47	3.92	-43.2	-45.4	16.6	0.00e+00	61	40	0	24117248	60	6762
2026-01-18 20:27:54.06	62.37	3.97	-43.0	-45.1	17.0	0.00e+00	0	40	0	26214400	60	6528
2026-01-18 20:27:55.07	62.28	4.03	-43.2	-45.4	16.7	0.00e+00	90	40	0	28311552	60	6729
2026-01-18 20:27:56.08	62.18	4.08	-43.4	-45.7	16.5	0.00e+00	0	40	0	30408704	60	6929
2026-01-18 20:27:57.09	62.08	4.13	-43.4	-45.6	16.5	0.00e+00	92	40	0	31457280	60	6919
2026-01-18 20:27:58.10	61.98	4.18	-43.5	-45.8	16.3	0.00e+00	0	40	0	33554432	60	7018
2026-01-18 20:27:59.11	61.89	4.24	-43.4	-45.7	16.5	0.00e+00	92	40	0	35651584	60	6955
2026-01-18 20:28:00.12	61.79	4.29	-43.2	-45.4	16.8	0.00e+00	36	40	0	37748736	60	6762
2026-01-18 20:28:01.13	61.69	4.34	-43.3	-45.6	16.7	0.00e+00	0	40	0	39845888	60	6897
2026-01-18 20:28:02.13	61.59	4.39	-43.1	-45.2	16.9	0.00e+00	87	40	0	40894464	60	6600
2026-01-18 20:28:03.14	61.49	4.45	-43.3	-45.6	16.7	0.00e+00	0	40	0	42991616	60	6859
2026-01-18 20:28:04.15	61.39	4.50	-43.2	-45.4	16.9	0.00e+00	90	40	0	45088768	60	6695
2026-01-18 20:28:05.16	61.29	4.55	-43.2	-45.3	16.8	0.00e+00	9	40	0	47185920	60	6686
2026-01-18 20:28:06.17	61.19	4.60	-43.2	-45.3	17.1	0.00e+00	92	40	0	49283072	60	6686
2026-01-18 20:28:07.18	61.09	4.66	-43.0	-45.1	17.2	0.00e+00	80	40	0	51380224	60	6487
2026-01-18 20:28:08.18	60.99	4.71	-43.2	-45.2	17.1	0.00e+00	0	40	0	52428800	60	6612
2026-01-18 20:28:09.19	60.89	4.76	-43.1	-45.1	17.2	0.00e+00	90	40	0	54525952	60	6510
2026-01-18 20:28:10.20	60.79	4.82	-42.8	-44.7	17.5	0.00e+00	0	40	0	56623104	60	6204
2026-01-18 20:28:11.21	60.68	4.87	-42.9	-44.8	17.5	0.00e+00	92	40	0	58720256	58	7073
2026-01-18 20:28:12.22	60.58	4.92	-42.9	-44.8	17.5	0.00e+00	0	40	0	60817408	58	7062
2026-01-18 20:28:13.23	60.48	4.97	-42.9	-44.9	17.4	0.00e+00	91	40	0	61865984	58	7133
2026-01-18 20:28:14.24	60.37	5.03	-42.9	-44.9	17.4	0.00e+00	30	40	0	63963136	58	7098
2026-01-18 20:28:15.25	60.27	5.08	-42.8	-44.7	17.6	0.00e+00	10	40	0	66060288	58	6996
2026-01-18 20:28:16.26	60.17	5.13	-42.8	-44.8	17.5	0.00e+00	92	40	0	68157440	58	7039
2026-01-18 20:28:17.27	60.06	5.19	-42.9	-44.9	17.3	0.00e+00	0	40	0	70254592	58	7164
2026-01-18 20:28:18.27	59.96	5.24	-42.8	-44.8	17.4	0.00e+00	66	40	0	71303168	58	7057
2026-01-18 20:28:19.28	59.85	5.29	-42.6	-44.6	17.7	0.00e+00	0	40	0	73400320	58	6861
2026-01-18 20:28:20.29	59.75	5.35	-42.4	-44.3	18.0	0.00e+00	90	40	0	75497472	58	6650
2026-01-18 20:28:21.30	59.64	5.40	-42.7	-44.6	17.8	0.00e+00	0	40	0	77594624	58	6887
2026-01-18 20:28:22.31	59.53	5.45	-42.6	-44.5	17.8	0.00e+00	3	40	0	79691776	58	6826
2026-01-18 20:28:23.32	59.43	5.50	-42.5	-44.4	18.0	0.00e+00	92	40	0	80740352	58	6713
2026-01-18 20:28:24.33	59.32	5.56	-42.8	-44.7	17.7	0.00e+00	0	40	0	82837504	58	6995
2026-01-18 20:28:25.34	59.21	5.61	-42.6	-44.5	17.8	0.00e+00	68	40	0	84934656	58	6832
2026-01-18 20:28:26.35	59.10	5.66	-42.7	-44.7	17.7	0.00e+00	0	40	0	87031808	58	6930
2026-01-18 20:28:27.35	58.99	5.72	-42.7	-44.7	17.7	0.00e+00	59	40	0	89128960	58	6932
2026-01-18 20:28:28.36	58.89	5.77	-42.6	-44.4	17.9	0.00e+00	7	40	0	90177536	58	6761
2026-01-18 20:28:29.37	58.78	5.82	-42.6	-44.6	17.8	0.00e+00	73	40	0	92274688	58	6849
2026-01-18 20:28:30.38	58.67	5.88	-42.6	-44.5	17.7	0.00e+00	71	40	0	94371840	58	6805
2026-01-18 20:28:31.39	58.56	5.93	-42.6	-44.5	17.9	0.00e+00	0	40	0	96468992	58	6783
2026-01-18 20:28:32.40	58.45	5.98	-42.6	-44.5	18.0	0.00e+00	73	40	0	98566144	58	6790
2026-01-18 20:28:33.41	58.33	6.04	-42.4	-44.2	18.2	0.00e+00	0	40	0	99614720	58	6552
2026-01-18 20:28:34.42	58.22	6.09	-42.8	-44.7	17.7	0.00e+00	92	40	0	101711872	58	6984
2026-01-18 20:28:35.42	58.11	6.14	-42.9	-44.8	17.6	0.00e+00	0	40	0	103809024	58	7067
2026-01-18 20:28:36.43	58.00	6.20	-42.8	-44.7	17.7	0.00e+00	92	40	0	105906176	58	6982
2026-01-18 20:28:37.44	57.89	6.25	-42.6	-44.5	17.9	0.00e+00	92	40	0	108003328	58	6802
2026-01-18 20:28:38.45	57.77	6.30	-42.7	-44.5	18.0	0.00e+00	0	40	0	109051904	58	6822
2026-01-18 20:28:39.46	57.66	6.36	-42.6	-44.4	18.0	0.00e+00	92	40	0	111149056	58	6754
2026-01-18 20:28:40.47	57.55	6.41	-42.5	-44.3	18.1	0.00e+00	0	40	0	113246208	58	6638
2026-01-18 20:28:41.48	57.43	6.46	-42.0	-43.7	18.8	0.00e+00	92	40	0	115343360	58	6175
2026-01-18 20:28:42.49	57.32	6.52	-42.1	-43.7	18.6	0.00e+00	0	40	0	117440512	58	6236
2026-01-18 20:28:43.50	57.20	6.57	-42.2	-43.9	18.6	0.00e+00	92	40	0	118489088	58	6359
2026-01-18 20:28:44.51	57.08	6.62	-41.9	-43.4	19.0	0.00e+00	0	40	0	120586240	58	6022
2026-01-18 20:28:45.51	56.97	6.67	-41.9	-43.5	18.8	0.00e+00	0	40	0	122683392	58	6084
2026-01-18 20:28:46.53	56.85	6.73	-41.8	-43.4	19.1	0.00e+00	92	40	0	124780544	56	6701
2026-01-18 20:28:47.54	56.73	6.78	-41.6	-43.1	19.3	0.00e+00	0	40	0	126877696	56	6539
2026-01-18 20:28:48.55	56.62	6.83	-41.7	-43.2	19.3	0.00e+00	92	40	0	127926272	56	6601
2026-01-18 20:28:49.56	56.50	6.89	-41.8	-43.3	19.3	0.00e+00	0	40	0	130023424	56	6639
2026-01-18 20:28:50.57	56.38	6.94	-41.5	-42.9	19.6	0.00e+00	92	40	0	132120576	56	6358
2026-01-18 20:28:51.58	56.26	6.99	-41.4	-42.8	19.6	0.00e+00	0	40	0	134217728	56	6312
2026-01-18 20:28:52.58	56.14	7.05	-41.5	-42.9	19.5	0.00e+00	0	40	0	136314880	56	6349
2026-01-18 20:28:53.59	56.02	7.10	-41.6	-43.1	19.4	0.00e+00	92	40	0	137363456	56	6475
2026-01-18 20:28:54.60	55.90	7.15	-41.6	-43.1	19.4	0.00e+00	0	40	0	139460608	56	6476
2026-01-18 20:28:55.61	55.78	7.21	-41.5	-43.0	19.5	0.00e+00	92	40	0	141557760	56	6392
2026-01-18 20:28:56.62	55.66	7.26	-41.4	-42.9	19.6	0.00e+00	0	40	0	143654912	56	6340
2026-01-18 20:28:57.63	55.54	7.31	-41.7	-43.2	19.3	0.00e+00	92	40	0	145752064	56	6587
2026-01-18 20:28:58.64	55.42	7.37	-41.8	-43.3	19.0	0.00e+00	0	40	0	147849216	56	6671
2026-01-18 20:28:59.65	55.29	7.42	-41.5	-42.9	19.2	0.00e+00	24	40	0	148897792	56	6379
2026-01-18 20:29:00.66	55.17	7.47	-41.6	-43.1	19.4	0.00e+00	92	40	0	150994944	56	6531
2026-01-18 20:29:01.67	55.05	7.53	-41.6	-43.1	19.3	0.00e+00	0	40	0	153092096	56	6532
2026-01-18 20:29:02.68	54.92	7.58	-41.5	-43.0	19.6	0.00e+00	92	40	0	155189248	56	6398
2026-01-18 20:29:03.69	54.80	7.63	-41.7	-43.2	19.4	0.00e+00	0	40	0	157286400	56	6544
2026-01-18 20:29:04.69	54.68	7.68	-41.7	-43.2	19.3	0.00e+00	90	40	0	158334976	56	6596
2026-01-18 20:29:05.70	54.55	7.74	-41.6	-43.1	19.4	0.00e+00	0	40	0	160432128	56	6511
2026-01-18 20:29:06.71	54.43	7.79	-41.9	-43.5	19.2	0.00e+00	49	40	0	162529280	56	6785
2026-01-18 20:29:07.72	54.30	7.84	-42.0	-43.5	19.1	0.00e+00	16	40	0	164626432	56	6832
2026-01-18 20:29:08.73	54.17	7.90	-41.9	-43.5	19.1	0.00e+00	0	40	0	166723584	56	6811
2026-01-18 20:29:09.74	54.05	7.95	-41.8	-43.4	19.3	0.00e+00	90	40	0	167772160	56	6703
2026-01-18 20:29:10.75	53.92	8.00	-42.0	-43.6	19.0	0.00e+00	0	40	0	169869312	56	6859
2026-01-18 20:29:11.75	53.79	8.06	-41.8	-43.4	19.3	0.00e+00	62	40	0	171966464	56	6694
2026-01-18 20:29:12.77	53.66	8.11	-41.8	-43.3	19.4	0.00e+00	0	40	0	174063616	56	6641
2026-01-18 20:29:13.77	53.53	8.16	-41.7	-43.2	19.4	0.00e+00	90	40	0	176160768	56	6570
2026-01-18 20:29:14.78	53.40	8.21	-41.8	-43.3	19.3	0.00e+00	7	40	0	177209344	56	6633
2026-01-18 20:29:15.79	53.27	8.27	-41.7	-43.3	19.3	0.00e+00	0	40	0	179306496	56	6622
2026-01-18 20:29:16.80	53.14	8.32	-41.7	-43.2	19.3	0.00e+00	27	40	0	181403648	56	6601
2026-01-18 20:29:17.81	53.01	8.37	-41.9	-43.4	19.2	0.00e+00	0	40	0	183500800	56	6758
2026-01-18 20:29:18.82	52.88	8.43	-42.0	-43.5	19.2	0.00e+00	87	40	0	185597952	56	6841
2026-01-18 20:29:19.83	52.75	8.48	-41.8	-43.3	19.2	0.00e+00	0	40	0	186646528	56	6656
2026-01-18 20:29:20.84	52.62	8.53	-41.6	-43.1	19.5	0.00e+00	82	40	0	188743680	56	6477
2026-01-18 20:29:21.85	52.48	8.58	-41.6	-43.0	19.7	0.00e+00	7	40	0	190840832	56	6429
2026-01-18 20:29:22.86	52.35	8.64	-41.5	-42.9	19.8	0.00e+00	0	40	0	192937984	56	6357
2026-01-18 20:29:23.86	52.22	8.69	-41.5	-42.9	19.7	0.00e+00	92	40	0	195035136	56	6342
2026-01-18 20:29:24.87	52.08	8.74	-41.5	-43.0	19.7	0.00e+00	0	40	0	196083712	56	6408
2026-01-18 20:29:25.88	51.95	8.79	-41.7	-43.1	19.6	0.00e+00	92	40	0	198180864	56	6525
2026-01-18 20:29:26.89	51.81	8.85	-41.6	-43.1	19.5	0.00e+00	0	40	0	200278016	56	6482
2026-01-18 20:29:27.90	51.68	8.90	-41.7	-43.3	19.4	0.00e+00	66	40	0	202375168	56	6618
2026-01-18 20:29:28.91	51.54	8.95	-41.6	-43.0	19.6	0.00e+00	0	40	0	204472320	56	6444
2026-01-18 20:29:29.92	51.40	9.00	-41.3	-42.7	19.9	0.00e+00	0	40	0	205520896	56	6221
2026-01-18 20:29:30.93	51.27	9.05	-41.3	-42.7	19.9	0.00e+00	92	40	0	207618048	56	6186
2026-01-18 20:29:31.94	51.13	9.11	-41.3	-42.6	20.0	0.00e+00	0	40	0	209715200	56	6150
2026-01-18 20:29:32.95	50.99	9.16	-41.4	-42.8	19.9	0.00e+00	17	40	0	211812352	56	6279
2026-01-18 20:29:33.96	50.85	9.21	-41.5	-43.0	19.7	0.00e+00	0	40	0	213909504	56	6405
2026-01-18 20:29:34.96	50.71	9.26	-41.7	-43.2	19.5	0.00e+00	59	40	0	216006656	56	6562
2026-01-18 20:29:35.97	50.57	9.31	-41.9	-43.4	19.4	0.00e+00	12	40	0	217055232	56	6698
2026-01-18 20:29:36.98	50.43	9.37	-41.9	-43.4	19.3	0.00e+00	0	40	0	219152384	56	6767
2026-01-18 20:29:38.00	50.29	9.42	-41.9	-43.4	19.4	0.00e+00	85	40	0	221249536	56	6734
2026-01-18 20:29:39.00	50.15	9.47	-42.0	-43.6	19.1	0.00e+00	0	40	0	223346688	56	6869
2026-01-18 20:29:40.01	50.01	9.52	-42.1	-43.7	19.1	0.00e+00	92	40	0	225443840	56	6947
2026-01-18 20:29:41.02	49.86	9.57	-42.1	-43.8	18.9	0.00e+00	0	40	0	226492416	56	7010
2026-01-18 20:29:42.03	49.72	9.62	-42.2	-43.9	19.0	0.00e+00	79	40	0	228589568	56	7104
2026-01-18 20:29:43.04	49.58	9.68	-42.0	-43.6	19.2	0.00e+00	0	40	0	230686720	56	6856
2026-01-18 20:29:44.05	49.43	9.73	-42.1	-43.7	19.1	0.00e+00	51	40	0	232783872	56	6997
2026-01-18 20:29:45.06	49.29	9.78	-41.8	-43.3	19.4	0.00e+00	92	40	0	233832448	56	6668
2026-01-18 20:29:46.07	49.14	9.83	-41.7	-43.3	19.5	0.00e+00	0	40	0	235929600	56	6616
2026-01-18 20:29:47.08	49.00	9.88	-41.6	-43.1	19.6	0.00e+00	67	40	0	238026752	56	6516
2026-01-18 20:29:48.09	48.85	9.93	-41.5	-42.9	19.8	0.00e+00	0	40	0	240123904	56	6340
2026-01-18 20:29:49.10	48.71	9.98	-41.6	-43.1	19.8	0.00e+00	92	40	0	242221056	56	6468
2026-01-18 20:29:50.11	48.56	10.03	-41.4	-42.8	19.9	0.00e+00	0	40	0	244318208	56	6292
2026-01-18 20:29:51.12	48.41	10.09	-41.1	-42.5	20.1	0.00e+00	54	40	0	245366784	56	6056
2026-01-18 20:29:52.13	48.26	10.14	-40.9	-42.2	20.4	0.00e+00	92	40	0	247463936	56	5891
2026-01-18 20:29:53.14	48.11	10.19	-41.1	-42.4	20.3	0.00e+00	0	40	0	249561088	56	5989
2026-01-18 20:29:54.14	47.97	10.24	-41.0	-42.4	20.3	0.00e+00	88	40	0	251658240	56	5973
2026-01-18 20:29:55.15	47.82	10.29	-41.0	-42.3	20.4	0.00e+00	0	41	0	253755392	56	5936
2026-01-18 20:29:56.16	47.67	10.34	-40.8	-42.1	20.6	0.00e+00	92	40	0	254803968	56	5765
2026-01-18 20:29:57.17	47.52	10.39	-40.6	-41.8	20.8	0.00e+00	0	40	0	256901120	54	6316
2026-01-18 20:29:58.18	47.36	10.44	-40.5	-41.7	20.8	0.00e+00	92	40	0	258998272	54	6189
2026-01-18 20:29:59.19	47.21	10.49	-40.3	-41.4	21.0	0.00e+00	0	40	0	261095424	54	6029
2026-01-18 20:30:00.20	47.06	10.54	-40.4	-41.6	21.0	0.00e+00	0	40	0	263192576	54	6131
2026-01-18 20:30:01.21	46.91	10.59	-40.4	-41.7	20.9	0.00e+00	88	40	0	264241152	54	6188
2026-01-18 20:30:02.22	46.75	10.64	-40.5	-41.7	20.9	0.00e+00	0	40	0	266338304	54	6228
2026-01-18 20:30:03.23	46.60	10.69	-40.2	-41.4	21.1	0.00e+00	90	41	0	268435456	54	5983
2026-01-18 20:30:04.24	46.45	10.74	-40.1	-41.3	21.0	0.00e+00	0	40	0	270532608	54	5945
2026-01-18 20:30:05.25	46.29	10.79	-40.0	-41.1	21.4	0.00e+00	90	40	0	272629760	54	5808
2026-01-18 20:30:06.26	46.13	10.84	-39.8	-41.0	21.4	0.00e+00	0	40	0	273678336	54	5699
2026-01-18 20:30:07.27	45.98	10.89	-39.8	-41.0	21.5	0.00e+00	0	40	0	275775488	54	5698
2026-01-18 20:30:08.28	45.82	10.94	-39.8	-40.9	21.5	0.00e+00	92	40	0	277872640	54	5693
2026-01-18 20:30:09.29	45.66	10.99	-39.7	-40.8	21.7	0.00e+00	0	40	0	279969792	52	6275
2026-01-18 20:30:10.29	45.51	11.04	-39.5	-40.6	21.8	0.00e+00	15	40	0	282066944	52	6163
2026-01-18 20:30:11.30	45.35	11.08	-39.5	-40.6	21.9	0.00e+00	0	40	0	283115520	52	6134
2026-01-18 20:30:12.30	45.19	11.13	-39.6	-40.7	21.7	0.00e+00	92	40	0	285212672	52	6236
2026-01-18 20:30:13.31	45.03	11.18	-39.7	-40.9	21.5	0.00e+00	0	40	0	287309824	52	6341
2026-01-18 20:30:14.31	44.87	11.23	-39.9	-41.1	21.4	0.00e+00	4	40	0	289406976	52	6507
2026-01-18 20:30:15.32	44.71	11.28	-39.9	-41.1	21.4	0.00e+00	9	40	0	291504128	52	6501
2026-01-18 20:30:16.33	44.55	11.33	-40.0	-41.1	21.4	0.00e+00	0	40	0	292552704	52	6533
2026-01-18 20:30:17.34	44.39	11.38	-39.9	-41.1	21.4	0.00e+00	72	40	0	294649856	52	6500
2026-01-18 20:30:18.35	44.23	11.42	-39.8	-41.0	21.5	0.00e+00	0	40	0	296747008	52	6413
2026-01-18 20:30:19.36	44.07	11.47	-39.8	-40.9	21.6	0.00e+00	72	40	0	298844160	52	6384
2026-01-18 20:30:20.37	43.90	11.52	-39.7	-40.8	21.7	0.00e+00	0	40	0	300941312	52	6312
2026-01-18 20:30:21.38	43.74	11.57	-39.6	-40.7	21.6	0.00e+00	74	40	0	301989888	52	6211
2026-01-18 20:30:22.39	43.58	11.61	-39.7	-40.9	21.7	0.00e+00	73	40	0	304087040	52	6344
2026-01-18 20:30:23.39	43.41	11.66	-39.4	-40.5	21.9	0.00e+00	11	40	0	306184192	52	6088
2026-01-18 20:30:24.40	43.25	11.71	-39.4	-40.4	21.9	0.00e+00	63	40	0	308281344	52	6033
2026-01-18 20:30:25.41	43.08	11.76	-39.4	-40.5	22.0	0.00e+00	0	40	0	310378496	52	6043
2026-01-18 20:30:26.42	42.92	11.80	-39.0	-40.0	22.4	0.00e+00	90	40	0	312475648	52	5732
2026-01-18 20:30:27.43	42.75	11.85	-39.0	-40.0	22.4	0.00e+00	0	40	0	313524224	52	5742
2026-01-18 20:30:28.44	42.58	11.90	-39.0	-40.0	22.3	0.00e+00	72	40	0	315621376	52	5723
2026-01-18 20:30:29.45	42.41	11.94	-39.1	-40.1	22.3	0.00e+00	65	40	0	317718528	52	5771
2026-01-18 20:30:30.46	42.24	11.99	-39.1	-40.1	22.2	0.00e+00	0	40	0	319815680	52	5823
2026-01-18 20:30:31.47	42.08	12.04	-39.2	-40.2	22.2	0.00e+00	92	40	0	321912832	52	5868
2026-01-18 20:30:32.48	41.91	12.08	-39.4	-40.5	22.0	0.00e+00	0	40	0	322961408	52	6047
2026-01-18 20:30:33.49	41.74	12.13	-39.4	-40.5	22.0	0.00e+00	90	40	0	325058560	52	6078
2026-01-18 20:30:34.50	41.56	12.17	-39.7	-40.8	21.7	0.00e+00	0	40	0	327155712	52	6275
2026-01-18 20:30:35.51	41.39	12.22	-39.5	-40.6	21.9	0.00e+00	88	40	0	329252864	52	6147
2026-01-18 20:30:36.52	41.22	12.27	-39.4	-40.5	22.0	0.00e+00	9	40	0	331350016	52	6096
2026-01-18 20:30:37.53	41.05	12.31	-39.3	-40.4	21.9	0.00e+00	0	40	0	332398592	52	5999
2026-01-18 20:30:38.54	40.88	12.36	-39.3	-40.4	22.0	0.00e+00	92	40	0	334495744	52	5980
2026-01-18 20:30:39.55	40.70	12.40	-39.1	-40.2	22.2	0.00e+00	0	40	0	336592896	52	5829
2026-01-18 20:30:40.56	40.53	12.45	-39.0	-40.0	22.4	0.00e+00	92	40	0	338690048	52	5715
2026-01-18 20:30:41.57	40.35	12.49	-38.5	-39.5	22.7	0.00e+00	0	40	0	340787200	50	6039
2026-01-18 20:30:42.58	40.18	12.53	-38.4	-39.4	22.8	0.00e+00	90	40	0	341835776	50	5970
2026-01-18 20:30:43.58	40.01	12.58	-38.4	-39.4	22.9	0.00e+00	0	40	0	343932928	50	5981
2026-01-18 20:30:44.60	39.83	12.62	-38.4	-39.4	22.8	0.00e+00	0	40	0	346030080	50	5974
2026-01-18 20:30:45.60	39.65	12.67	-38.4	-39.4	22.7	0.00e+00	92	40	0	348127232	50	5981
2026-01-18 20:30:46.61	39.48	12.71	-38.5	-39.5	22.8	0.00e+00	0	41	0	350224384	50	6044
2026-01-18 20:30:47.62	39.30	12.75	-38.5	-39.5	22.8	0.00e+00	92	40	0	351272960	50	6078
2026-01-18 20:30:48.63	39.12	12.80	-38.8	-39.9	22.5	0.00e+00	0	40	0	353370112	50	6320
2026-01-18 20:30:49.64	38.94	12.84	-39.3	-40.3	22.1	0.00e+00	90	40	0	355467264	50	6675
2026-01-18 20:30:50.65	38.76	12.88	-39.5	-40.6	21.9	0.00e+00	0	41	0	357564416	50	6899
2026-01-18 20:30:51.66	38.58	12.93	-39.3	-40.4	22.0	0.00e+00	57	40	0	359661568	50	6707
2026-01-18 20:30:52.67	38.40	12.97	-39.4	-40.4	22.1	0.00e+00	85	41	0	360710144	50	6763
2026-01-18 20:30:53.68	38.22	13.01	-39.5	-40.6	21.8	0.00e+00	0	40	0	362807296	50	6918
2026-01-18 20:30:54.69	38.04	13.05	-39.7	-40.8	21.8	0.00e+00	59	40	0	364904448	52	6296
2026-01-18 20:30:55.69	37.86	13.09	-39.6	-40.7	21.7	0.00e+00	0	40	0	367001600	52	6190
2026-01-18 20:30:56.70	37.68	13.14	-39.4	-40.5	22.1	0.00e+00	36	40	0	369098752	52	6075
2026-01-18 20:30:57.71	37.49	13.18	-39.4	-40.5	22.0	0.00e+00	0	40	0	370147328	52	6078
2026-01-18 20:30:58.72	37.31	13.22	-39.5	-40.5	21.9	0.00e+00	73	40	0	372244480	52	6103
2026-01-18 20:30:59.73	37.13	13.26	-39.4	-40.5	22.0	0.00e+00	8	40	0	374341632	52	6053
2026-01-18 20:31:00.74	36.94	13.30	-39.5	-40.6	22.0	0.00e+00	0	41	0	376438784	52	6108
2026-01-18 20:31:01.75	36.76	13.34	-39.6	-40.8	21.7	0.00e+00	75	40	0	378535936	52	6264
2026-01-18 20:31:02.75	36.57	13.38	-39.6	-40.8	21.8	0.00e+00	0	40	0	379584512	52	6260
2026-01-18 20:31:03.76	36.39	13.42	-39.7	-40.9	21.8	0.00e+00	0	40	0	381681664	52	6334
2026-01-18 20:31:04.77	36.20	13.46	-39.9	-41.0	21.6	0.00e+00	0	40	0	383778816	52	6462
2026-01-18 20:31:05.78	36.01	13.50	-39.9	-41.1	21.6	0.00e+00	0	40	0	385875968	52	6469
2026-01-18 20:31:06.79	35.83	13.54	-39.9	-41.1	21.4	0.00e+00	7	40	0	387973120	52	6510
2026-01-18 20:31:07.80	35.64	13.58	-39.7	-40.9	21.7	0.00e+00	0	40	0	389021696	52	6322
2026-01-18 20:31:08.81	35.45	13.62	-39.6	-40.7	21.9	0.00e+00	46	40	0	391118848	52	6194
2026-01-18 20:31:09.82	35.26	13.66	-39.2	-40.2	22.2	0.00e+00	0	40	0	393216000	52	5882
2026-01-18 20:31:10.83	35.07	13.69	-39.2	-40.2	22.2	0.00e+00	25	40	0	395313152	52	5895
2026-01-18 20:31:11.84	34.88	13.73	-39.3	-40.3	22.2	0.00e+00	0	40	0	397410304	52	5936
2026-01-18 20:31:12.85	34.69	13.77	-39.2	-40.2	22.2	0.00e+00	0	40	0	398458880	52	5891
2026-01-18 20:31:13.86	34.50	13.81	-39.2	-40.3	22.3	0.00e+00	0	40	0	400556032	52	5899
2026-01-18 20:31:14.87	34.31	13.85	-39.4	-40.5	22.1	0.00e+00	0	40	0	402653184	52	6069
2026-01-18 20:31:15.88	34.12	13.88	-39.3	-40.3	22.1	0.00e+00	46	40	0	404750336	52	5938
2026-01-18 20:31:16.89	33.92	13.92	-38.9	-39.9	22.5	0.00e+00	0	40	0	406847488	52	5674
2026-01-18 20:31:17.90	33.73	13.96	-38.8	-39.7	22.6	0.00e+00	92	40	0	408944640	52	5566
2026-01-18 20:31:18.91	33.54	13.99	-38.8	-39.9	22.5	0.00e+00	0	40	0	409993216	50	6320
2026-01-18 20:31:19.91	33.35	14.03	-39.0	-40.0	22.5	0.00e+00	0	40	0	412090368	50	6406
2026-01-18 20:31:20.92	33.15	14.06	-38.8	-39.8	22.6	0.00e+00	0	40	0	414187520	50	6289
2026-01-18 20:31:21.93	32.96	14.10	-38.8	-39.8	22.5	0.00e+00	0	40	0	416284672	50	6292
2026-01-18 20:31:22.94	32.76	14.13	-38.6	-39.6	22.8	0.00e+00	90	40	0	418381824	50	6146
2026-01-18 20:31:23.94	32.57	14.17	-38.7	-39.7	22.6	0.00e+00	0	40	0	419430400	50	6231
2026-01-18 20:31:24.95	32.37	14.20	-38.9	-39.9	22.6	0.00e+00	91	40	0	421527552	50	6373
2026-01-18 20:31:25.96	32.18	14.24	-39.0	-40.1	22.4	0.00e+00	0	40	0	423624704	50	6478
2026-01-18 20:31:26.97	31.98	14.27	-39.3	-40.4	22.0	0.00e+00	0	40	0	425721856	50	6743
2026-01-18 20:31:27.97	31.78	14.30	-39.5	-40.6	21.9	0.00e+00	0	40	0	427819008	50	6875
2026-01-18 20:31:28.98	31.58	14.34	-39.6	-40.7	21.9	0.00e+00	0	40	0	428867584	50	6972
2026-01-18 20:31:29.99	31.39	14.37	-39.4	-40.5	22.0	0.00e+00	61	40	0	430964736	50	6770
2026-01-18 20:31:31.00	31.19	14.40	-38.8	-39.9	22.6	0.00e+00	0	40	0	433061888	50	6322
2026-01-18 20:31:32.01	30.99	14.44	-38.7	-39.7	22.7	0.00e+00	74	40	0	435159040	50	6191
2026-01-18 20:31:33.02	30.79	14.47	-38.7	-39.7	22.6	0.00e+00	0	40	0	437256192	50	6221
2026-01-18 20:31:34.03	30.59	14.50	-38.8	-39.8	22.5	0.00e+00	0	40	0	438304768	50	6310
2026-01-18 20:31:35.04	30.39	14.53	-38.3	-39.2	23.0	0.00e+00	0	40	0	440401920	50	5868
2026-01-18 20:31:36.05	30.19	14.56	-38.3	-39.2	22.5	0.00e+00	0	40	0	442499072	50	5879
2026-01-18 20:31:37.05	29.99	14.59	-38.1	-39.0	23.0	0.00e+00	11	40	0	444596224	50	5746
2026-01-18 20:31:38.06	29.78	14.63	-38.1	-39.0	23.2	0.00e+00	0	40	0	446693376	50	5725
2026-01-18 20:31:39.07	29.58	14.66	-38.3	-39.2	23.0	0.00e+00	65	40	0	447741952	50	5880
2026-01-18 20:31:40.08	29.38	14.69	-38.6	-39.5	22.7	0.00e+00	0	40	0	449839104	50	6099
2026-01-18 20:31:41.09	29.18	14.72	-38.6	-39.6	22.7	0.00e+00	79	41	0	451936256	50	6140
2026-01-18 20:31:42.10	28.97	14.74	-38.7	-39.7	22.7	0.00e+00	0	40	0	454033408	50	6228
2026-01-18 20:31:43.11	28.77	14.77	-38.6	-39.6	22.8	0.00e+00	0	40	0	456130560	50	6152
2026-01-18 20:31:44.12	28.56	14.80	-38.4	-39.3	22.9	0.00e+00	15	40	0	457179136	50	5949
2026-01-18 20:31:45.13	28.36	14.83	-38.5	-39.5	22.8	0.00e+00	0	40	0	459276288	50	6089
2026-01-18 20:31:46.14	28.15	14.86	-38.4	-39.4	23.0	0.00e+00	91	41	0	461373440	50	5978
2026-01-18 20:31:47.15	27.95	14.89	-38.4	-39.3	22.9	0.00e+00	0	40	0	463470592	50	5937
2026-01-18 20:31:48.16	27.74	14.91	-38.6	-39.5	22.8	0.00e+00	62	40	0	465567744	50	6087
2026-01-18 20:31:49.17	27.54	14.94	-38.6	-39.6	22.5	0.00e+00	0	41	0	466616320	50	6145
2026-01-18 20:31:50.18	27.33	14.97	-38.8	-39.8	22.7	0.00e+00	0	40	0	468713472	50	6247
2026-01-18 20:31:51.19	27.12	14.99	-38.9	-39.9	22.5	0.00e+00	15	40	0	470810624	50	6347
2026-01-18 20:31:52.20	26.91	15.02	-39.2	-40.3	22.2	0.00e+00	0	41	0	472907776	50	6622
2026-01-18 20:31:53.21	26.71	15.05	-39.2	-40.3	22.2	0.00e+00	75	40	0	475004928	50	6654
2026-01-18 20:31:54.22	26.50	15.07	-39.3	-40.3	22.1	0.00e+00	0	40	0	477102080	50	6692
2026-01-18 20:31:55.22	26.29	15.10	-39.4	-40.4	22.1	0.00e+00	92	40	0	478150656	50	6751
2026-01-18 20:31:56.23	26.08	15.12	-39.2	-40.2	22.3	0.00e+00	0	40	0	480247808	50	6599
2026-01-18 20:31:57.24	25.87	15.14	-39.2	-40.2	22.3	0.00e+00	0	40	0	482344960	50	6610
2026-01-18 20:31:58.25	25.66	15.17	-39.1	-40.1	22.4	0.00e+00	0	40	0	484442112	50	6509
2026-01-18 20:31:59.25	25.46	15.19	-39.2	-40.2	22.3	0.00e+00	0	40	0	485490688	50	6573
2026-01-18 20:32:00.26	25.25	15.21	-39.3	-40.3	22.1	0.00e+00	0	40	0	487587840	50	6692
2026-01-18 20:32:01.27	25.04	15.24	-39.6	-40.7	21.6	0.00e+00	0	40	0	489684992	50	6946
2026-01-18 20:32:02.28	24.82	15.26	-39.4	-40.5	22.0	0.00e+00	24	40	0	491782144	50	6822
2026-01-18 20:32:03.29	24.61	15.28	-39.3	-40.3	22.2	0.00e+00	0	40	0	493879296	50	6674
2026-01-18 20:32:04.30	24.40	15.30	-39.2	-40.2	22.3	0.00e+00	0	40	0	494927872	50	6576
2026-01-18 20:32:05.31	24.19	15.32	-39.2	-40.2	22.2	0.00e+00	0	40	0	497025024	50	6572
2026-01-18 20:32:06.32	23.98	15.35	-39.2	-40.2	22.3	0.00e+00	0	40	0	499122176	50	6593
2026-01-18 20:32:07.33	23.77	15.37	-39.1	-40.2	22.2	0.00e+00	0	40	0	501219328	50	6566
2026-01-18 20:32:08.34	23.55	15.39	-39.2	-40.2	22.3	0.00e+00	0	40	0	503316480	50	6592
2026-01-18 20:32:09.34	23.34	15.41	-39.3	-40.3	22.2	0.00e+00	50	40	0	505413632	50	6649
2026-01-18 20:32:10.36	23.13	15.43	-39.0	-39.9	22.5	0.00e+00	0	40	0	506462208	50	6390
2026-01-18 20:32:11.37	22.91	15.44	-38.7	-39.7	22.8	0.00e+00	73	40	0	508559360	50	6186
2026-01-18 20:32:12.37	22.70	15.46	-38.5	-39.4	22.9	0.00e+00	0	40	0	510656512	50	6025
2026-01-18 20:32:13.38	22.49	15.48	-38.4	-39.3	23.0	0.00e+00	0	40	0	512753664	50	5909
2026-01-18 20:32:14.39	22.27	15.50	-38.7	-39.7	22.7	0.00e+00	0	40	0	514850816	50	6215
2026-01-18 20:32:15.40	22.06	15.52	-38.7	-39.7	22.7	0.00e+00	0	40	0	515899392	50	6215
2026-01-18 20:32:16.41	21.84	15.53	-38.9	-39.9	22.5	0.00e+00	87	40	0	517996544	50	6354
2026-01-18 20:32:17.42	21.63	15.55	-39.0	-40.0	22.4	0.00e+00	0	40	0	520093696	50	6459
2026-01-18 20:32:18.43	21.41	15.57	-39.2	-40.2	22.3	0.00e+00	92	41	0	522190848	50	6581
2026-01-18 20:32:19.44	21.20	15.58	-39.1	-40.1	22.4	0.00e+00	0	40	0	524288000	50	6512
2026-01-18 20:32:20.45	20.98	15.60	-38.9	-39.9	22.4	0.00e+00	15	40	0	525336576	50	6376
2026-01-18 20:32:21.46	20.76	15.61	-39.2	-40.3	22.3	0.00e+00	0	40	0	527433728	50	6640
2026-01-18 20:32:22.46	20.55	15.63	-39.1	-40.2	22.2	0.00e+00	21	40	0	529530880	50	6544
2026-01-18 20:32:23.47	20.33	15.64	-39.2	-40.2	22.2	0.00e+00	66	40	0	531628032	50	6608
2026-01-18 20:32:24.48	20.12	15.66	-39.3	-40.3	22.2	0.00e+00	0	40	0	533725184	50	6686
2026-01-18 20:32:25.49	19.90	15.67	-39.3	-40.3	22.2	0.00e+00	92	40	0	534773760	50	6692
2026-01-18 20:32:26.50	19.68	15.68	-39.3	-40.4	22.1	0.00e+00	17	41	0	536870912	50	6741
2026-01-18 20:32:27.51	19.47	15.69	-39.4	-40.5	22.1	0.00e+00	0	40	0	538968064	50	6796
2026-01-18 20:32:28.52	19.25	15.71	-39.4	-40.5	21.9	0.00e+00	0	40	0	541065216	50	6814
2026-01-18 20:32:29.53	19.03	15.72	-39.5	-40.6	22.0	0.00e+00	0	40	0	543162368	50	6854
2026-01-18 20:32:30.54	18.81	15.73	-39.7	-40.8	21.8	0.00e+00	14	41	0	544210944	50	7046
2026-01-18 20:32:31.55	18.60	15.74	-39.9	-41.0	21.7	0.00e+00	0	40	0	546308096	52	6427
2026-01-18 20:32:32.56	18.38	15.75	-39.7	-40.8	21.8	0.00e+00	92	40	0	548405248	52	6266
2026-01-18 20:32:33.57	18.16	15.76	-39.6	-40.7	21.9	0.00e+00	0	40	0	550502400	52	6200
2026-01-18 20:32:34.58	17.94	15.77	-39.6	-40.7	22.1	0.00e+00	0	40	0	552599552	52	6198
2026-01-18 20:32:35.59	17.72	15.78	-39.6	-40.7	21.8	0.00e+00	0	40	0	553648128	52	6239
2026-01-18 20:32:36.60	17.50	15.79	-39.7	-40.8	21.9	0.00e+00	0	41	0	555745280	52	6259
2026-01-18 20:32:37.61	17.29	15.80	-39.6	-40.7	21.8	0.00e+00	58	40	0	557842432	52	6214
2026-01-18 20:32:38.62	17.07	15.81	-39.5	-40.6	22.0	0.00e+00	0	40	0	559939584	52	6110
2026-01-18 20:32:39.63	16.85	15.81	-39.7	-40.8	21.8	0.00e+00	92	40	0	562036736	52	6253
2026-01-18 20:32:40.64	16.63	15.82	-39.8	-40.9	21.7	0.00e+00	0	40	0	563085312	52	6324
2026-01-18 20:32:41.65	16.41	15.83	-40.0	-41.1	21.5	0.00e+00	0	40	0	565182464	52	6522
2026-01-18 20:32:42.66	16.19	15.83	-39.9	-41.0	21.6	0.00e+00	0	40	0	567279616	52	6429
2026-01-18 20:32:43.67	15.97	15.84	-39.7	-40.8	21.8	0.00e+00	0	40	0	569376768	52	6297
2026-01-18 20:32:44.68	15.75	15.85	-39.5	-40.6	22.1	0.00e+00	51	40	0	571473920	52	6141
2026-01-18 20:32:45.69	15.53	15.85	-39.4	-40.4	21.8	0.00e+00	0	40	0	573571072	52	6028
2026-01-18 20:32:46.70	15.31	15.85	-39.9	-41.0	21.7	0.00e+00	91	41	0	574619648	52	6451
2026-01-18 20:32:47.71	15.09	15.86	-39.7	-40.8	21.7	0.00e+00	0	40	0	576716800	52	6278
2026-01-18 20:32:48.72	14.87	15.86	-39.9	-41.1	21.6	0.00e+00	0	40	0	578813952	52	6470
2026-01-18 20:32:49.72	14.65	15.87	-39.5	-40.6	22.0	0.00e+00	0	40	0	580911104	52	6141
2026-01-18 20:32:50.74	14.43	15.87	-39.3	-40.4	22.2	0.00e+00	0	40	0	583008256	52	5968
2026-01-18 20:32:51.75	14.21	15.87	-39.6	-40.7	21.7	0.00e+00	41	40	0	584056832	52	6230
2026-01-18 20:32:52.76	13.99	15.87	-39.9	-41.0	21.9	0.00e+00	0	40	0	586153984	52	6453
2026-01-18 20:32:53.77	13.77	15.88	-39.6	-40.7	21.8	0.00e+00	92	40	0	588251136	52	6223
2026-01-18 20:32:54.78	13.55	15.88	-39.8	-40.9	21.8	0.00e+00	0	40	0	590348288	52	6323
2026-01-18 20:32:55.79	13.33	15.88	-39.6	-40.7	21.9	0.00e+00	92	40	0	592445440	52	6199
2026-01-18 20:32:56.80	13.11	15.88	-39.5	-40.6	22.1	0.00e+00	0	40	0	593494016	52	6119
2026-01-18 20:32:57.81	12.89	15.88	-39.1	-40.2	22.3	0.00e+00	0	40	0	595591168	52	5839
2026-01-18 20:32:58.82	12.67	15.88	-38.9	-39.9	22.6	0.00e+00	3	40	0	597688320	52	5644
2026-01-18 20:32:59.83	12.45	15.88	-38.7	-39.6	22.8	0.00e+00	0	40	0	599785472	52	5489
2026-01-18 20:33:00.84	12.23	15.88	-38.6	-39.5	22.8	0.00e+00	92	40	0	601882624	50	6079
2026-01-18 20:33:01.85	12.01	15.87	-38.7	-39.6	22.8	0.00e+00	0	40	0	602931200	50	6171
2026-01-18 20:33:02.85	11.80	15.87	-38.7	-39.7	22.7	0.00e+00	92	40	0	605028352	50	6204
2026-01-18 20:33:03.86	11.58	15.87	-38.8	-39.8	22.5	0.00e+00	0	40	0	607125504	50	6298
2026-01-18 20:33:04.87	11.36	15.87	-39.0	-40.0	22.4	0.00e+00	0	40	0	609222656	50	6455
2026-01-18 20:33:05.88	11.14	15.86	-39.2	-40.3	22.3	0.00e+00	0	40	0	611319808	50	6628
2026-01-18 20:33:06.89	10.92	15.86	-39.2	-40.3	22.3	0.00e+00	0	40	0	612368384	50	6651
2026-01-18 20:33:07.90	10.70	15.85	-39.4	-40.4	22.1	0.00e+00	10	40	0	614465536	50	6767
2026-01-18 20:33:08.91	10.48	15.85	-39.5	-40.5	22.0	0.00e+00	0	40	0	616562688	50	6841
2026-01-18 20:33:09.92	10.26	15.84	-39.6	-40.7	21.9	0.00e+00	92	40	0	618659840	50	6950
2026-01-18 20:33:10.93	10.04	15.84	-39.9	-41.0	21.6	0.00e+00	0	40	0	620756992	52	6439
2026-01-18 20:33:11.94	9.82	15.83	-39.9	-41.0	21.1	0.00e+00	0	40	0	621805568	52	6431
2026-01-18 20:33:12.95	9.60	15.83	-40.1	-41.3	21.3	0.00e+00	0	40	0	623902720	52	6654
2026-01-18 20:33:13.96	9.38	15.82	-40.2	-41.4	21.2	0.00e+00	0	40	0	625999872	52	6730
2026-01-18 20:33:14.96	9.16	15.81	-40.1	-41.3	21.4	0.00e+00	12	40	0	628097024	52	6676
2026-01-18 20:33:15.97	8.94	15.80	-40.0	-41.1	21.5	0.00e+00	0	40	0	630194176	52	6511
2026-01-18 20:33:16.98	8.73	15.80	-39.7	-40.9	21.8	0.00e+00	41	40	0	631242752	52	6321
2026-01-18 20:33:17.99	8.51	15.79	-39.6	-40.7	21.9	0.00e+00	0	40	0	633339904	52	6200
2026-01-18 20:33:19.00	8.29	15.78	-39.5	-40.6	22.0	0.00e+00	0	40	0	635437056	52	6123
2026-01-18 20:33:20.01	8.07	15.77	-39.4	-40.5	22.1	0.00e+00	0	41	0	637534208	52	6094
2026-01-18 20:33:21.02	7.85	15.76	-39.2	-40.2	22.3	0.00e+00	0	40	0	639631360	52	5876
2026-01-18 20:33:22.03	7.63	15.75	-39.2	-40.2	22.3	0.00e+00	12	40	0	641728512	52	5884
2026-01-18 20:33:23.04	7.42	15.74	-39.0	-40.1	22.6	0.00e+00	0	40	0	642777088	52	5763
2026-01-18 20:33:24.05	7.20	15.73	-39.2	-40.3	22.3	0.00e+00	92	40	0	644874240	52	5910
2026-01-18 20:33:25.06	6.98	15.72	-39.3	-40.3	22.3	0.00e+00	0	40	0	646971392	52	5947
2026-01-18 20:33:26.07	6.76	15.70	-39.4	-40.5	22.2	0.00e+00	44	40	0	649068544	52	6046
2026-01-18 20:33:27.08	6.55	15.69	-39.4	-40.5	22.0	0.00e+00	0	40	0	651165696	52	6090
2026-01-18 20:33:28.09	6.33	15.68	-39.7	-40.9	21.8	0.00e+00	0	40	0	652214272	52	6319
2026-01-18 20:33:29.10	6.11	15.67	-39.3	-40.4	22.2	0.00e+00	0	40	0	654311424	52	6019
2026-01-18 20:33:30.11	5.89	15.65	-39.3	-40.3	22.2	0.00e+00	0	40	0	656408576	52	5962
2026-01-18 20:33:31.12	5.68	15.64	-39.0	-40.1	22.4	0.00e+00	92	40	0	658505728	52	5769
2026-01-18 20:33:32.12	5.46	15.62	-38.6	-39.6	22.8	0.00e+00	0	40	0	660602880	50	6143
2026-01-18 20:33:33.13	5.25	15.61	-38.6	-39.6	22.8	0.00e+00	67	40	0	661651456	50	6108
2026-01-18 20:33:34.14	5.03	15.59	-38.4	-39.3	23.0	0.00e+00	0	40	0	663748608	50	5949
2026-01-18 20:33:35.15	4.82	15.58	-38.4	-39.3	22.9	0.00e+00	0	40	0	665845760	50	5957
2026-01-18 20:33:36.16	4.60	15.56	-38.5	-39.5	22.8	0.00e+00	0	40	0	667942912	50	6055
2026-01-18 20:33:37.17	4.39	15.55	-38.8	-39.8	22.7	0.00e+00	0	40	0	670040064	50	6302
2026-01-18 20:33:38.18	4.17	15.53	-38.8	-39.9	22.5	0.00e+00	12	40	0	671088640	50	6325
2026-01-18 20:33:39.19	3.96	15.51	-38.8	-39.8	22.5	0.00e+00	0	40	0	673185792	50	6259
2026-01-18 20:33:40.20	3.74	15.50	-38.8	-39.8	22.4	0.00e+00	92	40	0	675282944	50	6317
2026-01-18 20:33:41.21	3.53	15.48	-38.6	-39.7	22.6	0.00e+00	0	40	0	677380096	50	6178
2026-01-18 20:33:42.22	3.31	15.46	-38.8	-39.9	22.5	0.00e+00	0	40	0	679477248	50	6325
2026-01-18 20:33:43.22	3.10	15.44	-38.7	-39.7	22.6	0.00e+00	0	40	0	680525824	50	6239
2026-01-18 20:33:44.23	2.89	15.42	-38.8	-39.8	22.5	0.00e+00	0	40	0	682622976	50	6299
2026-01-18 20:33:45.24	2.68	15.40	-38.9	-40.0	22.5	0.00e+00	14	40	0	684720128	50	6405
2026-01-18 20:33:46.25	2.46	15.38	-38.9	-40.0	22.6	0.00e+00	0	40	0	686817280	50	6412
2026-01-18 20:33:47.26	2.25	15.36	-39.1	-40.2	22.4	0.00e+00	92	40	0	688914432	50	6566
2026-01-18 20:33:48.27	2.04	15.34	-39.0	-40.1	22.4	0.00e+00	0	40	0	689963008	50	6484
2026-01-18 20:33:49.28	1.83	15.32	-39.3	-40.3	22.2	0.00e+00	0	40	0	692060160	50	6674
2026-01-18 20:33:50.29	1.61	15.30	-39.2	-40.2	22.3	0.00e+00	0	40	0	694157312	50	6611
2026-01-18 20:33:51.30	1.40	15.28	-39.3	-40.4	22.1	0.00e+00	0	40	0	696254464	50	6735
2026-01-18 20:33:52.30	1.19	15.26	-39.1	-40.1	22.3	0.00e+00	0	40	0	698351616	50	6533
2026-01-18 20:33:53.32	0.98	15.23	-39.3	-40.3	22.2	0.00e+00	0	40	0	699400192	50	6686
2026-01-18 20:33:54.33	0.77	15.21	-39.4	-40.5	22.0	0.00e+00	58	40	0	701497344	50	6783
2026-01-18 20:33:55.34	0.56	15.19	-38.6	-39.6	22.8	0.00e+00	0	40	0	703594496	50	6147
2026-01-18 20:33:56.34	0.35	15.16	-38.4	-39.3	23.1	0.00e+00	22	40	0	705691648	50	5948
2026-01-18 20:33:57.35	0.14	15.14	-38.2	-39.1	23.1	0.00e+00	0	40	0	707788800	50	5823
2026-01-18 20:33:58.36	359.94	15.12	-38.1	-39.0	23.2	0.00e+00	0	40	0	709885952	50	5747
2026-01-18 20:33:59.37	359.73	15.09	-38.2	-39.1	23.2	0.00e+00	17	40	0	710934528	50	5779
2026-01-18 20:34:00.38	359.52	15.07	-38.3	-39.3	23.0	0.00e+00	0	40	0	713031680	50	5918
2026-01-18 20:34:01.39	359.31	15.04	-38.3	-39.2	23.0	0.00e+00	72	40	0	715128832	50	5875
2026-01-18 20:34:02.40	359.10	15.01	-38.3	-39.2	23.0	0.00e+00	0	40	0	717225984	50	5835
2026-01-18 20:34:03.41	358.90	14.99	-38.3	-39.2	22.9	0.00e+00	75	40	0	718274560	50	5845
2026-01-18 20:34:04.42	358.69	14.96	-38.3	-39.3	22.9	0.00e+00	15	40	0	720371712	50	5906
2026-01-18 20:34:05.43	358.48	14.94	-38.4	-39.4	22.8	0.00e+00	0	40	0	722468864	50	5981
2026-01-18 20:34:06.44	358.28	14.91	-38.8	-39.8	22.6	0.00e+00	0	40	0	724566016	50	6265
2026-01-18 20:34:07.45	358.07	14.88	-39.2	-40.2	22.3	0.00e+00	18	40	0	726663168	50	6603
2026-01-18 20:34:08.46	357.87	14.85	-39.1	-40.1	22.3	0.00e+00	92	41	0	727711744	50	6500
2026-01-18 20:34:09.47	357.66	14.83	-39.3	-40.3	22.1	0.00e+00	0	41	0	729808896	50	6673
2026-01-18 20:34:10.47	357.46	14.80	-39.3	-40.4	22.1	0.00e+00	92	40	0	731906048	50	6733
2026-01-18 20:34:11.48	357.25	14.77	-39.3	-40.4	22.1	0.00e+00	0	41	0	734003200	50	6703
2026-01-18 20:34:12.49	357.05	14.74	-39.0	-40.1	22.3	0.00e+00	0	40	0	736100352	50	6471
2026-01-18 20:34:13.50	356.85	14.71	-39.3	-40.4	22.1	0.00e+00	15	40	0	738197504	50	6712
2026-01-18 20:34:14.51	356.64	14.68	-39.4	-40.5	22.1	0.00e+00	0	41	0	739246080	50	6774
2026-01-18 20:34:15.52	356.44	14.65	-39.6	-40.7	21.8	0.00e+00	15	40	0	741343232	50	6931
2026-01-18 20:34:16.53	356.24	14.62	-39.9	-41.0	21.7	0.00e+00	0	40	0	743440384	52	6435
2026-01-18 20:34:17.54	356.04	14.59	-39.7	-40.8	21.5	0.00e+00	92	40	0	745537536	52	6294
2026-01-18 20:34:18.55	355.84	14.56	-39.9	-41.0	21.6	0.00e+00	0	40	0	747634688	52	6415
2026-01-18 20:34:19.56	355.63	14.53	-39.7	-40.9	21.7	0.00e+00	0	41	0	748683264	52	6327
2026-01-18 20:34:20.56	355.44	14.49	-39.8	-40.9	21.6	0.00e+00	0	41	0	750780416	52	6380
2026-01-18 20:34:21.57	355.24	14.46	-39.5	-40.6	22.0	0.00e+00	0	40	0	752877568	52	6131
2026-01-18 20:34:22.58	355.04	14.43	-39.5	-40.6	22.0	0.00e+00	13	40	0	754974720	52	6162
2026-01-18 20:34:23.59	354.84	14.40	-39.2	-40.2	22.2	0.00e+00	0	41	0	757071872	52	5870
2026-01-18 20:34:24.60	354.64	14.37	-39.1	-40.1	22.2	0.00e+00	92	40	0	758120448	52	5808
2026-01-18 20:34:25.61	354.44	14.33	-39.1	-40.1	22.3	0.00e+00	0	40	0	760217600	52	5776
2026-01-18 20:34:26.62	354.24	14.30	-39.3	-40.3	22.1	0.00e+00	0	40	0	762314752	52	5935
2026-01-18 20:34:27.63	354.05	14.26	-39.1	-40.1	22.3	0.00e+00	0	40	0	764411904	52	5805
2026-01-18 20:34:28.64	353.85	14.23	-39.3	-40.3	22.2	0.00e+00	0	40	0	766509056	52	5957
2026-01-18 20:34:29.64	353.65	14.20	-39.2	-40.2	22.3	0.00e+00	45	40	0	767557632	52	5879
2026-01-18 20:34:30.65	353.46	14.16	-39.2	-40.2	22.3	0.00e+00	0	41	0	769654784	52	5867
2026-01-18 20:34:31.66	353.26	14.13	-39.2	-40.2	22.2	0.00e+00	92	40	0	771751936	52	5884
2026-01-18 20:34:32.67	353.07	14.09	-39.5	-40.6	22.1	0.00e+00	0	40	0	773849088	52	6111
2026-01-18 20:34:33.68	352.87	14.06	-38.7	-39.6	22.8	0.00e+00	74	40	0	775946240	50	6163
2026-01-18 20:34:34.69	352.68	14.02	-38.3	-39.3	23.0	0.00e+00	0	40	0	776994816	50	5922
2026-01-18 20:34:35.70	352.49	13.98	-38.0	-38.9	23.2	0.00e+00	0	40	0	779091968	50	5684
2026-01-18 20:34:36.71	352.29	13.95	-38.0	-38.9	23.3	0.00e+00	7	41	0	781189120	50	5695
2026-01-18 20:34:37.72	352.10	13.91	-38.1	-39.0	23.1	0.00e+00	0	40	0	783286272	50	5726
2026-01-18 20:34:38.73	351.91	13.88	-38.1	-39.0	23.2	0.00e+00	91	40	0	785383424	50	5755
2026-01-18 20:34:39.74	351.72	13.84	-38.2	-39.1	23.0	0.00e+00	0	41	0	786432000	50	5798
2026-01-18 20:34:40.75	351.53	13.80	-38.4	-39.4	22.9	0.00e+00	89	40	0	788529152	50	5968
2026-01-18 20:34:41.76	351.34	13.76	-38.6	-39.5	22.7	0.00e+00	0	40	0	790626304	50	6089
2026-01-18 20:34:42.77	351.15	13.73	-38.8	-39.8	22.4	0.00e+00	0	41	0	792723456	50	6297
2026-01-18 20:34:43.77	350.96	13.69	-38.9	-40.0	22.4	0.00e+00	8	40	0	794820608	50	6397
2026-01-18 20:34:44.78	350.77	13.65	-38.9	-40.0	22.4	0.00e+00	0	40	0	795869184	50	6416
2026-01-18 20:34:45.79	350.58	13.61	-39.3	-40.4	22.0	0.00e+00	5	41	0	797966336	50	6735
2026-01-18 20:34:46.80	350.39	13.57	-39.6	-40.7	21.7	0.00e+00	0	40	0	800063488	50	6974
2026-01-18 20:34:47.81	350.20	13.53	-39.8	-41.0	21.4	0.00e+00	92	41	0	802160640	52	6402
2026-01-18 20:34:48.82	350.02	13.49	-40.2	-41.4	21.2	0.00e+00	25	40	0	804257792	52	6752
2026-01-18 20:34:49.82	349.83	13.45	-40.1	-41.3	21.3	0.00e+00	0	40	0	806354944	52	6652
2026-01-18 20:34:50.83	349.65	13.41	-40.0	-41.1	21.4	0.00e+00	0	40	0	807403520	52	6524
2026-01-18 20:34:51.84	349.46	13.37	-40.2	-41.4	21.2	0.00e+00	0	40	0	809500672	52	6702
2026-01-18 20:34:52.85	349.27	13.33	-40.0	-41.2	21.2	0.00e+00	62	40	0	811597824	52	6599
2026-01-18 20:34:53.86	349.09	13.29	-39.8	-40.9	21.6	0.00e+00	0	40	0	813694976	52	6360
2026-01-18 20:34:54.87	348.91	13.25	-39.9	-41.1	21.4	0.00e+00	92	40	0	815792128	52	6468
2026-01-18 20:34:55.88	348.72	13.21	-39.8	-41.0	21.5	0.00e+00	0	41	0	816840704	52	6431
2026-01-18 20:34:56.89	348.54	13.17	-40.0	-41.1	21.2	0.00e+00	0	41	0	818937856	52	6535
2026-01-18 20:34:57.90	348.36	13.13	-39.9	-41.1	21.5	0.00e+00	0	40	0	821035008	52	6491
2026-01-18 20:34:58.91	348.17	13.09	-40.2	-41.4	21.0	0.00e+00	0	41	0	823132160	52	6736
2026-01-18 20:34:59.92	347.99	13.05	-40.1	-41.3	21.4	0.00e+00	92	41	0	825229312	52	6637
2026-01-18 20:35:00.93	347.81	13.00	-40.2	-41.4	21.3	0.00e+00	0	41	0	826277888	52	6738
2026-01-18 20:35:01.94	347.63	12.96	-40.0	-41.2	21.5	0.00e+00	92	41	0	828375040	52	6542
2026-01-18 20:35:02.94	347.45	12.92	-40.0	-41.1	21.6	0.00e+00	0	41	0	830472192	52	6498
2026-01-18 20:35:03.95	347.27	12.88	-39.9	-41.0	21.5	0.00e+00	61	41	0	832569344	52	6423
2026-01-18 20:35:04.97	347.09	12.83	-39.8	-40.9	21.6	0.00e+00	0	41	0	834666496	52	6352
2026-01-18 20:35:05.97	346.92	12.79	-39.9	-41.0	21.5	0.00e+00	0	40	0	835715072	52	6463
2026-01-18 20:35:06.98	346.74	12.75	-39.9	-41.0	21.5	0.00e+00	0	41	0	837812224	52	6446
2026-01-18 20:35:07.99	346.56	12.70	-40.1	-41.2	21.4	0.00e+00	0	41	0	839909376	52	6612
2026-01-18 20:35:09.00	346.39	12.66	-40.1	-41.3	21.3	0.00e+00	58	41	0	842006528	52	6617
2026-01-18 20:35:10.01	346.21	12.62	-39.9	-41.0	21.4	0.00e+00	0	41	0	844103680	52	6464
2026-01-18 20:35:11.02	346.03	12.57	-39.9	-41.0	21.5	0.00e+00	66	40	0	845152256	52	6441
2026-01-18 20:35:12.03	345.86	12.53	-39.9	-41.0	21.6	0.00e+00	0	41	0	847249408	52	6391
2026-01-18 20:35:13.04	345.68	12.48	-39.2	-40.2	22.3	0.00e+00	0	41	0	849346560	52	5859
2026-01-18 20:35:14.05	345.51	12.44	-39.2	-40.3	22.2	0.00e+00	0	40	0	851443712	52	5900
2026-01-18 20:35:15.06	345.34	12.39	-39.4	-40.4	22.0	0.00e+00	0	41	0	853540864	52	6004
2026-01-18 20:35:16.06	345.16	12.35	-39.4	-40.4	22.0	0.00e+00	10	40	0	854589440	52	5991
2026-01-18 20:35:17.07	344.99	12.30	-39.4	-40.5	21.9	0.00e+00	0	41	0	856686592	52	6045
2026-01-18 20:35:18.08	344.82	12.26	-39.7	-40.8	21.6	0.00e+00	92	41	0	858783744	52	6304
2026-01-18 20:35:19.09	344.65	12.21	-39.8	-40.9	21.5	0.00e+00	0	41	0	860880896	52	6340
2026-01-18 20:35:20.10	344.48	12.17	-40.1	-41.2	21.3	0.00e+00	0	41	0	862978048	52	6592
2026-01-18 20:35:21.11	344.31	12.12	-40.4	-41.6	20.9	0.00e+00	0	41	0	864026624	52	6924
2026-01-18 20:35:22.12	344.14	12.08	-40.5	-41.7	20.8	0.00e+00	0	41	0	866123776	52	7000
2026-01-18 20:35:23.13	343.97	12.03	-40.5	-41.7	20.8	0.00e+00	10	41	0	868220928	52	6987
2026-01-18 20:35:24.14	343.80	11.98	-40.6	-41.9	20.7	0.00e+00	0	41	0	870318080	52	7122
2026-01-18 20:35:25.15	343.63	11.94	-40.4	-41.7	20.8	0.00e+00	50	41	0	872415232	52	6936
2026-01-18 20:35:26.16	343.46	11.89	-40.7	-41.9	20.7	0.00e+00	0	41	0	873463808	52	7165
2026-01-18 20:35:27.16	343.30	11.84	-40.3	-41.5	21.1	0.00e+00	0	41	0	875560960	52	6804
2026-01-18 20:35:28.17	343.13	11.80	-40.3	-41.6	21.1	0.00e+00	0	41	0	877658112	52	6855
2026-01-18 20:35:29.18	342.97	11.75	-40.1	-41.3	21.2	0.00e+00	0	41	0	879755264	52	6637
2026-01-18 20:35:30.19	342.80	11.70	-40.3	-41.5	21.0	0.00e+00	46	41	0	881852416	52	6799
2026-01-18 20:35:31.20	342.64	11.66	-40.7	-41.9	20.8	0.00e+00	0	41	0	882900992	52	7152
2026-01-18 20:35:32.21	342.47	11.61	-41.0	-42.4	20.3	0.00e+00	90	41	0	884998144	54	6724
2026-01-18 20:35:33.22	342.31	11.56	-41.5	-43.0	19.5	0.00e+00	0	41	0	887095296	54	7206
2026-01-18 20:35:34.23	342.14	11.51	-42.4	-44.1	18.8	0.00e+00	0	41	0	889192448	56	7256
2026-01-18 20:35:35.24	341.98	11.47	-43.0	-44.9	17.9	0.00e+00	0	41	0	891289600	58	7138
2026-01-18 20:35:36.24	341.82	11.42	-43.1	-45.0	17.8	0.00e+00	0	40	0	892338176	58	7205
2026-01-18 20:35:37.25	341.66	11.37	-43.3	-45.4	17.4	0.00e+00	11	40	0	894435328	58	7523
2026-01-18 20:35:38.26	341.50	11.32	-43.4	-45.4	17.5	0.00e+00	0	41	0	896532480	58	7562
2026-01-18 20:35:39.27	341.34	11.27	-42.9	-44.8	18.1	0.00e+00	92	41	0	898629632	58	7068
2026-01-18 20:35:40.28	341.18	11.22	-42.7	-44.5	18.5	0.00e+00	0	41	0	900726784	58	6800
2026-01-18 20:35:41.29	341.02	11.18	-42.7	-44.5	18.5	0.00e+00	2	41	0	902823936	58	6824
2026-01-18 20:35:42.30	340.86	11.13	-42.6	-44.4	18.7	0.00e+00	0	41	0	903872512	58	6707
2026-01-18 20:35:43.31	340.70	11.08	-42.2	-43.8	18.8	0.00e+00	0	41	0	905969664	58	6308
2026-01-18 20:35:44.32	340.54	11.03	-42.0	-43.6	19.0	0.00e+00	0	41	0	908066816	58	6168
2026-01-18 20:35:45.32	340.39	10.98	-42.0	-43.6	19.1	0.00e+00	0	41	0	910163968	58	6123
2026-01-18 20:35:46.33	340.23	10.93	-42.2	-43.8	19.1	0.00e+00	0	41	0	912261120	58	6274
2026-01-18 20:35:47.34	340.07	10.88	-41.8	-43.3	19.4	0.00e+00	0	41	0	913309696	58	5952
2026-01-18 20:35:48.35	339.92	10.83	-41.4	-42.8	19.9	0.00e+00	48	41	0	915406848	56	6314
2026-01-18 20:35:49.36	339.76	10.78	-41.2	-42.6	20.1	0.00e+00	0	41	0	917504000	56	6125
2026-01-18 20:35:50.37	339.61	10.73	-41.2	-42.5	20.2	0.00e+00	0	41	0	919601152	56	6082
2026-01-18 20:35:51.38	339.45	10.68	-40.8	-42.1	20.5	0.00e+00	0	41	0	921698304	56	5788
2026-01-18 20:35:52.39	339.30	10.63	-40.8	-42.1	20.5	0.00e+00	0	41	0	922746880	56	5817
2026-01-18 20:35:53.40	339.15	10.58	-40.9	-42.2	20.4	0.00e+00	57	41	0	924844032	56	5868
2026-01-18 20:35:54.41	339.00	10.53	-41.0	-42.3	20.2	0.00e+00	9	41	0	926941184	56	5960
2026-01-18 20:35:55.42	338.84	10.48	-41.0	-42.3	20.3	0.00e+00	92	41	0	929038336	56	5923
2026-01-18 20:35:56.43	338.69	10.43	-41.0	-42.3	20.2	0.00e+00	0	41	0	931135488	56	5926
2026-01-18 20:35:57.44	338.54	10.38	-41.0	-42.3	20.2	0.00e+00	10	41	0	932184064	56	5932
2026-01-18 20:35:58.45	338.39	10.33	-41.0	-42.3	20.3	0.00e+00	0	41	0	934281216	56	5908
2026-01-18 20:35:59.46	338.24	10.28	-40.8	-42.1	20.3	0.00e+00	0	41	0	936378368	56	5797
2026-01-18 20:36:00.46	338.09	10.23	-40.8	-42.1	20.5	0.00e+00	8	41	0	938475520	56	5775
2026-01-18 20:36:01.47	337.94	10.18	-40.5	-41.7	20.8	0.00e+00	0	41	0	940572672	54	6189
2026-01-18 20:36:02.48	337.80	10.13	-40.3	-41.5	20.8	0.00e+00	92	41	0	941621248	54	6095
2026-01-18 20:36:03.49	337.65	10.08	-40.3	-41.5	21.0	0.00e+00	0	41	0	943718400	54	6100
2026-01-18 20:36:04.50	337.50	10.03	-40.4	-41.6	20.8	0.00e+00	0	41	0	945815552	54	6122
2026-01-18 20:36:05.51	337.35	9.98	-40.4	-41.6	20.8	0.00e+00	0	41	0	947912704	54	6158
2026-01-18 20:36:06.52	337.21	9.93	-40.4	-41.6	20.9	0.00e+00	0	41	0	950009856	54	6133
2026-01-18 20:36:07.53	337.06	9.88	-40.4	-41.7	20.7	0.00e+00	77	41	0	951058432	54	6199
2026-01-18 20:36:08.54	336.92	9.82	-40.6	-41.8	20.6	0.00e+00	0	41	0	953155584	54	6297
2026-01-18 20:36:09.55	336.77	9.77	-40.6	-41.9	20.6	0.00e+00	76	41	0	955252736	54	6318
2026-01-18 20:36:10.56	336.63	9.72	-40.6	-41.9	20.6	0.00e+00	0	41	0	957349888	54	6331
2026-01-18 20:36:11.57	336.48	9.67	-40.8	-42.1	20.4	0.00e+00	0	41	0	959447040	54	6491
2026-01-18 20:36:12.58	336.34	9.62	-40.9	-42.2	20.2	0.00e+00	0	41	0	960495616	54	6577
2026-01-18 20:36:13.59	336.20	9.57	-41.0	-42.3	20.1	0.00e+00	0	41	0	962592768	54	6683
2026-01-18 20:36:14.60	336.06	9.52	-41.0	-42.3	20.2	0.00e+00	10	41	0	964689920	54	6667
2026-01-18 20:36:15.37	335.95	9.48	-41.2	-42.6	20.1	0.00e+00	0	41	0	966787072	54	6857
2026-01-18 20:36:16.56	335.78	9.42	-41.2	-42.6	20.1	0.00e+00	91	41	0	968884224	54	6861
2026-01-18 20:36:17.43	335.66	9.37	-41.1	-42.5	20.1	0.00e+00	0	41	0	970981376	54	6780
2026-01-18 20:36:18.58	335.50	9.31	-41.1	-42.5	20.0	0.00e+00	0	41	0	973078528	54	6770
2026-01-18 20:36:19.44	335.38	9.27	-40.9	-42.3	20.1	0.00e+00	0	41	0	974127104	54	6645
2026-01-18 20:36:20.60	335.22	9.21	-40.9	-42.3	20.2	0.00e+00	0	41	0	976224256	54	6624
2026-01-18 20:36:21.46	335.10	9.16	-40.7	-42.0	20.4	0.00e+00	0	41	0	978321408	54	6430
2026-01-18 20:36:22.62	334.95	9.10	-40.6	-41.9	20.4	0.00e+00	0	41	0	980418560	54	6365
2026-01-18 20:36:23.48	334.83	9.06	-40.7	-42.0	20.4	0.00e+00	92	41	0	981467136	54	6439
2026-01-18 20:36:24.64	334.67	9.00	-40.8	-42.1	20.3	0.00e+00	0	41	0	983564288	54	6480
2026-01-18 20:36:25.50	334.56	8.96	-40.6	-41.8	20.5	0.00e+00	74	41	0	985661440	54	6316
2026-01-18 20:36:26.65	334.40	8.90	-40.5	-41.8	20.6	0.00e+00	0	41	0	987758592	54	6271
2026-01-18 20:36:27.52	334.28	8.85	-40.5	-41.8	20.6	0.00e+00	0	41	0	989855744	54	6253
2026-01-18 20:36:28.68	334.13	8.79	-40.4	-41.7	20.8	0.00e+00	9	41	0	991952896	54	6183
2026-01-18 20:36:29.54	334.01	8.75	-40.1	-41.3	21.1	0.00e+00	0	41	0	993001472	54	5900
2026-01-18 20:36:30.69	333.86	8.69	-39.9	-41.1	21.2	0.00e+00	75	41	0	995098624	54	5779
2026-01-18 20:36:31.56	333.75	8.64	-39.7	-40.8	21.4	0.00e+00	0	41	0	997195776	54	5627
2026-01-18 20:36:32.71	333.59	8.58	-39.5	-40.6	21.6	0.00e+00	0	41	0	999292928	52	6172
2026-01-18 20:36:33.58	333.48	8.54	-39.4	-40.5	21.7	0.00e+00	0	41	0	1000341504	52	6068
2026-01-18 20:36:34.73	333.33	8.48	-39.7	-40.8	21.5	0.00e+00	0	41	0	1002438656	52	6279
2026-01-18 20:36:35.59	333.22	8.43	-39.6	-40.7	21.5	0.00e+00	0	41	0	1004535808	52	6215
2026-01-18 20:36:36.75	333.07	8.37	-39.7	-40.8	21.6	0.00e+00	0	41	0	1006632960	52	6282
2026-01-18 20:36:37.61	332.96	8.33	-39.7	-40.9	21.4	0.00e+00	84	41	0	1008730112	52	6344
2026-01-18 20:36:38.77	332.81	8.27	-39.7	-40.8	21.4	0.00e+00	0	41	0	1010827264	52	6276
2026-01-18 20:36:39.63	332.70	8.22	-39.7	-40.9	21.4	0.00e+00	77	41	0	1011875840	52	6327
2026-01-18 20:36:40.79	332.55	8.16	-39.9	-41.1	21.2	0.00e+00	0	41	0	1013972992	52	6490
2026-01-18 20:36:41.65	332.44	8.12	-39.8	-40.9	21.3	0.00e+00	0	41	0	1016070144	52	6376
2026-01-18 20:36:42.81	332.29	8.05	-39.7	-40.9	21.4	0.00e+00	3	41	0	1018167296	52	6339
2026-01-18 20:36:43.67	332.18	8.01	-39.7	-40.9	21.4	0.00e+00	0	41	0	1019215872	52	6340
2026-01-18 20:36:44.83	332.04	7.95	-39.8	-40.9	21.3	0.00e+00	90	41	0	1022361600	52	6378
2026-01-18 20:36:45.69	331.93	7.90	-39.5	-40.6	21.6	0.00e+00	0	41	0	1023410176	52	6152
2026-01-18 20:36:46.85	331.78	7.84	-39.6	-40.7	21.6	0.00e+00	78	41	0	1025507328	52	6202
2026-01-18 20:36:47.71	331.68	7.80	-39.4	-40.5	21.8	0.00e+00	0	41	0	1027604480	52	6036
2026-01-18 20:36:48.87	331.53	7.74	-39.4	-40.5	21.7	0.00e+00	0	41	0	1029701632	52	6089
2026-01-18 20:36:49.73	331.43	7.69	-39.5	-40.7	21.6	0.00e+00	0	41	0	1030750208	52	6179
2026-01-18 20:36:50.89	331.28	7.63	-39.7	-40.8	21.3	0.00e+00	0	41	0	1032847360	52	6292
2026-01-18 20:36:51.75	331.18	7.59	-39.7	-40.9	21.3	0.00e+00	11	41	0	1034944512	52	6349
2026-01-18 20:36:52.90	331.04	7.53	-39.9	-41.1	21.1	0.00e+00	0	41	0	1037041664	52	6469
2026-01-18 20:36:53.76	330.93	7.48	-40.0	-41.2	21.0	0.00e+00	92	41	0	1039138816	52	6569
2026-01-18 20:36:54.92	330.79	7.42	-40.0	-41.2	21.1	0.00e+00	0	41	0	1041235968	52	6562
2026-01-18 20:36:55.78	330.69	7.37	-40.3	-41.6	20.7	0.00e+00	91	41	0	1042284544	52	6884
2026-01-18 20:36:56.94	330.55	7.31	-40.3	-41.5	20.8	0.00e+00	0	41	0	1044381696	52	6819
2026-01-18 20:36:57.81	330.44	7.27	-40.4	-41.7	20.5	0.00e+00	0	41	0	1046478848	52	6940
2026-01-18 20:36:58.96	330.30	7.21	-40.5	-41.7	20.6	0.00e+00	8	41	0	1048576000	52	6982
2026-01-18 20:36:59.82	330.20	7.16	-40.5	-41.8	20.5	0.00e+00	0	41	0	1049624576	52	7056
2026-01-18 20:37:00.98	330.06	7.10	-40.4	-41.7	20.6	0.00e+00	72	41	0	1051721728	52	6971
2026-01-18 20:37:01.84	329.96	7.06	-40.2	-41.4	20.8	0.00e+00	0	41	0	1053818880	52	6763
2026-01-18 20:37:03.00	329.83	6.99	-40.3	-41.6	20.8	0.00e+00	0	41	0	1055916032	52	6872
2026-01-18 20:37:03.86	329.72	6.95	-40.2	-41.5	20.8	0.00e+00	0	41	0	1058013184	52	6777
2026-01-18 20:37:05.02	329.59	6.89	-40.5	-41.8	20.5	0.00e+00	0	41	0	1060110336	52	7019
2026-01-18 20:37:05.88	329.49	6.84	-40.4	-41.7	20.6	0.00e+00	0	41	0	1061158912	52	6970
2026-01-18 20:37:07.03	329.36	6.78	-40.3	-41.6	20.6	0.00e+00	0	41	0	1063256064	52	6856
2026-01-18 20:37:07.90	329.25	6.74	-40.2	-41.4	20.8	0.00e+00	92	41	0	1065353216	52	6736
2026-01-18 20:37:09.05	329.12	6.68	-40.2	-41.4	20.7	0.00e+00	0	41	0	1067450368	52	6697
2026-01-18 20:37:09.91	329.02	6.63	-40.2	-41.4	20.8	0.00e+00	90	41	0	1068498944	52	6732
2026-01-18 20:37:11.07	328.89	6.57	-40.0	-41.2	21.0	0.00e+00	0	41	0	1070596096	52	6598
2026-01-18 20:37:11.93	328.79	6.52	-40.3	-41.5	20.7	0.00e+00	0	41	0	1072693248	52	6788
2026-01-18 20:37:13.08	328.66	6.46	-40.1	-41.2	20.9	0.00e+00	0	41	0	1074790400	52	6613
2026-01-18 20:37:13.95	328.56	6.42	-40.0	-41.2	20.8	0.00e+00	0	41	0	1076887552	52	6582
2026-01-18 20:37:15.11	328.43	6.36	-39.8	-41.0	21.0	0.00e+00	66	41	0	1078984704	52	6416
2026-01-18 20:37:15.97	328.34	6.31	-39.8	-41.0	20.8	0.00e+00	0	41	0	1080033280	52	6400
2026-01-18 20:37:17.12	328.21	6.25	-39.7	-40.8	21.1	7.00e-07	71	41	0	1082130432	52	6301
2026-01-18 20:37:17.99	328.11	6.20	-39.6	-40.7	21.2	2.20e-06	0	41	0	1084227584	52	6200
2026-01-18 20:37:19.14	327.98	6.14	-39.6	-40.8	21.3	0.00e+00	0	41	0	1086324736	52	6251
2026-01-18 20:37:20.01	327.89	6.10	-39.6	-40.7	21.4	0.00e+00	0	41	0	1087373312	52	6224
2026-01-18 20:37:21.16	327.76	6.04	-39.6	-40.8	21.3	0.00e+00	0	41	0	1090519040	52	6271
2026-01-18 20:37:22.02	327.67	5.99	-39.7	-40.9	21.2	0.00e+00	71	41	0	1091567616	52	6332
2026-01-18 20:37:23.18	327.54	5.93	-39.9	-41.1	21.0	0.00e+00	0	41	0	1093664768	52	6511
2026-01-18 20:37:24.04	327.45	5.89	-40.1	-41.3	20.8	0.00e+00	91	41	0	1095761920	52	6659
2026-01-18 20:37:25.20	327.32	5.82	-40.3	-41.5	20.6	0.00e+00	9	41	0	1097859072	52	6843
2026-01-18 20:37:26.06	327.23	5.78	-40.9	-42.2	20.0	0.00e+00	0	41	0	1098907648	52	7404
2026-01-18 20:37:27.21	327.10	5.72	-40.8	-42.1	20.0	0.00e+00	0	41	0	1101004800	54	6522
2026-01-18 20:37:28.08	327.01	5.67	-40.6	-41.9	20.3	0.00e+00	0	41	0	1103101952	54	6331
2026-01-18 20:37:29.23	326.89	5.61	-41.0	-42.5	19.8	0.00e+00	5	41	0	1105199104	54	6775
2026-01-18 20:37:30.10	326.79	5.57	-41.0	-42.4	19.7	0.00e+00	0	41	0	1107296256	54	6756
2026-01-18 20:37:31.25	326.67	5.51	-40.9	-42.3	19.8	0.00e+00	92	41	0	1109393408	54	6676
2026-01-18 20:37:32.12	326.58	5.46	-41.0	-42.4	19.8	0.00e+00	0	41	0	1110441984	54	6696
2026-01-18 20:37:33.27	326.46	5.40	-40.8	-42.2	19.8	0.00e+00	0	41	0	1112539136	54	6568
2026-01-18 20:37:34.14	326.37	5.35	-40.6	-41.9	20.2	0.00e+00	0	41	0	1114636288	54	6363
2026-01-18 20:37:35.29	326.25	5.29	-40.5	-41.8	20.3	0.00e+00	0	41	0	1116733440	54	6294
2026-01-18 20:37:36.16	326.16	5.25	-40.5	-41.8	20.3	0.00e+00	0	41	0	1117782016	54	6262
2026-01-18 20:37:37.31	326.04	5.19	-40.0	-41.2	20.9	0.00e+00	0	41	0	1119879168	54	5832
2026-01-18 20:37:38.18	325.95	5.14	-40.0	-41.3	20.6	0.00e+00	49	41	0	1121976320	54	5898
2026-01-18 20:37:39.33	325.83	5.08	-39.9	-41.1	20.9	0.00e+00	0	41	0	1124073472	54	5762
2026-01-18 20:37:40.19	325.74	5.04	-39.9	-41.1	20.9	0.00e+00	92	41	0	1126170624	54	5795
2026-01-18 20:37:41.35	325.62	4.98	-40.0	-41.2	20.7	0.00e+00	0	41	0	1128267776	54	5868
2026-01-18 20:37:42.21	325.54	4.93	-40.1	-41.3	20.6	0.00e+00	0	41	0	1129316352	54	5948
2026-01-18 20:37:43.36	325.42	4.87	-40.0	-41.2	20.7	0.00e+00	26	41	0	1131413504	54	5837
2026-01-18 20:37:44.23	325.33	4.83	-39.8	-41.0	20.8	0.00e+00	4	41	0	1133510656	54	5721
2026-01-18 20:37:45.38	325.22	4.77	-40.4	-41.7	20.3	0.00e+00	72	41	0	1135607808	54	6202
2026-01-18 20:37:46.25	325.13	4.72	-40.2	-41.4	20.4	0.00e+00	0	41	0	1136656384	54	6008
2026-01-18 20:37:47.40	325.01	4.66	-40.6	-41.9	20.0	0.00e+00	53	41	0	1138753536	54	6359
2026-01-18 20:37:48.27	324.93	4.61	-40.6	-42.0	19.9	0.00e+00	27	41	0	1140850688	54	6408
2026-01-18 20:37:49.42	324.81	4.55	-40.8	-42.2	19.8	0.00e+00	0	41	0	1142947840	54	6564
2026-01-18 20:37:50.29	324.73	4.51	-40.8	-42.1	19.8	0.00e+00	0	41	0	1145044992	54	6521
2026-01-18 20:37:51.44	324.61	4.45	-41.1	-42.5	19.5	0.00e+00	0	41	0	1147142144	54	6841
2026-01-18 20:37:52.30	324.53	4.40	-41.3	-42.8	19.2	0.00e+00	91	41	0	1148190720	54	7012
2026-01-18 20:37:53.46	324.42	4.34	-41.5	-43.1	18.9	0.00e+00	0	41	0	1150287872	54	7271
2026-01-18 20:37:54.32	324.33	4.30	-41.7	-43.3	18.7	0.00e+00	91	41	0	1152385024	54	7476
2026-01-18 20:37:55.48	324.22	4.24	-42.0	-43.7	18.4	0.00e+00	0	41	0	1154482176	56	6928
2026-01-18 20:37:56.34	324.14	4.19	-42.2	-44.0	18.1	0.00e+00	0	41	0	1155530752	56	7190
2026-01-18 20:37:57.50	324.03	4.13	-42.4	-44.2	17.9	0.00e+00	0	41	0	1158676480	56	7372
2026-01-18 20:37:58.36	323.94	4.09	-42.4	-44.2	17.9	0.00e+00	0	41	0	1159725056	56	7421
2026-01-18 20:37:59.51	323.83	4.03	-42.6	-44.5	17.6	0.00e+00	3	41	0	1161822208	56	7650
2026-01-18 20:38:00.38	323.75	3.98	-42.3	-44.1	17.8	0.00e+00	0	41	0	1163919360	56	7315
2026-01-18 20:38:01.53	323.64	3.92	-42.4	-44.3	17.8	0.00e+00	25	41	0	1166016512	56	7462
2026-01-18 20:38:02.40	323.56	3.88	-42.6	-44.5	17.4	0.00e+00	0	41	0	1167065088	58	6832
2026-01-18 20:38:03.54	323.45	3.82	-42.6	-44.6	17.4	0.00e+00	0	41	0	1169162240	58	6859
2026-01-18 20:38:04.41	323.37	3.77	-42.4	-44.2	17.7	0.00e+00	0	41	0	1171259392	58	6587
2026-01-18 20:38:05.56	323.26	3.71	-42.1	-43.8	18.2	0.00e+00	0	41	0	1173356544	58	6307
2026-01-18 20:38:06.43	323.18	3.67	-42.3	-44.1	17.8	0.00e+00	0	41	0	1174405120	58	6512
2026-01-18 20:38:07.58	323.07	3.61	-42.4	-44.2	17.9	0.00e+00	0	41	0	1176502272	58	6604
2026-01-18 20:38:08.45	322.99	3.56	-42.4	-44.3	17.5	0.00e+00	92	41	0	1178599424	58	6680
2026-01-18 20:38:09.60	322.89	3.50	-42.5	-44.5	17.2	0.00e+00	0	41	0	1180696576	58	6778
2026-01-18 20:38:10.47	322.81	3.46	-42.0	-43.7	18.1	0.00e+00	92	41	0	1182793728	58	6239
2026-01-18 20:38:11.62	322.70	3.40	-42.6	-44.6	17.2	0.00e+00	0	41	0	1184890880	58	6897
2026-01-18 20:38:12.48	322.63	3.36	-43.0	-45.1	16.9	0.00e+00	0	41	0	1185939456	58	7300
2026-01-18 20:38:13.64	322.52	3.30	-42.9	-45.0	16.9	0.00e+00	64	41	0	1188036608	58	7226
2026-01-18 20:38:14.50	322.44	3.25	-43.1	-45.4	16.6	0.00e+00	0	41	0	1190133760	58	7529
2026-01-18 20:38:15.65	322.34	3.19	-42.9	-45.1	16.8	0.00e+00	92	41	0	1192230912	58	7262
2026-01-18 20:38:16.52	322.26	3.15	-43.0	-45.1	16.7	0.00e+00	0	41	0	1193279488	58	7318
