passes_logs/2026/01/18/R4.6S_Anadyr/R4.6S_Anadyr__20260118_184807_SUOMI_NPP_rec.log

#Pass ID: 20260118_184807_SUOMI NPP
#Satellite: SUOMI NPP
#Configuration: NPP
#almurnet v.1.7.20251203
#Start time: 2026-01-18 18:48:10

#Version: 2.2.20231116
#Station: R4.6S_Anadyr
#Location: 177.4865 lon 64.73178 lat
#TLE: 1 37849U 11061A   26017.57099531  .00000072  00000+0  54974-4 0  9996
#TLE: 2 37849  98.7814 319.5974 0002398  59.1749 300.9663 14.19525865737072

#Time	Az	El	Level	Level2	SNR	BER	BlckErr	Temp	State	Recorded	gain1	gain2
2026-01-18 18:48:10.89	43.74	0.15	-49.7	-63.4	3.3	1.54e+00	0	39	0	0	60	53630
2026-01-18 18:48:11.90	43.67	0.20	-49.6	-64.9	3.6	1.51e+00	0	39	104	0	60	63696
2026-01-18 18:48:12.91	43.59	0.25	-49.7	-64.9	3.6	1.51e+00	0	39	104	0	60	63870
2026-01-18 18:48:13.92	43.52	0.30	-49.7	-65.0	3.6	1.51e+00	0	39	104	0	60	63955
2026-01-18 18:48:14.93	43.44	0.35	-49.8	-64.9	3.6	1.51e+00	0	39	104	0	60	63876
2026-01-18 18:48:15.94	43.37	0.40	-49.7	-65.0	3.6	1.51e+00	0	40	104	0	60	64156
2026-01-18 18:48:16.95	43.29	0.45	-49.8	-64.9	3.6	1.51e+00	0	40	104	0	60	63879
2026-01-18 18:48:17.96	43.21	0.50	-49.8	-65.0	3.6	1.51e+00	0	40	104	0	60	64040
2026-01-18 18:48:18.97	43.14	0.55	-49.8	-65.0	3.6	1.51e+00	0	40	104	0	60	64035
2026-01-18 18:48:19.98	43.06	0.60	-49.7	-65.0	3.6	1.51e+00	0	40	104	0	60	64141
2026-01-18 18:48:20.99	42.99	0.65	-49.7	-64.9	3.6	1.51e+00	0	40	104	0	60	63376
2026-01-18 18:48:22.00	42.91	0.70	-49.6	-64.9	3.6	1.51e+00	0	40	104	0	60	63635
2026-01-18 18:48:23.01	42.83	0.75	-49.7	-64.9	3.6	1.51e+00	0	40	104	0	60	63309
2026-01-18 18:48:24.02	42.75	0.80	-49.6	-64.9	3.6	1.51e+00	0	40	104	0	60	63277
2026-01-18 18:48:25.03	42.68	0.85	-49.6	-64.8	3.6	1.51e+00	0	40	104	0	60	62842
2026-01-18 18:48:26.05	42.60	0.90	-49.5	-64.8	3.6	1.51e+00	0	40	104	0	60	62477
2026-01-18 18:48:27.06	42.52	0.95	-49.4	-64.6	3.5	1.51e+00	0	40	104	0	60	61612
2026-01-18 18:48:28.07	42.44	1.00	-49.4	-64.6	3.6	1.51e+00	0	40	104	0	60	61479
2026-01-18 18:48:29.08	42.36	1.05	-49.3	-64.5	3.6	1.51e+00	0	40	104	0	60	60650
2026-01-18 18:48:30.09	42.28	1.10	-49.1	-64.3	3.6	1.51e+00	0	39	104	0	60	59478
2026-01-18 18:48:31.10	42.20	1.15	-49.0	-64.2	3.5	1.51e+00	0	40	104	0	60	58646
2026-01-18 18:48:32.11	42.13	1.20	-48.7	-63.9	3.6	1.51e+00	0	40	104	0	60	56868
2026-01-18 18:48:33.12	42.05	1.26	-48.4	-63.6	3.6	1.51e+00	0	40	104	0	60	54411
2026-01-18 18:48:34.13	41.97	1.31	-47.8	-63.0	3.6	1.51e+00	0	40	104	0	60	51316
2026-01-18 18:48:35.14	41.88	1.36	-47.8	-63.0	3.6	1.51e+00	0	40	104	0	60	51079
2026-01-18 18:48:36.15	41.80	1.41	-47.8	-63.0	3.6	1.51e+00	0	40	104	0	60	51126
2026-01-18 18:48:37.16	41.72	1.46	-47.8	-63.0	3.6	1.51e+00	0	40	104	0	60	51098
2026-01-18 18:48:38.17	41.64	1.51	-47.8	-63.0	3.6	1.51e+00	0	40	104	0	60	50950
2026-01-18 18:48:39.18	41.56	1.56	-47.8	-63.0	3.6	1.51e+00	0	40	104	0	60	50898
2026-01-18 18:48:40.19	41.48	1.61	-47.8	-63.0	3.6	1.51e+00	0	40	104	0	60	50895
2026-01-18 18:48:41.20	41.40	1.66	-47.8	-63.0	3.6	1.51e+00	0	40	104	0	60	50835
2026-01-18 18:48:42.21	41.31	1.71	-47.8	-63.0	3.6	1.51e+00	0	40	104	0	60	51063
2026-01-18 18:48:43.22	41.23	1.76	-47.8	-63.0	3.6	1.51e+00	0	40	104	0	60	50999
2026-01-18 18:48:44.23	41.15	1.81	-47.8	-63.0	3.6	1.51e+00	0	40	104	0	60	51125
2026-01-18 18:48:45.24	41.06	1.86	-47.8	-63.0	3.6	1.51e+00	0	40	104	0	60	50882
2026-01-18 18:48:46.25	40.98	1.92	-47.8	-63.0	3.6	1.51e+00	0	40	104	0	60	50805
2026-01-18 18:48:47.26	40.90	1.97	-47.8	-62.9	3.6	1.51e+00	0	40	104	0	60	50468
2026-01-18 18:48:48.27	40.81	2.02	-47.8	-62.8	3.6	1.51e+00	0	40	104	0	60	50123
2026-01-18 18:48:49.28	40.73	2.07	-47.7	-62.5	3.6	1.51e+00	0	40	104	0	60	48201
2026-01-18 18:48:50.29	40.64	2.12	-47.7	-62.5	3.6	1.51e+00	0	40	104	0	60	48461
2026-01-18 18:48:51.30	40.56	2.17	-47.7	-62.6	3.6	1.51e+00	0	40	104	0	60	48482
2026-01-18 18:48:52.31	40.47	2.22	-47.7	-62.8	3.6	1.51e+00	0	40	104	0	60	49828
2026-01-18 18:48:53.32	40.39	2.27	-47.8	-62.9	3.5	1.51e+00	0	40	104	0	60	50630
2026-01-18 18:48:54.33	40.30	2.32	-47.8	-63.0	3.6	1.51e+00	0	40	104	0	60	50943
2026-01-18 18:48:55.34	40.21	2.38	-47.7	-62.8	3.6	1.51e+00	0	40	104	0	60	49966
2026-01-18 18:48:56.35	40.13	2.43	-47.7	-62.5	3.6	1.51e+00	0	40	104	0	60	48208
2026-01-18 18:48:57.36	40.04	2.48	-47.7	-62.7	3.6	1.51e+00	0	40	104	0	60	49572
2026-01-18 18:48:58.37	39.95	2.53	-47.7	-62.8	3.6	1.51e+00	0	40	104	0	60	49756
2026-01-18 18:48:59.38	39.86	2.58	-47.7	-62.8	3.6	1.51e+00	0	40	104	0	60	49817
2026-01-18 18:49:00.39	39.78	2.63	-47.7	-62.4	3.6	1.51e+00	0	40	104	0	60	47470
2026-01-18 18:49:01.40	39.69	2.68	-47.7	-61.5	3.6	1.51e+00	0	40	104	0	60	43019
2026-01-18 18:49:02.41	39.60	2.74	-47.7	-61.1	3.6	1.51e+00	0	40	104	0	60	40826
2026-01-18 18:49:03.42	39.51	2.79	-47.7	-61.8	3.6	1.50e+00	0	40	104	0	60	44693
2026-01-18 18:49:04.43	39.42	2.84	-47.7	-62.2	3.6	1.51e+00	0	40	104	0	60	46329
2026-01-18 18:49:05.44	39.33	2.89	-47.7	-60.9	3.6	1.51e+00	0	40	104	0	60	40318
2026-01-18 18:49:06.45	39.24	2.94	-47.5	-58.2	4.5	1.41e+00	5	40	104	0	60	29383
2026-01-18 18:49:07.46	39.15	2.99	-47.1	-54.6	6.4	5.03e-01	0	40	0	1048576	60	19421
2026-01-18 18:49:08.47	39.06	3.05	-47.6	-57.2	3.8	1.60e-01	0	40	0	3145728	60	26138
2026-01-18 18:49:09.48	38.97	3.10	-47.8	-58.8	4.2	1.51e+00	0	40	104	3145728	60	31594
2026-01-18 18:49:10.49	38.88	3.15	-46.5	-52.3	7.0	1.02e-01	0	40	0	3145728	60	14872
2026-01-18 18:49:11.50	38.79	3.20	-47.8	-62.7	3.6	1.51e+00	0	40	104	3145728	60	49469
2026-01-18 18:49:12.51	38.70	3.25	-45.8	-50.1	5.8	1.43e+00	27	40	104	3145728	60	11566
2026-01-18 18:49:13.52	38.60	3.30	-45.0	-48.4	14.0	2.36e-05	0	40	0	3145728	60	9514
2026-01-18 18:49:14.53	38.51	3.36	-44.7	-47.7	13.9	0.00e+00	0	40	0	5242880	60	8806
2026-01-18 18:49:15.54	38.42	3.41	-44.0	-46.6	15.6	0.00e+00	0	40	0	6291456	60	7733
2026-01-18 18:49:16.55	38.32	3.46	-43.9	-46.3	15.8	0.00e+00	0	40	0	8388608	60	7500
2026-01-18 18:49:17.56	38.23	3.51	-43.7	-46.0	16.0	0.00e+00	0	40	0	10485760	60	7228
2026-01-18 18:49:18.57	38.14	3.56	-43.5	-45.8	16.3	0.00e+00	0	40	0	12582912	60	7052
2026-01-18 18:49:19.58	38.04	3.62	-43.5	-45.8	16.4	0.00e+00	0	40	0	14680064	60	7020
2026-01-18 18:49:20.60	37.95	3.67	-43.4	-45.6	16.3	0.00e+00	0	40	0	15728640	60	6913
2026-01-18 18:49:21.61	37.85	3.72	-43.6	-46.0	15.9	0.00e+00	0	40	0	17825792	60	7175
2026-01-18 18:49:22.62	37.76	3.77	-43.9	-46.4	16.0	0.00e+00	0	40	0	19922944	60	7512
2026-01-18 18:49:23.62	37.66	3.82	-43.7	-46.0	16.1	0.00e+00	0	40	0	22020096	60	7239
2026-01-18 18:49:24.64	37.56	3.88	-43.9	-46.3	15.8	0.00e+00	0	40	0	24117248	60	7474
2026-01-18 18:49:25.65	37.47	3.93	-43.8	-46.1	16.1	0.00e+00	0	40	0	25165824	60	7314
2026-01-18 18:49:26.66	37.37	3.98	-43.7	-46.0	16.1	0.00e+00	0	40	0	27262976	60	7223
2026-01-18 18:49:27.67	37.27	4.03	-43.6	-45.9	16.5	0.00e+00	0	40	0	29360128	60	7160
2026-01-18 18:49:28.68	37.18	4.09	-43.5	-45.7	16.3	0.00e+00	0	40	0	31457280	60	6985
2026-01-18 18:49:29.69	37.08	4.14	-43.4	-45.6	16.7	0.00e+00	0	40	0	33554432	60	6864
2026-01-18 18:49:30.70	36.98	4.19	-43.0	-45.0	17.2	0.00e+00	0	40	0	34603008	60	6454
2026-01-18 18:49:31.71	36.88	4.24	-43.3	-45.5	16.8	0.00e+00	0	40	0	36700160	60	6838
2026-01-18 18:49:32.72	36.78	4.29	-43.6	-45.9	16.5	0.00e+00	0	40	0	38797312	60	7123
2026-01-18 18:49:33.73	36.68	4.35	-43.5	-45.8	16.5	0.00e+00	0	40	0	40894464	60	7048
2026-01-18 18:49:34.74	36.58	4.40	-43.4	-45.6	16.8	0.00e+00	0	40	0	42991616	60	6875
2026-01-18 18:49:35.75	36.48	4.45	-43.6	-45.9	16.4	0.00e+00	0	40	0	45088768	60	7106
2026-01-18 18:49:36.76	36.38	4.50	-43.3	-45.4	17.0	0.00e+00	0	40	0	46137344	60	6734
2026-01-18 18:49:37.77	36.28	4.56	-43.2	-45.2	17.1	0.00e+00	0	40	0	48234496	60	6590
2026-01-18 18:49:38.78	36.18	4.61	-43.2	-45.3	17.1	0.00e+00	0	40	0	50331648	60	6681
2026-01-18 18:49:39.79	36.08	4.66	-43.3	-45.4	17.0	0.00e+00	0	40	0	52428800	60	6764
2026-01-18 18:49:40.80	35.98	4.71	-43.3	-45.4	17.1	0.00e+00	0	40	0	54525952	60	6706
2026-01-18 18:49:41.81	35.88	4.77	-43.2	-45.2	17.2	0.00e+00	0	40	0	55574528	60	6610
2026-01-18 18:49:42.82	35.77	4.82	-43.2	-45.2	17.2	0.00e+00	0	40	0	57671680	60	6609
2026-01-18 18:49:43.83	35.67	4.87	-43.3	-45.4	17.1	0.00e+00	0	40	0	59768832	60	6760
2026-01-18 18:49:44.84	35.57	4.92	-43.1	-45.2	17.3	0.00e+00	0	40	0	61865984	60	6582
2026-01-18 18:49:45.85	35.46	4.98	-43.0	-44.9	17.5	0.00e+00	0	40	0	63963136	60	6390
2026-01-18 18:49:46.86	35.36	5.03	-42.7	-44.5	17.9	0.00e+00	0	40	0	65011712	58	6820
2026-01-18 18:49:47.87	35.25	5.08	-42.8	-44.7	17.7	0.00e+00	0	40	0	67108864	58	6976
2026-01-18 18:49:48.88	35.15	5.13	-42.9	-44.8	17.5	0.00e+00	0	40	0	69206016	58	7060
2026-01-18 18:49:49.89	35.04	5.19	-43.0	-45.0	17.5	0.00e+00	0	40	0	71303168	58	7173
2026-01-18 18:49:50.90	34.94	5.24	-42.8	-44.7	17.7	0.00e+00	0	40	0	73400320	58	6928
2026-01-18 18:49:51.91	34.83	5.29	-42.9	-44.9	17.6	0.00e+00	0	40	0	74448896	58	7111
2026-01-18 18:49:52.92	34.72	5.34	-42.9	-44.9	17.7	0.00e+00	0	40	0	76546048	58	7121
2026-01-18 18:49:53.93	34.62	5.40	-43.0	-45.0	17.4	0.00e+00	0	40	0	78643200	58	7171
2026-01-18 18:49:54.94	34.51	5.45	-43.0	-44.9	17.5	0.00e+00	0	40	0	80740352	58	7168
2026-01-18 18:49:55.95	34.40	5.50	-43.0	-45.0	17.5	0.00e+00	0	40	0	82837504	58	7212
2026-01-18 18:49:56.96	34.29	5.55	-43.1	-45.1	17.4	0.00e+00	0	40	0	84934656	58	7314
2026-01-18 18:49:57.97	34.19	5.61	-43.1	-45.1	17.5	0.00e+00	0	40	0	85983232	58	7294
2026-01-18 18:49:58.98	34.08	5.66	-43.4	-45.5	17.3	0.00e+00	0	40	0	88080384	58	7603
2026-01-18 18:49:59.99	33.97	5.71	-43.0	-44.9	17.7	0.00e+00	0	40	0	90177536	58	7149
2026-01-18 18:50:01.00	33.86	5.76	-42.8	-44.7	17.8	0.00e+00	0	40	0	92274688	58	6964
2026-01-18 18:50:02.00	33.75	5.82	-43.0	-44.9	17.6	0.00e+00	0	40	0	94371840	58	7161
2026-01-18 18:50:03.01	33.64	5.87	-42.9	-44.9	17.3	0.00e+00	0	40	0	95420416	58	7120
2026-01-18 18:50:04.02	33.53	5.92	-42.9	-44.8	17.9	0.00e+00	0	40	0	97517568	58	7063
2026-01-18 18:50:05.03	33.42	5.97	-43.0	-44.9	17.6	0.00e+00	0	40	0	99614720	58	7108
2026-01-18 18:50:06.05	33.30	6.03	-42.9	-44.8	17.9	0.00e+00	0	40	0	101711872	58	7061
2026-01-18 18:50:07.06	33.19	6.08	-42.5	-44.3	18.2	0.00e+00	0	40	0	103809024	58	6672
2026-01-18 18:50:08.06	33.08	6.13	-42.5	-44.3	18.3	0.00e+00	0	40	0	104857600	58	6687
2026-01-18 18:50:09.07	32.97	6.19	-42.7	-44.6	17.9	0.00e+00	0	40	0	106954752	58	6854
2026-01-18 18:50:10.08	32.85	6.24	-42.8	-44.7	17.9	0.00e+00	0	40	0	109051904	58	6946
2026-01-18 18:50:11.09	32.74	6.29	-42.8	-44.6	17.9	0.00e+00	0	40	0	111149056	58	6920
2026-01-18 18:50:12.10	32.62	6.34	-42.9	-44.8	17.8	0.00e+00	0	40	0	113246208	58	7035
2026-01-18 18:50:13.11	32.51	6.40	-42.8	-44.6	17.9	0.00e+00	0	40	0	114294784	58	6887
2026-01-18 18:50:14.12	32.39	6.45	-42.7	-44.5	18.1	0.00e+00	0	40	0	116391936	58	6806
2026-01-18 18:50:15.13	32.28	6.50	-42.5	-44.2	18.4	0.00e+00	0	40	0	118489088	58	6571
2026-01-18 18:50:16.14	32.16	6.55	-42.6	-44.3	18.3	0.00e+00	0	40	0	120586240	58	6667
2026-01-18 18:50:17.15	32.05	6.61	-42.2	-43.8	18.8	0.00e+00	0	40	0	122683392	58	6291
2026-01-18 18:50:18.16	31.93	6.66	-42.2	-43.9	18.6	0.00e+00	0	40	0	123731968	58	6355
2026-01-18 18:50:19.18	31.81	6.71	-42.0	-43.7	19.1	0.00e+00	0	40	0	125829120	58	6175
2026-01-18 18:50:20.19	31.69	6.77	-41.8	-43.3	19.3	0.00e+00	0	40	0	127926272	56	6636
2026-01-18 18:50:21.20	31.57	6.82	-42.1	-43.7	18.8	0.00e+00	0	40	0	130023424	56	6992
2026-01-18 18:50:22.20	31.46	6.87	-42.1	-43.6	19.0	0.00e+00	0	40	0	132120576	56	6908
2026-01-18 18:50:23.22	31.34	6.92	-41.7	-43.2	19.5	0.00e+00	0	40	0	133169152	56	6546
2026-01-18 18:50:24.23	31.22	6.98	-41.6	-43.0	19.6	0.00e+00	0	40	0	135266304	56	6435
2026-01-18 18:50:25.24	31.10	7.03	-41.5	-42.9	19.6	0.00e+00	0	40	0	137363456	56	6346
2026-01-18 18:50:26.25	30.98	7.08	-41.6	-43.0	19.5	0.00e+00	0	40	0	139460608	56	6463
2026-01-18 18:50:27.26	30.85	7.13	-41.6	-43.0	19.3	0.00e+00	0	40	0	141557760	56	6430
2026-01-18 18:50:28.27	30.73	7.19	-41.5	-42.9	19.6	0.00e+00	0	40	0	142606336	56	6374
2026-01-18 18:50:29.28	30.61	7.24	-41.8	-43.3	19.3	0.00e+00	0	40	0	144703488	56	6638
2026-01-18 18:50:30.29	30.49	7.29	-41.7	-43.2	19.4	0.00e+00	0	40	0	146800640	56	6583
2026-01-18 18:50:31.30	30.37	7.34	-41.6	-43.0	19.6	0.00e+00	0	40	0	148897792	56	6447
2026-01-18 18:50:32.31	30.24	7.40	-41.5	-42.9	19.7	0.00e+00	0	40	0	150994944	56	6377
2026-01-18 18:50:33.32	30.12	7.45	-41.7	-43.1	19.5	0.00e+00	0	40	0	153092096	56	6533
2026-01-18 18:50:34.33	30.00	7.50	-41.8	-43.3	19.5	0.00e+00	0	40	0	154140672	56	6623
2026-01-18 18:50:35.34	29.87	7.55	-41.7	-43.2	19.4	0.00e+00	0	40	0	156237824	56	6559
2026-01-18 18:50:36.35	29.75	7.61	-41.8	-43.3	19.3	0.00e+00	0	40	0	158334976	56	6656
2026-01-18 18:50:37.36	29.62	7.66	-42.0	-43.6	19.2	0.00e+00	0	40	0	160432128	56	6852
2026-01-18 18:50:38.37	29.49	7.71	-41.9	-43.4	19.3	0.00e+00	0	40	0	162529280	56	6708
2026-01-18 18:50:39.38	29.37	7.76	-42.0	-43.5	19.2	0.00e+00	0	40	0	163577856	56	6818
2026-01-18 18:50:40.39	29.24	7.82	-42.0	-43.5	19.2	0.00e+00	0	40	0	165675008	56	6819
2026-01-18 18:50:41.40	29.11	7.87	-42.0	-43.6	19.2	0.00e+00	0	40	0	167772160	56	6850
2026-01-18 18:50:42.41	28.99	7.92	-42.1	-43.7	19.2	0.00e+00	0	40	0	169869312	56	6941
2026-01-18 18:50:43.42	28.86	7.97	-42.3	-43.9	18.8	0.00e+00	0	40	0	171966464	56	7110
2026-01-18 18:50:44.43	28.73	8.03	-42.3	-43.9	18.9	0.00e+00	0	40	0	173015040	56	7098
2026-01-18 18:50:45.44	28.60	8.08	-42.1	-43.7	19.0	0.00e+00	0	40	0	175112192	56	6956
2026-01-18 18:50:46.45	28.47	8.13	-42.2	-43.7	19.1	0.00e+00	0	40	0	177209344	56	6995
2026-01-18 18:50:47.46	28.34	8.18	-42.2	-43.8	18.9	0.00e+00	0	40	0	179306496	56	7063
2026-01-18 18:50:48.47	28.21	8.23	-42.4	-44.1	18.9	0.00e+00	0	40	0	181403648	56	7290
2026-01-18 18:50:49.48	28.08	8.29	-42.3	-43.9	19.0	0.00e+00	0	40	0	182452224	56	7129
2026-01-18 18:50:50.49	27.95	8.34	-42.2	-43.7	19.1	0.00e+00	0	40	0	184549376	56	7002
2026-01-18 18:50:51.50	27.81	8.39	-42.1	-43.6	19.0	0.00e+00	0	41	0	186646528	56	6895
2026-01-18 18:50:52.51	27.68	8.44	-42.2	-43.8	19.0	0.00e+00	0	40	0	188743680	56	7008
2026-01-18 18:50:53.52	27.55	8.49	-41.8	-43.3	19.4	0.00e+00	0	40	0	190840832	56	6675
2026-01-18 18:50:54.53	27.41	8.55	-41.8	-43.3	19.5	0.00e+00	0	41	0	191889408	56	6645
2026-01-18 18:50:55.54	27.28	8.60	-41.9	-43.4	19.3	0.00e+00	0	40	0	193986560	56	6748
2026-01-18 18:50:56.55	27.15	8.65	-41.8	-43.2	19.5	0.00e+00	0	41	0	196083712	56	6607
2026-01-18 18:50:57.56	27.01	8.70	-41.9	-43.3	19.4	0.00e+00	0	41	0	198180864	56	6690
2026-01-18 18:50:58.57	26.88	8.75	-41.8	-43.3	19.4	0.00e+00	0	40	0	200278016	56	6627
2026-01-18 18:50:59.57	26.74	8.80	-41.8	-43.3	19.6	0.00e+00	0	40	0	201326592	56	6643
2026-01-18 18:51:00.58	26.60	8.86	-41.7	-43.1	19.7	0.00e+00	0	41	0	203423744	56	6519
2026-01-18 18:51:01.60	26.47	8.91	-41.7	-43.1	19.7	0.00e+00	0	41	0	205520896	56	6513
2026-01-18 18:51:02.61	26.33	8.96	-41.6	-43.0	19.8	0.00e+00	0	40	0	207618048	56	6448
2026-01-18 18:51:03.61	26.19	9.01	-41.5	-42.9	20.0	0.00e+00	0	40	0	209715200	56	6333
2026-01-18 18:51:04.63	26.05	9.06	-41.5	-42.8	19.9	0.00e+00	0	40	0	210763776	56	6313
2026-01-18 18:51:05.63	25.91	9.11	-41.6	-43.0	19.7	0.00e+00	0	40	0	212860928	56	6398
2026-01-18 18:51:06.64	25.77	9.16	-41.7	-43.2	19.5	0.00e+00	0	41	0	214958080	56	6543
2026-01-18 18:51:07.65	25.63	9.22	-42.0	-43.5	19.3	0.00e+00	0	40	0	217055232	56	6826
2026-01-18 18:51:08.66	25.49	9.27	-41.7	-43.1	19.7	0.00e+00	0	40	0	219152384	56	6507
2026-01-18 18:51:09.67	25.35	9.32	-41.8	-43.2	19.6	0.00e+00	0	41	0	221249536	56	6610
2026-01-18 18:51:10.68	25.21	9.37	-41.8	-43.2	19.6	0.00e+00	0	41	0	222298112	56	6606
2026-01-18 18:51:11.69	25.07	9.42	-42.0	-43.5	19.6	0.00e+00	0	40	0	224395264	56	6803
2026-01-18 18:51:12.70	24.93	9.47	-42.0	-43.5	19.3	0.00e+00	0	41	0	226492416	56	6817
2026-01-18 18:51:13.71	24.78	9.52	-42.2	-43.8	19.1	0.00e+00	0	41	0	228589568	56	7018
2026-01-18 18:51:14.72	24.64	9.57	-42.3	-43.9	19.0	0.00e+00	0	41	0	230686720	56	7130
2026-01-18 18:51:15.73	24.50	9.62	-42.3	-44.0	19.0	0.00e+00	0	40	0	231735296	56	7184
2026-01-18 18:51:16.74	24.35	9.67	-42.4	-44.1	18.8	0.00e+00	0	41	0	233832448	56	7265
2026-01-18 18:51:17.75	24.21	9.72	-42.3	-43.9	18.9	0.00e+00	0	41	0	235929600	56	7168
2026-01-18 18:51:18.75	24.06	9.77	-42.1	-43.6	19.3	0.00e+00	0	41	0	238026752	56	6911
2026-01-18 18:51:19.76	23.92	9.82	-42.1	-43.6	19.3	0.00e+00	0	41	0	240123904	56	6920
2026-01-18 18:51:20.77	23.77	9.87	-41.9	-43.4	19.3	0.00e+00	0	41	0	241172480	56	6762
2026-01-18 18:51:21.78	23.62	9.92	-42.1	-43.6	19.4	0.00e+00	0	41	0	243269632	56	6905
2026-01-18 18:51:22.79	23.47	9.97	-41.9	-43.3	19.7	0.00e+00	0	40	0	245366784	56	6676
2026-01-18 18:51:23.80	23.33	10.02	-41.9	-43.4	19.5	0.00e+00	0	40	0	247463936	56	6708
2026-01-18 18:51:24.81	23.18	10.07	-41.9	-43.4	19.6	0.00e+00	0	41	0	249561088	56	6746
2026-01-18 18:51:25.82	23.03	10.12	-41.5	-43.0	20.0	0.00e+00	0	41	0	250609664	56	6393
2026-01-18 18:51:26.83	22.88	10.17	-41.4	-42.8	20.0	0.00e+00	0	41	0	252706816	56	6298
2026-01-18 18:51:27.84	22.73	10.22	-41.1	-42.4	20.4	0.00e+00	0	41	0	254803968	56	5971
2026-01-18 18:51:28.85	22.58	10.27	-41.0	-42.3	20.5	0.00e+00	0	41	0	256901120	56	5910
2026-01-18 18:51:29.86	22.43	10.32	-40.9	-42.1	20.6	0.00e+00	0	41	0	258998272	56	5828
2026-01-18 18:51:30.87	22.27	10.37	-40.9	-42.2	20.5	0.00e+00	0	41	0	260046848	56	5872
2026-01-18 18:51:31.88	22.12	10.42	-40.8	-42.0	20.7	0.00e+00	0	41	0	262144000	56	5735
2026-01-18 18:51:32.89	21.97	10.47	-40.6	-41.9	20.5	0.00e+00	0	41	0	264241152	54	6341
2026-01-18 18:51:33.90	21.82	10.52	-40.6	-41.9	20.8	0.00e+00	0	41	0	266338304	54	6342
2026-01-18 18:51:34.91	21.66	10.57	-40.6	-41.8	20.9	0.00e+00	0	41	0	268435456	54	6315
2026-01-18 18:51:35.92	21.51	10.62	-40.4	-41.7	21.0	0.00e+00	0	41	0	269484032	54	6179
2026-01-18 18:51:36.93	21.35	10.67	-40.3	-41.5	21.2	0.00e+00	0	41	0	271581184	54	6088
2026-01-18 18:51:37.94	21.20	10.72	-40.3	-41.4	21.2	0.00e+00	0	41	0	273678336	54	6032
2026-01-18 18:51:38.95	21.04	10.76	-40.1	-41.3	21.5	0.00e+00	0	41	0	275775488	54	5907
2026-01-18 18:51:39.96	20.89	10.81	-40.1	-41.3	21.4	0.00e+00	0	41	0	277872640	54	5918
2026-01-18 18:51:40.97	20.73	10.86	-39.9	-41.1	21.6	0.00e+00	0	41	0	278921216	54	5777
2026-01-18 18:51:41.98	20.57	10.91	-40.1	-41.2	21.3	0.00e+00	0	41	0	281018368	54	5890
2026-01-18 18:51:42.99	20.41	10.96	-39.7	-40.8	21.8	0.00e+00	0	41	0	283115520	54	5624
2026-01-18 18:51:44.00	20.25	11.01	-39.8	-40.9	21.7	0.00e+00	0	41	0	285212672	52	6346
2026-01-18 18:51:45.01	20.09	11.05	-39.8	-41.0	21.6	0.00e+00	0	41	0	287309824	52	6398
2026-01-18 18:51:46.02	19.93	11.10	-39.9	-41.0	21.6	0.00e+00	0	41	0	289406976	52	6445
2026-01-18 18:51:47.03	19.77	11.15	-40.0	-41.1	21.5	0.00e+00	0	41	0	290455552	52	6511
2026-01-18 18:51:48.03	19.62	11.20	-40.1	-41.3	21.4	0.00e+00	0	41	0	292552704	52	6636
2026-01-18 18:51:49.05	19.45	11.24	-40.4	-41.7	21.1	0.00e+00	0	41	0	294649856	52	6942
2026-01-18 18:51:50.06	19.29	11.29	-40.3	-41.6	21.3	0.00e+00	0	40	0	296747008	52	6855
2026-01-18 18:51:51.07	19.13	11.34	-40.1	-41.3	21.3	0.00e+00	0	41	0	298844160	52	6668
2026-01-18 18:51:52.08	18.97	11.38	-40.1	-41.2	21.4	0.00e+00	0	41	0	299892736	52	6592
2026-01-18 18:51:53.09	18.80	11.43	-40.1	-41.3	21.3	0.00e+00	0	41	0	301989888	52	6660
2026-01-18 18:51:54.10	18.64	11.48	-40.0	-41.2	21.5	0.00e+00	0	41	0	304087040	52	6540
2026-01-18 18:51:55.11	18.47	11.52	-40.0	-41.2	21.5	0.00e+00	0	41	0	306184192	52	6567
2026-01-18 18:51:56.12	18.31	11.57	-39.9	-41.0	21.7	0.00e+00	0	41	0	308281344	52	6444
2026-01-18 18:51:57.13	18.14	11.62	-39.8	-40.9	21.9	0.00e+00	0	41	0	309329920	52	6352
2026-01-18 18:51:58.14	17.98	11.66	-39.4	-40.5	22.1	0.00e+00	0	41	0	311427072	52	6060
2026-01-18 18:51:59.15	17.81	11.71	-39.4	-40.4	22.2	0.00e+00	0	41	0	313524224	52	5992
2026-01-18 18:52:00.16	17.64	11.76	-39.2	-40.2	22.3	0.00e+00	0	41	0	315621376	52	5891
2026-01-18 18:52:01.17	17.48	11.80	-39.6	-40.6	22.0	0.00e+00	0	41	0	317718528	52	6153
2026-01-18 18:52:02.18	17.31	11.85	-39.4	-40.4	22.2	0.00e+00	0	41	0	318767104	52	5988
2026-01-18 18:52:03.19	17.14	11.89	-39.7	-40.8	21.9	0.00e+00	0	41	0	320864256	52	6266
2026-01-18 18:52:04.20	16.97	11.94	-39.6	-40.6	22.0	0.00e+00	0	41	0	322961408	52	6152
2026-01-18 18:52:05.21	16.80	11.98	-39.5	-40.5	22.0	0.00e+00	0	41	0	325058560	52	6101
2026-01-18 18:52:06.21	16.63	12.03	-39.4	-40.5	22.1	0.00e+00	0	41	0	327155712	52	6062
2026-01-18 18:52:07.23	16.46	12.07	-39.8	-40.9	21.8	0.00e+00	0	41	0	328204288	52	6332
2026-01-18 18:52:08.24	16.29	12.12	-40.0	-41.1	21.6	0.00e+00	0	41	0	330301440	52	6514
2026-01-18 18:52:09.25	16.11	12.16	-40.1	-41.2	21.6	0.00e+00	0	41	0	332398592	52	6607
2026-01-18 18:52:10.26	15.94	12.20	-39.9	-41.0	21.6	0.00e+00	0	41	0	334495744	52	6459
2026-01-18 18:52:11.27	15.77	12.25	-39.9	-41.0	21.7	0.00e+00	0	41	0	336592896	52	6452
2026-01-18 18:52:12.28	15.60	12.29	-39.7	-40.8	22.0	0.00e+00	0	41	0	337641472	52	6272
2026-01-18 18:52:13.29	15.42	12.34	-39.4	-40.4	22.2	0.00e+00	0	41	0	339738624	52	6019
2026-01-18 18:52:14.30	15.25	12.38	-39.1	-40.1	22.4	0.00e+00	0	41	0	341835776	52	5796
2026-01-18 18:52:15.31	15.07	12.42	-38.9	-39.8	22.6	0.00e+00	0	41	0	343932928	52	5627
2026-01-18 18:52:16.32	14.90	12.47	-39.1	-40.1	22.5	0.00e+00	0	41	0	346030080	52	5772
2026-01-18 18:52:17.33	14.72	12.51	-39.0	-40.0	22.5	0.00e+00	0	41	0	347078656	50	6437
2026-01-18 18:52:18.34	14.54	12.55	-39.0	-39.9	22.5	0.00e+00	0	41	0	349175808	50	6383
2026-01-18 18:52:19.35	14.37	12.59	-39.0	-40.0	22.6	0.00e+00	0	41	0	351272960	50	6410
2026-01-18 18:52:20.36	14.19	12.64	-38.9	-39.9	22.5	0.00e+00	0	41	0	353370112	50	6383
2026-01-18 18:52:21.37	14.01	12.68	-39.1	-40.1	22.5	0.00e+00	0	41	0	355467264	50	6518
2026-01-18 18:52:22.38	13.83	12.72	-39.2	-40.2	22.2	0.00e+00	0	41	0	357564416	50	6588
2026-01-18 18:52:23.39	13.65	12.76	-39.4	-40.5	21.9	0.00e+00	0	41	0	358612992	50	6778
2026-01-18 18:52:24.40	13.47	12.80	-39.3	-40.4	22.2	0.00e+00	0	41	0	360710144	50	6732
2026-01-18 18:52:25.41	13.29	12.84	-39.7	-40.8	21.9	0.00e+00	0	41	0	362807296	50	7010
2026-01-18 18:52:26.42	13.11	12.89	-39.8	-40.9	21.8	0.00e+00	0	41	0	364904448	52	6375
2026-01-18 18:52:27.43	12.93	12.93	-39.8	-40.9	21.9	0.00e+00	0	41	0	367001600	52	6367
2026-01-18 18:52:28.44	12.75	12.97	-39.8	-40.9	21.8	0.00e+00	0	40	0	368050176	52	6331
2026-01-18 18:52:29.45	12.57	13.01	-39.7	-40.8	22.0	0.00e+00	0	41	0	370147328	52	6273
2026-01-18 18:52:30.46	12.38	13.05	-39.5	-40.6	22.1	0.00e+00	0	41	0	372244480	52	6143
2026-01-18 18:52:31.47	12.20	13.09	-39.6	-40.6	22.1	0.00e+00	0	41	0	374341632	52	6164
2026-01-18 18:52:32.48	12.02	13.13	-39.7	-40.7	22.0	0.00e+00	0	41	0	376438784	52	6233
2026-01-18 18:52:33.49	11.83	13.17	-39.7	-40.8	22.0	0.00e+00	0	41	0	377487360	52	6272
2026-01-18 18:52:34.50	11.65	13.21	-39.7	-40.8	21.7	0.00e+00	0	41	0	379584512	52	6289
2026-01-18 18:52:35.51	11.46	13.25	-39.8	-40.9	21.8	0.00e+00	0	41	0	381681664	52	6377
2026-01-18 18:52:36.52	11.28	13.28	-39.9	-41.0	21.7	0.00e+00	0	41	0	383778816	52	6440
2026-01-18 18:52:37.53	11.09	13.32	-40.2	-41.4	21.4	0.00e+00	0	41	0	385875968	52	6710
2026-01-18 18:52:38.54	10.90	13.36	-40.1	-41.3	21.5	0.00e+00	0	41	0	386924544	52	6644
2026-01-18 18:52:39.55	10.72	13.40	-40.2	-41.4	21.4	0.00e+00	0	41	0	389021696	52	6697
2026-01-18 18:52:40.56	10.53	13.44	-40.1	-41.3	21.6	0.00e+00	0	40	0	391118848	52	6624
2026-01-18 18:52:41.57	10.34	13.47	-40.1	-41.3	21.5	0.00e+00	0	41	0	393216000	52	6631
2026-01-18 18:52:42.58	10.15	13.51	-39.7	-40.8	22.0	0.00e+00	0	40	0	395313152	52	6289
2026-01-18 18:52:43.59	9.96	13.55	-39.7	-40.8	22.0	0.00e+00	0	40	0	396361728	52	6293
2026-01-18 18:52:44.60	9.77	13.59	-39.5	-40.5	22.2	0.00e+00	0	40	0	398458880	52	6101
2026-01-18 18:52:45.61	9.58	13.62	-39.2	-40.2	22.4	0.00e+00	0	40	0	400556032	52	5885
2026-01-18 18:52:46.62	9.39	13.66	-39.4	-40.4	22.2	0.00e+00	0	41	0	402653184	52	5995
2026-01-18 18:52:47.63	9.20	13.70	-39.7	-40.8	22.0	0.00e+00	0	41	0	404750336	52	6258
2026-01-18 18:52:48.64	9.01	13.73	-39.6	-40.7	22.0	0.00e+00	0	41	0	405798912	52	6216
2026-01-18 18:52:49.65	8.82	13.77	-39.5	-40.6	22.0	0.00e+00	0	41	0	407896064	52	6148
2026-01-18 18:52:50.66	8.63	13.80	-39.5	-40.6	22.1	0.00e+00	0	41	0	409993216	52	6130
2026-01-18 18:52:51.67	8.43	13.84	-39.4	-40.5	22.2	0.00e+00	0	41	0	412090368	52	6040
2026-01-18 18:52:52.68	8.24	13.87	-39.1	-40.1	22.4	0.00e+00	0	41	0	414187520	52	5782
2026-01-18 18:52:53.69	8.04	13.91	-39.1	-40.1	22.5	0.00e+00	0	41	0	415236096	52	5811
2026-01-18 18:52:54.70	7.85	13.94	-39.0	-40.0	22.6	0.00e+00	0	41	0	417333248	52	5759
2026-01-18 18:52:55.71	7.66	13.97	-39.1	-40.1	22.4	0.00e+00	0	40	0	419430400	52	5803
2026-01-18 18:52:56.72	7.46	14.01	-39.2	-40.2	22.5	0.00e+00	0	40	0	421527552	52	5854
2026-01-18 18:52:57.73	7.26	14.04	-39.3	-40.3	22.4	0.00e+00	0	41	0	423624704	52	5932
2026-01-18 18:52:58.74	7.07	14.07	-39.5	-40.6	22.1	0.00e+00	0	41	0	425721856	52	6143
2026-01-18 18:52:59.75	6.87	14.11	-39.7	-40.8	22.0	0.00e+00	0	41	0	426770432	52	6261
2026-01-18 18:53:00.76	6.67	14.14	-39.7	-40.8	22.0	0.00e+00	0	41	0	428867584	52	6260
2026-01-18 18:53:01.77	6.48	14.17	-39.7	-40.9	21.9	0.00e+00	0	40	0	430964736	52	6328
2026-01-18 18:53:02.79	6.28	14.20	-39.9	-41.1	21.8	0.00e+00	0	41	0	433061888	52	6484
2026-01-18 18:53:03.79	6.08	14.23	-39.7	-40.8	21.9	0.00e+00	0	40	0	435159040	52	6316
2026-01-18 18:53:04.80	5.88	14.27	-39.4	-40.5	22.0	0.00e+00	0	41	0	436207616	52	6055
2026-01-18 18:53:05.81	5.68	14.30	-39.3	-40.3	22.1	0.00e+00	0	41	0	438304768	52	5943
2026-01-18 18:53:06.82	5.48	14.33	-39.1	-40.1	22.5	0.00e+00	0	41	0	440401920	52	5781
2026-01-18 18:53:07.83	5.28	14.36	-38.9	-39.9	22.7	0.00e+00	0	41	0	442499072	52	5649
2026-01-18 18:53:08.84	5.08	14.39	-39.2	-40.2	22.3	0.00e+00	0	41	0	444596224	52	5864
2026-01-18 18:53:09.85	4.88	14.42	-39.1	-40.1	22.6	0.00e+00	0	41	0	445644800	52	5788
2026-01-18 18:53:10.86	4.68	14.45	-39.1	-40.1	22.4	0.00e+00	0	41	0	447741952	52	5762
2026-01-18 18:53:11.87	4.48	14.48	-39.2	-40.2	22.3	0.00e+00	0	41	0	449839104	52	5890
2026-01-18 18:53:12.88	4.28	14.50	-39.3	-40.3	22.5	0.00e+00	0	41	0	451936256	52	5917
2026-01-18 18:53:13.89	4.08	14.53	-39.3	-40.4	22.5	0.00e+00	0	41	0	454033408	52	5967
2026-01-18 18:53:14.90	3.87	14.56	-39.2	-40.3	22.3	0.00e+00	0	41	0	455081984	52	5927
2026-01-18 18:53:15.91	3.67	14.59	-39.9	-41.0	21.9	0.00e+00	0	41	0	457179136	52	6443
2026-01-18 18:53:16.93	3.46	14.62	-38.9	-39.9	22.6	0.00e+00	0	41	0	459276288	52	5663
2026-01-18 18:53:17.94	3.26	14.64	-38.8	-39.8	22.5	0.00e+00	0	41	0	461373440	50	6285
2026-01-18 18:53:18.95	3.06	14.67	-38.8	-39.7	22.8	0.00e+00	0	41	0	463470592	50	6243
2026-01-18 18:53:19.95	2.85	14.70	-38.6	-39.5	22.9	0.00e+00	0	41	0	465567744	50	6058
2026-01-18 18:53:20.97	2.65	14.72	-38.5	-39.4	23.0	0.00e+00	0	41	0	466616320	50	6020
2026-01-18 18:53:21.98	2.44	14.75	-38.5	-39.5	23.0	0.00e+00	0	41	0	468713472	50	6034
2026-01-18 18:53:22.99	2.23	14.77	-38.6	-39.6	23.0	0.00e+00	0	41	0	470810624	50	6122
2026-01-18 18:53:24.00	2.03	14.80	-38.9	-39.9	22.7	0.00e+00	0	41	0	472907776	50	6349
2026-01-18 18:53:25.01	1.82	14.82	-39.2	-40.3	22.4	0.00e+00	0	41	0	475004928	50	6616
2026-01-18 18:53:26.02	1.61	14.85	-39.3	-40.3	22.4	0.00e+00	0	41	0	476053504	50	6629
2026-01-18 18:53:27.03	1.41	14.87	-39.3	-40.4	22.4	0.00e+00	0	41	0	478150656	50	6712
2026-01-18 18:53:28.04	1.20	14.90	-39.4	-40.4	22.4	0.00e+00	0	41	0	480247808	50	6724
2026-01-18 18:53:29.05	0.99	14.92	-39.2	-40.2	22.5	0.00e+00	0	41	0	482344960	50	6614
2026-01-18 18:53:30.06	0.78	14.94	-39.2	-40.2	22.4	0.00e+00	0	41	0	484442112	50	6577
2026-01-18 18:53:31.07	0.58	14.96	-39.3	-40.3	22.2	0.00e+00	0	41	0	485490688	50	6662
2026-01-18 18:53:32.08	0.37	14.99	-39.3	-40.4	22.4	0.00e+00	0	41	0	487587840	50	6696
2026-01-18 18:53:33.09	0.16	15.01	-39.4	-40.5	22.2	0.00e+00	0	41	0	489684992	50	6780
2026-01-18 18:53:34.10	359.95	15.03	-39.9	-41.0	21.7	0.00e+00	0	41	0	491782144	52	6451
2026-01-18 18:53:35.11	359.74	15.05	-39.9	-41.0	21.9	0.00e+00	0	41	0	493879296	52	6404
2026-01-18 18:53:36.12	359.53	15.07	-39.9	-41.0	21.8	0.00e+00	0	41	0	494927872	52	6441
2026-01-18 18:53:37.13	359.32	15.09	-39.5	-40.6	22.2	0.00e+00	0	41	0	497025024	52	6128
2026-01-18 18:53:38.14	359.11	15.11	-39.4	-40.4	22.2	0.00e+00	0	41	0	499122176	52	6028
2026-01-18 18:53:39.15	358.90	15.13	-39.4	-40.4	22.3	0.00e+00	0	41	0	501219328	52	6013
2026-01-18 18:53:40.16	358.69	15.15	-39.4	-40.5	22.2	0.00e+00	0	41	0	503316480	52	6065
2026-01-18 18:53:41.17	358.47	15.17	-39.5	-40.6	22.2	0.00e+00	0	41	0	504365056	52	6151
2026-01-18 18:53:42.18	358.26	15.19	-39.6	-40.7	22.1	0.00e+00	0	41	0	506462208	52	6179
2026-01-18 18:53:43.19	358.05	15.21	-39.4	-40.5	22.2	0.00e+00	0	41	0	508559360	52	6051
2026-01-18 18:53:44.20	357.84	15.22	-39.3	-40.3	22.5	0.00e+00	0	41	0	510656512	52	5918
2026-01-18 18:53:45.21	357.63	15.24	-39.0	-40.0	22.7	0.00e+00	0	41	0	512753664	52	5706
2026-01-18 18:53:46.22	357.41	15.26	-38.9	-39.9	22.8	0.00e+00	0	41	0	513802240	52	5670
2026-01-18 18:53:47.23	357.20	15.27	-38.7	-39.6	22.9	0.00e+00	0	41	0	515899392	52	5488
2026-01-18 18:53:48.24	356.99	15.29	-38.8	-39.8	22.9	0.00e+00	0	41	0	517996544	50	6255
2026-01-18 18:53:49.24	356.78	15.31	-38.7	-39.7	22.9	0.00e+00	0	41	0	520093696	50	6195
2026-01-18 18:53:50.26	356.56	15.32	-39.0	-40.0	22.7	0.00e+00	0	41	0	522190848	50	6443
2026-01-18 18:53:51.27	356.35	15.34	-39.1	-40.1	22.6	0.00e+00	0	41	0	523239424	50	6467
2026-01-18 18:53:52.28	356.13	15.35	-39.1	-40.1	22.5	0.00e+00	0	41	0	525336576	50	6528
2026-01-18 18:53:53.29	355.92	15.37	-39.1	-40.1	22.6	0.00e+00	0	41	0	527433728	50	6520
2026-01-18 18:53:54.30	355.70	15.38	-39.0	-40.1	22.5	0.00e+00	0	41	0	529530880	50	6469
2026-01-18 18:53:55.30	355.49	15.39	-39.0	-40.0	22.5	0.00e+00	0	41	0	531628032	50	6446
2026-01-18 18:53:56.31	355.27	15.41	-39.1	-40.2	22.5	0.00e+00	0	41	0	533725184	50	6563
2026-01-18 18:53:57.32	355.06	15.42	-39.2	-40.2	22.4	0.00e+00	0	41	0	534773760	50	6613
2026-01-18 18:53:58.33	354.84	15.43	-39.3	-40.4	22.2	0.00e+00	0	41	0	536870912	50	6701
2026-01-18 18:53:59.34	354.63	15.44	-39.5	-40.5	22.2	0.00e+00	0	41	0	538968064	50	6818
2026-01-18 18:54:00.36	354.41	15.45	-39.3	-40.4	22.2	0.00e+00	0	41	0	541065216	50	6715
2026-01-18 18:54:01.37	354.20	15.47	-39.4	-40.5	22.3	0.00e+00	0	41	0	543162368	50	6789
2026-01-18 18:54:02.38	353.98	15.48	-39.5	-40.6	22.2	0.00e+00	0	41	0	544210944	50	6861
2026-01-18 18:54:03.39	353.76	15.49	-39.7	-40.8	21.9	0.00e+00	0	41	0	546308096	52	6298
2026-01-18 18:54:04.40	353.55	15.50	-39.5	-40.5	22.2	0.00e+00	0	41	0	548405248	52	6094
2026-01-18 18:54:05.41	353.33	15.51	-39.5	-40.5	22.2	0.00e+00	0	41	0	550502400	52	6101
2026-01-18 18:54:06.42	353.11	15.51	-39.8	-40.9	21.8	0.00e+00	0	41	0	552599552	52	6342
2026-01-18 18:54:07.43	352.90	15.52	-39.6	-40.7	22.0	0.00e+00	0	41	0	553648128	52	6227
2026-01-18 18:54:08.44	352.68	15.53	-39.8	-40.9	22.0	0.00e+00	0	41	0	555745280	52	6335
2026-01-18 18:54:09.45	352.46	15.54	-39.6	-40.6	22.1	0.00e+00	0	41	0	557842432	52	6170
2026-01-18 18:54:10.46	352.25	15.55	-39.4	-40.5	22.2	0.00e+00	0	41	0	559939584	52	6067
2026-01-18 18:54:11.47	352.03	15.55	-39.4	-40.4	22.3	0.00e+00	0	41	0	562036736	52	6031
2026-01-18 18:54:12.48	351.81	15.56	-39.4	-40.4	22.4	0.00e+00	0	41	0	563085312	52	5979
2026-01-18 18:54:13.49	351.60	15.57	-39.4	-40.4	22.3	0.00e+00	0	41	0	565182464	52	6019
2026-01-18 18:54:14.50	351.38	15.57	-39.4	-40.4	22.4	0.00e+00	0	41	0	567279616	52	5992
2026-01-18 18:54:15.51	351.16	15.58	-39.5	-40.6	22.2	0.00e+00	0	41	0	569376768	52	6114
2026-01-18 18:54:16.52	350.94	15.58	-39.6	-40.7	22.2	0.00e+00	0	41	0	571473920	52	6176
2026-01-18 18:54:17.53	350.73	15.59	-39.7	-40.8	22.0	0.00e+00	0	41	0	572522496	52	6247
2026-01-18 18:54:18.54	350.51	15.59	-39.5	-40.5	22.2	0.00e+00	0	41	0	574619648	52	6075
2026-01-18 18:54:19.55	350.29	15.59	-39.4	-40.5	22.3	0.00e+00	0	41	0	576716800	52	6055
2026-01-18 18:54:20.56	350.07	15.60	-39.4	-40.4	22.4	0.00e+00	0	41	0	578813952	52	6019
2026-01-18 18:54:21.57	349.85	15.60	-39.3	-40.4	22.4	0.00e+00	0	41	0	580911104	52	5969
2026-01-18 18:54:22.58	349.64	15.60	-39.3	-40.4	22.3	0.00e+00	0	41	0	581959680	52	5971
2026-01-18 18:54:23.59	349.42	15.60	-39.2	-40.3	22.3	0.00e+00	0	41	0	584056832	52	5911
2026-01-18 18:54:24.61	349.20	15.60	-39.6	-40.6	22.2	0.00e+00	0	41	0	586153984	52	6163
2026-01-18 18:54:25.61	348.98	15.61	-39.7	-40.8	22.0	0.00e+00	0	41	0	588251136	52	6285
2026-01-18 18:54:26.63	348.76	15.61	-39.7	-40.8	22.0	0.00e+00	0	41	0	590348288	52	6272
2026-01-18 18:54:27.63	348.55	15.61	-39.7	-40.7	22.1	0.00e+00	0	41	0	591396864	52	6240
2026-01-18 18:54:28.64	348.33	15.61	-39.7	-40.8	22.0	0.00e+00	0	41	0	593494016	52	6285
2026-01-18 18:54:29.65	348.11	15.61	-39.5	-40.5	22.4	0.00e+00	0	41	0	595591168	52	6068
2026-01-18 18:54:30.66	347.89	15.60	-39.4	-40.4	22.3	0.00e+00	0	41	0	597688320	52	6026
2026-01-18 18:54:31.67	347.67	15.60	-39.1	-40.1	22.5	0.00e+00	0	41	0	599785472	52	5803
2026-01-18 18:54:32.68	347.46	15.60	-38.8	-39.7	22.9	0.00e+00	0	41	0	601882624	52	5541
2026-01-18 18:54:33.69	347.24	15.60	-38.8	-39.7	22.9	0.00e+00	0	41	0	602931200	50	6215
2026-01-18 18:54:34.70	347.02	15.60	-38.8	-39.8	22.9	0.00e+00	0	41	0	605028352	50	6270
2026-01-18 18:54:35.71	346.80	15.59	-38.9	-39.9	22.7	0.00e+00	0	41	0	607125504	50	6339
2026-01-18 18:54:36.72	346.59	15.59	-39.1	-40.2	22.4	0.00e+00	0	41	0	609222656	50	6550
2026-01-18 18:54:37.73	346.37	15.59	-39.5	-40.5	22.4	0.00e+00	0	41	0	611319808	50	6844
2026-01-18 18:54:38.74	346.15	15.58	-39.3	-40.4	22.2	0.00e+00	0	41	0	612368384	50	6733
2026-01-18 18:54:39.75	345.93	15.58	-39.7	-40.8	22.1	0.00e+00	0	41	0	614465536	50	7029
2026-01-18 18:54:40.76	345.72	15.57	-39.6	-40.7	22.0	0.00e+00	0	41	0	616562688	50	6957
2026-01-18 18:54:41.77	345.50	15.57	-39.7	-40.8	21.4	0.00e+00	0	41	0	618659840	52	6272
2026-01-18 18:54:42.78	345.28	15.56	-39.8	-40.9	21.9	0.00e+00	0	41	0	620756992	52	6321
2026-01-18 18:54:43.79	345.06	15.55	-39.9	-41.0	21.8	0.00e+00	0	41	0	621805568	52	6430
2026-01-18 18:54:44.80	344.85	15.55	-40.0	-41.2	21.6	0.00e+00	0	41	0	623902720	52	6556
2026-01-18 18:54:45.81	344.63	15.54	-40.3	-41.4	21.5	0.00e+00	0	41	0	625999872	52	6767
2026-01-18 18:54:46.82	344.41	15.53	-40.2	-41.4	21.5	0.00e+00	0	41	0	628097024	52	6708
2026-01-18 18:54:47.83	344.20	15.52	-40.3	-41.5	21.4	0.00e+00	0	41	0	630194176	52	6818
2026-01-18 18:54:48.84	343.98	15.51	-40.1	-41.3	21.7	0.00e+00	0	41	0	631242752	52	6645
2026-01-18 18:54:49.85	343.76	15.51	-40.1	-41.2	21.7	0.00e+00	0	41	0	633339904	52	6597
2026-01-18 18:54:50.86	343.55	15.50	-40.0	-41.2	21.8	0.00e+00	0	41	0	635437056	52	6554
2026-01-18 18:54:51.87	343.33	15.49	-39.7	-40.8	22.0	0.00e+00	0	41	0	637534208	52	6264
2026-01-18 18:54:52.88	343.11	15.48	-39.8	-41.0	21.9	0.00e+00	0	41	0	639631360	52	6403
2026-01-18 18:54:53.89	342.90	15.47	-39.6	-40.8	22.1	0.00e+00	0	41	0	640679936	52	6246
2026-01-18 18:54:54.90	342.68	15.46	-39.5	-40.6	22.3	0.00e+00	0	41	0	642777088	52	6121
2026-01-18 18:54:55.91	342.47	15.44	-39.2	-40.3	22.4	0.00e+00	0	41	0	644874240	52	5918
2026-01-18 18:54:56.92	342.25	15.43	-39.3	-40.3	22.4	0.00e+00	0	41	0	646971392	52	5939
2026-01-18 18:54:57.93	342.03	15.42	-39.1	-40.2	22.5	0.00e+00	0	41	0	649068544	52	5839
2026-01-18 18:54:58.94	341.82	15.41	-39.2	-40.2	22.5	0.00e+00	0	41	0	650117120	52	5871
2026-01-18 18:54:59.95	341.60	15.39	-39.4	-40.4	22.4	0.00e+00	0	41	0	652214272	52	6012
2026-01-18 18:55:00.96	341.39	15.38	-39.4	-40.5	22.3	0.00e+00	0	41	0	654311424	52	6047
2026-01-18 18:55:01.97	341.18	15.37	-39.5	-40.6	22.2	0.00e+00	0	41	0	656408576	52	6121
2026-01-18 18:55:02.98	340.96	15.35	-39.5	-40.6	22.2	0.00e+00	0	41	0	658505728	52	6127
2026-01-18 18:55:03.99	340.75	15.34	-39.5	-40.6	22.2	0.00e+00	0	41	0	659554304	52	6153
2026-01-18 18:55:05.00	340.53	15.32	-39.3	-40.4	22.4	0.00e+00	0	41	0	661651456	52	5972
2026-01-18 18:55:06.01	340.32	15.31	-39.2	-40.3	22.3	0.00e+00	0	41	0	663748608	52	5899
2026-01-18 18:55:07.02	340.11	15.29	-39.2	-40.3	22.7	0.00e+00	0	41	0	665845760	52	5928
2026-01-18 18:55:08.04	339.89	15.28	-38.9	-39.9	22.6	0.00e+00	0	41	0	667942912	52	5671
2026-01-18 18:55:09.05	339.68	15.26	-39.2	-40.2	22.6	0.00e+00	0	41	0	670040064	52	5876
2026-01-18 18:55:10.06	339.46	15.24	-39.2	-40.3	22.4	0.00e+00	0	41	0	671088640	52	5907
2026-01-18 18:55:11.07	339.25	15.23	-39.5	-40.6	22.3	0.00e+00	0	41	0	673185792	52	6106
2026-01-18 18:55:12.08	339.04	15.21	-39.4	-40.4	22.3	0.00e+00	0	41	0	675282944	52	6013
2026-01-18 18:55:13.09	338.83	15.19	-39.5	-40.6	22.1	0.00e+00	0	41	0	677380096	52	6144
2026-01-18 18:55:14.10	338.62	15.17	-39.7	-40.8	22.0	0.00e+00	0	41	0	679477248	52	6314
2026-01-18 18:55:15.11	338.40	15.15	-39.6	-40.7	22.0	0.00e+00	0	41	0	680525824	52	6176
2026-01-18 18:55:16.12	338.19	15.13	-39.8	-40.9	21.9	0.00e+00	0	41	0	682622976	52	6332
2026-01-18 18:55:17.13	337.98	15.11	-40.1	-41.3	21.6	0.00e+00	0	41	0	684720128	52	6634
2026-01-18 18:55:18.14	337.77	15.09	-40.4	-41.5	21.3	0.00e+00	0	41	0	686817280	52	6834
2026-01-18 18:55:19.15	337.56	15.07	-40.5	-41.7	21.3	0.00e+00	0	41	0	688914432	52	7007
2026-01-18 18:55:20.16	337.35	15.05	-41.0	-42.2	20.9	0.00e+00	0	41	0	689963008	54	6614
2026-01-18 18:55:21.17	337.14	15.03	-40.8	-42.0	21.0	0.00e+00	0	41	0	692060160	54	6438
2026-01-18 18:55:22.18	336.93	15.01	-40.6	-41.8	21.2	0.00e+00	0	41	0	694157312	54	6282
2026-01-18 18:55:23.19	336.72	14.99	-40.6	-41.8	21.2	0.00e+00	0	41	0	696254464	54	6254
2026-01-18 18:55:24.20	336.51	14.97	-40.8	-42.1	20.9	0.00e+00	0	41	0	698351616	54	6487
2026-01-18 18:55:25.21	336.30	14.94	-40.9	-42.2	20.7	0.00e+00	0	41	0	699400192	54	6556
2026-01-18 18:55:26.22	336.10	14.92	-40.7	-41.9	21.1	0.00e+00	0	41	0	701497344	54	6376
2026-01-18 18:55:27.23	335.89	14.90	-40.7	-42.0	21.0	0.00e+00	0	41	0	703594496	54	6411
2026-01-18 18:55:28.24	335.68	14.87	-40.2	-41.3	21.6	0.00e+00	0	41	0	705691648	54	5953
2026-01-18 18:55:29.25	335.47	14.85	-40.3	-41.4	21.6	0.00e+00	0	41	0	707788800	54	5994
2026-01-18 18:55:30.26	335.27	14.83	-39.6	-40.7	22.0	0.00e+00	0	41	0	709885952	52	6195
2026-01-18 18:55:31.27	335.06	14.80	-39.5	-40.5	22.2	0.00e+00	0	41	0	710934528	52	6070
2026-01-18 18:55:32.28	334.85	14.78	-39.3	-40.3	22.2	0.00e+00	0	41	0	713031680	52	5964
2026-01-18 18:55:33.29	334.65	14.75	-39.3	-40.3	22.4	0.00e+00	0	41	0	715128832	52	5964
2026-01-18 18:55:34.30	334.44	14.72	-39.2	-40.2	22.6	0.00e+00	0	41	0	717225984	52	5860
2026-01-18 18:55:35.31	334.24	14.70	-39.1	-40.1	22.5	0.00e+00	0	41	0	719323136	52	5806
2026-01-18 18:55:36.32	334.03	14.67	-39.5	-40.5	22.4	0.00e+00	0	41	0	720371712	52	6090
2026-01-18 18:55:37.33	333.83	14.65	-39.1	-40.1	22.5	0.00e+00	0	41	0	722468864	52	5784
2026-01-18 18:55:38.34	333.62	14.62	-39.3	-40.3	22.5	0.00e+00	0	41	0	724566016	52	5902
2026-01-18 18:55:39.35	333.42	14.59	-39.4	-40.4	22.2	0.00e+00	0	41	0	726663168	52	5989
2026-01-18 18:55:40.36	333.22	14.56	-39.9	-41.0	21.9	0.00e+00	0	41	0	728760320	52	6417
2026-01-18 18:55:41.37	333.01	14.54	-39.7	-40.7	22.1	0.00e+00	0	41	0	729808896	52	6207
2026-01-18 18:55:42.38	332.81	14.51	-40.2	-41.3	21.3	0.00e+00	0	41	0	731906048	52	6691
2026-01-18 18:55:43.39	332.61	14.48	-40.4	-41.6	21.1	0.00e+00	0	41	0	734003200	52	6870
2026-01-18 18:55:44.40	332.41	14.45	-40.6	-41.7	21.3	0.00e+00	0	41	0	736100352	52	6975
2026-01-18 18:55:45.41	332.21	14.42	-40.5	-41.6	21.4	0.00e+00	0	41	0	738197504	52	6899
2026-01-18 18:55:46.42	332.01	14.39	-40.3	-41.4	21.4	0.00e+00	0	41	0	739246080	52	6755
2026-01-18 18:55:47.43	331.80	14.36	-40.3	-41.5	21.6	0.00e+00	0	41	0	741343232	52	6788
2026-01-18 18:55:48.44	331.60	14.33	-40.4	-41.6	21.3	0.00e+00	0	41	0	743440384	52	6871
2026-01-18 18:55:49.45	331.40	14.30	-40.4	-41.6	21.4	0.00e+00	0	41	0	745537536	52	6888
2026-01-18 18:55:50.46	331.21	14.27	-40.6	-41.8	21.3	0.00e+00	0	41	0	747634688	52	7018
2026-01-18 18:55:51.47	331.01	14.24	-40.8	-42.0	20.9	0.00e+00	0	41	0	748683264	54	6458
2026-01-18 18:55:52.48	330.81	14.21	-40.8	-42.0	20.9	0.00e+00	0	41	0	750780416	54	6433
2026-01-18 18:55:53.49	330.61	14.17	-40.8	-42.0	21.0	0.00e+00	0	41	0	752877568	54	6443
2026-01-18 18:55:54.50	330.41	14.14	-40.3	-41.5	21.5	0.00e+00	0	41	0	754974720	54	6056
2026-01-18 18:55:55.51	330.22	14.11	-39.9	-41.0	22.0	0.00e+00	0	41	0	757071872	54	5700
2026-01-18 18:55:56.52	330.02	14.08	-39.9	-40.9	22.0	0.00e+00	0	41	0	758120448	52	6390
2026-01-18 18:55:57.53	329.82	14.04	-39.6	-40.6	22.3	0.00e+00	0	41	0	760217600	52	6128
2026-01-18 18:55:58.54	329.63	14.01	-39.4	-40.4	22.4	0.00e+00	0	41	0	762314752	52	5993
2026-01-18 18:55:59.55	329.43	13.98	-39.3	-40.3	22.5	0.00e+00	0	41	0	764411904	52	5939
2026-01-18 18:56:00.56	329.24	13.94	-39.1	-40.1	22.6	0.00e+00	0	41	0	766509056	52	5790
2026-01-18 18:56:01.57	329.04	13.91	-39.3	-40.3	22.5	0.00e+00	0	41	0	767557632	52	5923
2026-01-18 18:56:02.58	328.85	13.87	-39.1	-40.1	22.6	0.00e+00	0	41	0	769654784	52	5816
2026-01-18 18:56:03.59	328.65	13.84	-39.0	-40.0	22.7	0.00e+00	0	41	0	771751936	52	5739
2026-01-18 18:56:04.60	328.46	13.80	-39.1	-40.1	22.6	0.00e+00	0	41	0	773849088	52	5809
2026-01-18 18:56:05.61	328.27	13.77	-39.1	-40.1	22.7	0.00e+00	0	41	0	775946240	52	5802
2026-01-18 18:56:06.62	328.08	13.73	-39.1	-40.0	22.7	0.00e+00	0	41	0	778043392	52	5752
2026-01-18 18:56:07.63	327.88	13.70	-39.0	-40.0	22.7	0.00e+00	0	41	0	779091968	52	5712
2026-01-18 18:56:08.64	327.69	13.66	-38.7	-39.7	22.8	0.00e+00	0	41	0	781189120	50	6199
2026-01-18 18:56:09.65	327.50	13.63	-38.5	-39.4	23.2	0.00e+00	0	41	0	783286272	50	6017
2026-01-18 18:56:10.66	327.31	13.59	-38.4	-39.3	23.3	0.00e+00	0	41	0	785383424	50	5948
2026-01-18 18:56:11.67	327.12	13.55	-38.5	-39.4	23.2	0.00e+00	0	41	0	787480576	50	6020
2026-01-18 18:56:12.68	326.93	13.52	-38.4	-39.3	22.8	0.00e+00	0	41	0	788529152	50	5953
2026-01-18 18:56:13.69	326.74	13.48	-38.6	-39.5	22.9	0.00e+00	0	41	0	790626304	50	6102
2026-01-18 18:56:14.70	326.56	13.44	-39.0	-39.9	22.9	0.00e+00	0	41	0	792723456	50	6360
2026-01-18 18:56:15.71	326.37	13.40	-39.0	-39.9	22.8	0.00e+00	0	41	0	794820608	50	6382
2026-01-18 18:56:16.72	326.18	13.36	-39.4	-40.4	22.4	0.00e+00	0	41	0	796917760	50	6696
2026-01-18 18:56:17.73	325.99	13.33	-39.3	-40.3	22.5	0.00e+00	0	41	0	797966336	50	6640
2026-01-18 18:56:18.74	325.81	13.29	-39.7	-40.8	22.2	0.00e+00	0	41	0	800063488	50	7017
2026-01-18 18:56:19.75	325.62	13.25	-39.6	-40.7	22.2	0.00e+00	0	41	0	802160640	52	6184
2026-01-18 18:56:20.76	325.44	13.21	-39.8	-40.9	22.0	0.00e+00	0	41	0	804257792	52	6328
2026-01-18 18:56:21.77	325.25	13.17	-40.1	-41.2	21.7	0.00e+00	0	41	0	806354944	52	6568
2026-01-18 18:56:22.78	325.07	13.13	-40.3	-41.5	21.4	0.00e+00	0	41	0	807403520	52	6781
2026-01-18 18:56:23.79	324.88	13.09	-40.7	-41.8	21.2	0.00e+00	0	41	0	809500672	52	7075
2026-01-18 18:56:24.80	324.70	13.05	-40.6	-41.8	21.2	0.00e+00	0	41	0	811597824	52	7052
2026-01-18 18:56:25.80	324.52	13.01	-41.0	-42.2	20.9	0.00e+00	0	41	0	813694976	54	6569
2026-01-18 18:56:26.81	324.34	12.97	-40.4	-41.5	21.2	0.00e+00	0	41	0	815792128	54	6086
2026-01-18 18:56:27.82	324.15	12.93	-40.5	-41.7	21.2	0.00e+00	0	41	0	816840704	54	6193
2026-01-18 18:56:28.83	323.97	12.89	-40.5	-41.7	21.4	0.00e+00	0	41	0	818937856	54	6201
2026-01-18 18:56:29.84	323.79	12.85	-40.3	-41.4	21.4	0.00e+00	0	41	0	821035008	54	6030
2026-01-18 18:56:30.85	323.61	12.81	-40.3	-41.4	21.5	0.00e+00	0	41	0	823132160	54	6011
2026-01-18 18:56:31.87	323.43	12.77	-40.3	-41.4	21.5	0.00e+00	0	41	0	825229312	54	6025
2026-01-18 18:56:32.88	323.25	12.72	-40.3	-41.4	21.6	0.00e+00	0	41	0	826277888	54	6012
2026-01-18 18:56:33.89	323.07	12.68	-40.4	-41.5	21.5	0.00e+00	0	41	0	828375040	54	6086
2026-01-18 18:56:34.90	322.89	12.64	-40.6	-41.7	21.3	0.00e+00	0	41	0	830472192	54	6237
2026-01-18 18:56:35.91	322.72	12.60	-40.6	-41.7	21.3	0.00e+00	0	41	0	832569344	54	6233
2026-01-18 18:56:36.92	322.54	12.55	-41.0	-42.2	21.0	0.00e+00	0	41	0	834666496	54	6572
2026-01-18 18:56:37.93	322.36	12.51	-40.7	-41.9	21.2	0.00e+00	0	41	0	835715072	54	6324
2026-01-18 18:56:38.94	322.19	12.47	-40.6	-41.7	21.2	0.00e+00	0	41	0	837812224	54	6241
2026-01-18 18:56:39.95	322.01	12.43	-40.6	-41.8	21.3	0.00e+00	0	41	0	839909376	54	6265
2026-01-18 18:56:40.96	321.83	12.38	-40.5	-41.7	21.3	0.00e+00	0	41	0	842006528	54	6205
2026-01-18 18:56:41.97	321.66	12.34	-40.4	-41.6	21.4	0.00e+00	0	41	0	844103680	54	6115
2026-01-18 18:56:42.98	321.49	12.30	-40.6	-41.7	21.3	0.00e+00	0	41	0	846200832	54	6226
2026-01-18 18:56:43.99	321.31	12.25	-40.7	-41.9	21.1	0.00e+00	0	41	0	847249408	54	6342
2026-01-18 18:56:45.00	321.14	12.21	-40.7	-41.8	21.2	0.00e+00	0	41	0	849346560	54	6277
2026-01-18 18:56:46.01	320.97	12.16	-40.5	-41.6	21.4	0.00e+00	0	41	0	851443712	54	6111
2026-01-18 18:56:47.02	320.79	12.12	-40.3	-41.4	21.5	0.00e+00	0	41	0	853540864	54	5972
2026-01-18 18:56:48.03	320.62	12.08	-40.2	-41.3	21.7	0.00e+00	0	41	0	855638016	54	5918
2026-01-18 18:56:49.04	320.45	12.03	-39.8	-40.9	22.0	0.00e+00	0	41	0	856686592	54	5634
2026-01-18 18:56:50.05	320.28	11.99	-39.8	-40.8	21.6	0.00e+00	0	41	0	858783744	54	5587
2026-01-18 18:56:51.06	320.11	11.94	-39.9	-40.9	21.9	0.00e+00	0	41	0	860880896	52	6364
2026-01-18 18:56:52.07	319.94	11.90	-39.6	-40.6	22.2	0.00e+00	0	41	0	862978048	52	6168
2026-01-18 18:56:53.08	319.77	11.85	-39.9	-40.9	21.9	0.00e+00	0	41	0	865075200	52	6352
2026-01-18 18:56:54.09	319.60	11.80	-40.1	-41.2	21.8	0.00e+00	0	41	0	866123776	52	6561
2026-01-18 18:56:55.10	319.44	11.76	-40.4	-41.5	21.4	0.00e+00	0	41	0	868220928	52	6787
2026-01-18 18:56:56.11	319.27	11.71	-40.6	-41.7	21.3	0.00e+00	0	41	0	870318080	52	6973
2026-01-18 18:56:57.12	319.10	11.67	-40.9	-42.0	21.0	0.00e+00	0	41	0	872415232	54	6460
2026-01-18 18:56:58.13	318.94	11.62	-41.1	-42.4	20.9	0.00e+00	0	41	0	874512384	54	6713
2026-01-18 18:56:59.14	318.77	11.57	-41.1	-42.3	20.6	0.00e+00	0	41	0	875560960	54	6662
2026-01-18 18:57:00.15	318.61	11.53	-41.3	-42.6	20.5	0.00e+00	0	41	0	877658112	54	6850
2026-01-18 18:57:01.16	318.44	11.48	-40.9	-42.1	20.9	0.00e+00	0	41	0	879755264	54	6504
2026-01-18 18:57:02.17	318.28	11.44	-40.7	-41.8	21.1	0.00e+00	0	41	0	881852416	54	6302
2026-01-18 18:57:03.18	318.11	11.39	-40.5	-41.7	21.3	0.00e+00	0	41	0	883949568	54	6196
2026-01-18 18:57:04.19	317.95	11.34	-40.4	-41.5	21.5	0.00e+00	0	41	0	884998144	54	6098
2026-01-18 18:57:05.20	317.79	11.29	-40.3	-41.4	21.5	0.00e+00	0	41	0	887095296	54	6026
2026-01-18 18:57:06.21	317.63	11.25	-40.8	-42.0	21.0	0.00e+00	0	41	0	889192448	54	6404
2026-01-18 18:57:07.22	317.46	11.20	-40.9	-42.0	20.9	0.00e+00	0	41	0	891289600	54	6460
2026-01-18 18:57:08.23	317.30	11.15	-41.2	-42.5	20.5	0.00e+00	0	41	0	893386752	54	6773
2026-01-18 18:57:09.24	317.14	11.10	-41.9	-43.2	20.0	0.00e+00	0	41	0	894435328	56	6612
2026-01-18 18:57:10.25	316.98	11.06	-42.6	-44.1	19.1	0.00e+00	0	41	0	896532480	56	7304
2026-01-18 18:57:11.26	316.82	11.01	-43.1	-44.9	18.3	0.00e+00	0	41	0	898629632	58	7121
2026-01-18 18:57:12.27	316.66	10.96	-43.3	-45.2	17.9	0.00e+00	0	41	0	900726784	58	7342
2026-01-18 18:57:13.28	316.51	10.91	-43.6	-45.5	17.7	0.00e+00	0	41	0	902823936	58	7642
2026-01-18 18:57:14.29	316.35	10.86	-43.6	-45.5	17.8	0.00e+00	0	41	0	903872512	58	7604
2026-01-18 18:57:15.30	316.19	10.82	-43.7	-45.7	17.5	0.00e+00	0	41	0	905969664	60	6951
2026-01-18 18:57:16.31	316.03	10.77	-43.5	-45.3	17.9	0.00e+00	0	41	0	908066816	60	6656
2026-01-18 18:57:17.33	315.88	10.72	-43.6	-45.5	17.9	0.00e+00	0	41	0	910163968	60	6791
2026-01-18 18:57:18.33	315.72	10.67	-42.8	-44.5	18.8	0.00e+00	0	41	0	912261120	60	6068
2026-01-18 18:57:19.35	315.57	10.62	-42.8	-44.4	18.9	0.00e+00	0	41	0	913309696	60	5973
2026-01-18 18:57:20.36	315.41	10.57	-42.6	-44.2	18.9	0.00e+00	0	41	0	915406848	58	6572
2026-01-18 18:57:21.37	315.26	10.52	-42.6	-44.1	19.0	0.00e+00	0	41	0	917504000	58	6528
2026-01-18 18:57:22.38	315.10	10.47	-42.5	-44.0	19.2	0.00e+00	0	41	0	919601152	58	6437
2026-01-18 18:57:23.39	314.95	10.42	-42.2	-43.7	19.5	0.00e+00	0	41	0	921698304	58	6201
2026-01-18 18:57:24.40	314.80	10.38	-42.1	-43.5	19.6	0.00e+00	0	41	0	923795456	58	6100
2026-01-18 18:57:25.41	314.65	10.33	-41.9	-43.2	19.9	0.00e+00	0	41	0	924844032	58	5891
2026-01-18 18:57:26.42	314.49	10.28	-41.8	-43.1	19.9	0.00e+00	0	41	0	926941184	58	5812
2026-01-18 18:57:27.42	314.35	10.23	-41.6	-42.9	20.3	0.00e+00	0	41	0	929038336	56	6336
2026-01-18 18:57:28.43	314.19	10.18	-41.5	-42.8	20.3	0.00e+00	0	41	0	931135488	56	6300
2026-01-18 18:57:29.44	314.04	10.13	-41.5	-42.8	20.2	0.00e+00	0	41	0	933232640	56	6297
2026-01-18 18:57:30.46	313.89	10.08	-41.5	-42.8	20.2	0.00e+00	0	41	0	934281216	56	6270
2026-01-18 18:57:31.47	313.75	10.03	-41.5	-42.8	20.2	0.00e+00	0	41	0	936378368	56	6298
2026-01-18 18:57:32.48	313.60	9.98	-41.7	-43.0	20.2	0.00e+00	0	41	0	938475520	56	6408
2026-01-18 18:57:33.49	313.45	9.93	-41.8	-43.1	20.0	0.00e+00	0	41	0	940572672	56	6512
2026-01-18 18:57:34.50	313.30	9.88	-41.6	-42.9	20.1	0.00e+00	0	41	0	942669824	56	6354
2026-01-18 18:57:35.51	313.15	9.83	-41.8	-43.2	19.9	0.00e+00	0	41	0	943718400	56	6550
2026-01-18 18:57:36.52	313.01	9.78	-41.7	-43.1	20.1	0.00e+00	0	41	0	945815552	56	6468
2026-01-18 18:57:37.53	312.86	9.73	-41.4	-42.6	20.4	0.00e+00	0	41	0	947912704	56	6147
2026-01-18 18:57:38.54	312.72	9.68	-41.2	-42.5	20.6	0.00e+00	0	41	0	950009856	56	6053
2026-01-18 18:57:39.55	312.57	9.62	-41.1	-42.3	20.8	0.00e+00	0	41	0	952107008	56	5920
2026-01-18 18:57:40.56	312.43	9.57	-41.1	-42.3	20.8	0.00e+00	0	41	0	953155584	56	5934
2026-01-18 18:57:41.57	312.28	9.52	-41.1	-42.4	20.7	0.00e+00	0	41	0	955252736	56	5985
2026-01-18 18:57:42.58	312.14	9.47	-40.9	-42.1	20.9	0.00e+00	0	41	0	957349888	56	5773
2026-01-18 18:57:43.59	312.00	9.42	-40.6	-41.8	20.9	0.00e+00	0	41	0	959447040	54	6297
2026-01-18 18:57:44.60	311.86	9.37	-40.6	-41.8	21.1	0.00e+00	0	41	0	961544192	54	6278
2026-01-18 18:57:45.61	311.72	9.32	-40.7	-41.8	20.9	0.00e+00	0	41	0	963641344	54	6315
2026-01-18 18:57:46.62	311.57	9.27	-40.8	-42.1	21.0	0.00e+00	0	41	0	964689920	54	6469
2026-01-18 18:57:47.63	311.43	9.22	-40.8	-42.0	20.8	0.00e+00	0	41	0	966787072	54	6417
2026-01-18 18:57:48.64	311.29	9.17	-40.8	-42.0	20.7	0.00e+00	0	41	0	968884224	54	6459
2026-01-18 18:57:49.65	311.15	9.12	-41.0	-42.2	20.6	0.00e+00	0	41	0	970981376	54	6568
2026-01-18 18:57:50.66	311.01	9.06	-41.2	-42.5	20.3	0.00e+00	0	41	0	973078528	54	6816
2026-01-18 18:57:51.67	310.88	9.01	-41.3	-42.6	20.3	0.00e+00	0	41	0	974127104	54	6900
2026-01-18 18:57:52.68	310.74	8.96	-41.6	-42.9	20.1	0.00e+00	0	41	0	976224256	54	7126
2026-01-18 18:57:53.69	310.60	8.91	-41.5	-42.8	20.2	0.00e+00	0	41	0	978321408	54	7035
2026-01-18 18:57:54.70	310.46	8.86	-41.4	-42.7	20.2	0.00e+00	0	41	0	980418560	54	6986
2026-01-18 18:57:55.71	310.33	8.81	-41.4	-42.7	20.2	0.00e+00	0	41	0	982515712	54	6992
2026-01-18 18:57:56.72	310.19	8.75	-41.4	-42.7	20.3	0.00e+00	0	41	0	983564288	54	6983
2026-01-18 18:57:57.73	310.05	8.70	-41.5	-42.9	20.1	0.00e+00	0	41	0	985661440	54	7093
2026-01-18 18:57:58.74	309.92	8.65	-41.4	-42.8	20.2	0.00e+00	0	41	0	987758592	54	7022
2026-01-18 18:57:59.75	309.78	8.60	-41.5	-42.8	20.1	0.00e+00	0	41	0	989855744	54	7075
2026-01-18 18:58:00.76	309.65	8.55	-41.2	-42.5	20.4	0.00e+00	0	41	0	991952896	54	6782
2026-01-18 18:58:01.77	309.52	8.50	-41.3	-42.7	20.3	0.00e+00	0	41	0	993001472	54	6928
2026-01-18 18:58:02.78	309.38	8.44	-41.3	-42.6	20.2	0.00e+00	0	41	0	995098624	54	6897
2026-01-18 18:58:03.79	309.25	8.39	-41.7	-43.1	20.1	0.00e+00	0	41	0	997195776	54	7295
2026-01-18 18:58:04.80	309.12	8.34	-41.6	-43.0	20.0	0.00e+00	0	41	0	999292928	56	6425
2026-01-18 18:58:05.81	308.99	8.29	-41.0	-42.3	20.6	0.00e+00	0	41	0	1001390080	56	5915
2026-01-18 18:58:06.82	308.85	8.24	-40.6	-41.9	20.9	0.00e+00	0	41	0	1002438656	54	6328
2026-01-18 18:58:07.83	308.72	8.18	-40.4	-41.6	21.1	0.00e+00	0	41	0	1004535808	54	6160
2026-01-18 18:58:08.84	308.59	8.13	-40.4	-41.5	21.2	0.00e+00	0	41	0	1006632960	54	6075
2026-01-18 18:58:09.85	308.46	8.08	-40.4	-41.6	21.2	0.00e+00	0	41	0	1008730112	54	6133
2026-01-18 18:58:10.86	308.33	8.03	-40.2	-41.4	21.3	0.00e+00	0	41	0	1010827264	54	5972
2026-01-18 18:58:11.87	308.20	7.98	-40.1	-41.2	21.5	0.00e+00	0	41	0	1011875840	54	5839
2026-01-18 18:58:12.88	308.08	7.92	-39.9	-41.0	21.6	0.00e+00	0	41	0	1013972992	54	5712
2026-01-18 18:58:13.89	307.95	7.87	-40.0	-41.1	21.6	0.00e+00	0	41	0	1016070144	54	5790
2026-01-18 18:58:14.90	307.82	7.82	-39.7	-40.8	21.9	0.00e+00	0	41	0	1018167296	52	6280
2026-01-18 18:58:15.91	307.69	7.77	-39.8	-40.9	21.8	0.00e+00	0	41	0	1020264448	52	6369
2026-01-18 18:58:16.92	307.57	7.71	-39.9	-41.0	21.7	0.00e+00	0	41	0	1021313024	52	6392
2026-01-18 18:58:17.93	307.44	7.66	-39.9	-41.0	21.6	0.00e+00	0	41	0	1023410176	52	6452
2026-01-18 18:58:18.94	307.32	7.61	-40.2	-41.4	21.3	0.00e+00	0	41	0	1025507328	52	6721
2026-01-18 18:58:19.95	307.19	7.56	-40.1	-41.3	21.4	0.00e+00	0	41	0	1027604480	52	6624
2026-01-18 18:58:20.96	307.07	7.50	-40.2	-41.3	21.4	0.00e+00	0	41	0	1029701632	52	6685
2026-01-18 18:58:21.97	306.94	7.45	-40.0	-41.2	21.5	0.00e+00	0	41	0	1031798784	52	6546
2026-01-18 18:58:22.98	306.82	7.40	-39.8	-40.9	21.7	0.00e+00	0	41	0	1032847360	52	6362
2026-01-18 18:58:23.99	306.69	7.35	-39.8	-40.9	21.8	0.00e+00	0	41	0	1034944512	52	6332
2026-01-18 18:58:25.01	306.57	7.29	-39.8	-40.9	21.7	0.00e+00	0	41	0	1037041664	52	6369
2026-01-18 18:58:26.01	306.45	7.24	-40.0	-41.1	21.5	0.00e+00	0	41	0	1039138816	52	6480
2026-01-18 18:58:27.02	306.33	7.19	-39.9	-41.0	21.6	0.00e+00	0	41	0	1041235968	52	6427
2026-01-18 18:58:28.03	306.20	7.14	-39.8	-40.9	21.7	0.00e+00	0	41	0	1042284544	52	6368
2026-01-18 18:58:29.04	306.08	7.08	-39.9	-41.0	21.6	0.00e+00	0	41	0	1044381696	52	6400
2026-01-18 18:58:30.05	305.96	7.03	-40.3	-41.5	21.1	0.00e+00	0	41	0	1046478848	52	6820
2026-01-18 18:58:31.07	305.84	6.98	-40.4	-41.6	20.9	0.00e+00	0	41	0	1048576000	52	6859
2026-01-18 18:58:32.08	305.72	6.92	-40.4	-41.5	21.1	0.00e+00	0	41	0	1050673152	52	6843
2026-01-18 18:58:33.09	305.60	6.87	-40.4	-41.5	21.1	0.00e+00	0	41	0	1051721728	52	6848
2026-01-18 18:58:34.10	305.48	6.82	-40.4	-41.6	21.0	0.00e+00	0	41	0	1053818880	52	6926
2026-01-18 18:58:35.11	305.36	6.77	-40.5	-41.7	20.9	0.00e+00	0	41	0	1055916032	52	6960
2026-01-18 18:58:36.12	305.25	6.71	-40.7	-42.0	20.7	0.00e+00	0	41	0	1058013184	52	7191
2026-01-18 18:58:37.13	305.13	6.66	-40.8	-42.0	20.6	0.00e+00	0	41	0	1060110336	54	6438
2026-01-18 18:58:38.14	305.01	6.61	-40.6	-41.9	20.7	0.00e+00	0	41	0	1061158912	54	6332
2026-01-18 18:58:39.15	304.90	6.56	-40.7	-42.0	20.7	0.00e+00	0	41	0	1063256064	54	6399
2026-01-18 18:58:40.16	304.78	6.50	-40.8	-42.1	20.3	0.00e+00	0	41	0	1065353216	54	6523
2026-01-18 18:58:41.17	304.66	6.45	-40.7	-41.9	20.6	0.00e+00	0	41	0	1067450368	54	6358
2026-01-18 18:58:42.18	304.55	6.40	-40.8	-42.1	20.4	0.00e+00	0	41	0	1069547520	54	6498
2026-01-18 18:58:43.19	304.43	6.35	-40.8	-42.1	20.4	0.00e+00	0	41	0	1070596096	54	6513
2026-01-18 18:58:44.20	304.32	6.29	-40.9	-42.2	20.4	0.00e+00	0	41	0	1072693248	54	6573
2026-01-18 18:58:45.21	304.20	6.24	-40.7	-41.9	20.5	0.00e+00	0	41	0	1074790400	54	6372
2026-01-18 18:58:46.22	304.09	6.19	-41.0	-42.3	20.2	0.00e+00	0	41	0	1076887552	54	6680
2026-01-18 18:58:47.23	303.98	6.13	-40.9	-42.2	20.2	0.00e+00	0	41	0	1078984704	54	6554
2026-01-18 18:58:48.24	303.86	6.08	-40.8	-42.0	20.3	0.00e+00	0	41	0	1080033280	54	6457
2026-01-18 18:58:49.25	303.75	6.03	-41.2	-42.5	20.0	0.00e+00	0	41	0	1082130432	54	6839
2026-01-18 18:58:50.26	303.64	5.98	-41.0	-42.3	20.3	0.00e+00	0	41	0	1084227584	54	6627
2026-01-18 18:58:51.27	303.53	5.92	-40.9	-42.2	20.3	0.00e+00	0	41	0	1086324736	54	6572
2026-01-18 18:58:52.29	303.42	5.87	-41.0	-42.2	20.3	0.00e+00	0	41	0	1088421888	54	6614
2026-01-18 18:58:53.29	303.31	5.82	-40.9	-42.2	20.3	0.00e+00	0	41	0	1089470464	54	6561
2026-01-18 18:58:54.31	303.19	5.77	-40.7	-41.9	20.5	0.00e+00	0	41	0	1091567616	54	6365
2026-01-18 18:58:55.32	303.08	5.71	-40.4	-41.7	20.7	0.00e+00	0	41	0	1093664768	54	6179
2026-01-18 18:58:56.33	302.97	5.66	-40.5	-41.8	20.7	0.00e+00	0	41	0	1095761920	54	6266
2026-01-18 18:58:57.34	302.87	5.61	-40.4	-41.6	20.8	0.00e+00	0	41	0	1097859072	54	6135
2026-01-18 18:58:58.35	302.76	5.55	-40.5	-41.7	20.7	0.00e+00	0	41	0	1099956224	54	6211
2026-01-18 18:58:59.36	302.65	5.50	-40.4	-41.6	20.8	0.00e+00	0	41	0	1101004800	54	6161
2026-01-18 18:59:00.37	302.54	5.45	-40.6	-41.8	20.6	0.00e+00	0	41	0	1103101952	54	6303
2026-01-18 18:59:01.38	302.43	5.40	-40.6	-41.8	20.6	0.00e+00	0	41	0	1105199104	54	6281
2026-01-18 18:59:02.39	302.33	5.34	-40.7	-42.0	20.5	0.00e+00	0	41	0	1107296256	54	6404
2026-01-18 18:59:03.40	302.22	5.29	-41.0	-42.3	20.1	0.00e+00	0	41	0	1109393408	54	6663
2026-01-18 18:59:04.41	302.11	5.24	-41.2	-42.6	19.9	0.00e+00	0	41	0	1110441984	54	6896
2026-01-18 18:59:05.43	302.01	5.19	-41.3	-42.7	19.8	0.00e+00	0	41	0	1112539136	54	6977
2026-01-18 18:59:06.44	301.90	5.13	-41.4	-42.8	19.8	0.00e+00	0	41	0	1114636288	54	7063
2026-01-18 18:59:07.45	301.80	5.08	-41.7	-43.1	19.4	0.00e+00	0	41	0	1116733440	54	7325
2026-01-18 18:59:08.45	301.69	5.03	-41.8	-43.3	19.4	0.00e+00	0	41	0	1118830592	56	6644
2026-01-18 18:59:09.46	301.59	4.98	-42.0	-43.6	19.0	0.00e+00	0	41	0	1119879168	56	6854
2026-01-18 18:59:10.47	301.48	4.92	-41.9	-43.4	19.2	0.00e+00	0	41	0	1121976320	56	6725
2026-01-18 18:59:11.48	301.38	4.87	-41.7	-43.2	19.3	0.00e+00	0	41	0	1124073472	56	6565
2026-01-18 18:59:12.49	301.28	4.82	-41.4	-42.8	19.7	0.00e+00	0	41	0	1126170624	56	6310
2026-01-18 18:59:13.50	301.17	4.77	-41.2	-42.6	19.9	0.00e+00	0	41	0	1128267776	56	6146
2026-01-18 18:59:14.51	301.07	4.71	-41.2	-42.6	19.9	0.00e+00	0	41	0	1129316352	56	6131
2026-01-18 18:59:15.52	300.97	4.66	-41.1	-42.5	19.9	0.00e+00	0	41	0	1131413504	56	6060
2026-01-18 18:59:16.53	300.87	4.61	-40.9	-42.2	20.3	0.00e+00	0	41	0	1133510656	56	5871
2026-01-18 18:59:17.54	300.77	4.56	-40.9	-42.2	20.2	0.00e+00	0	41	0	1135607808	56	5877
2026-01-18 18:59:18.55	300.66	4.50	-40.5	-41.8	20.4	0.00e+00	0	41	0	1137704960	54	6254
2026-01-18 18:59:19.56	300.56	4.45	-40.5	-41.7	20.6	0.00e+00	0	41	0	1139802112	54	6208
2026-01-18 18:59:20.57	300.46	4.40	-40.6	-41.9	20.5	0.00e+00	0	41	0	1140850688	54	6327
2026-01-18 18:59:21.58	300.36	4.35	-40.4	-41.6	20.5	0.00e+00	0	41	0	1142947840	54	6156
2026-01-18 18:59:22.59	300.26	4.29	-40.8	-42.1	20.3	0.00e+00	0	41	0	1145044992	54	6531
2026-01-18 18:59:23.60	300.16	4.24	-40.2	-41.4	20.8	0.00e+00	0	41	0	1147142144	54	6005
2026-01-18 18:59:24.61	300.07	4.19	-40.5	-41.7	20.5	0.00e+00	0	41	0	1149239296	54	6220
2026-01-18 18:59:25.62	299.97	4.14	-40.4	-41.7	20.5	0.00e+00	0	41	0	1150287872	54	6203
2026-01-18 18:59:26.63	299.87	4.09	-40.7	-42.0	20.2	0.00e+00	0	41	0	1152385024	54	6454
2026-01-18 18:59:27.64	299.77	4.03	-40.6	-41.9	20.4	0.00e+00	0	41	0	1154482176	54	6334
2026-01-18 18:59:28.65	299.67	3.98	-40.9	-42.2	19.9	0.00e+00	0	41	0	1156579328	54	6614
2026-01-18 18:59:29.67	299.58	3.93	-41.1	-42.5	19.8	0.00e+00	0	41	0	1158676480	54	6770
2026-01-18 18:59:30.67	299.48	3.88	-41.1	-42.5	19.7	0.00e+00	0	41	0	1159725056	54	6816
2026-01-18 18:59:31.69	299.38	3.82	-41.9	-43.4	19.0	0.00e+00	0	41	0	1161822208	56	6748
2026-01-18 18:59:32.69	299.29	3.77	-42.0	-43.6	18.8	0.00e+00	0	41	0	1163919360	56	6898
2026-01-18 18:59:33.71	299.19	3.72	-42.0	-43.6	18.8	0.00e+00	0	41	0	1166016512	56	6883
2026-01-18 18:59:34.72	299.10	3.67	-42.1	-43.7	18.5	0.00e+00	0	41	0	1168113664	56	7001
2026-01-18 18:59:35.72	299.00	3.62	-42.3	-44.0	18.3	0.00e+00	0	41	0	1169162240	56	7202
2026-01-18 18:59:36.73	298.91	3.56	-42.3	-44.0	18.2	0.00e+00	0	41	0	1171259392	56	7221
2026-01-18 18:59:37.74	298.81	3.51	-42.3	-44.1	18.3	0.00e+00	0	41	0	1173356544	56	7254
2026-01-18 18:59:38.75	298.72	3.46	-42.7	-44.6	17.8	0.00e+00	0	41	0	1175453696	56	7701
2026-01-18 18:59:39.76	298.63	3.41	-42.7	-44.5	17.8	0.00e+00	0	41	0	1177550848	56	7654
2026-01-18 18:59:40.77	298.53	3.36	-42.7	-44.6	17.6	0.00e+00	0	41	0	1178599424	58	6907
2026-01-18 18:59:41.78	298.44	3.30	-42.7	-44.5	17.8	0.00e+00	0	41	0	1180696576	58	6839
2026-01-18 18:59:42.79	298.35	3.25	-42.5	-44.3	17.9	0.00e+00	0	41	0	1182793728	58	6652
2026-01-18 18:59:43.80	298.26	3.20	-43.2	-45.2	17.0	0.00e+00	0	41	0	1184890880	58	7405
2026-01-18 18:59:44.81	298.16	3.15	-42.7	-44.5	17.7	0.00e+00	0	41	0	1186988032	58	6832
2026-01-18 18:59:45.83	298.07	3.10	-42.3	-44.1	18.1	0.00e+00	0	41	0	1188036608	58	6487
2026-01-18 18:59:46.83	297.98	3.05	-42.1	-43.8	18.4	0.00e+00	0	41	0	1190133760	58	6265
2026-01-18 18:59:47.84	297.89	2.99	-48.6	-63.7	3.6	2.66e-01	0	41	104	1191182336	60	55285
2026-01-18 18:59:48.85	297.80	2.94	-49.1	-64.3	3.6	1.51e+00	0	41	104	1191182336	60	59004
2026-01-18 18:59:49.86	297.71	2.89	-49.3	-64.5	3.6	1.51e+00	0	41	104	1191182336	60	60491
2026-01-18 18:59:50.87	297.62	2.84	-49.5	-64.7	3.6	1.51e+00	0	41	104	1191182336	60	61948
2026-01-18 18:59:51.88	297.53	2.79	-49.7	-64.9	3.6	1.51e+00	0	41	104	1191182336	60	63486
