passes_logs/2025/01/07/PPK-1/PPK-1__20250107_114147_TY-39_rec.log

#Pass ID: 20250107_114147_TY-39
#Satellite: TY-39
#Configuration: TY-39
#almurnet v.1.7.20230919.trace
#Start time: 2025-01-07 11:41:46

#Version: 2.2.20231116
#Station: PPK-1
#Location: 158.6 lon 53.06666 lat
#TLE: 1 51832U 22019J   25006.88654507  .00004562  00000+0  23474-3 0  9998
#TLE: 2 51832  97.4107  77.2724 0007693 266.5982  93.4372 15.16904819157916

#Time	Az	El	Level	Level2	SNR	BER	BlckErr	Temp	State
2025-01-07 11:41:46.77	207.96	7.94	-67.1	-73.5	3.6	0.00e+00	0	46	0
2025-01-07 11:41:47.67	208.07	8.01	-67.2	-73.5	3.7	0.00e+00	0	46	104
2025-01-07 11:41:48.66	208.20	8.08	-67.2	-73.6	3.6	0.00e+00	0	46	104
2025-01-07 11:41:49.57	208.32	8.16	-67.3	-73.7	3.7	0.00e+00	0	46	104
2025-01-07 11:41:50.56	208.45	8.23	-67.3	-73.7	3.6	0.00e+00	0	46	104
2025-01-07 11:41:51.46	208.57	8.31	-67.3	-73.6	3.7	0.00e+00	0	47	104
2025-01-07 11:41:52.45	208.70	8.38	-67.3	-72.9	3.7	0.00e+00	0	47	104
2025-01-07 11:41:53.36	208.83	8.46	-67.3	-73.0	3.6	0.00e+00	0	47	104
2025-01-07 11:41:54.35	208.96	8.54	-67.3	-73.0	3.7	0.00e+00	0	47	104
2025-01-07 11:41:55.26	209.08	8.61	-67.3	-72.9	3.6	0.00e+00	0	47	104
2025-01-07 11:41:56.25	209.22	8.69	-67.3	-73.1	3.7	0.00e+00	0	47	104
2025-01-07 11:41:57.16	209.34	8.76	-67.3	-73.1	3.6	0.00e+00	0	47	104
2025-01-07 11:41:58.15	209.48	8.84	-67.4	-73.2	3.6	0.00e+00	0	48	104
2025-01-07 11:41:59.06	209.61	8.91	-67.4	-73.2	3.7	0.00e+00	0	48	104
2025-01-07 11:42:00.04	209.74	8.99	-67.4	-73.3	3.6	0.00e+00	0	48	104
2025-01-07 11:42:00.95	209.87	9.07	-67.4	-73.2	3.7	0.00e+00	0	48	104
2025-01-07 11:42:01.94	210.01	9.15	-67.4	-73.3	3.6	0.00e+00	0	48	104
2025-01-07 11:42:02.85	210.14	9.22	-67.4	-73.3	3.6	0.00e+00	0	48	104
2025-01-07 11:42:03.84	210.29	9.30	-67.4	-73.3	3.7	0.00e+00	0	49	104
2025-01-07 11:42:04.75	210.42	9.38	-67.4	-73.3	3.6	0.00e+00	0	49	104
2025-01-07 11:42:05.74	210.56	9.46	-67.4	-73.3	3.7	0.00e+00	0	49	104
2025-01-07 11:42:06.65	210.69	9.53	-67.4	-73.3	3.6	0.00e+00	0	49	104
2025-01-07 11:42:07.64	210.84	9.62	-67.4	-73.3	3.7	0.00e+00	0	49	104
2025-01-07 11:42:08.55	210.98	9.69	-67.4	-73.2	3.6	0.00e+00	0	49	104
2025-01-07 11:42:09.54	211.12	9.77	-67.3	-72.9	3.7	0.00e+00	0	49	104
2025-01-07 11:42:10.45	211.26	9.85	-67.2	-72.6	3.7	0.00e+00	0	50	104
2025-01-07 11:42:11.44	211.41	9.93	-67.1	-72.4	3.6	0.00e+00	0	50	104
2025-01-07 11:42:12.35	211.55	10.01	-67.1	-72.3	3.7	0.00e+00	0	50	104
2025-01-07 11:42:13.34	211.70	10.09	-67.1	-72.3	3.5	0.00e+00	0	50	104
2025-01-07 11:42:14.24	211.84	10.17	-67.2	-72.4	3.6	0.00e+00	0	50	104
2025-01-07 11:42:15.23	211.99	10.25	-67.3	-72.7	3.7	0.00e+00	0	50	104
2025-01-07 11:42:16.14	212.13	10.33	-67.4	-72.8	3.6	0.00e+00	0	50	104
2025-01-07 11:42:17.13	212.29	10.41	-67.4	-73.0	3.6	0.00e+00	0	51	104
2025-01-07 11:42:18.03	212.43	10.49	-67.4	-73.1	3.6	0.00e+00	0	51	104
2025-01-07 11:42:19.02	212.59	10.57	-67.4	-73.1	3.6	0.00e+00	0	51	104
2025-01-07 11:42:19.93	212.74	10.65	-67.3	-73.1	3.6	0.00e+00	0	51	104
2025-01-07 11:42:20.92	212.90	10.73	-67.3	-73.1	3.6	0.00e+00	0	51	104
2025-01-07 11:42:21.83	213.04	10.81	-67.3	-73.1	3.7	0.00e+00	0	51	104
2025-01-07 11:42:22.82	213.21	10.90	-67.3	-73.2	3.6	0.00e+00	0	51	104
2025-01-07 11:42:23.73	213.35	10.98	-67.3	-73.2	3.7	0.00e+00	0	51	104
2025-01-07 11:42:24.72	213.52	11.06	-67.4	-73.3	3.6	0.00e+00	0	52	104
2025-01-07 11:42:25.63	213.67	11.14	-67.4	-73.2	3.6	0.00e+00	0	52	104
2025-01-07 11:42:26.62	213.84	11.23	-67.5	-73.3	3.7	0.00e+00	0	52	104
2025-01-07 11:42:27.53	213.99	11.30	-67.5	-73.3	3.6	0.00e+00	0	52	104
2025-01-07 11:42:28.52	214.16	11.39	-67.5	-73.4	3.7	0.00e+00	0	52	104
2025-01-07 11:42:29.43	214.31	11.47	-67.5	-73.4	3.6	0.00e+00	0	52	104
2025-01-07 11:42:30.42	214.48	11.56	-67.6	-73.5	3.7	0.00e+00	0	52	104
2025-01-07 11:42:31.33	214.64	11.64	-67.5	-73.4	3.6	0.00e+00	0	53	104
2025-01-07 11:42:32.32	214.82	11.72	-67.5	-73.3	3.6	0.00e+00	0	53	104
2025-01-07 11:42:33.23	214.97	11.80	-67.4	-73.1	3.7	0.00e+00	0	53	104
2025-01-07 11:42:34.22	215.15	11.89	-67.4	-72.9	3.6	0.00e+00	0	53	104
2025-01-07 11:42:35.12	215.31	11.97	-67.3	-72.8	3.7	0.00e+00	0	53	104
2025-01-07 11:42:36.12	215.49	12.06	-67.4	-72.8	3.6	0.00e+00	0	53	104
2025-01-07 11:42:37.02	215.65	12.14	-67.4	-73.0	3.6	0.00e+00	0	53	104
2025-01-07 11:42:38.02	215.83	12.23	-67.5	-73.3	3.7	0.00e+00	0	53	104
2025-01-07 11:42:38.92	216.00	12.31	-67.6	-73.5	3.6	0.00e+00	0	54	104
2025-01-07 11:42:39.91	216.18	12.40	-67.6	-73.5	3.7	0.00e+00	0	54	104
2025-01-07 11:42:40.81	216.35	12.48	-67.5	-73.3	3.6	0.00e+00	0	54	104
2025-01-07 11:42:41.81	216.53	12.57	-67.5	-73.3	3.7	0.00e+00	0	54	104
2025-01-07 11:42:42.71	216.70	12.65	-67.5	-73.2	3.6	0.00e+00	0	54	104
2025-01-07 11:42:43.71	216.89	12.74	-67.5	-73.3	3.6	0.00e+00	0	54	104
2025-01-07 11:42:44.61	217.06	12.82	-67.5	-73.5	3.7	0.00e+00	0	54	104
2025-01-07 11:42:45.61	217.25	12.91	-67.6	-73.5	3.6	0.00e+00	0	54	104
2025-01-07 11:42:46.51	217.43	12.99	-67.5	-73.4	3.7	0.00e+00	0	55	104
2025-01-07 11:42:47.51	217.62	13.08	-67.5	-73.4	3.6	0.00e+00	0	54	104
2025-01-07 11:42:48.41	217.80	13.16	-67.5	-73.3	3.6	0.00e+00	0	55	104
2025-01-07 11:42:49.41	218.00	13.25	-67.4	-73.3	3.7	0.00e+00	0	55	104
2025-01-07 11:42:50.31	218.17	13.34	-67.4	-73.3	3.6	0.00e+00	0	55	104
2025-01-07 11:42:51.31	218.37	13.43	-67.3	-73.2	3.7	0.00e+00	0	55	104
2025-01-07 11:42:52.21	218.55	13.51	-67.4	-73.3	3.6	0.00e+00	0	55	104
2025-01-07 11:42:53.21	218.76	13.60	-67.3	-73.3	3.6	0.00e+00	0	55	104
2025-01-07 11:42:54.11	218.94	13.68	-67.4	-73.3	3.6	0.00e+00	0	55	104
2025-01-07 11:42:55.11	219.14	13.78	-67.3	-73.3	3.6	0.00e+00	0	55	104
2025-01-07 11:42:56.01	219.33	13.86	-67.4	-73.4	3.7	0.00e+00	0	55	104
2025-01-07 11:42:57.01	219.54	13.95	-67.4	-73.4	3.6	0.00e+00	0	56	104
2025-01-07 11:42:57.91	219.73	14.03	-67.4	-73.4	3.7	0.00e+00	0	56	104
2025-01-07 11:42:58.91	219.94	14.13	-67.4	-73.3	3.6	0.00e+00	0	56	104
2025-01-07 11:42:59.81	220.13	14.21	-67.2	-73.2	3.7	0.00e+00	0	56	104
2025-01-07 11:43:00.80	220.34	14.30	-67.2	-73.2	3.7	0.00e+00	0	56	104
2025-01-07 11:43:01.70	220.53	14.39	-66.9	-73.5	3.6	0.00e+00	0	56	104
2025-01-07 11:43:02.70	220.75	14.48	-67.4	-73.5	3.7	0.00e+00	0	56	104
2025-01-07 11:43:03.60	220.95	14.56	-67.3	-73.4	3.6	0.00e+00	0	56	104
2025-01-07 11:43:04.60	221.17	14.66	-67.7	-73.7	3.7	0.00e+00	0	56	104
2025-01-07 11:43:05.50	221.36	14.74	-54.4	-57.1	5.8	0.00e+00	3060	57	104
2025-01-07 11:43:06.50	221.59	14.83	-54.2	-56.7	12.8	2.08e-04	0	57	0
2025-01-07 11:43:07.40	221.79	14.92	-54.2	-56.7	12.7	2.77e-05	0	57	0
2025-01-07 11:43:08.40	222.01	15.01	-54.2	-56.6	12.8	6.24e-05	0	57	0
2025-01-07 11:43:09.30	222.22	15.09	-54.1	-56.5	12.9	3.46e-05	0	57	0
2025-01-07 11:43:10.29	222.44	15.19	-54.1	-56.4	12.9	2.77e-05	0	57	0
2025-01-07 11:43:11.19	222.65	15.27	-53.9	-56.5	13.1	2.77e-05	0	57	0
2025-01-07 11:43:12.19	222.88	15.37	-53.8	-56.3	13.3	2.08e-05	0	57	0
2025-01-07 11:43:13.09	223.09	15.45	-53.7	-56.1	13.3	1.38e-05	0	58	0
2025-01-07 11:43:14.08	223.33	15.54	-53.4	-56.0	13.5	0.00e+00	0	58	0
2025-01-07 11:43:14.98	223.54	15.63	-53.4	-56.1	13.5	0.00e+00	0	58	0
2025-01-07 11:43:15.98	223.78	15.72	-53.4	-56.0	13.5	0.00e+00	0	58	0
2025-01-07 11:43:16.88	223.99	15.81	-53.3	-55.9	13.5	0.00e+00	0	58	0
2025-01-07 11:43:17.88	224.23	15.90	-53.3	-55.9	13.5	0.00e+00	0	58	0
2025-01-07 11:43:18.78	224.45	15.99	-53.4	-56.0	13.5	6.90e-06	0	58	0
2025-01-07 11:43:19.78	224.70	16.08	-53.3	-55.9	13.5	6.90e-06	0	58	0
2025-01-07 11:43:20.68	224.92	16.16	-53.5	-56.2	13.4	6.90e-06	0	58	0
2025-01-07 11:43:21.68	225.17	16.26	-53.5	-56.3	13.4	0.00e+00	0	59	0
2025-01-07 11:43:22.58	225.39	16.34	-53.5	-56.2	13.4	6.90e-06	0	59	0
2025-01-07 11:43:23.57	225.64	16.44	-53.7	-56.6	13.2	0.00e+00	0	59	0
2025-01-07 11:43:24.47	225.87	16.52	-53.8	-56.8	13.2	6.90e-06	0	59	0
2025-01-07 11:43:25.46	226.12	16.61	-53.8	-56.9	13.2	3.46e-05	0	59	0
2025-01-07 11:43:26.36	226.35	16.70	-53.8	-56.9	13.3	6.90e-06	0	59	0
2025-01-07 11:43:27.35	226.61	16.79	-53.9	-57.1	13.3	6.90e-06	0	59	0
2025-01-07 11:43:28.25	226.84	16.88	-53.8	-56.8	13.3	1.38e-05	0	59	0
2025-01-07 11:43:29.24	227.10	16.97	-53.8	-56.9	13.2	6.90e-06	0	59	0
2025-01-07 11:43:30.14	227.34	17.05	-54.0	-57.2	13.1	2.77e-05	0	59	0
2025-01-07 11:43:31.14	227.60	17.15	-54.0	-57.3	13.1	2.08e-05	0	59	0
2025-01-07 11:43:32.04	227.84	17.23	-54.1	-57.4	13.0	2.77e-05	0	60	0
2025-01-07 11:43:33.04	228.11	17.33	-53.9	-57.0	13.0	6.90e-06	0	60	0
2025-01-07 11:43:33.95	228.36	17.41	-53.7	-56.7	13.1	6.90e-06	0	60	0
2025-01-07 11:43:34.94	228.63	17.50	-53.6	-56.5	13.1	1.38e-05	0	60	0
2025-01-07 11:43:35.84	228.88	17.59	-53.6	-56.5	13.0	1.38e-05	0	60	0
2025-01-07 11:43:36.84	229.15	17.68	-53.5	-56.2	13.1	6.90e-06	0	60	0
2025-01-07 11:43:37.74	229.40	17.76	-53.4	-56.0	13.1	2.77e-05	0	60	0
2025-01-07 11:43:38.73	229.68	17.86	-53.2	-55.6	13.3	0.00e+00	0	60	0
2025-01-07 11:43:39.64	229.93	17.94	-53.2	-55.7	13.3	6.90e-06	0	60	0
2025-01-07 11:43:40.63	230.22	18.03	-53.1	-55.9	13.4	1.38e-05	0	60	0
2025-01-07 11:43:41.53	230.47	18.12	-53.0	-55.8	13.5	6.90e-06	0	60	0
2025-01-07 11:43:42.53	230.76	18.21	-53.0	-55.8	13.5	0.00e+00	0	61	0
2025-01-07 11:43:43.43	231.02	18.29	-52.8	-55.4	13.5	0.00e+00	0	61	0
2025-01-07 11:43:44.42	231.31	18.38	-53.1	-56.0	13.4	0.00e+00	0	61	0
2025-01-07 11:43:45.32	231.57	18.46	-53.1	-56.0	13.4	0.00e+00	0	61	0
2025-01-07 11:43:46.32	231.86	18.56	-53.2	-56.1	13.3	0.00e+00	0	61	0
2025-01-07 11:43:47.22	232.13	18.64	-53.1	-56.0	13.4	1.38e-05	0	61	0
2025-01-07 11:43:48.22	232.43	18.73	-53.3	-56.3	13.3	0.00e+00	0	61	0
2025-01-07 11:43:49.12	232.70	18.81	-53.4	-56.5	13.2	1.38e-05	0	61	0
2025-01-07 11:43:50.11	233.00	18.90	-53.4	-56.6	13.2	0.00e+00	0	61	0
2025-01-07 11:43:51.01	233.27	18.98	-53.6	-56.9	13.2	1.38e-05	0	61	0
2025-01-07 11:43:52.01	233.58	19.07	-53.6	-57.0	13.2	0.00e+00	0	61	0
2025-01-07 11:43:52.91	233.86	19.15	-53.8	-57.3	13.0	0.00e+00	0	61	0
2025-01-07 11:43:53.90	234.16	19.24	-53.7	-57.2	12.8	4.16e-05	0	62	0
2025-01-07 11:43:54.80	234.44	19.32	-53.7	-57.2	12.7	2.77e-05	0	61	0
2025-01-07 11:43:55.80	234.76	19.41	-54.1	-57.4	12.5	5.54e-05	0	62	0
2025-01-07 11:43:56.70	235.04	19.49	-54.0	-57.3	12.6	6.93e-05	0	62	0
2025-01-07 11:43:57.70	235.36	19.58	-54.1	-57.4	12.7	7.62e-05	0	62	0
2025-01-07 11:43:58.60	235.65	19.65	-54.0	-57.4	12.8	6.24e-05	0	62	0
2025-01-07 11:43:59.60	235.97	19.74	-53.8	-56.8	13.1	2.77e-05	0	62	0
2025-01-07 11:44:00.50	236.26	19.82	-53.8	-56.8	13.0	1.38e-05	0	62	0
2025-01-07 11:44:01.50	236.58	19.91	-53.7	-56.7	12.9	5.54e-05	0	62	0
2025-01-07 11:44:02.39	236.87	19.98	-53.7	-56.6	12.9	3.46e-05	0	62	0
2025-01-07 11:44:03.40	237.21	20.07	-53.6	-56.5	13.0	3.46e-05	0	62	0
2025-01-07 11:44:04.29	237.50	20.14	-53.7	-56.7	13.0	1.38e-05	0	62	0
2025-01-07 11:44:05.30	237.84	20.23	-53.5	-56.3	13.2	6.90e-06	0	62	0
2025-01-07 11:44:06.19	238.13	20.30	-53.4	-56.1	13.3	1.38e-05	0	62	0
2025-01-07 11:44:07.20	238.47	20.39	-53.2	-55.6	13.4	0.00e+00	0	62	0
2025-01-07 11:44:08.09	238.78	20.46	-53.3	-55.9	13.2	0.00e+00	0	62	0
2025-01-07 11:44:09.10	239.12	20.54	-53.3	-55.8	13.3	0.00e+00	0	62	0
2025-01-07 11:44:09.99	239.42	20.62	-53.4	-56.0	13.3	6.90e-06	0	62	0
2025-01-07 11:44:11.00	239.77	20.70	-53.3	-55.9	13.5	0.00e+00	0	62	0
2025-01-07 11:44:11.89	240.08	20.77	-53.3	-55.9	13.4	0.00e+00	0	62	0
2025-01-07 11:44:12.90	240.43	20.85	-53.4	-56.0	13.4	6.90e-06	0	62	0
2025-01-07 11:44:13.79	240.74	20.92	-53.3	-55.9	13.3	6.90e-06	0	63	0
2025-01-07 11:44:14.80	241.10	21.00	-53.2	-56.1	13.3	1.38e-05	0	62	0
2025-01-07 11:44:15.69	241.41	21.07	-53.2	-56.2	13.2	0.00e+00	0	63	0
2025-01-07 11:44:16.70	241.77	21.15	-53.2	-56.1	13.3	2.77e-05	0	63	0
2025-01-07 11:44:17.59	242.09	21.22	-53.5	-56.8	13.2	1.38e-05	0	63	0
2025-01-07 11:44:18.60	242.45	21.29	-53.9	-56.9	13.2	2.08e-05	0	63	0
2025-01-07 11:44:19.49	242.77	21.36	-54.0	-57.2	13.2	2.08e-05	0	63	0
2025-01-07 11:44:20.50	243.14	21.43	-53.9	-56.9	13.1	0.00e+00	0	63	0
2025-01-07 11:44:21.39	243.47	21.50	-53.7	-56.6	13.1	6.90e-06	0	63	0
2025-01-07 11:44:22.40	243.84	21.57	-54.2	-57.6	12.6	4.16e-05	0	63	0
2025-01-07 11:44:23.29	244.16	21.64	-53.9	-57.0	12.9	4.16e-05	0	63	0
2025-01-07 11:44:24.30	244.54	21.71	-54.3	-57.8	12.7	5.54e-05	0	63	0
2025-01-07 11:44:25.19	244.87	21.77	-54.4	-57.5	12.8	6.24e-05	0	63	0
2025-01-07 11:44:26.19	245.24	21.84	-54.4	-57.5	12.9	2.08e-05	0	63	0
2025-01-07 11:44:27.09	245.58	21.90	-54.3	-57.3	13.0	0.00e+00	0	63	0
2025-01-07 11:44:28.09	245.96	21.97	-54.0	-56.8	12.9	4.16e-05	0	64	0
2025-01-07 11:44:28.98	246.29	22.03	-54.2	-57.2	12.7	4.16e-05	0	63	0
2025-01-07 11:44:29.99	246.68	22.10	-54.0	-56.8	13.0	4.16e-05	0	64	0
2025-01-07 11:44:30.88	247.02	22.15	-54.2	-57.2	13.0	2.77e-05	0	64	0
2025-01-07 11:44:31.89	247.41	22.22	-53.9	-56.6	13.3	2.77e-05	0	64	0
2025-01-07 11:44:32.78	247.75	22.27	-54.1	-57.0	13.2	6.90e-06	0	64	0
2025-01-07 11:44:33.79	248.14	22.34	-53.9	-56.5	13.3	0.00e+00	0	64	0
2025-01-07 11:44:34.68	248.49	22.39	-53.7	-56.2	13.3	6.90e-06	0	64	0
2025-01-07 11:44:35.69	248.88	22.45	-53.9	-56.5	13.1	1.38e-05	0	64	0
2025-01-07 11:44:36.58	249.23	22.50	-53.7	-56.1	13.1	2.08e-05	0	64	0
2025-01-07 11:44:37.59	249.63	22.56	-53.6	-56.5	13.0	2.77e-05	0	64	0
2025-01-07 11:44:38.48	249.98	22.61	-53.5	-56.2	13.1	1.38e-05	0	64	0
2025-01-07 11:44:39.49	250.38	22.67	-53.6	-56.5	13.2	3.46e-05	0	64	0
2025-01-07 11:44:40.38	250.73	22.72	-53.4	-56.1	13.4	2.77e-05	0	64	0
2025-01-07 11:44:41.39	251.13	22.77	-53.5	-56.2	13.4	6.90e-06	0	64	0
2025-01-07 11:44:42.28	251.49	22.82	-53.4	-56.2	13.4	6.90e-06	0	64	0
2025-01-07 11:44:43.29	251.90	22.87	-53.5	-56.3	13.4	0.00e+00	0	64	0
2025-01-07 11:44:44.18	252.26	22.92	-53.3	-55.9	13.6	0.00e+00	0	64	0
2025-01-07 11:44:45.19	252.66	22.97	-53.4	-56.0	13.6	0.00e+00	0	64	0
2025-01-07 11:44:46.08	253.02	23.01	-53.7	-56.6	13.4	0.00e+00	0	64	0
2025-01-07 11:44:47.09	253.44	23.06	-52.9	-55.6	13.8	0.00e+00	0	64	0
2025-01-07 11:44:47.98	253.80	23.10	-53.2	-56.2	13.6	0.00e+00	0	65	0
2025-01-07 11:44:48.99	254.21	23.14	-53.3	-56.4	13.6	6.90e-06	0	65	0
2025-01-07 11:44:49.88	254.58	23.18	-53.5	-56.8	13.5	1.38e-05	0	64	0
2025-01-07 11:44:50.88	254.99	23.22	-53.5	-56.8	13.5	0.00e+00	0	65	0
2025-01-07 11:44:51.78	255.36	23.26	-53.8	-57.0	13.3	0.00e+00	0	65	0
2025-01-07 11:44:52.78	255.78	23.30	-53.4	-56.1	13.5	2.77e-05	0	65	0
2025-01-07 11:44:53.68	256.15	23.33	-53.4	-56.0	13.5	2.08e-05	0	65	0
2025-01-07 11:44:54.68	256.57	23.37	-53.4	-56.1	13.5	6.90e-06	0	65	0
2025-01-07 11:44:55.57	256.94	23.40	-53.5	-56.2	13.5	6.90e-06	0	65	0
2025-01-07 11:44:56.58	257.36	23.43	-53.3	-55.8	13.7	0.00e+00	0	65	0
2025-01-07 11:44:57.47	257.73	23.46	-53.6	-56.4	13.5	0.00e+00	0	65	0
2025-01-07 11:44:58.48	258.16	23.50	-53.5	-56.3	13.5	0.00e+00	0	65	0
2025-01-07 11:44:59.37	258.53	23.52	-53.4	-56.2	13.5	0.00e+00	0	65	0
2025-01-07 11:45:00.38	258.96	23.55	-53.4	-56.1	13.5	1.38e-05	0	65	0
2025-01-07 11:45:01.27	259.33	23.58	-53.5	-56.3	13.4	0.00e+00	0	65	0
2025-01-07 11:45:02.28	259.76	23.60	-53.3	-55.9	13.5	3.46e-05	0	65	0
2025-01-07 11:45:03.17	260.14	23.62	-53.6	-56.4	13.3	0.00e+00	0	65	0
2025-01-07 11:45:04.18	260.57	23.65	-53.9	-57.1	13.1	3.46e-05	0	65	0
2025-01-07 11:45:05.07	260.94	23.67	-53.8	-56.9	13.2	2.08e-05	0	65	0
2025-01-07 11:45:06.08	261.37	23.69	-53.6	-56.4	13.4	6.90e-06	0	65	0
2025-01-07 11:45:06.97	261.75	23.70	-53.7	-56.6	13.3	6.90e-06	0	65	0
2025-01-07 11:45:07.98	262.18	23.72	-53.6	-56.5	13.4	6.90e-06	0	65	0
2025-01-07 11:45:08.87	262.56	23.74	-53.7	-56.6	13.4	1.38e-05	0	65	0
2025-01-07 11:45:09.88	263.00	23.75	-53.9	-57.1	13.2	1.38e-05	0	66	0
2025-01-07 11:45:10.77	263.38	23.76	-53.6	-56.4	13.3	2.08e-05	0	65	0
2025-01-07 11:45:11.78	263.81	23.77	-53.8	-56.8	13.3	0.00e+00	0	66	0
2025-01-07 11:45:12.67	264.19	23.78	-53.8	-56.8	13.4	0.00e+00	0	66	0
2025-01-07 11:45:13.67	264.62	23.79	-53.7	-56.7	13.4	1.38e-05	0	66	0
2025-01-07 11:45:14.57	265.00	23.80	-53.5	-56.3	13.5	2.08e-05	0	66	0
2025-01-07 11:45:15.57	265.43	23.81	-53.8	-56.9	13.3	1.38e-05	0	66	0
2025-01-07 11:45:16.46	265.82	23.81	-53.8	-56.8	13.3	0.00e+00	0	66	0
2025-01-07 11:45:17.47	266.25	23.81	-53.6	-56.5	13.4	2.08e-05	0	66	0
2025-01-07 11:45:18.36	266.63	23.81	-54.2	-57.6	13.0	6.90e-06	0	66	0
2025-01-07 11:45:19.37	267.07	23.81	-54.0	-57.3	13.1	3.46e-05	0	66	0
2025-01-07 11:45:20.26	267.45	23.81	-53.9	-57.1	13.2	1.38e-05	0	66	0
2025-01-07 11:45:21.27	267.88	23.81	-54.1	-57.5	13.0	6.90e-06	0	66	0
2025-01-07 11:45:22.16	268.26	23.81	-54.2	-57.7	13.0	2.77e-05	0	66	0
2025-01-07 11:45:23.17	268.70	23.80	-53.8	-56.9	13.3	0.00e+00	0	66	0
2025-01-07 11:45:24.06	269.08	23.80	-53.8	-56.8	13.4	2.08e-05	0	66	0
2025-01-07 11:45:25.07	269.51	23.79	-53.9	-57.1	13.2	0.00e+00	0	66	0
2025-01-07 11:45:25.96	269.89	23.78	-53.9	-57.1	13.1	6.90e-06	0	66	0
2025-01-07 11:45:26.97	270.32	23.77	-54.2	-57.6	13.0	2.77e-05	0	66	0
2025-01-07 11:45:27.86	270.70	23.75	-54.3	-57.8	13.0	6.90e-06	0	66	0
2025-01-07 11:45:28.87	271.14	23.74	-53.8	-56.8	13.4	0.00e+00	0	66	0
2025-01-07 11:45:29.76	271.51	23.73	-54.3	-57.8	13.0	6.90e-06	0	66	0
2025-01-07 11:45:30.77	271.95	23.71	-53.9	-56.6	13.2	0.00e+00	0	66	0
2025-01-07 11:45:31.66	272.32	23.69	-53.8	-56.3	13.4	6.90e-06	0	67	0
2025-01-07 11:45:32.67	272.75	23.67	-54.0	-56.8	13.2	6.90e-06	0	66	0
2025-01-07 11:45:33.56	273.13	23.65	-53.9	-56.5	13.1	6.90e-06	0	66	0
2025-01-07 11:45:34.56	273.55	23.63	-53.3	-55.9	13.5	6.90e-06	0	67	0
2025-01-07 11:45:35.46	273.94	23.61	-53.6	-56.5	13.4	6.90e-06	0	67	0
2025-01-07 11:45:36.46	274.36	23.58	-53.7	-56.7	13.5	6.90e-06	0	67	0
2025-01-07 11:45:37.35	274.73	23.56	-53.5	-56.3	13.6	0.00e+00	0	67	0
2025-01-07 11:45:38.36	275.16	23.53	-53.6	-56.4	13.5	0.00e+00	0	67	0
2025-01-07 11:45:39.25	275.53	23.50	-53.7	-56.6	13.4	6.90e-06	0	67	0
2025-01-07 11:45:40.26	275.96	23.47	-53.4	-56.1	13.4	6.90e-06	0	67	0
2025-01-07 11:45:41.15	276.33	23.44	-53.3	-55.8	13.4	6.90e-06	0	67	0
2025-01-07 11:45:42.16	276.75	23.41	-53.6	-56.4	13.3	1.38e-05	0	67	0
2025-01-07 11:45:43.05	277.12	23.38	-53.6	-56.4	13.4	0.00e+00	0	67	0
2025-01-07 11:45:44.06	277.54	23.34	-53.8	-56.8	13.4	0.00e+00	0	67	0
2025-01-07 11:45:44.95	277.91	23.31	-53.8	-56.9	13.3	0.00e+00	0	67	0
2025-01-07 11:45:45.96	278.33	23.27	-53.7	-56.7	13.4	1.38e-05	0	67	0
2025-01-07 11:45:46.85	278.69	23.24	-53.5	-56.2	13.5	1.38e-05	0	67	0
2025-01-07 11:45:47.86	279.11	23.19	-53.9	-57.0	13.2	0.00e+00	0	67	0
2025-01-07 11:45:48.75	279.47	23.16	-54.0	-57.2	13.1	0.00e+00	0	67	0
2025-01-07 11:45:49.76	279.88	23.11	-54.0	-57.3	13.1	2.08e-05	0	67	0
2025-01-07 11:45:50.65	280.25	23.07	-54.3	-57.3	12.9	6.90e-06	0	67	0
2025-01-07 11:45:51.66	280.66	23.03	-54.1	-57.0	13.0	2.77e-05	0	67	0
2025-01-07 11:45:52.55	281.02	22.98	-53.7	-56.6	13.3	0.00e+00	0	67	0
2025-01-07 11:45:53.56	281.42	22.93	-53.9	-57.0	13.3	0.00e+00	0	67	0
2025-01-07 11:45:54.45	281.78	22.89	-53.6	-56.5	13.4	0.00e+00	0	67	0
2025-01-07 11:45:55.45	282.18	22.84	-54.0	-57.2	13.1	6.90e-06	0	67	0
2025-01-07 11:45:56.35	282.54	22.79	-54.0	-57.3	12.9	6.90e-06	0	67	0
2025-01-07 11:45:57.35	282.94	22.74	-53.8	-56.9	13.0	3.46e-05	0	67	0
2025-01-07 11:45:58.24	283.29	22.69	-53.9	-57.0	13.0	2.77e-05	0	67	0
2025-01-07 11:45:59.25	283.69	22.64	-53.5	-56.2	13.3	0.00e+00	0	67	0
2025-01-07 11:46:00.14	284.04	22.59	-54.0	-57.2	13.1	6.90e-06	0	68	0
2025-01-07 11:46:01.15	284.44	22.53	-53.9	-57.1	13.2	1.38e-05	0	67	0
2025-01-07 11:46:02.04	284.79	22.48	-54.0	-57.2	13.1	2.08e-05	0	68	0
2025-01-07 11:46:03.05	285.18	22.42	-53.8	-56.9	13.1	1.38e-05	0	67	0
2025-01-07 11:46:03.94	285.52	22.36	-54.1	-56.9	12.9	2.08e-05	0	68	0
2025-01-07 11:46:04.95	285.91	22.30	-53.9	-56.5	13.0	4.85e-05	0	68	0
2025-01-07 11:46:05.84	286.25	22.24	-54.0	-56.8	13.0	3.46e-05	0	68	0
2025-01-07 11:46:06.85	286.64	22.18	-54.3	-57.4	12.8	1.38e-05	0	68	0
2025-01-07 11:46:07.74	286.98	22.12	-54.5	-57.8	12.7	4.85e-05	0	68	0
2025-01-07 11:46:08.75	287.36	22.06	-54.4	-57.7	12.7	4.85e-05	0	68	0
2025-01-07 11:46:09.64	287.70	22.00	-55.0	-58.2	12.3	6.93e-05	0	68	0
2025-01-07 11:46:10.65	288.08	21.93	-54.8	-57.8	12.5	9.71e-05	0	68	0
2025-01-07 11:46:11.54	288.41	21.87	-54.5	-57.3	12.5	1.39e-04	0	68	0
2025-01-07 11:46:12.55	288.79	21.80	-54.5	-57.2	12.5	6.24e-05	0	68	0
2025-01-07 11:46:13.44	289.12	21.74	-54.6	-57.4	12.5	1.32e-04	0	68	0
2025-01-07 11:46:14.45	289.49	21.67	-54.6	-57.5	12.5	1.25e-04	0	68	0
2025-01-07 11:46:15.34	289.82	21.61	-54.6	-57.5	12.5	9.01e-05	0	68	0
2025-01-07 11:46:16.34	290.18	21.53	-54.9	-58.2	12.2	1.39e-04	0	68	0
2025-01-07 11:46:17.24	290.51	21.47	-54.8	-57.8	12.4	1.52e-04	0	68	0
2025-01-07 11:46:18.24	290.87	21.39	-54.3	-56.8	12.8	1.38e-05	0	68	0
2025-01-07 11:46:19.13	291.19	21.33	-54.2	-56.7	13.0	6.90e-06	0	68	0
2025-01-07 11:46:20.14	291.55	21.25	-54.0	-56.7	13.2	1.38e-05	0	68	0
2025-01-07 11:46:21.03	291.87	21.19	-54.1	-56.9	13.1	0.00e+00	0	68	0
2025-01-07 11:46:22.04	292.22	21.11	-54.0	-56.7	13.1	2.77e-05	0	68	0
2025-01-07 11:46:22.93	292.54	21.04	-54.1	-56.9	13.0	2.08e-05	0	68	0
2025-01-07 11:46:23.94	292.89	20.96	-54.0	-56.7	13.1	2.08e-05	0	68	0
2025-01-07 11:46:24.83	293.20	20.89	-53.7	-56.1	13.3	1.38e-05	0	68	0
2025-01-07 11:46:25.84	293.55	20.81	-53.6	-56.5	13.3	6.90e-06	0	68	0
2025-01-07 11:46:26.73	293.86	20.74	-53.7	-56.6	13.2	0.00e+00	0	68	0
2025-01-07 11:46:27.74	294.20	20.66	-53.6	-56.4	13.2	6.90e-06	0	68	0
2025-01-07 11:46:28.63	294.51	20.59	-53.5	-56.3	13.2	6.90e-06	0	68	0
2025-01-07 11:46:29.64	294.85	20.51	-53.2	-55.6	13.4	0.00e+00	0	68	0
2025-01-07 11:46:30.53	295.15	20.43	-53.6	-56.4	13.1	0.00e+00	0	68	0
2025-01-07 11:46:31.54	295.49	20.35	-53.4	-56.2	13.3	6.90e-06	0	68	0
2025-01-07 11:46:32.43	295.79	20.28	-53.4	-56.0	13.5	6.90e-06	0	68	0
2025-01-07 11:46:33.44	296.12	20.19	-53.4	-56.1	13.5	0.00e+00	0	69	0
2025-01-07 11:46:34.33	296.41	20.12	-53.8	-56.9	13.2	0.00e+00	0	69	0
2025-01-07 11:46:35.34	296.74	20.03	-53.9	-57.0	13.1	2.08e-05	0	68	0
2025-01-07 11:46:36.23	297.03	19.96	-53.8	-56.8	13.1	2.77e-05	0	68	0
2025-01-07 11:46:37.23	297.36	19.87	-53.8	-56.8	13.2	2.08e-05	0	69	0
2025-01-07 11:46:38.13	297.65	19.80	-54.4	-57.5	12.9	2.77e-05	0	69	0
2025-01-07 11:46:39.13	297.97	19.71	-54.2	-57.1	13.0	4.16e-05	0	69	0
2025-01-07 11:46:40.03	298.25	19.63	-54.1	-56.9	13.1	6.90e-06	0	69	0
2025-01-07 11:46:41.03	298.57	19.55	-54.1	-57.0	13.1	3.46e-05	0	69	0
2025-01-07 11:46:41.92	298.85	19.47	-54.3	-57.4	12.9	1.38e-05	0	69	0
2025-01-07 11:46:42.93	299.16	19.38	-54.2	-57.2	13.0	2.08e-05	0	69	0
2025-01-07 11:46:43.82	299.44	19.30	-54.2	-57.2	13.0	2.08e-05	0	69	0
2025-01-07 11:46:44.83	299.75	19.21	-54.2	-57.1	12.9	1.38e-05	0	69	0
2025-01-07 11:46:45.72	300.02	19.13	-54.6	-58.0	12.5	8.32e-05	0	69	0
2025-01-07 11:46:46.73	300.33	19.04	-54.6	-57.9	12.5	9.71e-05	0	69	0
2025-01-07 11:46:47.62	300.60	18.97	-54.4	-57.5	12.6	8.32e-05	0	69	0
2025-01-07 11:46:48.63	300.90	18.88	-54.1	-57.1	12.8	9.71e-05	0	69	0
2025-01-07 11:46:49.52	301.17	18.80	-54.2	-57.1	12.8	7.62e-05	0	69	0
2025-01-07 11:46:50.53	301.47	18.70	-53.8	-56.4	13.2	3.46e-05	0	69	0
2025-01-07 11:46:51.42	301.73	18.62	-53.8	-56.4	13.3	6.90e-06	0	69	0
2025-01-07 11:46:52.43	302.03	18.53	-53.6	-56.5	13.4	0.00e+00	0	69	0
2025-01-07 11:46:53.32	302.29	18.45	-53.8	-56.9	13.3	6.90e-06	0	69	0
2025-01-07 11:46:54.33	302.58	18.36	-53.8	-56.9	13.3	6.90e-06	0	69	0
2025-01-07 11:46:55.22	302.83	18.28	-54.0	-57.1	13.2	6.90e-06	0	69	0
2025-01-07 11:46:56.23	303.12	18.19	-53.7	-56.6	13.3	6.90e-06	0	69	0
2025-01-07 11:46:57.12	303.38	18.11	-53.7	-56.6	13.3	6.90e-06	0	69	0
2025-01-07 11:46:58.13	303.66	18.01	-53.9	-57.0	13.2	1.38e-05	0	69	0
2025-01-07 11:46:59.02	303.91	17.93	-53.8	-56.9	13.2	1.38e-05	0	69	0
2025-01-07 11:47:00.02	304.19	17.84	-54.0	-57.2	13.1	2.77e-05	0	69	0
2025-01-07 11:47:00.92	304.44	17.76	-54.1	-57.5	13.0	1.38e-05	0	69	0
2025-01-07 11:47:01.92	304.71	17.67	-54.1	-57.4	13.1	3.46e-05	0	69	0
2025-01-07 11:47:02.81	304.95	17.58	-54.4	-57.5	12.9	1.38e-05	0	69	0
2025-01-07 11:47:03.82	305.23	17.49	-54.3	-57.3	13.0	6.90e-06	0	69	0
2025-01-07 11:47:04.71	305.47	17.41	-54.2	-57.2	13.0	1.38e-05	0	69	0
2025-01-07 11:47:05.72	305.74	17.31	-54.4	-57.6	12.9	6.90e-06	0	69	0
2025-01-07 11:47:06.61	305.97	17.23	-54.5	-57.7	12.8	2.08e-05	0	69	0
2025-01-07 11:47:07.62	306.24	17.14	-54.5	-57.7	12.8	1.38e-05	0	69	0
2025-01-07 11:47:08.51	306.47	17.06	-54.6	-58.1	12.7	3.46e-05	0	69	0
2025-01-07 11:47:09.52	306.74	16.96	-54.6	-58.0	12.8	4.85e-05	0	69	0
2025-01-07 11:47:10.41	306.97	16.88	-54.6	-58.0	12.8	2.08e-05	0	69	0
2025-01-07 11:47:11.42	307.23	16.78	-54.8	-57.9	12.7	4.16e-05	0	69	0
2025-01-07 11:47:12.31	307.45	16.70	-54.8	-57.9	12.7	1.04e-04	0	69	0
2025-01-07 11:47:13.32	307.71	16.61	-55.0	-58.3	12.6	4.16e-05	0	69	0
2025-01-07 11:47:14.21	307.93	16.53	-55.0	-58.3	12.6	4.16e-05	0	70	0
2025-01-07 11:47:15.22	308.19	16.43	-55.1	-58.5	12.5	9.71e-05	0	69	0
2025-01-07 11:47:16.11	308.41	16.35	-55.1	-58.4	12.5	3.46e-05	0	69	0
2025-01-07 11:47:17.12	308.66	16.25	-54.9	-58.1	12.6	6.24e-05	0	70	0
2025-01-07 11:47:18.01	308.88	16.17	-54.8	-57.8	12.7	1.25e-04	0	69	0
2025-01-07 11:47:19.02	309.12	16.08	-54.5	-57.3	12.8	5.54e-05	0	69	0
2025-01-07 11:47:19.91	309.34	15.99	-54.6	-57.5	12.7	1.38e-05	0	70	0
2025-01-07 11:47:20.91	309.58	15.90	-54.5	-57.2	12.8	1.38e-05	0	70	0
2025-01-07 11:47:21.81	309.79	15.82	-54.7	-57.7	12.7	3.46e-05	0	70	0
2025-01-07 11:47:22.81	310.03	15.73	-54.9	-58.0	12.5	6.93e-05	0	70	0
2025-01-07 11:47:23.70	310.24	15.64	-67.6	-73.7	3.6	6.93e-05	0	69	104
2025-01-07 11:47:24.71	310.47	15.55	-67.6	-73.7	3.6	6.93e-05	0	69	104
2025-01-07 11:47:25.60	310.68	15.47	-67.7	-73.8	3.6	6.93e-05	0	69	104
2025-01-07 11:47:26.61	310.91	15.37	-67.7	-73.8	3.6	6.93e-05	0	70	104
2025-01-07 11:47:27.50	311.12	15.29	-67.8	-73.9	3.7	6.93e-05	0	70	104
2025-01-07 11:47:28.51	311.35	15.20	-67.7	-73.3	3.6	6.93e-05	0	69	104
2025-01-07 11:47:29.40	311.55	15.11	-67.7	-73.2	3.7	6.93e-05	0	69	104
2025-01-07 11:47:30.41	311.78	15.02	-67.7	-73.3	3.6	6.93e-05	0	69	104
2025-01-07 11:47:31.30	311.97	14.94	-67.8	-73.3	3.7	6.93e-05	0	69	104
2025-01-07 11:47:32.31	312.20	14.85	-67.6	-73.1	3.7	4.85e-05	0	69	104
2025-01-07 11:47:33.20	312.39	14.76	-67.5	-72.9	3.6	4.85e-05	0	69	104
2025-01-07 11:47:34.21	312.61	14.67	-67.3	-72.7	3.7	4.85e-05	0	69	104
2025-01-07 11:47:35.10	312.81	14.59	-67.2	-72.5	3.6	4.85e-05	0	69	104
2025-01-07 11:47:36.11	313.03	14.50	-67.1	-73.0	3.6	4.85e-05	0	69	104
2025-01-07 11:47:37.00	313.22	14.41	-67.1	-72.8	3.6	4.85e-05	0	69	104
2025-01-07 11:47:38.01	313.43	14.32	-67.2	-73.0	3.6	4.85e-05	0	69	104
2025-01-07 11:47:38.90	313.62	14.24	-67.3	-73.1	3.7	4.85e-05	0	69	104
2025-01-07 11:47:39.91	313.83	14.15	-67.1	-73.0	3.6	4.85e-05	0	69	104
2025-01-07 11:47:40.80	314.02	14.07	-66.9	-72.8	3.7	4.85e-05	0	69	104
2025-01-07 11:47:41.80	314.22	13.98	-67.2	-73.2	3.6	4.85e-05	0	69	104
2025-01-07 11:47:42.70	314.41	13.89	-67.3	-73.3	3.7	4.85e-05	0	69	104
2025-01-07 11:47:43.70	314.61	13.80	-67.1	-73.1	3.7	4.85e-05	0	69	104
2025-01-07 11:47:44.59	314.79	13.72	-67.1	-73.2	3.7	4.85e-05	0	69	104
2025-01-07 11:47:45.60	315.00	13.63	-66.7	-73.3	3.7	4.85e-05	0	69	104
2025-01-07 11:47:46.49	315.17	13.55	-67.0	-73.7	3.6	4.85e-05	0	69	104
2025-01-07 11:47:47.50	315.38	13.46	-67.1	-73.7	3.6	4.85e-05	0	69	104
2025-01-07 11:47:48.39	315.55	13.38	-66.9	-73.5	3.6	4.85e-05	0	69	104
2025-01-07 11:47:49.40	315.75	13.29	-67.0	-73.1	3.6	4.85e-05	0	69	104
2025-01-07 11:47:50.29	315.92	13.21	-65.8	-72.9	3.7	4.85e-05	0	70	104
2025-01-07 11:47:51.30	316.12	13.12	-66.4	-73.5	3.6	4.85e-05	0	69	104
2025-01-07 11:47:52.19	316.29	13.04	-67.2	-73.9	3.7	4.85e-05	0	69	104
2025-01-07 11:47:53.20	316.48	12.95	-67.3	-73.4	3.6	4.85e-05	0	70	104
2025-01-07 11:47:54.09	316.65	12.87	-67.5	-73.7	3.7	4.85e-05	0	69	104
2025-01-07 11:47:55.10	316.84	12.78	-67.7	-73.8	3.7	4.85e-05	0	69	104
2025-01-07 11:47:55.99	317.01	12.70	-67.8	-74.0	3.6	4.85e-05	0	69	104
2025-01-07 11:47:57.00	317.19	12.61	-67.8	-73.4	3.7	4.85e-05	0	70	104
2025-01-07 11:47:57.89	317.36	12.53	-67.7	-73.4	3.6	4.85e-05	0	70	104
2025-01-07 11:47:58.90	317.54	12.44	-67.6	-73.2	3.7	4.85e-05	0	69	104
2025-01-07 11:47:59.79	317.71	12.36	-67.6	-73.0	3.6	4.85e-05	0	69	104
2025-01-07 11:48:00.80	317.89	12.27	-67.5	-72.8	3.7	4.85e-05	0	69	104
2025-01-07 11:48:01.69	318.05	12.20	-67.4	-72.7	3.7	4.85e-05	0	69	104
2025-01-07 11:48:02.69	318.23	12.11	-67.4	-72.6	3.6	4.85e-05	0	69	104
2025-01-07 11:48:03.59	318.39	12.03	-67.5	-72.6	3.7	4.85e-05	0	70	104
2025-01-07 11:48:04.59	318.56	11.94	-67.5	-72.7	3.6	4.85e-05	0	69	104
2025-01-07 11:48:05.48	318.72	11.86	-67.4	-72.6	3.7	4.85e-05	0	69	104
2025-01-07 11:48:06.49	318.90	11.78	-67.4	-72.7	3.7	4.85e-05	0	69	104
2025-01-07 11:48:07.38	319.05	11.70	-67.3	-72.6	3.6	4.85e-05	0	69	104
2025-01-07 11:48:08.39	319.22	11.61	-67.6	-73.0	3.7	4.85e-05	0	69	104
2025-01-07 11:48:09.28	319.37	11.53	-67.6	-73.1	3.6	4.85e-05	0	69	104
2025-01-07 11:48:10.29	319.55	11.45	-67.7	-73.3	3.6	4.85e-05	0	69	104
2025-01-07 11:48:11.18	319.70	11.37	-67.7	-73.3	3.6	4.85e-05	0	70	104
2025-01-07 11:48:12.19	319.86	11.28	-67.6	-73.2	3.6	4.85e-05	0	69	104
2025-01-07 11:48:13.08	320.01	11.21	-67.6	-73.2	3.7	4.85e-05	0	69	104
2025-01-07 11:48:14.09	320.18	11.12	-67.7	-73.2	3.6	4.85e-05	0	69	104
2025-01-07 11:48:14.98	320.33	11.05	-67.6	-73.1	3.7	4.85e-05	0	70	104
2025-01-07 11:48:15.99	320.49	10.96	-67.6	-73.1	3.6	4.85e-05	0	69	104
2025-01-07 11:48:16.88	320.63	10.88	-67.7	-73.1	3.7	4.85e-05	0	70	104
2025-01-07 11:48:17.89	320.80	10.80	-67.5	-73.0	3.7	4.85e-05	0	69	104
2025-01-07 11:48:18.78	320.94	10.72	-67.7	-73.1	3.7	4.85e-05	0	69	104
2025-01-07 11:48:19.79	321.10	10.64	-67.6	-73.1	3.7	4.85e-05	0	70	104
2025-01-07 11:48:20.68	321.24	10.56	-67.6	-73.1	3.6	4.85e-05	0	70	104
2025-01-07 11:48:21.69	321.40	10.48	-67.6	-73.1	3.7	4.85e-05	0	70	104
2025-01-07 11:48:22.58	321.54	10.41	-67.7	-73.2	3.6	4.85e-05	0	70	104
2025-01-07 11:48:23.59	321.69	10.32	-67.6	-73.0	3.6	4.85e-05	0	70	104
2025-01-07 11:48:24.48	321.83	10.25	-67.5	-72.9	3.7	4.85e-05	0	70	104
2025-01-07 11:48:25.48	321.98	10.16	-67.5	-72.7	3.6	4.85e-05	0	70	104
2025-01-07 11:48:26.38	322.12	10.09	-67.4	-72.6	3.7	4.85e-05	0	70	104
2025-01-07 11:48:27.38	322.27	10.01	-67.4	-72.6	3.6	4.85e-05	0	70	104
2025-01-07 11:48:28.27	322.40	9.93	-67.4	-72.6	3.7	4.85e-05	0	70	104
2025-01-07 11:48:29.28	322.55	9.85	-67.4	-72.6	3.7	4.85e-05	0	70	104
2025-01-07 11:48:30.17	322.69	9.78	-67.4	-72.7	3.6	4.85e-05	0	70	104
2025-01-07 11:48:31.18	322.83	9.70	-67.5	-72.8	3.7	4.85e-05	0	70	104
2025-01-07 11:48:32.07	322.96	9.62	-67.5	-72.9	3.6	4.85e-05	0	69	104
2025-01-07 11:48:33.08	323.11	9.54	-67.5	-72.9	3.7	4.85e-05	0	70	104
2025-01-07 11:48:33.97	323.24	9.47	-67.5	-72.9	3.6	4.85e-05	0	70	104
2025-01-07 11:48:34.98	323.39	9.39	-67.4	-72.7	3.7	4.85e-05	0	70	104
2025-01-07 11:48:35.87	323.51	9.31	-67.4	-72.6	3.7	4.85e-05	0	70	104
2025-01-07 11:48:36.88	323.66	9.23	-67.3	-72.4	3.6	4.85e-05	0	70	104
2025-01-07 11:48:37.77	323.78	9.16	-67.2	-72.1	3.7	4.85e-05	0	70	104
2025-01-07 11:48:38.78	323.92	9.08	-67.2	-72.0	3.6	4.85e-05	0	70	104
2025-01-07 11:48:39.67	324.05	9.01	-67.1	-71.8	3.6	4.85e-05	0	70	104
2025-01-07 11:48:40.68	324.19	8.93	-67.1	-72.2	3.7	4.85e-05	0	70	104
2025-01-07 11:48:41.57	324.31	8.86	-67.1	-72.2	3.6	4.85e-05	0	70	104
2025-01-07 11:48:42.58	324.45	8.78	-67.1	-72.1	3.7	4.85e-05	0	70	104
2025-01-07 11:48:43.47	324.57	8.71	-67.1	-72.3	3.5	4.85e-05	0	70	104
2025-01-07 11:48:44.48	324.70	8.63	-67.1	-72.4	3.6	4.85e-05	0	70	104
2025-01-07 11:48:45.37	324.82	8.56	-67.2	-72.6	3.6	4.85e-05	0	69	104
2025-01-07 11:48:46.37	324.96	8.48	-67.3	-72.8	3.6	4.85e-05	0	70	104
2025-01-07 11:48:47.27	325.07	8.41	-67.4	-73.1	3.7	4.85e-05	0	70	104
2025-01-07 11:48:48.27	325.21	8.33	-67.5	-73.3	3.6	4.85e-05	0	70	104
2025-01-07 11:48:49.16	325.32	8.26	-67.5	-73.4	3.7	4.85e-05	0	70	104
2025-01-07 11:48:50.17	325.45	8.18	-67.5	-73.3	3.6	4.85e-05	0	70	104
2025-01-07 11:48:51.06	325.57	8.11	-67.5	-73.2	3.7	4.85e-05	0	70	104
2025-01-07 11:48:52.07	325.70	8.03	-67.3	-72.8	3.7	4.85e-05	0	70	104
2025-01-07 11:48:52.96	325.81	7.97	-67.2	-72.8	3.6	4.85e-05	0	70	104

#Closed at: 2025-01-07 11:48:53
#Recorded file [19277 MB]: D:/data/31015_250107_234723.dat