passes_logs/2025/01/16/SPB_Silybum_02/SPB_Silybum_02__20250116_041406_AQUA_rec.log

#Pass ID: 20250116_041406_AQUA
#Satellite: AQUA
#Configuration: AQUA
#Start time: 2025-01-16 04:14:06

#Version: 2.0.20230423
#Station: SPB_Silybum_02
#Location: 30.233357 lon 59.946436 lat
#TLE: 1 27424U 02022A   25015.14217918  .00001674  00000+0  35361-3 0  9999
#TLE: 2 27424  98.3589 331.8074 0001731 111.2907 305.4435 14.60682485207649

#Time	Az	El	Level	Level2	SNR	BER	Gain	Gain2
2025-01-16 04:14:08.66	6.83	4.10	
2025-01-16 04:14:08.86	6.80	4.11	
2025-01-16 04:14:09.07	6.77	4.12	
2025-01-16 04:14:09.27	6.75	4.13	
2025-01-16 04:14:09.47	6.72	4.14	
2025-01-16 04:14:09.68	6.70	4.14	
2025-01-16 04:14:09.88	6.67	4.15	
2025-01-16 04:14:10.08	6.65	4.16	
2025-01-16 04:14:10.29	6.62	4.17	
2025-01-16 04:14:10.49	6.59	4.18	
2025-01-16 04:14:10.69	6.57	4.19	
2025-01-16 04:14:10.90	6.54	4.20	
2025-01-16 04:14:11.10	6.51	4.21	
2025-01-16 04:14:11.30	6.49	4.22	
2025-01-16 04:14:11.50	6.46	4.23	
2025-01-16 04:14:11.71	6.44	4.24	
2025-01-16 04:14:11.91	6.41	4.25	
2025-01-16 04:14:12.11	6.38	4.25	
2025-01-16 04:14:12.32	6.36	4.26	
2025-01-16 04:14:12.52	6.33	4.27	
2025-01-16 04:14:12.72	6.31	4.28	
2025-01-16 04:14:12.93	6.28	4.29	
2025-01-16 04:14:13.13	6.25	4.30	
2025-01-16 04:14:13.33	6.23	4.31	
2025-01-16 04:14:13.54	6.20	4.32	
2025-01-16 04:14:13.74	6.17	4.33	
2025-01-16 04:14:13.94	6.15	4.34	
2025-01-16 04:14:14.15	6.12	4.35	
2025-01-16 04:14:14.35	6.09	4.35	
2025-01-16 04:14:14.55	6.07	4.36	
2025-01-16 04:14:14.75	6.04	4.37	
2025-01-16 04:14:14.96	6.02	4.38	
2025-01-16 04:14:15.16	5.99	4.39	
2025-01-16 04:14:15.36	5.96	4.40	
2025-01-16 04:14:15.57	5.94	4.41	
2025-01-16 04:14:15.77	5.91	4.42	
2025-01-16 04:14:15.97	5.88	4.43	
2025-01-16 04:14:16.18	5.86	4.44	
2025-01-16 04:14:16.38	5.83	4.45	
2025-01-16 04:14:16.58	5.80	4.46	
2025-01-16 04:14:16.79	5.78	4.46	
2025-01-16 04:14:16.99	5.75	4.47	
2025-01-16 04:14:17.19	5.72	4.48	
2025-01-16 04:14:17.39	5.70	4.49	
2025-01-16 04:14:17.60	5.67	4.50	
2025-01-16 04:14:17.80	5.64	4.51	
2025-01-16 04:14:18.00	5.62	4.52	
2025-01-16 04:14:18.21	5.59	4.53	
2025-01-16 04:14:18.41	5.56	4.54	
2025-01-16 04:14:18.61	5.54	4.55	
2025-01-16 04:14:18.82	5.51	4.56	
2025-01-16 04:14:19.02	5.48	4.56	
2025-01-16 04:14:19.22	5.46	4.57	
2025-01-16 04:14:19.43	5.43	4.58	
2025-01-16 04:14:19.63	5.40	4.59	
2025-01-16 04:14:19.83	5.38	4.60	
2025-01-16 04:14:20.03	5.35	4.61	
2025-01-16 04:14:20.24	5.32	4.62	
2025-01-16 04:14:20.44	5.29	4.63	
2025-01-16 04:14:20.64	5.27	4.64	
2025-01-16 04:14:20.85	5.24	4.65	
2025-01-16 04:14:21.05	5.21	4.66	
2025-01-16 04:14:21.25	5.19	4.66	
2025-01-16 04:14:21.46	5.16	4.67	
2025-01-16 04:14:21.66	5.13	4.68	
2025-01-16 04:14:21.86	5.11	4.69	
2025-01-16 04:14:22.07	5.08	4.70	
2025-01-16 04:14:22.27	5.05	4.71	
2025-01-16 04:14:22.47	5.02	4.72	
2025-01-16 04:14:22.67	5.00	4.73	
2025-01-16 04:14:22.88	4.97	4.74	
2025-01-16 04:14:23.08	4.94	4.75	
2025-01-16 04:14:23.28	4.92	4.75	
2025-01-16 04:14:23.49	4.89	4.76	
2025-01-16 04:14:23.69	4.86	4.77	
2025-01-16 04:14:23.89	4.83	4.78	
2025-01-16 04:14:24.10	4.81	4.79	
2025-01-16 04:14:24.30	4.78	4.80	
2025-01-16 04:14:24.50	4.75	4.81	
2025-01-16 04:14:24.71	4.72	4.82	
2025-01-16 04:14:24.91	4.70	4.83	
2025-01-16 04:14:25.11	4.67	4.84	
2025-01-16 04:14:25.31	4.64	4.84	
2025-01-16 04:14:25.52	4.61	4.85	
2025-01-16 04:14:25.72	4.59	4.86	
2025-01-16 04:14:25.92	4.56	4.87	
2025-01-16 04:14:26.13	4.53	4.88	
2025-01-16 04:14:26.33	4.51	4.89	
2025-01-16 04:14:26.53	4.48	4.90	
2025-01-16 04:14:26.74	4.45	4.91	
2025-01-16 04:14:26.94	4.42	4.92	
2025-01-16 04:14:27.14	4.40	4.93	
2025-01-16 04:14:27.35	4.37	4.94	
2025-01-16 04:14:27.55	4.34	4.94	
2025-01-16 04:14:27.75	4.31	4.95	
2025-01-16 04:14:27.95	4.29	4.96	
2025-01-16 04:14:28.16	4.26	4.97	
2025-01-16 04:14:28.36	4.23	4.98	
2025-01-16 04:14:28.56	4.20	4.99	
2025-01-16 04:14:28.77	4.17	5.00	
2025-01-16 04:14:28.97	4.15	5.01	
2025-01-16 04:14:29.17	4.12	5.02	
2025-01-16 04:14:29.38	4.09	5.02	
2025-01-16 04:14:29.58	4.06	5.03	
2025-01-16 04:14:29.78	4.04	5.04	
2025-01-16 04:14:29.99	4.01	5.05	
2025-01-16 04:14:30.19	3.98	5.06	
2025-01-16 04:14:30.39	3.95	5.07	
2025-01-16 04:14:30.59	3.92	5.08	
2025-01-16 04:14:30.80	3.90	5.09	
2025-01-16 04:14:31.00	3.87	5.10	
2025-01-16 04:14:31.20	3.84	5.11	
2025-01-16 04:14:31.41	3.81	5.11	
2025-01-16 04:14:31.61	3.78	5.12	
2025-01-16 04:14:31.81	3.76	5.13	
2025-01-16 04:14:32.02	3.73	5.14	
2025-01-16 04:14:32.22	3.70	5.15	
2025-01-16 04:14:32.42	3.67	5.16	
2025-01-16 04:14:32.63	3.64	5.17	
2025-01-16 04:14:32.83	3.62	5.18	
2025-01-16 04:14:33.03	3.59	5.19	
2025-01-16 04:14:33.23	3.56	5.19	
2025-01-16 04:14:33.44	3.53	5.20	
2025-01-16 04:14:33.64	3.50	5.21	
2025-01-16 04:14:33.84	3.48	5.22	
2025-01-16 04:14:34.05	3.45	5.23	
2025-01-16 04:14:34.25	3.42	5.24	
2025-01-16 04:14:34.45	3.39	5.25	
2025-01-16 04:14:34.66	3.36	5.26	
2025-01-16 04:14:34.86	3.33	5.27	
2025-01-16 04:14:35.06	3.31	5.27	
2025-01-16 04:14:35.27	3.28	5.28	
2025-01-16 04:14:35.47	3.25	5.29	
2025-01-16 04:14:35.67	3.22	5.30	
2025-01-16 04:14:35.88	3.19	5.31	
2025-01-16 04:14:36.08	3.16	5.32	
2025-01-16 04:14:36.28	3.13	5.33	
2025-01-16 04:14:36.48	3.11	5.34	
2025-01-16 04:14:36.69	3.08	5.35	
2025-01-16 04:14:36.89	3.05	5.35	
2025-01-16 04:14:37.09	3.02	5.36	
2025-01-16 04:14:37.30	2.99	5.37	
2025-01-16 04:14:37.50	2.96	5.38	
2025-01-16 04:14:37.70	2.94	5.39	
2025-01-16 04:14:37.91	2.91	5.40	
2025-01-16 04:14:38.11	2.88	5.41	
2025-01-16 04:14:38.31	2.85	5.42	
2025-01-16 04:14:38.52	2.82	5.43	
2025-01-16 04:14:38.72	2.79	5.43	
2025-01-16 04:14:38.92	2.76	5.44	
2025-01-16 04:14:39.12	2.74	5.45	
2025-01-16 04:14:39.33	2.71	5.46	
2025-01-16 04:14:39.53	2.68	5.47	
2025-01-16 04:14:39.73	2.65	5.48	
2025-01-16 04:14:39.94	2.62	5.49	
2025-01-16 04:14:40.14	2.59	5.50	
2025-01-16 04:14:40.34	2.56	5.50	
2025-01-16 04:14:40.55	2.53	5.51	
2025-01-16 04:14:40.75	2.50	5.52	
2025-01-16 04:14:40.95	2.48	5.53	
2025-01-16 04:14:41.16	2.45	5.54	
2025-01-16 04:14:41.36	2.42	5.55	
2025-01-16 04:14:41.56	2.39	5.56	
2025-01-16 04:14:41.76	2.36	5.57	
2025-01-16 04:14:41.97	2.33	5.58	
2025-01-16 04:14:42.17	2.30	5.58	
2025-01-16 04:14:42.37	2.27	5.59	
2025-01-16 04:14:42.58	2.24	5.60	
2025-01-16 04:14:42.78	2.21	5.61	
2025-01-16 04:14:42.98	2.19	5.62	
2025-01-16 04:14:43.19	2.16	5.63	
2025-01-16 04:14:43.39	2.13	5.64	
2025-01-16 04:14:43.59	2.10	5.65	
2025-01-16 04:14:43.80	2.07	5.65	
2025-01-16 04:14:44.00	2.04	5.66	
2025-01-16 04:14:44.20	2.01	5.67	
2025-01-16 04:14:44.40	1.98	5.68	
2025-01-16 04:14:44.61	1.95	5.69	
2025-01-16 04:14:44.81	1.92	5.70	
2025-01-16 04:14:45.01	1.89	5.71	
2025-01-16 04:14:45.22	1.86	5.72	
2025-01-16 04:14:45.42	1.84	5.72	
2025-01-16 04:14:45.62	1.81	5.73	
2025-01-16 04:14:45.83	1.78	5.74	
2025-01-16 04:14:46.03	1.75	5.75	
2025-01-16 04:14:46.23	1.72	5.76	
2025-01-16 04:14:46.44	1.69	5.77	
2025-01-16 04:14:46.64	1.66	5.78	
2025-01-16 04:14:46.84	1.63	5.79	
2025-01-16 04:14:47.04	1.60	5.79	
2025-01-16 04:14:47.25	1.57	5.80	
2025-01-16 04:14:47.45	1.54	5.81	
2025-01-16 04:14:47.65	1.51	5.82	
2025-01-16 04:14:47.86	1.48	5.83	
2025-01-16 04:14:48.06	1.45	5.84	
2025-01-16 04:14:48.26	1.42	5.85	
2025-01-16 04:14:48.47	1.39	5.86	
2025-01-16 04:14:48.67	1.36	5.86	
2025-01-16 04:14:48.87	1.33	5.87	
2025-01-16 04:14:49.08	1.30	5.88	
2025-01-16 04:14:49.28	1.27	5.89	
2025-01-16 04:14:49.48	1.25	5.90	
2025-01-16 04:14:49.68	1.22	5.91	
2025-01-16 04:14:49.89	1.19	5.92	
2025-01-16 04:14:50.09	1.16	5.92	
2025-01-16 04:14:50.29	1.13	5.93	
2025-01-16 04:14:50.50	1.10	5.94	
2025-01-16 04:14:50.70	1.07	5.95	
2025-01-16 04:14:50.90	1.04	5.96	
2025-01-16 04:14:51.11	1.01	5.97	
2025-01-16 04:14:51.31	0.98	5.98	
2025-01-16 04:14:51.51	0.95	5.98	
2025-01-16 04:14:51.72	0.92	5.99	
2025-01-16 04:14:51.92	0.89	6.00	
2025-01-16 04:14:52.12	0.86	6.01	
2025-01-16 04:14:52.32	0.83	6.02	
2025-01-16 04:14:52.53	0.80	6.03	
2025-01-16 04:14:52.73	0.77	6.04	
2025-01-16 04:14:52.93	0.74	6.04	
2025-01-16 04:14:53.14	0.71	6.05	
2025-01-16 04:14:53.34	0.68	6.06	
2025-01-16 04:14:53.54	0.65	6.07	
2025-01-16 04:14:53.75	0.62	6.08	
2025-01-16 04:14:53.95	0.59	6.09	
2025-01-16 04:14:54.15	0.56	6.10	
2025-01-16 04:14:54.36	0.53	6.11	
2025-01-16 04:14:54.56	0.50	6.11	
2025-01-16 04:14:54.76	0.47	6.12	
2025-01-16 04:14:54.96	0.44	6.13	
2025-01-16 04:14:55.17	0.41	6.14	
2025-01-16 04:14:55.37	0.38	6.15	
2025-01-16 04:14:55.57	0.35	6.16	
2025-01-16 04:14:55.78	0.31	6.17	
2025-01-16 04:14:55.98	0.28	6.17	
2025-01-16 04:14:56.18	0.25	6.18	
2025-01-16 04:14:56.39	0.22	6.19	
2025-01-16 04:14:56.59	0.19	6.20	
2025-01-16 04:14:56.79	0.16	6.21	
2025-01-16 04:14:57.00	0.13	6.22	
2025-01-16 04:14:57.20	0.10	6.23	
2025-01-16 04:14:57.40	0.07	6.23	
2025-01-16 04:14:57.60	0.04	6.24	
2025-01-16 04:14:57.81	0.01	6.25	
2025-01-16 04:14:58.01	359.98	6.26	
2025-01-16 04:14:58.21	359.95	6.27	
2025-01-16 04:14:58.42	359.92	6.28	
2025-01-16 04:14:58.62	359.89	6.28	
2025-01-16 04:14:58.82	359.86	6.29	
2025-01-16 04:14:59.03	359.83	6.30	
2025-01-16 04:14:59.23	359.80	6.31	
2025-01-16 04:14:59.43	359.77	6.32	
2025-01-16 04:14:59.64	359.73	6.33	
2025-01-16 04:14:59.84	359.70	6.34	
2025-01-16 04:15:00.04	359.67	6.34	
2025-01-16 04:15:00.25	359.64	6.35	
2025-01-16 04:15:00.45	359.61	6.36	
2025-01-16 04:15:00.65	359.58	6.37	
2025-01-16 04:15:00.85	359.55	6.38	
2025-01-16 04:15:01.06	359.52	6.39	
2025-01-16 04:15:01.26	359.49	6.39	
2025-01-16 04:15:01.46	359.46	6.40	
2025-01-16 04:15:01.67	359.43	6.41	
2025-01-16 04:15:01.87	359.40	6.42	
2025-01-16 04:15:02.07	359.37	6.43	
2025-01-16 04:15:02.28	359.33	6.44	
2025-01-16 04:15:02.48	359.30	6.45	
2025-01-16 04:15:02.68	359.27	6.45	
2025-01-16 04:15:02.89	359.24	6.46	
2025-01-16 04:15:03.09	359.21	6.47	
2025-01-16 04:15:03.29	359.18	6.48	
2025-01-16 04:15:03.49	359.15	6.49	
2025-01-16 04:15:03.70	359.12	6.50	
2025-01-16 04:15:03.90	359.09	6.50	
2025-01-16 04:15:04.10	359.06	6.51	
2025-01-16 04:15:04.31	359.02	6.52	
2025-01-16 04:15:04.51	358.99	6.53	
2025-01-16 04:15:04.71	358.96	6.54	
2025-01-16 04:15:04.92	358.93	6.55	
2025-01-16 04:15:05.12	358.90	6.55	
2025-01-16 04:15:05.32	358.87	6.56	
2025-01-16 04:15:05.53	358.84	6.57	
2025-01-16 04:15:05.73	358.81	6.58	
2025-01-16 04:15:05.93	358.77	6.59	
2025-01-16 04:15:06.13	358.74	6.60	
2025-01-16 04:15:06.34	358.71	6.60	
2025-01-16 04:15:06.54	358.68	6.61	
2025-01-16 04:15:06.74	358.65	6.62	
2025-01-16 04:15:06.95	358.62	6.63	
2025-01-16 04:15:07.15	358.59	6.64	
2025-01-16 04:15:07.35	358.56	6.65	
2025-01-16 04:15:07.56	358.52	6.65	
2025-01-16 04:15:07.76	358.49	6.66	
2025-01-16 04:15:07.96	358.46	6.67	
2025-01-16 04:15:08.17	358.43	6.68	
2025-01-16 04:15:08.37	358.40	6.69	
2025-01-16 04:15:08.57	358.37	6.70	
2025-01-16 04:15:08.77	358.33	6.70	
2025-01-16 04:15:08.98	358.30	6.71	
2025-01-16 04:15:09.18	358.27	6.72	
2025-01-16 04:15:09.38	358.24	6.73	
2025-01-16 04:15:09.59	358.21	6.74	
2025-01-16 04:15:09.79	358.18	6.75	
2025-01-16 04:15:09.99	358.14	6.75	
2025-01-16 04:15:10.20	358.11	6.76	
2025-01-16 04:15:10.40	358.08	6.77	
2025-01-16 04:15:10.60	358.05	6.78	
2025-01-16 04:15:10.81	358.02	6.79	
2025-01-16 04:15:11.01	357.99	6.79	
2025-01-16 04:15:11.21	357.95	6.80	
2025-01-16 04:15:11.41	357.92	6.81	
2025-01-16 04:15:11.62	357.89	6.82	
2025-01-16 04:15:11.82	357.86	6.83	
2025-01-16 04:15:12.02	357.83	6.84	
2025-01-16 04:15:12.23	357.79	6.84	
2025-01-16 04:15:12.43	357.76	6.85	
2025-01-16 04:15:12.63	357.73	6.86	
2025-01-16 04:15:12.84	357.70	6.87	
2025-01-16 04:15:13.04	357.67	6.88	
2025-01-16 04:15:13.24	357.63	6.88	
2025-01-16 04:15:13.45	357.60	6.89	
2025-01-16 04:15:13.65	357.57	6.90	
2025-01-16 04:15:13.85	357.54	6.91	
2025-01-16 04:15:14.05	357.51	6.92	
2025-01-16 04:15:14.26	357.47	6.93	
2025-01-16 04:15:14.46	357.44	6.93	
2025-01-16 04:15:14.66	357.41	6.94	
2025-01-16 04:15:14.87	357.38	6.95	
2025-01-16 04:15:15.07	357.35	6.96	
2025-01-16 04:15:15.27	357.31	6.97	
2025-01-16 04:15:15.48	357.28	6.97	
2025-01-16 04:15:15.68	357.25	6.98	
2025-01-16 04:15:15.88	357.22	6.99	
2025-01-16 04:15:16.09	357.18	7.00	
2025-01-16 04:15:16.29	357.15	7.01	
2025-01-16 04:15:16.49	357.12	7.01	
2025-01-16 04:15:16.69	357.09	7.02	
2025-01-16 04:15:16.90	357.05	7.03	
2025-01-16 04:15:17.10	357.02	7.04	
2025-01-16 04:15:17.30	356.99	7.05	
2025-01-16 04:15:17.51	356.96	7.06	
2025-01-16 04:15:17.71	356.92	7.06	
2025-01-16 04:15:17.91	356.89	7.07	
2025-01-16 04:15:18.12	356.86	7.08	
2025-01-16 04:15:18.32	356.83	7.09	
2025-01-16 04:15:18.52	356.80	7.10	
2025-01-16 04:15:18.73	356.76	7.10	
2025-01-16 04:15:18.93	356.73	7.11	
2025-01-16 04:15:19.13	356.70	7.12	
2025-01-16 04:15:19.33	356.67	7.13	
2025-01-16 04:15:19.54	356.63	7.14	
2025-01-16 04:15:19.74	356.60	7.14	
2025-01-16 04:15:19.94	356.57	7.15	
2025-01-16 04:15:20.15	356.53	7.16	
2025-01-16 04:15:20.35	356.50	7.17	
2025-01-16 04:15:20.55	356.47	7.18	
2025-01-16 04:15:20.76	356.44	7.18	
2025-01-16 04:15:20.96	356.40	7.19	
2025-01-16 04:15:21.16	356.37	7.20	
2025-01-16 04:15:21.37	356.34	7.21	
2025-01-16 04:15:21.57	356.30	7.22	
2025-01-16 04:15:21.77	356.27	7.22	
2025-01-16 04:15:21.98	356.24	7.23	
2025-01-16 04:15:22.18	356.21	7.24	
2025-01-16 04:15:22.38	356.17	7.25	
2025-01-16 04:15:22.58	356.14	7.25	
2025-01-16 04:15:22.79	356.11	7.26	
2025-01-16 04:15:22.99	356.07	7.27	
2025-01-16 04:15:23.19	356.04	7.28	
2025-01-16 04:15:23.40	356.01	7.29	
2025-01-16 04:15:23.60	355.97	7.29	
2025-01-16 04:15:23.80	355.94	7.30	
2025-01-16 04:15:24.01	355.91	7.31	
2025-01-16 04:15:24.21	355.88	7.32	
2025-01-16 04:15:24.41	355.84	7.33	
2025-01-16 04:15:24.61	355.81	7.33	
2025-01-16 04:15:24.82	355.78	7.34	
2025-01-16 04:15:25.02	355.74	7.35	
2025-01-16 04:15:25.22	355.71	7.36	
2025-01-16 04:15:25.43	355.68	7.37	
2025-01-16 04:15:25.63	355.64	7.37	
2025-01-16 04:15:25.83	355.61	7.38	
2025-01-16 04:15:26.04	355.58	7.39	
2025-01-16 04:15:26.24	355.54	7.40	
2025-01-16 04:15:26.44	355.51	7.40	
2025-01-16 04:15:26.65	355.48	7.41	
2025-01-16 04:15:26.85	355.44	7.42	
2025-01-16 04:15:27.05	355.41	7.43	
2025-01-16 04:15:27.26	355.38	7.44	
2025-01-16 04:15:27.46	355.34	7.44	
2025-01-16 04:15:27.66	355.31	7.45	
2025-01-16 04:15:27.87	355.28	7.46	
2025-01-16 04:15:28.07	355.24	7.47	
2025-01-16 04:15:28.28	355.21	7.47	
2025-01-16 04:15:28.48	355.18	7.48	
2025-01-16 04:15:28.68	355.14	7.49	
2025-01-16 04:15:28.89	355.11	7.50	
2025-01-16 04:15:29.09	355.07	7.51	
2025-01-16 04:15:29.29	355.04	7.51	
2025-01-16 04:15:29.50	355.01	7.52	
2025-01-16 04:15:29.70	354.97	7.53	
2025-01-16 04:15:29.90	354.94	7.54	
2025-01-16 04:15:30.11	354.91	7.54	
2025-01-16 04:15:30.31	354.87	7.55	
2025-01-16 04:15:30.51	354.84	7.56	
2025-01-16 04:15:30.71	354.81	7.57	
2025-01-16 04:15:30.92	354.77	7.57	
2025-01-16 04:15:31.12	354.74	7.58	
2025-01-16 04:15:31.32	354.70	7.59	
2025-01-16 04:15:31.53	354.67	7.60	
2025-01-16 04:15:31.73	354.64	7.61	
2025-01-16 04:15:31.93	354.60	7.61	
2025-01-16 04:15:32.14	354.57	7.62	
2025-01-16 04:15:32.34	354.53	7.63	
2025-01-16 04:15:32.54	354.50	7.64	
2025-01-16 04:15:32.75	354.47	7.64	
2025-01-16 04:15:32.95	354.43	7.65	
2025-01-16 04:15:33.15	354.40	7.66	
2025-01-16 04:15:33.35	354.37	7.67	
2025-01-16 04:15:33.56	354.33	7.67	
2025-01-16 04:15:33.76	354.30	7.68	
2025-01-16 04:15:33.96	354.26	7.69	
2025-01-16 04:15:34.17	354.23	7.70	
2025-01-16 04:15:34.37	354.19	7.70	
2025-01-16 04:15:34.57	354.16	7.71	
2025-01-16 04:15:34.78	354.13	7.72	
2025-01-16 04:15:34.98	354.09	7.73	
2025-01-16 04:15:35.18	354.06	7.73	
2025-01-16 04:15:35.39	354.02	7.74	
2025-01-16 04:15:35.59	353.99	7.75	
2025-01-16 04:15:35.79	353.96	7.76	
2025-01-16 04:15:35.99	353.92	7.76	
2025-01-16 04:15:36.20	353.89	7.77	
2025-01-16 04:15:36.40	353.85	7.78	
2025-01-16 04:15:36.60	353.82	7.79	
2025-01-16 04:15:36.81	353.78	7.79	
2025-01-16 04:15:37.01	353.75	7.80	
2025-01-16 04:15:37.21	353.72	7.81	
2025-01-16 04:15:37.42	353.68	7.82	
2025-01-16 04:15:37.62	353.65	7.82	
2025-01-16 04:15:37.82	353.61	7.83	
2025-01-16 04:15:38.03	353.58	7.84	
2025-01-16 04:15:38.23	353.54	7.85	
2025-01-16 04:15:38.43	353.51	7.85	
2025-01-16 04:15:38.64	353.47	7.86	
2025-01-16 04:15:38.84	353.44	7.87	
2025-01-16 04:15:39.04	353.41	7.88	
2025-01-16 04:15:39.24	353.37	7.88	
2025-01-16 04:15:39.45	353.34	7.89	
2025-01-16 04:15:39.65	353.30	7.90	
2025-01-16 04:15:39.85	353.27	7.91	
2025-01-16 04:15:40.06	353.23	7.91	
2025-01-16 04:15:40.26	353.20	7.92	
2025-01-16 04:15:40.46	353.16	7.93	
2025-01-16 04:15:40.67	353.13	7.94	
2025-01-16 04:15:40.87	353.09	7.94	
2025-01-16 04:15:41.07	353.06	7.95	
2025-01-16 04:15:41.28	353.02	7.96	
2025-01-16 04:15:41.48	352.99	7.97	
2025-01-16 04:15:41.68	352.96	7.97	
2025-01-16 04:15:41.88	352.92	7.98	
2025-01-16 04:15:42.09	352.88	7.99	
2025-01-16 04:15:42.29	352.85	7.99	
2025-01-16 04:15:42.49	352.82	8.00	
2025-01-16 04:15:42.70	352.78	8.01	
2025-01-16 04:15:42.90	352.75	8.02	
2025-01-16 04:15:43.10	352.71	8.02	
2025-01-16 04:15:43.31	352.68	8.03	
2025-01-16 04:15:43.51	352.64	8.04	
2025-01-16 04:15:43.71	352.61	8.05	
2025-01-16 04:15:43.92	352.57	8.05	
2025-01-16 04:15:44.12	352.54	8.06	
2025-01-16 04:15:44.32	352.50	8.07	
2025-01-16 04:15:44.52	352.47	8.07	
2025-01-16 04:15:44.73	352.43	8.08	
2025-01-16 04:15:44.93	352.40	8.09	
2025-01-16 04:15:45.13	352.36	8.10	
2025-01-16 04:15:45.34	352.32	8.10	
2025-01-16 04:15:45.54	352.29	8.11	
2025-01-16 04:15:45.74	352.26	8.12	
2025-01-16 04:15:45.95	352.22	8.12	
2025-01-16 04:15:46.15	352.18	8.13	
2025-01-16 04:15:46.35	352.15	8.14	
2025-01-16 04:15:46.56	352.11	8.15	
2025-01-16 04:15:46.76	352.08	8.15	
2025-01-16 04:15:46.96	352.04	8.16	
2025-01-16 04:15:47.16	352.01	8.17	
2025-01-16 04:15:47.37	351.97	8.17	
2025-01-16 04:15:47.57	351.94	8.18	
2025-01-16 04:15:47.77	351.90	8.19	
2025-01-16 04:15:47.98	351.87	8.20	
2025-01-16 04:15:48.18	351.83	8.20	
2025-01-16 04:15:48.38	351.80	8.21	
2025-01-16 04:15:48.59	351.76	8.22	
2025-01-16 04:15:48.79	351.73	8.22	
2025-01-16 04:15:48.99	351.69	8.23	
2025-01-16 04:15:49.20	351.65	8.24	
2025-01-16 04:15:49.40	351.62	8.25	
2025-01-16 04:15:49.60	351.58	8.25	
2025-01-16 04:15:49.80	351.55	8.26	
2025-01-16 04:15:50.01	351.51	8.27	
2025-01-16 04:15:50.21	351.48	8.27	
2025-01-16 04:15:50.41	351.44	8.28	
2025-01-16 04:15:50.62	351.40	8.29	
2025-01-16 04:15:50.82	351.37	8.29	
2025-01-16 04:15:51.02	351.33	8.30	
2025-01-16 04:15:51.23	351.30	8.31	
2025-01-16 04:15:51.43	351.26	8.32	
2025-01-16 04:15:51.63	351.23	8.32	
2025-01-16 04:15:51.84	351.19	8.33	
2025-01-16 04:15:52.04	351.16	8.34	
2025-01-16 04:15:52.24	351.12	8.34	
2025-01-16 04:15:52.44	351.08	8.35	
2025-01-16 04:15:52.65	351.05	8.36	
2025-01-16 04:15:52.85	351.01	8.36	
2025-01-16 04:15:53.05	350.98	8.37	
2025-01-16 04:15:53.26	350.94	8.38	
2025-01-16 04:15:53.46	350.90	8.38	
2025-01-16 04:15:53.66	350.87	8.39	
2025-01-16 04:15:53.87	350.83	8.40	
2025-01-16 04:15:54.07	350.80	8.41	
2025-01-16 04:15:54.27	350.76	8.41	
2025-01-16 04:15:54.48	350.72	8.42	
2025-01-16 04:15:54.68	350.69	8.43	
2025-01-16 04:15:54.88	350.65	8.43	
2025-01-16 04:15:55.08	350.62	8.44	
2025-01-16 04:15:55.29	350.58	8.45	
2025-01-16 04:15:55.49	350.54	8.45	
2025-01-16 04:15:55.69	350.51	8.46	
2025-01-16 04:15:55.90	350.47	8.47	
2025-01-16 04:15:56.10	350.44	8.47	
2025-01-16 04:15:56.30	350.40	8.48	
2025-01-16 04:15:56.51	350.36	8.49	
2025-01-16 04:15:56.71	350.33	8.49	
2025-01-16 04:15:56.91	350.29	8.50	
2025-01-16 04:15:57.12	350.25	8.51	
2025-01-16 04:15:57.32	350.22	8.51	
2025-01-16 04:15:57.52	350.18	8.52	
2025-01-16 04:15:57.72	350.15	8.53	
2025-01-16 04:15:57.93	350.11	8.53	
2025-01-16 04:15:58.13	350.07	8.54	
2025-01-16 04:15:58.33	350.04	8.55	
2025-01-16 04:15:58.54	350.00	8.55	
2025-01-16 04:15:58.74	349.97	8.56	
2025-01-16 04:15:58.94	349.93	8.57	
2025-01-16 04:15:59.15	349.89	8.57	
2025-01-16 04:15:59.35	349.86	8.58	
2025-01-16 04:15:59.55	349.82	8.59	
2025-01-16 04:15:59.76	349.78	8.59	
2025-01-16 04:15:59.96	349.75	8.60	
2025-01-16 04:16:00.16	349.71	8.61	
2025-01-16 04:16:00.36	349.67	8.61	
2025-01-16 04:16:00.57	349.64	8.62	
2025-01-16 04:16:00.77	349.60	8.63	
2025-01-16 04:16:00.97	349.56	8.63	
2025-01-16 04:16:01.18	349.53	8.64	
2025-01-16 04:16:01.38	349.49	8.65	
2025-01-16 04:16:01.58	349.45	8.65	
2025-01-16 04:16:01.79	349.42	8.66	
2025-01-16 04:16:01.99	349.38	8.67	
2025-01-16 04:16:02.19	349.34	8.67	
2025-01-16 04:16:02.40	349.31	8.68	
2025-01-16 04:16:02.60	349.27	8.69	
2025-01-16 04:16:02.80	349.23	8.69	
2025-01-16 04:16:03.01	349.20	8.70	
2025-01-16 04:16:03.21	349.16	8.71	
2025-01-16 04:16:03.41	349.12	8.71	
2025-01-16 04:16:03.61	349.09	8.72	
2025-01-16 04:16:03.82	349.05	8.73	
2025-01-16 04:16:04.02	349.01	8.73	
2025-01-16 04:16:04.22	348.98	8.74	
2025-01-16 04:16:04.43	348.94	8.75	
2025-01-16 04:16:04.63	348.90	8.75	
2025-01-16 04:16:04.83	348.87	8.76	
2025-01-16 04:16:05.04	348.83	8.76	
2025-01-16 04:16:05.24	348.79	8.77	
2025-01-16 04:16:05.44	348.75	8.78	
2025-01-16 04:16:05.65	348.72	8.78	
2025-01-16 04:16:05.85	348.68	8.79	
2025-01-16 04:16:06.05	348.64	8.80	
2025-01-16 04:16:06.25	348.61	8.80	
2025-01-16 04:16:06.46	348.57	8.81	
2025-01-16 04:16:06.66	348.53	8.82	
2025-01-16 04:16:06.86	348.50	8.82	
2025-01-16 04:16:07.07	348.46	8.83	
2025-01-16 04:16:07.27	348.42	8.83	
2025-01-16 04:16:07.47	348.38	8.84	
2025-01-16 04:16:07.68	348.35	8.85	
2025-01-16 04:16:07.88	348.31	8.85	
2025-01-16 04:16:08.08	348.27	8.86	
2025-01-16 04:16:08.29	348.23	8.87	
2025-01-16 04:16:08.49	348.20	8.87	
2025-01-16 04:16:08.69	348.16	8.88	
2025-01-16 04:16:08.89	348.12	8.88	
2025-01-16 04:16:09.10	348.09	8.89	
2025-01-16 04:16:09.30	348.05	8.90	
2025-01-16 04:16:09.50	348.01	8.90	
2025-01-16 04:16:09.71	347.97	8.91	
2025-01-16 04:16:09.91	347.94	8.92	
2025-01-16 04:16:10.11	347.90	8.92	
2025-01-16 04:16:10.32	347.86	8.93	
2025-01-16 04:16:10.52	347.82	8.93	
2025-01-16 04:16:10.72	347.79	8.94	
2025-01-16 04:16:10.93	347.75	8.95	
2025-01-16 04:16:11.13	347.71	8.95	
2025-01-16 04:16:11.33	347.67	8.96	
2025-01-16 04:16:11.53	347.64	8.96	
2025-01-16 04:16:11.74	347.60	8.97	
2025-01-16 04:16:11.94	347.56	8.98	
2025-01-16 04:16:12.14	347.53	8.98	
2025-01-16 04:16:12.35	347.49	8.99	
2025-01-16 04:16:12.55	347.45	9.00	
2025-01-16 04:16:12.75	347.41	9.00	
2025-01-16 04:16:12.96	347.37	9.01	
2025-01-16 04:16:13.16	347.34	9.01	
2025-01-16 04:16:13.36	347.30	9.02	
2025-01-16 04:16:13.57	347.26	9.03	
2025-01-16 04:16:13.77	347.22	9.03	
2025-01-16 04:16:13.97	347.19	9.04	
2025-01-16 04:16:14.17	347.15	9.04	
2025-01-16 04:16:14.38	347.11	9.05	
2025-01-16 04:16:14.58	347.07	9.06	
2025-01-16 04:16:14.78	347.04	9.06	
2025-01-16 04:16:14.99	347.00	9.07	
2025-01-16 04:16:15.19	346.96	9.07	
2025-01-16 04:16:15.39	346.92	9.08	
2025-01-16 04:16:15.60	346.88	9.09	
2025-01-16 04:16:15.80	346.85	9.09	
2025-01-16 04:16:16.00	346.81	9.10	
2025-01-16 04:16:16.21	346.77	9.10	
2025-01-16 04:16:16.41	346.73	9.11	
2025-01-16 04:16:16.61	346.69	9.11	
2025-01-16 04:16:16.81	346.66	9.12	
2025-01-16 04:16:17.02	346.62	9.13	
2025-01-16 04:16:17.22	346.58	9.13	
2025-01-16 04:16:17.42	346.54	9.14	
2025-01-16 04:16:17.63	346.50	9.14	
2025-01-16 04:16:17.83	346.47	9.15	
2025-01-16 04:16:18.03	346.43	9.16	
2025-01-16 04:16:18.24	346.39	9.16	
2025-01-16 04:16:18.44	346.35	9.17	
2025-01-16 04:16:18.64	346.31	9.17	
2025-01-16 04:16:18.85	346.27	9.18	
2025-01-16 04:16:19.05	346.24	9.18	
2025-01-16 04:16:19.25	346.20	9.19	
2025-01-16 04:16:19.45	346.16	9.20	
2025-01-16 04:16:19.66	346.12	9.20	
2025-01-16 04:16:19.86	346.09	9.21	
2025-01-16 04:16:20.06	346.05	9.21	
2025-01-16 04:16:20.27	346.01	9.22	
2025-01-16 04:16:20.47	345.97	9.22	
2025-01-16 04:16:20.67	345.93	9.23	
2025-01-16 04:16:20.88	345.89	9.24	
2025-01-16 04:16:21.08	345.86	9.24	
2025-01-16 04:16:21.28	345.82	9.25	
2025-01-16 04:16:21.49	345.78	9.25	
2025-01-16 04:16:21.69	345.74	9.26	
2025-01-16 04:16:21.89	345.70	9.26	
2025-01-16 04:16:22.09	345.66	9.27	
2025-01-16 04:16:22.30	345.62	9.28	
2025-01-16 04:16:22.50	345.59	9.28	
2025-01-16 04:16:22.70	345.55	9.29	
2025-01-16 04:16:22.91	345.51	9.29	
2025-01-16 04:16:23.11	345.47	9.30	
2025-01-16 04:16:23.31	345.43	9.30	
2025-01-16 04:16:23.52	345.39	9.31	
2025-01-16 04:16:23.72	345.36	9.31	
2025-01-16 04:16:23.92	345.32	9.32	
2025-01-16 04:16:24.13	345.28	9.33	
2025-01-16 04:16:24.33	345.24	9.33	
2025-01-16 04:16:24.53	345.20	9.34	
2025-01-16 04:16:24.73	345.16	9.34	
2025-01-16 04:16:24.94	345.12	9.35	
2025-01-16 04:16:25.14	345.09	9.35	
2025-01-16 04:16:25.34	345.05	9.36	
2025-01-16 04:16:25.55	345.01	9.36	
2025-01-16 04:16:25.75	344.97	9.37	
2025-01-16 04:16:25.95	344.93	9.37	
2025-01-16 04:16:26.16	344.89	9.38	
2025-01-16 04:16:26.36	344.85	9.39	
2025-01-16 04:16:26.56	344.82	9.39	
2025-01-16 04:16:26.77	344.78	9.40	
2025-01-16 04:16:26.97	344.74	9.40	
2025-01-16 04:16:27.17	344.70	9.41	
2025-01-16 04:16:27.38	344.66	9.41	
2025-01-16 04:16:27.58	344.62	9.42	
2025-01-16 04:16:27.78	344.58	9.42	
2025-01-16 04:16:27.98	344.54	9.43	
2025-01-16 04:16:28.19	344.50	9.43	
2025-01-16 04:16:28.39	344.47	9.44	
2025-01-16 04:16:28.59	344.43	9.44	
2025-01-16 04:16:28.80	344.39	9.45	
2025-01-16 04:16:29.00	344.35	9.45	
2025-01-16 04:16:29.20	344.31	9.46	
2025-01-16 04:16:29.41	344.27	9.47	
2025-01-16 04:16:29.61	344.23	9.47	
2025-01-16 04:16:29.81	344.19	9.48	
2025-01-16 04:16:30.02	344.15	9.48	
2025-01-16 04:16:30.22	344.12	9.49	
2025-01-16 04:16:30.42	344.08	9.49	
2025-01-16 04:16:30.62	344.04	9.50	
2025-01-16 04:16:30.83	344.00	9.50	
2025-01-16 04:16:31.03	343.96	9.51	
2025-01-16 04:16:31.23	343.92	9.51	
2025-01-16 04:16:31.44	343.88	9.52	
2025-01-16 04:16:31.64	343.84	9.52	
2025-01-16 04:16:31.84	343.80	9.53	
2025-01-16 04:16:32.05	343.76	9.53	
2025-01-16 04:16:32.25	343.72	9.54	
2025-01-16 04:16:32.45	343.69	9.54	
2025-01-16 04:16:32.66	343.65	9.55	
2025-01-16 04:16:32.86	343.61	9.55	
2025-01-16 04:16:33.06	343.57	9.56	
2025-01-16 04:16:33.26	343.53	9.56	
2025-01-16 04:16:33.47	343.49	9.57	
2025-01-16 04:16:33.67	343.45	9.57	
2025-01-16 04:16:33.87	343.41	9.58	
2025-01-16 04:16:34.08	343.37	9.58	
2025-01-16 04:16:34.28	343.33	9.59	
2025-01-16 04:16:34.48	343.29	9.59	
2025-01-16 04:16:34.69	343.25	9.60	
2025-01-16 04:16:34.89	343.21	9.60	
2025-01-16 04:16:35.09	343.18	9.61	
2025-01-16 04:16:35.30	343.13	9.61	
2025-01-16 04:16:35.50	343.10	9.62	
2025-01-16 04:16:35.70	343.06	9.62	
2025-01-16 04:16:35.90	343.02	9.63	
2025-01-16 04:16:36.11	342.98	9.63	
2025-01-16 04:16:36.31	342.94	9.64	
2025-01-16 04:16:36.51	342.90	9.64	
2025-01-16 04:16:36.72	342.86	9.65	
2025-01-16 04:16:36.92	342.82	9.65	
2025-01-16 04:16:37.12	342.78	9.66	
2025-01-16 04:16:37.33	342.74	9.66	
2025-01-16 04:16:37.53	342.70	9.67	
2025-01-16 04:16:37.73	342.66	9.67	
2025-01-16 04:16:37.94	342.62	9.68	
2025-01-16 04:16:38.14	342.58	9.68	
2025-01-16 04:16:38.34	342.54	9.69	
2025-01-16 04:16:38.54	342.50	9.69	
2025-01-16 04:16:38.75	342.46	9.69	
2025-01-16 04:16:38.95	342.42	9.70	
2025-01-16 04:16:39.15	342.39	9.70	
2025-01-16 04:16:39.36	342.34	9.71	
2025-01-16 04:16:39.56	342.30	9.71	
2025-01-16 04:16:39.76	342.27	9.72	
2025-01-16 04:16:39.97	342.22	9.72	
2025-01-16 04:16:40.17	342.19	9.73	
2025-01-16 04:16:40.37	342.15	9.73	
2025-01-16 04:16:40.58	342.11	9.74	
2025-01-16 04:16:40.78	342.07	9.74	
2025-01-16 04:16:40.98	342.03	9.75	
2025-01-16 04:16:41.18	341.99	9.75	
2025-01-16 04:16:41.39	341.95	9.76	
2025-01-16 04:16:41.59	341.91	9.76	
2025-01-16 04:16:41.79	341.87	9.76	
2025-01-16 04:16:42.00	341.83	9.77	
2025-01-16 04:16:42.20	341.79	9.77	
2025-01-16 04:16:42.40	341.75	9.78	
2025-01-16 04:16:42.61	341.71	9.78	
2025-01-16 04:16:42.81	341.67	9.79	
2025-01-16 04:16:43.01	341.63	9.79	
2025-01-16 04:16:43.22	341.59	9.80	
2025-01-16 04:16:43.42	341.55	9.80	
2025-01-16 04:16:43.62	341.51	9.81	
2025-01-16 04:16:43.82	341.47	9.81	
2025-01-16 04:16:44.03	341.43	9.81	
2025-01-16 04:16:44.23	341.39	9.82	
2025-01-16 04:16:44.43	341.35	9.82	
2025-01-16 04:16:44.64	341.31	9.83	
2025-01-16 04:16:44.84	341.27	9.83	
2025-01-16 04:16:45.04	341.23	9.84	
2025-01-16 04:16:45.25	341.19	9.84	
2025-01-16 04:16:45.45	341.15	9.84	
2025-01-16 04:16:45.65	341.11	9.85	
2025-01-16 04:16:45.86	341.07	9.85	
2025-01-16 04:16:46.06	341.03	9.86	
2025-01-16 04:16:46.26	340.99	9.86	
2025-01-16 04:16:46.46	340.95	9.87	
2025-01-16 04:16:46.67	340.91	9.87	
2025-01-16 04:16:46.87	340.87	9.87	
2025-01-16 04:16:47.07	340.83	9.88	
2025-01-16 04:16:47.28	340.79	9.88	
2025-01-16 04:16:47.48	340.75	9.89	
2025-01-16 04:16:47.68	340.71	9.89	
2025-01-16 04:16:47.89	340.67	9.90	
2025-01-16 04:16:48.09	340.63	9.90	
2025-01-16 04:16:48.29	340.59	9.90	
2025-01-16 04:16:48.50	340.54	9.91	
2025-01-16 04:16:48.70	340.50	9.91	
2025-01-16 04:16:48.90	340.47	9.92	
2025-01-16 04:16:49.11	340.42	9.92	
2025-01-16 04:16:49.31	340.38	9.93	
2025-01-16 04:16:49.51	340.34	9.93	
2025-01-16 04:16:49.71	340.30	9.93	
2025-01-16 04:16:49.92	340.26	9.94	
2025-01-16 04:16:50.12	340.22	9.94	
2025-01-16 04:16:50.32	340.18	9.95	
2025-01-16 04:16:50.53	340.14	9.95	
2025-01-16 04:16:50.73	340.10	9.95	
2025-01-16 04:16:50.93	340.06	9.96	
2025-01-16 04:16:51.14	340.02	9.96	
2025-01-16 04:16:51.34	339.98	9.97	
2025-01-16 04:16:51.54	339.94	9.97	
2025-01-16 04:16:51.75	339.90	9.97	
2025-01-16 04:16:51.95	339.86	9.98	
2025-01-16 04:16:52.15	339.82	9.98	
2025-01-16 04:16:52.35	339.78	9.99	
2025-01-16 04:16:52.56	339.74	9.99	
2025-01-16 04:16:52.76	339.70	9.99	
2025-01-16 04:16:52.96	339.66	10.00	
2025-01-16 04:16:53.17	339.61	10.00	
2025-01-16 04:16:53.37	339.57	10.01	
2025-01-16 04:16:53.57	339.53	10.01	
2025-01-16 04:16:53.78	339.49	10.01	
2025-01-16 04:16:53.98	339.45	10.02	
2025-01-16 04:16:54.18	339.41	10.02	
2025-01-16 04:16:54.39	339.37	10.02	
2025-01-16 04:16:54.59	339.33	10.03	
2025-01-16 04:16:54.79	339.29	10.03	
2025-01-16 04:16:54.99	339.25	10.04	
2025-01-16 04:16:55.20	339.21	10.04	
2025-01-16 04:16:55.40	339.17	10.04	
2025-01-16 04:16:55.60	339.13	10.05	
2025-01-16 04:16:55.81	339.09	10.05	
2025-01-16 04:16:56.01	339.05	10.05	
2025-01-16 04:16:56.21	339.01	10.06	
2025-01-16 04:16:56.42	338.96	10.06	
2025-01-16 04:16:56.62	338.92	10.07	
2025-01-16 04:16:56.82	338.88	10.07	
2025-01-16 04:16:57.03	338.84	10.07	
2025-01-16 04:16:57.23	338.80	10.08	
2025-01-16 04:16:57.43	338.76	10.08	
2025-01-16 04:16:57.63	338.72	10.08	
2025-01-16 04:16:57.84	338.68	10.09	
2025-01-16 04:16:58.04	338.64	10.09	
2025-01-16 04:16:58.24	338.60	10.09	
2025-01-16 04:16:58.45	338.56	10.10	
2025-01-16 04:16:58.65	338.52	10.10	
2025-01-16 04:16:58.85	338.48	10.11	
2025-01-16 04:16:59.06	338.43	10.11	
2025-01-16 04:16:59.26	338.39	10.11	
2025-01-16 04:16:59.46	338.35	10.12	
2025-01-16 04:16:59.67	338.31	10.12	
2025-01-16 04:16:59.87	338.27	10.12	
2025-01-16 04:17:00.07	338.23	10.13	
2025-01-16 04:17:00.27	338.19	10.13	
2025-01-16 04:17:00.48	338.15	10.13	
2025-01-16 04:17:00.68	338.11	10.14	
2025-01-16 04:17:00.88	338.07	10.14	
2025-01-16 04:17:01.09	338.02	10.14	
2025-01-16 04:17:01.29	337.98	10.15	
2025-01-16 04:17:01.49	337.94	10.15	
2025-01-16 04:17:01.70	337.90	10.15	
2025-01-16 04:17:01.90	337.86	10.16	
2025-01-16 04:17:02.10	337.82	10.16	
2025-01-16 04:17:02.31	337.78	10.16	
2025-01-16 04:17:02.51	337.74	10.17	
2025-01-16 04:17:02.71	337.70	10.17	
2025-01-16 04:17:02.91	337.66	10.17	
2025-01-16 04:17:03.12	337.61	10.18	
2025-01-16 04:17:03.32	337.57	10.18	
2025-01-16 04:17:03.52	337.53	10.18	
2025-01-16 04:17:03.73	337.49	10.19	
2025-01-16 04:17:03.93	337.45	10.19	
2025-01-16 04:17:04.13	337.41	10.19	
2025-01-16 04:17:04.34	337.37	10.20	
2025-01-16 04:17:04.54	337.33	10.20	
2025-01-16 04:17:04.74	337.29	10.20	
2025-01-16 04:17:04.95	337.24	10.21	
2025-01-16 04:17:05.15	337.20	10.21	
2025-01-16 04:17:05.35	337.16	10.21	
2025-01-16 04:17:05.55	337.12	10.22	
2025-01-16 04:17:05.76	337.08	10.22	
2025-01-16 04:17:05.96	337.04	10.22	
2025-01-16 04:17:06.16	337.00	10.22	
2025-01-16 04:17:06.37	336.95	10.23	
2025-01-16 04:17:06.57	336.91	10.23	
2025-01-16 04:17:06.77	336.87	10.23	
2025-01-16 04:17:06.98	336.83	10.24	
2025-01-16 04:17:07.18	336.79	10.24	
2025-01-16 04:17:07.38	336.75	10.24	
2025-01-16 04:17:07.59	336.71	10.25	
2025-01-16 04:17:07.79	336.67	10.25	
2025-01-16 04:17:07.99	336.63	10.25	
2025-01-16 04:17:08.19	336.58	10.25	
2025-01-16 04:17:08.40	336.54	10.26	
2025-01-16 04:17:08.60	336.50	10.26	
2025-01-16 04:17:08.80	336.46	10.26	
2025-01-16 04:17:09.01	336.42	10.27	
2025-01-16 04:17:09.21	336.38	10.27	
2025-01-16 04:17:09.41	336.34	10.27	
2025-01-16 04:17:09.62	336.29	10.27	
2025-01-16 04:17:09.82	336.25	10.28	
2025-01-16 04:17:10.02	336.21	10.28	
2025-01-16 04:17:10.23	336.17	10.28	
2025-01-16 04:17:10.43	336.13	10.29	
2025-01-16 04:17:10.63	336.09	10.29	
2025-01-16 04:17:10.84	336.04	10.29	
2025-01-16 04:17:11.04	336.00	10.29	
2025-01-16 04:17:11.24	335.96	10.30	
2025-01-16 04:17:11.44	335.92	10.30	
2025-01-16 04:17:11.65	335.88	10.30	
2025-01-16 04:17:11.85	335.84	10.31	
2025-01-16 04:17:12.05	335.80	10.31	
2025-01-16 04:17:12.26	335.75	10.31	
2025-01-16 04:17:12.46	335.71	10.31	
2025-01-16 04:17:12.66	335.67	10.32	
2025-01-16 04:17:12.87	335.63	10.32	
2025-01-16 04:17:13.07	335.59	10.32	
2025-01-16 04:17:13.27	335.55	10.32	
2025-01-16 04:17:13.48	335.50	10.33	
2025-01-16 04:17:13.68	335.46	10.33	
2025-01-16 04:17:13.88	335.42	10.33	
2025-01-16 04:17:14.08	335.38	10.33	
2025-01-16 04:17:14.29	335.34	10.34	
2025-01-16 04:17:14.49	335.30	10.34	
2025-01-16 04:17:14.69	335.26	10.34	
2025-01-16 04:17:14.90	335.21	10.34	
2025-01-16 04:17:15.10	335.17	10.35	
2025-01-16 04:17:15.30	335.13	10.35	
2025-01-16 04:17:15.51	335.09	10.35	
2025-01-16 04:17:15.71	335.05	10.35	
2025-01-16 04:17:15.91	335.01	10.36	
2025-01-16 04:17:16.12	334.96	10.36	
2025-01-16 04:17:16.32	334.92	10.36	
2025-01-16 04:17:16.52	334.88	10.36	
2025-01-16 04:17:16.72	334.84	10.37	
2025-01-16 04:17:16.93	334.80	10.37	
2025-01-16 04:17:17.13	334.76	10.37	
2025-01-16 04:17:17.33	334.72	10.37	
2025-01-16 04:17:17.54	334.67	10.38	
2025-01-16 04:17:17.74	334.63	10.38	
2025-01-16 04:17:17.94	334.59	10.38	
2025-01-16 04:17:18.15	334.55	10.38	
2025-01-16 04:17:18.35	334.51	10.39	
2025-01-16 04:17:18.55	334.46	10.39	
2025-01-16 04:17:18.76	334.42	10.39	
2025-01-16 04:17:18.96	334.38	10.39	
2025-01-16 04:17:19.16	334.34	10.39	
2025-01-16 04:17:19.36	334.30	10.40	
2025-01-16 04:17:19.57	334.25	10.40	
2025-01-16 04:17:19.77	334.21	10.40	
2025-01-16 04:17:19.97	334.17	10.40	
2025-01-16 04:17:20.18	334.13	10.41	
2025-01-16 04:17:20.38	334.09	10.41	
2025-01-16 04:17:20.58	334.05	10.41	
2025-01-16 04:17:20.79	334.00	10.41	
2025-01-16 04:17:20.99	333.96	10.41	
2025-01-16 04:17:21.19	333.92	10.42	
2025-01-16 04:17:21.40	333.88	10.42	
2025-01-16 04:17:21.60	333.84	10.42	
2025-01-16 04:17:21.80	333.80	10.42	
2025-01-16 04:17:22.00	333.75	10.42	
2025-01-16 04:17:22.21	333.71	10.43	
2025-01-16 04:17:22.41	333.67	10.43	
2025-01-16 04:17:22.61	333.63	10.43	
2025-01-16 04:17:22.82	333.58	10.43	
2025-01-16 04:17:23.02	333.54	10.43	
2025-01-16 04:17:23.22	333.50	10.44	
2025-01-16 04:17:23.43	333.46	10.44	
2025-01-16 04:17:23.63	333.42	10.44	
2025-01-16 04:17:23.83	333.38	10.44	
2025-01-16 04:17:24.04	333.33	10.44	
2025-01-16 04:17:24.24	333.29	10.45	
2025-01-16 04:17:24.44	333.25	10.45	
2025-01-16 04:17:24.64	333.21	10.45	
2025-01-16 04:17:24.85	333.17	10.45	
2025-01-16 04:17:25.05	333.12	10.45	
2025-01-16 04:17:25.25	333.08	10.45	
2025-01-16 04:17:25.46	333.04	10.46	
2025-01-16 04:17:25.66	333.00	10.46	
2025-01-16 04:17:25.86	332.96	10.46	
2025-01-16 04:17:26.07	332.91	10.46	
2025-01-16 04:17:26.27	332.87	10.46	
2025-01-16 04:17:26.47	332.83	10.47	
2025-01-16 04:17:26.68	332.79	10.47	
2025-01-16 04:17:26.88	332.75	10.47	
2025-01-16 04:17:27.08	332.70	10.47	
2025-01-16 04:17:27.28	332.66	10.47	
2025-01-16 04:17:27.49	332.62	10.47	
2025-01-16 04:17:27.69	332.58	10.48	
2025-01-16 04:17:27.89	332.54	10.48	
2025-01-16 04:17:28.10	332.49	10.48	
2025-01-16 04:17:28.30	332.45	10.48	
2025-01-16 04:17:28.50	332.41	10.48	
2025-01-16 04:17:28.71	332.37	10.48	
2025-01-16 04:17:28.91	332.33	10.49	
2025-01-16 04:17:29.11	332.28	10.49	
2025-01-16 04:17:29.32	332.24	10.49	
2025-01-16 04:17:29.52	332.20	10.49	
2025-01-16 04:17:29.72	332.16	10.49	
2025-01-16 04:17:29.92	332.12	10.49	
2025-01-16 04:17:30.13	332.07	10.49	
2025-01-16 04:17:30.33	332.03	10.50	
2025-01-16 04:17:30.53	331.99	10.50	
2025-01-16 04:17:30.74	331.95	10.50	
2025-01-16 04:17:30.94	331.90	10.50	
2025-01-16 04:17:31.14	331.86	10.50	
2025-01-16 04:17:31.35	331.82	10.50	
2025-01-16 04:17:31.55	331.78	10.50	
2025-01-16 04:17:31.75	331.74	10.51	
2025-01-16 04:17:31.96	331.69	10.51	
2025-01-16 04:17:32.16	331.65	10.51	
2025-01-16 04:17:32.36	331.61	10.51	
2025-01-16 04:17:32.57	331.57	10.51	
2025-01-16 04:17:32.77	331.52	10.51	
2025-01-16 04:17:32.97	331.48	10.51	
2025-01-16 04:17:33.17	331.44	10.52	
2025-01-16 04:17:33.38	331.40	10.52	
2025-01-16 04:17:33.58	331.36	10.52	
2025-01-16 04:17:33.78	331.31	10.52	
2025-01-16 04:17:33.99	331.27	10.52	
2025-01-16 04:17:34.19	331.23	10.52	
2025-01-16 04:17:34.39	331.19	10.52	
2025-01-16 04:17:34.60	331.14	10.52	
2025-01-16 04:17:34.80	331.10	10.52	
2025-01-16 04:17:35.00	331.06	10.53	
2025-01-16 04:17:35.21	331.02	10.53	
2025-01-16 04:17:35.41	330.98	10.53	
2025-01-16 04:17:35.61	330.93	10.53	
2025-01-16 04:17:35.81	330.89	10.53	
2025-01-16 04:17:36.02	330.85	10.53	
2025-01-16 04:17:36.22	330.81	10.53	
2025-01-16 04:17:36.42	330.77	10.53	
2025-01-16 04:17:36.63	330.72	10.53	
2025-01-16 04:17:36.83	330.68	10.54	
2025-01-16 04:17:37.03	330.64	10.54	
2025-01-16 04:17:37.24	330.60	10.54	
2025-01-16 04:17:37.44	330.55	10.54	
2025-01-16 04:17:37.64	330.51	10.54	
2025-01-16 04:17:37.85	330.47	10.54	
2025-01-16 04:17:38.05	330.43	10.54	
2025-01-16 04:17:38.25	330.39	10.54	
2025-01-16 04:17:38.45	330.34	10.54	
2025-01-16 04:17:38.66	330.30	10.54	
2025-01-16 04:17:38.86	330.26	10.55	
2025-01-16 04:17:39.06	330.22	10.55	
2025-01-16 04:17:39.27	330.17	10.55	
2025-01-16 04:17:39.47	330.13	10.55	
2025-01-16 04:17:39.67	330.09	10.55	
2025-01-16 04:17:39.88	330.05	10.55	
2025-01-16 04:17:40.08	330.00	10.55	
2025-01-16 04:17:40.28	329.96	10.55	
2025-01-16 04:17:40.49	329.92	10.55	
2025-01-16 04:17:40.69	329.88	10.55	
2025-01-16 04:17:40.89	329.84	10.55	
2025-01-16 04:17:41.09	329.79	10.55	
2025-01-16 04:17:41.30	329.75	10.55	
2025-01-16 04:17:41.50	329.71	10.56	
2025-01-16 04:17:41.70	329.67	10.56	
2025-01-16 04:17:41.91	329.62	10.56	
2025-01-16 04:17:42.11	329.58	10.56	
2025-01-16 04:17:42.31	329.54	10.56	
2025-01-16 04:17:42.52	329.50	10.56	
2025-01-16 04:17:42.72	329.45	10.56	
2025-01-16 04:17:42.92	329.41	10.56	
2025-01-16 04:17:43.13	329.37	10.56	
2025-01-16 04:17:43.33	329.33	10.56	
2025-01-16 04:17:43.53	329.29	10.56	
2025-01-16 04:17:43.73	329.24	10.56	
2025-01-16 04:17:43.94	329.20	10.56	
2025-01-16 04:17:44.14	329.16	10.56	
2025-01-16 04:17:44.34	329.12	10.56	
2025-01-16 04:17:44.55	329.07	10.56	
2025-01-16 04:17:44.75	329.03	10.56	
2025-01-16 04:17:44.95	328.99	10.57	
2025-01-16 04:17:45.16	328.95	10.57	
2025-01-16 04:17:45.36	328.90	10.57	
2025-01-16 04:17:45.56	328.86	10.57	
2025-01-16 04:17:45.77	328.82	10.57	
2025-01-16 04:17:45.97	328.78	10.57	
2025-01-16 04:17:46.17	328.74	10.57	
2025-01-16 04:17:46.37	328.69	10.57	
2025-01-16 04:17:46.58	328.65	10.57	
2025-01-16 04:17:46.78	328.61	10.57	
2025-01-16 04:17:46.98	328.57	10.57	
2025-01-16 04:17:47.19	328.52	10.57	
2025-01-16 04:17:47.39	328.48	10.57	
2025-01-16 04:17:47.59	328.44	10.57	
2025-01-16 04:17:47.80	328.40	10.57	
2025-01-16 04:17:48.00	328.35	10.57	
2025-01-16 04:17:48.20	328.31	10.57	
2025-01-16 04:17:48.41	328.27	10.57	
2025-01-16 04:17:48.61	328.23	10.57	
2025-01-16 04:17:48.81	328.18	10.57	
2025-01-16 04:17:49.01	328.14	10.57	
2025-01-16 04:17:49.22	328.10	10.57	
2025-01-16 04:17:49.42	328.06	10.57	
2025-01-16 04:17:49.62	328.02	10.57	
2025-01-16 04:17:49.83	327.97	10.57	
2025-01-16 04:17:50.03	327.93	10.57	
2025-01-16 04:17:50.23	327.89	10.57	
2025-01-16 04:17:50.44	327.84	10.57	
2025-01-16 04:17:50.64	327.80	10.57	
2025-01-16 04:17:50.84	327.76	10.57	
2025-01-16 04:17:51.05	327.72	10.57	
2025-01-16 04:17:51.25	327.68	10.57	
2025-01-16 04:17:51.45	327.63	10.57	
2025-01-16 04:17:51.65	327.59	10.57	
2025-01-16 04:17:51.86	327.55	10.57	
2025-01-16 04:17:52.06	327.51	10.57	
2025-01-16 04:17:52.26	327.47	10.57	
2025-01-16 04:17:52.47	327.42	10.57	
2025-01-16 04:17:52.67	327.38	10.57	
2025-01-16 04:17:52.87	327.34	10.57	
2025-01-16 04:17:53.08	327.29	10.57	
2025-01-16 04:17:53.28	327.25	10.57	
2025-01-16 04:17:53.48	327.21	10.57	
2025-01-16 04:17:53.69	327.17	10.57	
2025-01-16 04:17:53.89	327.13	10.57	
2025-01-16 04:17:54.09	327.08	10.57	
2025-01-16 04:17:54.29	327.04	10.57	
2025-01-16 04:17:54.50	327.00	10.57	
2025-01-16 04:17:54.70	326.96	10.57	
2025-01-16 04:17:54.90	326.91	10.57	
2025-01-16 04:17:55.11	326.87	10.57	
2025-01-16 04:17:55.31	326.83	10.57	
2025-01-16 04:17:55.51	326.79	10.57	
2025-01-16 04:17:55.72	326.74	10.57	
2025-01-16 04:17:55.92	326.70	10.57	
2025-01-16 04:17:56.12	326.66	10.57	
2025-01-16 04:17:56.33	326.62	10.57	
2025-01-16 04:17:56.53	326.57	10.57	
2025-01-16 04:17:56.73	326.53	10.57	
2025-01-16 04:17:56.94	326.49	10.57	
2025-01-16 04:17:57.14	326.45	10.57	
2025-01-16 04:17:57.34	326.41	10.57	
2025-01-16 04:17:57.54	326.36	10.57	
2025-01-16 04:17:57.75	326.32	10.57	
2025-01-16 04:17:57.95	326.28	10.56	
2025-01-16 04:17:58.15	326.24	10.56	
2025-01-16 04:17:58.36	326.19	10.56	
2025-01-16 04:17:58.56	326.15	10.56	
2025-01-16 04:17:58.76	326.11	10.56	
2025-01-16 04:17:58.97	326.07	10.56	
2025-01-16 04:17:59.17	326.02	10.56	
2025-01-16 04:17:59.37	325.98	10.56	
2025-01-16 04:17:59.58	325.94	10.56	
2025-01-16 04:17:59.78	325.90	10.56	
2025-01-16 04:17:59.98	325.86	10.56	
2025-01-16 04:18:00.18	325.81	10.56	
2025-01-16 04:18:00.39	325.77	10.56	
2025-01-16 04:18:00.59	325.73	10.56	
2025-01-16 04:18:00.79	325.69	10.56	
2025-01-16 04:18:01.00	325.64	10.56	
2025-01-16 04:18:01.20	325.60	10.56	
2025-01-16 04:18:01.40	325.56	10.55	
2025-01-16 04:18:01.61	325.52	10.55	
2025-01-16 04:18:01.81	325.47	10.55	
2025-01-16 04:18:02.01	325.43	10.55	
2025-01-16 04:18:02.22	325.39	10.55	
2025-01-16 04:18:02.42	325.35	10.55	
2025-01-16 04:18:02.62	325.31	10.55	
2025-01-16 04:18:02.82	325.26	10.55	
2025-01-16 04:18:03.03	325.22	10.55	
2025-01-16 04:18:03.23	325.18	10.55	
2025-01-16 04:18:03.43	325.14	10.55	
2025-01-16 04:18:03.64	325.09	10.55	
2025-01-16 04:18:03.84	325.05	10.55	
2025-01-16 04:18:04.04	325.01	10.54	
2025-01-16 04:18:04.25	324.97	10.54	
2025-01-16 04:18:04.45	324.92	10.54	
2025-01-16 04:18:04.65	324.88	10.54	
2025-01-16 04:18:04.86	324.84	10.54	
2025-01-16 04:18:05.06	324.80	10.54	
2025-01-16 04:18:05.26	324.76	10.54	
2025-01-16 04:18:05.46	324.71	10.54	
2025-01-16 04:18:05.67	324.67	10.54	
2025-01-16 04:18:05.87	324.63	10.54	
2025-01-16 04:18:06.07	324.59	10.54	
2025-01-16 04:18:06.28	324.54	10.53	
2025-01-16 04:18:06.48	324.50	10.53	
2025-01-16 04:18:06.68	324.46	10.53	
2025-01-16 04:18:06.89	324.42	10.53	
2025-01-16 04:18:07.09	324.37	10.53	
2025-01-16 04:18:07.29	324.33	10.53	
2025-01-16 04:18:07.50	324.29	10.53	
2025-01-16 04:18:07.70	324.25	10.53	
2025-01-16 04:18:07.90	324.21	10.53	
2025-01-16 04:18:08.10	324.16	10.52	
2025-01-16 04:18:08.31	324.12	10.52	
2025-01-16 04:18:08.51	324.08	10.52	
2025-01-16 04:18:08.71	324.04	10.52	
2025-01-16 04:18:08.92	323.99	10.52	
2025-01-16 04:18:09.12	323.95	10.52	
2025-01-16 04:18:09.32	323.91	10.52	
2025-01-16 04:18:09.53	323.87	10.52	
2025-01-16 04:18:09.73	323.83	10.51	
2025-01-16 04:18:09.93	323.78	10.51	
2025-01-16 04:18:10.14	323.74	10.51	
2025-01-16 04:18:10.34	323.70	10.51	
2025-01-16 04:18:10.54	323.66	10.51	
2025-01-16 04:18:10.74	323.62	10.51	
2025-01-16 04:18:10.95	323.57	10.51	
2025-01-16 04:18:11.15	323.53	10.51	
2025-01-16 04:18:11.35	323.49	10.50	
2025-01-16 04:18:11.56	323.45	10.50	
2025-01-16 04:18:11.76	323.40	10.50	
2025-01-16 04:18:11.96	323.36	10.50	
2025-01-16 04:18:12.17	323.32	10.50	
2025-01-16 04:18:12.37	323.28	10.50	
2025-01-16 04:18:12.57	323.24	10.50	
2025-01-16 04:18:12.78	323.19	10.49	
2025-01-16 04:18:12.98	323.15	10.49	
2025-01-16 04:18:13.18	323.11	10.49	
2025-01-16 04:18:13.38	323.07	10.49	
2025-01-16 04:18:13.59	323.02	10.49	
2025-01-16 04:18:13.79	322.98	10.49	
2025-01-16 04:18:13.99	322.94	10.48	
2025-01-16 04:18:14.20	322.90	10.48	
2025-01-16 04:18:14.40	322.86	10.48	
2025-01-16 04:18:14.60	322.82	10.48	
2025-01-16 04:18:14.81	322.77	10.48	
2025-01-16 04:18:15.01	322.73	10.48	
2025-01-16 04:18:15.21	322.69	10.47	
2025-01-16 04:18:15.42	322.65	10.47	
2025-01-16 04:18:15.62	322.60	10.47	
2025-01-16 04:18:15.82	322.56	10.47	
2025-01-16 04:18:16.02	322.52	10.47	
2025-01-16 04:18:16.23	322.48	10.47	
2025-01-16 04:18:16.43	322.44	10.46	
2025-01-16 04:18:16.63	322.39	10.46	
2025-01-16 04:18:16.84	322.35	10.46	
2025-01-16 04:18:17.04	322.31	10.46	
2025-01-16 04:18:17.24	322.27	10.46	
2025-01-16 04:18:17.45	322.23	10.46	
2025-01-16 04:18:17.65	322.18	10.45	
2025-01-16 04:18:17.85	322.14	10.45	
2025-01-16 04:18:18.06	322.10	10.45	
2025-01-16 04:18:18.26	322.06	10.45	
2025-01-16 04:18:18.46	322.02	10.45	
2025-01-16 04:18:18.66	321.97	10.44	
2025-01-16 04:18:18.87	321.93	10.44	
2025-01-16 04:18:19.07	321.89	10.44	
2025-01-16 04:18:19.27	321.85	10.44	
2025-01-16 04:18:19.48	321.81	10.44	
2025-01-16 04:18:19.68	321.76	10.44	
2025-01-16 04:18:19.88	321.72	10.43	
2025-01-16 04:18:20.09	321.68	10.43	
2025-01-16 04:18:20.29	321.64	10.43	
2025-01-16 04:18:20.49	321.60	10.43	
2025-01-16 04:18:20.70	321.55	10.43	
2025-01-16 04:18:20.90	321.51	10.42	
2025-01-16 04:18:21.10	321.47	10.42	
2025-01-16 04:18:21.31	321.43	10.42	
2025-01-16 04:18:21.51	321.39	10.42	
2025-01-16 04:18:21.71	321.35	10.41	
2025-01-16 04:18:21.91	321.30	10.41	
2025-01-16 04:18:22.12	321.26	10.41	
2025-01-16 04:18:22.32	321.22	10.41	
2025-01-16 04:18:22.52	321.18	10.41	
2025-01-16 04:18:22.73	321.13	10.40	
2025-01-16 04:18:22.93	321.09	10.40	
2025-01-16 04:18:23.13	321.05	10.40	
2025-01-16 04:18:23.34	321.01	10.40	
2025-01-16 04:18:23.54	320.97	10.40	
2025-01-16 04:18:23.75	320.92	10.39	
2025-01-16 04:18:23.96	320.88	10.39	
2025-01-16 04:18:24.17	320.84	10.39	
2025-01-16 04:18:24.37	320.80	10.39	
2025-01-16 04:18:24.58	320.75	10.38	
2025-01-16 04:18:24.78	320.71	10.38	
2025-01-16 04:18:24.98	320.67	10.38	
2025-01-16 04:18:25.18	320.63	10.38	
2025-01-16 04:18:25.39	320.59	10.37	
2025-01-16 04:18:25.59	320.55	10.37	
2025-01-16 04:18:25.79	320.50	10.37	
2025-01-16 04:18:26.00	320.46	10.37	
2025-01-16 04:18:26.20	320.42	10.37	
2025-01-16 04:18:26.40	320.38	10.36	
2025-01-16 04:18:26.61	320.34	10.36	
2025-01-16 04:18:26.81	320.30	10.36	
2025-01-16 04:18:27.01	320.25	10.36	
2025-01-16 04:18:27.22	320.21	10.35	
2025-01-16 04:18:27.42	320.17	10.35	
2025-01-16 04:18:27.62	320.13	10.35	
2025-01-16 04:18:27.82	320.09	10.35	
2025-01-16 04:18:28.03	320.04	10.34	
2025-01-16 04:18:28.23	320.00	10.34	
2025-01-16 04:18:28.43	319.96	10.34	
2025-01-16 04:18:28.64	319.92	10.34	
2025-01-16 04:18:28.84	319.88	10.33	
2025-01-16 04:18:29.04	319.84	10.33	
2025-01-16 04:18:29.25	319.79	10.33	
2025-01-16 04:18:29.45	319.75	10.32	
2025-01-16 04:18:29.65	319.71	10.32	
2025-01-16 04:18:29.86	319.67	10.32	
2025-01-16 04:18:30.06	319.63	10.32	
2025-01-16 04:18:30.26	319.59	10.31	
2025-01-16 04:18:30.46	319.55	10.31	
2025-01-16 04:18:30.67	319.50	10.31	
2025-01-16 04:18:30.87	319.46	10.31	
2025-01-16 04:18:31.07	319.42	10.30	
2025-01-16 04:18:31.28	319.38	10.30	
2025-01-16 04:18:31.49	319.34	10.30	
2025-01-16 04:18:31.69	319.30	10.30	
2025-01-16 04:18:31.90	319.25	10.29	
2025-01-16 04:18:32.10	319.21	10.29	
2025-01-16 04:18:32.30	319.17	10.29	
2025-01-16 04:18:32.51	319.13	10.28	
2025-01-16 04:18:32.71	319.09	10.28	
2025-01-16 04:18:32.91	319.05	10.28	
2025-01-16 04:18:33.12	319.00	10.28	
2025-01-16 04:18:33.32	318.96	10.27	
2025-01-16 04:18:33.52	318.92	10.27	
2025-01-16 04:18:33.73	318.88	10.27	
2025-01-16 04:18:33.93	318.84	10.26	
2025-01-16 04:18:34.13	318.80	10.26	
2025-01-16 04:18:34.33	318.76	10.26	
2025-01-16 04:18:34.54	318.71	10.26	
2025-01-16 04:18:34.74	318.67	10.25	
2025-01-16 04:18:34.94	318.63	10.25	
2025-01-16 04:18:35.15	318.59	10.25	
2025-01-16 04:18:35.35	318.55	10.24	
2025-01-16 04:18:35.55	318.51	10.24	
2025-01-16 04:18:35.76	318.46	10.24	
2025-01-16 04:18:35.96	318.42	10.23	
2025-01-16 04:18:36.16	318.38	10.23	
2025-01-16 04:18:36.37	318.34	10.23	
2025-01-16 04:18:36.57	318.30	10.23	
2025-01-16 04:18:36.77	318.26	10.22	
2025-01-16 04:18:36.98	318.22	10.22	
2025-01-16 04:18:37.18	318.18	10.22	
2025-01-16 04:18:37.38	318.14	10.21	
2025-01-16 04:18:37.58	318.09	10.21	
2025-01-16 04:18:37.79	318.05	10.21	
2025-01-16 04:18:37.99	318.01	10.20	
2025-01-16 04:18:38.19	317.97	10.20	
2025-01-16 04:18:38.40	317.93	10.20	
2025-01-16 04:18:38.60	317.89	10.19	
2025-01-16 04:18:38.80	317.85	10.19	
2025-01-16 04:18:39.01	317.80	10.19	
2025-01-16 04:18:39.21	317.76	10.18	
2025-01-16 04:18:39.41	317.72	10.18	
2025-01-16 04:18:39.62	317.68	10.18	
2025-01-16 04:18:39.82	317.64	10.17	
2025-01-16 04:18:40.02	317.60	10.17	
2025-01-16 04:18:40.22	317.56	10.17	
2025-01-16 04:18:40.43	317.52	10.16	
2025-01-16 04:18:40.63	317.48	10.16	
2025-01-16 04:18:40.83	317.44	10.16	
2025-01-16 04:18:41.04	317.39	10.15	
2025-01-16 04:18:41.24	317.35	10.15	
2025-01-16 04:18:41.44	317.31	10.15	
2025-01-16 04:18:41.65	317.27	10.14	
2025-01-16 04:18:41.85	317.23	10.14	
2025-01-16 04:18:42.05	317.19	10.14	
2025-01-16 04:18:42.26	317.15	10.13	
2025-01-16 04:18:42.46	317.11	10.13	
2025-01-16 04:18:42.66	317.07	10.13	
2025-01-16 04:18:42.86	317.03	10.12	
2025-01-16 04:18:43.07	316.98	10.12	
2025-01-16 04:18:43.27	316.94	10.12	
2025-01-16 04:18:43.47	316.90	10.11	
2025-01-16 04:18:43.68	316.86	10.11	
2025-01-16 04:18:43.88	316.82	10.11	
2025-01-16 04:18:44.08	316.78	10.10	
2025-01-16 04:18:44.29	316.74	10.10	
2025-01-16 04:18:44.49	316.70	10.10	
2025-01-16 04:18:44.69	316.66	10.09	
2025-01-16 04:18:44.90	316.61	10.09	
2025-01-16 04:18:45.10	316.57	10.08	
2025-01-16 04:18:45.30	316.53	10.08	
2025-01-16 04:18:45.50	316.49	10.08	
2025-01-16 04:18:45.71	316.45	10.07	
2025-01-16 04:18:45.91	316.41	10.07	
2025-01-16 04:18:46.11	316.37	10.07	
2025-01-16 04:18:46.32	316.33	10.06	
2025-01-16 04:18:46.52	316.29	10.06	
2025-01-16 04:18:46.72	316.25	10.06	
2025-01-16 04:18:46.93	316.21	10.05	
2025-01-16 04:18:47.13	316.17	10.05	
2025-01-16 04:18:47.33	316.13	10.04	
2025-01-16 04:18:47.54	316.08	10.04	
2025-01-16 04:18:47.74	316.04	10.04	
2025-01-16 04:18:47.94	316.00	10.03	
2025-01-16 04:18:48.14	315.96	10.03	
2025-01-16 04:18:48.35	315.92	10.03	
2025-01-16 04:18:48.55	315.88	10.02	
2025-01-16 04:18:48.75	315.84	10.02	
2025-01-16 04:18:48.96	315.80	10.01	
2025-01-16 04:18:49.16	315.76	10.01	
2025-01-16 04:18:49.36	315.72	10.01	
2025-01-16 04:18:49.57	315.68	10.00	
2025-01-16 04:18:49.77	315.64	10.00	
2025-01-16 04:18:49.97	315.60	9.99	
2025-01-16 04:18:50.18	315.55	9.99	
2025-01-16 04:18:50.38	315.51	9.99	
2025-01-16 04:18:50.58	315.47	9.98	
2025-01-16 04:18:50.78	315.43	9.98	
2025-01-16 04:18:50.99	315.39	9.97	
2025-01-16 04:18:51.19	315.35	9.97	
2025-01-16 04:18:51.39	315.31	9.97	
2025-01-16 04:18:51.60	315.27	9.96	
2025-01-16 04:18:51.80	315.23	9.96	
2025-01-16 04:18:52.00	315.19	9.95	
2025-01-16 04:18:52.21	315.15	9.95	
2025-01-16 04:18:52.41	315.11	9.95	
2025-01-16 04:18:52.61	315.07	9.94	
2025-01-16 04:18:52.82	315.03	9.94	
2025-01-16 04:18:53.02	314.99	9.93	
2025-01-16 04:18:53.22	314.95	9.93	
2025-01-16 04:18:53.42	314.91	9.93	
2025-01-16 04:18:53.63	314.87	9.92	
2025-01-16 04:18:53.83	314.83	9.92	
2025-01-16 04:18:54.03	314.79	9.91	
2025-01-16 04:18:54.24	314.75	9.91	
2025-01-16 04:18:54.44	314.71	9.91	
2025-01-16 04:18:54.64	314.67	9.90	
2025-01-16 04:18:54.85	314.62	9.90	
2025-01-16 04:18:55.05	314.58	9.89	
2025-01-16 04:18:55.25	314.54	9.89	
2025-01-16 04:18:55.46	314.50	9.88	
2025-01-16 04:18:55.66	314.46	9.88	
2025-01-16 04:18:55.86	314.42	9.88	
2025-01-16 04:18:56.06	314.38	9.87	
2025-01-16 04:18:56.27	314.34	9.87	
2025-01-16 04:18:56.47	314.30	9.86	
2025-01-16 04:18:56.67	314.26	9.86	
2025-01-16 04:18:56.88	314.22	9.85	
2025-01-16 04:18:57.08	314.18	9.85	
2025-01-16 04:18:57.28	314.14	9.85	
2025-01-16 04:18:57.49	314.10	9.84	
2025-01-16 04:18:57.69	314.06	9.84	
2025-01-16 04:18:57.89	314.02	9.83	
2025-01-16 04:18:58.10	313.98	9.83	
2025-01-16 04:18:58.30	313.94	9.82	
2025-01-16 04:18:58.50	313.90	9.82	
2025-01-16 04:18:58.70	313.86	9.81	
2025-01-16 04:18:58.91	313.82	9.81	
2025-01-16 04:18:59.11	313.78	9.81	
2025-01-16 04:18:59.31	313.74	9.80	
2025-01-16 04:18:59.52	313.70	9.80	
2025-01-16 04:18:59.72	313.66	9.79	
2025-01-16 04:18:59.92	313.62	9.79	
2025-01-16 04:19:00.13	313.58	9.78	
2025-01-16 04:19:00.33	313.54	9.78	
2025-01-16 04:19:00.53	313.50	9.77	
2025-01-16 04:19:00.74	313.46	9.77	
2025-01-16 04:19:00.94	313.42	9.77	
2025-01-16 04:19:01.14	313.38	9.76	
2025-01-16 04:19:01.35	313.34	9.76	
2025-01-16 04:19:01.55	313.30	9.75	
2025-01-16 04:19:01.75	313.26	9.75	
2025-01-16 04:19:01.95	313.22	9.74	
2025-01-16 04:19:02.16	313.18	9.74	
2025-01-16 04:19:02.36	313.14	9.73	
2025-01-16 04:19:02.56	313.10	9.73	
2025-01-16 04:19:02.77	313.06	9.72	
2025-01-16 04:19:02.97	313.02	9.72	
2025-01-16 04:19:03.17	312.98	9.71	
2025-01-16 04:19:03.38	312.94	9.71	
2025-01-16 04:19:03.58	312.90	9.70	
2025-01-16 04:19:03.78	312.86	9.70	
2025-01-16 04:19:03.99	312.82	9.70	
2025-01-16 04:19:04.19	312.78	9.69	
2025-01-16 04:19:04.39	312.74	9.69	
2025-01-16 04:19:04.59	312.71	9.68	
2025-01-16 04:19:04.80	312.66	9.68	
2025-01-16 04:19:05.00	312.63	9.67	
2025-01-16 04:19:05.20	312.59	9.67	
2025-01-16 04:19:05.41	312.55	9.66	
2025-01-16 04:19:05.61	312.51	9.66	
2025-01-16 04:19:05.81	312.47	9.65	
2025-01-16 04:19:06.02	312.43	9.65	
2025-01-16 04:19:06.22	312.39	9.64	
2025-01-16 04:19:06.42	312.35	9.64	
2025-01-16 04:19:06.63	312.31	9.63	
2025-01-16 04:19:06.83	312.27	9.63	
2025-01-16 04:19:07.03	312.23	9.62	
2025-01-16 04:19:07.23	312.19	9.62	
2025-01-16 04:19:07.44	312.15	9.61	
2025-01-16 04:19:07.64	312.11	9.61	
2025-01-16 04:19:07.84	312.07	9.60	
2025-01-16 04:19:08.05	312.03	9.60	
2025-01-16 04:19:08.25	311.99	9.59	
2025-01-16 04:19:08.45	311.95	9.59	
2025-01-16 04:19:08.66	311.91	9.58	
2025-01-16 04:19:08.86	311.87	9.58	
2025-01-16 04:19:09.06	311.84	9.57	
2025-01-16 04:19:09.27	311.79	9.57	
2025-01-16 04:19:09.47	311.76	9.56	
2025-01-16 04:19:09.67	311.72	9.56	
2025-01-16 04:19:09.87	311.68	9.55	
2025-01-16 04:19:10.08	311.64	9.55	
2025-01-16 04:19:10.28	311.60	9.54	
2025-01-16 04:19:10.48	311.56	9.54	
2025-01-16 04:19:10.69	311.52	9.53	
2025-01-16 04:19:10.89	311.48	9.53	
2025-01-16 04:19:11.09	311.44	9.52	
2025-01-16 04:19:11.30	311.40	9.52	
2025-01-16 04:19:11.50	311.36	9.51	
2025-01-16 04:19:11.70	311.32	9.51	
2025-01-16 04:19:11.91	311.28	9.50	
2025-01-16 04:19:12.11	311.25	9.50	
2025-01-16 04:19:12.31	311.21	9.49	
2025-01-16 04:19:12.51	311.17	9.49	
2025-01-16 04:19:12.72	311.13	9.48	
2025-01-16 04:19:12.92	311.09	9.48	
2025-01-16 04:19:13.12	311.05	9.47	
2025-01-16 04:19:13.33	311.01	9.47	
2025-01-16 04:19:13.53	310.97	9.46	
2025-01-16 04:19:13.73	310.93	9.46	
2025-01-16 04:19:13.94	310.89	9.45	
2025-01-16 04:19:14.14	310.86	9.44	
2025-01-16 04:19:14.34	310.82	9.44	
2025-01-16 04:19:14.55	310.78	9.43	
2025-01-16 04:19:14.75	310.74	9.43	
2025-01-16 04:19:14.95	310.70	9.42	
2025-01-16 04:19:15.15	310.66	9.42	
2025-01-16 04:19:15.36	310.62	9.41	
2025-01-16 04:19:15.56	310.58	9.41	
2025-01-16 04:19:15.76	310.54	9.40	
2025-01-16 04:19:15.97	310.50	9.40	
2025-01-16 04:19:16.17	310.47	9.39	
2025-01-16 04:19:16.37	310.43	9.39	
2025-01-16 04:19:16.58	310.39	9.38	
2025-01-16 04:19:16.78	310.35	9.38	
2025-01-16 04:19:16.98	310.31	9.37	
2025-01-16 04:19:17.19	310.27	9.36	
2025-01-16 04:19:17.39	310.23	9.36	
2025-01-16 04:19:17.59	310.20	9.35	
2025-01-16 04:19:17.79	310.16	9.35	
2025-01-16 04:19:18.00	310.12	9.34	
2025-01-16 04:19:18.20	310.08	9.34	
2025-01-16 04:19:18.40	310.04	9.33	
2025-01-16 04:19:18.61	310.00	9.33	
2025-01-16 04:19:18.81	309.96	9.32	
2025-01-16 04:19:19.01	309.92	9.32	
2025-01-16 04:19:19.22	309.88	9.31	
2025-01-16 04:19:19.42	309.85	9.30	
2025-01-16 04:19:19.62	309.81	9.30	
2025-01-16 04:19:19.83	309.77	9.29	
2025-01-16 04:19:20.03	309.73	9.29	
2025-01-16 04:19:20.23	309.69	9.28	
2025-01-16 04:19:20.43	309.66	9.28	
2025-01-16 04:19:20.64	309.62	9.27	
2025-01-16 04:19:20.84	309.58	9.26	
2025-01-16 04:19:21.04	309.54	9.26	
2025-01-16 04:19:21.25	309.50	9.25	
2025-01-16 04:19:21.45	309.46	9.25	
2025-01-16 04:19:21.65	309.42	9.24	
2025-01-16 04:19:21.86	309.38	9.24	
2025-01-16 04:19:22.06	309.35	9.23	
2025-01-16 04:19:22.26	309.31	9.23	
2025-01-16 04:19:22.47	309.27	9.22	
2025-01-16 04:19:22.67	309.23	9.21	
2025-01-16 04:19:22.87	309.19	9.21	
2025-01-16 04:19:23.08	309.15	9.20	
2025-01-16 04:19:23.28	309.12	9.20	
2025-01-16 04:19:23.48	309.08	9.19	
2025-01-16 04:19:23.68	309.04	9.19	
2025-01-16 04:19:23.89	309.00	9.18	
2025-01-16 04:19:24.09	308.96	9.17	
2025-01-16 04:19:24.29	308.93	9.17	
2025-01-16 04:19:24.50	308.89	9.16	
2025-01-16 04:19:24.70	308.85	9.16	
2025-01-16 04:19:24.90	308.81	9.15	
2025-01-16 04:19:25.11	308.77	9.14	
2025-01-16 04:19:25.31	308.73	9.14	
2025-01-16 04:19:25.51	308.70	9.13	
2025-01-16 04:19:25.72	308.66	9.13	
2025-01-16 04:19:25.92	308.62	9.12	
2025-01-16 04:19:26.12	308.58	9.12	
2025-01-16 04:19:26.32	308.55	9.11	
2025-01-16 04:19:26.53	308.51	9.10	
2025-01-16 04:19:26.73	308.47	9.10	
2025-01-16 04:19:26.93	308.43	9.09	
2025-01-16 04:19:27.14	308.39	9.09	
2025-01-16 04:19:27.34	308.35	9.08	
2025-01-16 04:19:27.54	308.32	9.07	
2025-01-16 04:19:27.75	308.28	9.07	
2025-01-16 04:19:27.95	308.24	9.06	
2025-01-16 04:19:28.15	308.20	9.06	
2025-01-16 04:19:28.36	308.16	9.05	
2025-01-16 04:19:28.56	308.13	9.04	
2025-01-16 04:19:28.76	308.09	9.04	
2025-01-16 04:19:28.96	308.05	9.03	
2025-01-16 04:19:29.17	308.01	9.03	
2025-01-16 04:19:29.37	307.98	9.02	
2025-01-16 04:19:29.57	307.94	9.01	
2025-01-16 04:19:29.78	307.90	9.01	
2025-01-16 04:19:29.98	307.86	9.00	
2025-01-16 04:19:30.18	307.83	9.00	
2025-01-16 04:19:30.39	307.79	8.99	
2025-01-16 04:19:30.59	307.75	8.98	
2025-01-16 04:19:30.79	307.71	8.98	
2025-01-16 04:19:31.00	307.67	8.97	
2025-01-16 04:19:31.20	307.64	8.96	
2025-01-16 04:19:31.40	307.60	8.96	
2025-01-16 04:19:31.60	307.56	8.95	
2025-01-16 04:19:31.81	307.52	8.95	
2025-01-16 04:19:32.01	307.49	8.94	
2025-01-16 04:19:32.21	307.45	8.93	
2025-01-16 04:19:32.42	307.41	8.93	
2025-01-16 04:19:32.62	307.37	8.92	
2025-01-16 04:19:32.82	307.34	8.92	
2025-01-16 04:19:33.03	307.30	8.91	
2025-01-16 04:19:33.23	307.26	8.90	
2025-01-16 04:19:33.43	307.22	8.90	
2025-01-16 04:19:33.64	307.19	8.89	
2025-01-16 04:19:33.84	307.15	8.88	
2025-01-16 04:19:34.04	307.11	8.88	
2025-01-16 04:19:34.24	307.08	8.87	
2025-01-16 04:19:34.45	307.04	8.87	
2025-01-16 04:19:34.65	307.00	8.86	
2025-01-16 04:19:34.85	306.96	8.85	
2025-01-16 04:19:35.06	306.92	8.85	
2025-01-16 04:19:35.26	306.89	8.84	
2025-01-16 04:19:35.46	306.85	8.83	
2025-01-16 04:19:35.67	306.81	8.83	
2025-01-16 04:19:35.87	306.78	8.82	
2025-01-16 04:19:36.07	306.74	8.82	
2025-01-16 04:19:36.28	306.70	8.81	
2025-01-16 04:19:36.48	306.66	8.80	
2025-01-16 04:19:36.68	306.63	8.80	
2025-01-16 04:19:36.88	306.59	8.79	
2025-01-16 04:19:37.09	306.55	8.78	
2025-01-16 04:19:37.29	306.52	8.78	
2025-01-16 04:19:37.49	306.48	8.77	
2025-01-16 04:19:37.70	306.44	8.76	
2025-01-16 04:19:37.90	306.40	8.76	
2025-01-16 04:19:38.10	306.37	8.75	
2025-01-16 04:19:38.31	306.33	8.74	
2025-01-16 04:19:38.51	306.29	8.74	
2025-01-16 04:19:38.71	306.26	8.73	
2025-01-16 04:19:38.92	306.22	8.73	
2025-01-16 04:19:39.12	306.18	8.72	
2025-01-16 04:19:39.32	306.15	8.71	
2025-01-16 04:19:39.52	306.11	8.71	
2025-01-16 04:19:39.73	306.07	8.70	
2025-01-16 04:19:39.93	306.04	8.69	
2025-01-16 04:19:40.13	306.00	8.69	
2025-01-16 04:19:40.34	305.96	8.68	
2025-01-16 04:19:40.54	305.92	8.67	
2025-01-16 04:19:40.74	305.89	8.67	
2025-01-16 04:19:40.95	305.85	8.66	
2025-01-16 04:19:41.15	305.81	8.65	
2025-01-16 04:19:41.35	305.78	8.65	
2025-01-16 04:19:41.56	305.74	8.64	
2025-01-16 04:19:41.76	305.70	8.63	
2025-01-16 04:19:41.96	305.67	8.63	
2025-01-16 04:19:42.16	305.63	8.62	
2025-01-16 04:19:42.37	305.59	8.61	
2025-01-16 04:19:42.57	305.56	8.61	
2025-01-16 04:19:42.77	305.52	8.60	
2025-01-16 04:19:42.98	305.48	8.59	
2025-01-16 04:19:43.18	305.45	8.59	
2025-01-16 04:19:43.38	305.41	8.58	
2025-01-16 04:19:43.59	305.37	8.57	
2025-01-16 04:19:43.79	305.34	8.57	
2025-01-16 04:19:43.99	305.30	8.56	
2025-01-16 04:19:44.20	305.26	8.55	
