passes_logs/2025/01/16/SPB_Silybum_02/SPB_Silybum_02__20250116_063201_SUOMI_NPP_rec.log

#Pass ID: 20250116_063201_SUOMI NPP
#Satellite: SUOMI NPP
#Configuration: NPP
#Start time: 2025-01-16 06:32:00

#Version: 2.0.20230423
#Station: SPB_Silybum_02
#Location: 30.233357 lon 59.946436 lat
#TLE: 1 37849U 11061A   25015.83617422  .00000154  00000+0  93894-4 0  9992
#TLE: 2 37849  98.7447 316.8141 0001652  39.8884 320.2413 14.19538521685036

#Time	Az	El	Level	Level2	SNR	BER	Gain	Gain2
2025-01-16 06:32:03.01	53.04	4.08	
2025-01-16 06:32:03.21	53.01	4.08	
2025-01-16 06:32:03.41	52.99	4.09	
2025-01-16 06:32:03.62	52.96	4.10	
2025-01-16 06:32:03.82	52.94	4.11	
2025-01-16 06:32:04.02	52.91	4.12	
2025-01-16 06:32:04.23	52.89	4.12	
2025-01-16 06:32:04.43	52.86	4.13	
2025-01-16 06:32:04.63	52.84	4.14	
2025-01-16 06:32:04.84	52.81	4.15	
2025-01-16 06:32:05.04	52.79	4.15	
2025-01-16 06:32:05.24	52.77	4.16	
2025-01-16 06:32:05.44	52.74	4.17	
2025-01-16 06:32:05.65	52.72	4.18	
2025-01-16 06:32:05.85	52.69	4.19	
2025-01-16 06:32:06.05	52.67	4.19	
2025-01-16 06:32:06.26	52.64	4.20	
2025-01-16 06:32:06.46	52.62	4.21	
2025-01-16 06:32:06.66	52.59	4.22	
2025-01-16 06:32:06.87	52.57	4.23	
2025-01-16 06:32:07.07	52.54	4.23	
2025-01-16 06:32:07.27	52.52	4.24	
2025-01-16 06:32:07.48	52.49	4.25	
2025-01-16 06:32:07.68	52.47	4.26	
2025-01-16 06:32:07.88	52.44	4.26	
2025-01-16 06:32:08.08	52.42	4.27	
2025-01-16 06:32:08.29	52.39	4.28	
2025-01-16 06:32:08.49	52.37	4.29	
2025-01-16 06:32:08.69	52.34	4.30	
2025-01-16 06:32:08.90	52.32	4.30	
2025-01-16 06:32:09.10	52.29	4.31	
2025-01-16 06:32:09.30	52.27	4.32	
2025-01-16 06:32:09.51	52.24	4.33	
2025-01-16 06:32:09.71	52.22	4.34	
2025-01-16 06:32:09.91	52.19	4.34	
2025-01-16 06:32:10.12	52.17	4.35	
2025-01-16 06:32:10.32	52.14	4.36	
2025-01-16 06:32:10.52	52.12	4.37	
2025-01-16 06:32:10.72	52.09	4.37	
2025-01-16 06:32:10.93	52.07	4.38	
2025-01-16 06:32:11.13	52.04	4.39	
2025-01-16 06:32:11.33	52.02	4.40	
2025-01-16 06:32:11.54	51.99	4.41	
2025-01-16 06:32:11.74	51.97	4.41	
2025-01-16 06:32:11.94	51.94	4.42	
2025-01-16 06:32:12.15	51.92	4.43	
2025-01-16 06:32:12.35	51.89	4.44	
2025-01-16 06:32:12.55	51.87	4.44	
2025-01-16 06:32:12.76	51.84	4.45	
2025-01-16 06:32:12.96	51.82	4.46	
2025-01-16 06:32:13.16	51.79	4.47	
2025-01-16 06:32:13.36	51.77	4.48	
2025-01-16 06:32:13.57	51.74	4.48	
2025-01-16 06:32:13.77	51.72	4.49	
2025-01-16 06:32:13.97	51.69	4.50	
2025-01-16 06:32:14.18	51.67	4.51	
2025-01-16 06:32:14.38	51.64	4.51	
2025-01-16 06:32:14.58	51.62	4.52	
2025-01-16 06:32:14.79	51.59	4.53	
2025-01-16 06:32:14.99	51.56	4.54	
2025-01-16 06:32:15.19	51.54	4.55	
2025-01-16 06:32:15.40	51.51	4.55	
2025-01-16 06:32:15.60	51.49	4.56	
2025-01-16 06:32:15.80	51.46	4.57	
2025-01-16 06:32:16.00	51.44	4.58	
2025-01-16 06:32:16.21	51.41	4.58	
2025-01-16 06:32:16.41	51.39	4.59	
2025-01-16 06:32:16.61	51.36	4.60	
2025-01-16 06:32:16.82	51.34	4.61	
2025-01-16 06:32:17.02	51.31	4.62	
2025-01-16 06:32:17.22	51.29	4.62	
2025-01-16 06:32:17.43	51.26	4.63	
2025-01-16 06:32:17.63	51.23	4.64	
2025-01-16 06:32:17.83	51.21	4.65	
2025-01-16 06:32:18.04	51.18	4.65	
2025-01-16 06:32:18.24	51.16	4.66	
2025-01-16 06:32:18.44	51.13	4.67	
2025-01-16 06:32:18.64	51.11	4.68	
2025-01-16 06:32:18.85	51.08	4.68	
2025-01-16 06:32:19.05	51.05	4.69	
2025-01-16 06:32:19.25	51.03	4.70	
2025-01-16 06:32:19.46	51.00	4.71	
2025-01-16 06:32:19.66	50.98	4.72	
2025-01-16 06:32:19.86	50.95	4.72	
2025-01-16 06:32:20.07	50.93	4.73	
2025-01-16 06:32:20.27	50.90	4.74	
2025-01-16 06:32:20.47	50.88	4.75	
2025-01-16 06:32:20.68	50.85	4.75	
2025-01-16 06:32:20.88	50.82	4.76	
2025-01-16 06:32:21.08	50.80	4.77	
2025-01-16 06:32:21.28	50.77	4.78	
2025-01-16 06:32:21.49	50.75	4.78	
2025-01-16 06:32:21.69	50.72	4.79	
2025-01-16 06:32:21.89	50.70	4.80	
2025-01-16 06:32:22.10	50.67	4.81	
2025-01-16 06:32:22.30	50.64	4.81	
2025-01-16 06:32:22.50	50.62	4.82	
2025-01-16 06:32:22.71	50.59	4.83	
2025-01-16 06:32:22.91	50.57	4.84	
2025-01-16 06:32:23.11	50.54	4.84	
2025-01-16 06:32:23.32	50.51	4.85	
2025-01-16 06:32:23.52	50.49	4.86	
2025-01-16 06:32:23.72	50.46	4.87	
2025-01-16 06:32:23.92	50.44	4.88	
2025-01-16 06:32:24.13	50.41	4.88	
2025-01-16 06:32:24.33	50.38	4.89	
2025-01-16 06:32:24.53	50.36	4.90	
2025-01-16 06:32:24.74	50.33	4.91	
2025-01-16 06:32:24.94	50.31	4.91	
2025-01-16 06:32:25.14	50.28	4.92	
2025-01-16 06:32:25.35	50.25	4.93	
2025-01-16 06:32:25.55	50.23	4.94	
2025-01-16 06:32:25.75	50.20	4.94	
2025-01-16 06:32:25.96	50.17	4.95	
2025-01-16 06:32:26.16	50.15	4.96	
2025-01-16 06:32:26.36	50.12	4.97	
2025-01-16 06:32:26.56	50.10	4.97	
2025-01-16 06:32:26.77	50.07	4.98	
2025-01-16 06:32:26.97	50.04	4.99	
2025-01-16 06:32:27.17	50.02	5.00	
2025-01-16 06:32:27.38	49.99	5.00	
2025-01-16 06:32:27.58	49.97	5.01	
2025-01-16 06:32:27.78	49.94	5.02	
2025-01-16 06:32:27.99	49.91	5.03	
2025-01-16 06:32:28.19	49.89	5.03	
2025-01-16 06:32:28.39	49.86	5.04	
2025-01-16 06:32:28.60	49.83	5.05	
2025-01-16 06:32:28.80	49.81	5.06	
2025-01-16 06:32:29.00	49.78	5.06	
2025-01-16 06:32:29.20	49.76	5.07	
2025-01-16 06:32:29.41	49.73	5.08	
2025-01-16 06:32:29.61	49.70	5.09	
2025-01-16 06:32:29.81	49.68	5.09	
2025-01-16 06:32:30.02	49.65	5.10	
2025-01-16 06:32:30.22	49.62	5.11	
2025-01-16 06:32:30.42	49.60	5.12	
2025-01-16 06:32:30.63	49.57	5.12	
2025-01-16 06:32:30.83	49.55	5.13	
2025-01-16 06:32:31.03	49.52	5.14	
2025-01-16 06:32:31.24	49.49	5.15	
2025-01-16 06:32:31.44	49.47	5.15	
2025-01-16 06:32:31.64	49.44	5.16	
2025-01-16 06:32:31.84	49.41	5.17	
2025-01-16 06:32:32.05	49.39	5.18	
2025-01-16 06:32:32.25	49.36	5.18	
2025-01-16 06:32:32.45	49.33	5.19	
2025-01-16 06:32:32.66	49.31	5.20	
2025-01-16 06:32:32.86	49.28	5.21	
2025-01-16 06:32:33.06	49.25	5.21	
2025-01-16 06:32:33.27	49.23	5.22	
2025-01-16 06:32:33.47	49.20	5.23	
2025-01-16 06:32:33.67	49.17	5.24	
2025-01-16 06:32:33.88	49.15	5.24	
2025-01-16 06:32:34.08	49.12	5.25	
2025-01-16 06:32:34.28	49.09	5.26	
2025-01-16 06:32:34.49	49.07	5.27	
2025-01-16 06:32:34.69	49.04	5.27	
2025-01-16 06:32:34.89	49.01	5.28	
2025-01-16 06:32:35.09	48.99	5.29	
2025-01-16 06:32:35.30	48.96	5.30	
2025-01-16 06:32:35.50	48.93	5.30	
2025-01-16 06:32:35.70	48.91	5.31	
2025-01-16 06:32:35.91	48.88	5.32	
2025-01-16 06:32:36.11	48.85	5.33	
2025-01-16 06:32:36.31	48.83	5.33	
2025-01-16 06:32:36.52	48.80	5.34	
2025-01-16 06:32:36.72	48.77	5.35	
2025-01-16 06:32:36.92	48.75	5.36	
2025-01-16 06:32:37.13	48.72	5.36	
2025-01-16 06:32:37.33	48.69	5.37	
2025-01-16 06:32:37.53	48.67	5.38	
2025-01-16 06:32:37.73	48.64	5.38	
2025-01-16 06:32:37.94	48.61	5.39	
2025-01-16 06:32:38.15	48.58	5.40	
2025-01-16 06:32:38.35	48.56	5.41	
2025-01-16 06:32:38.56	48.53	5.41	
2025-01-16 06:32:38.76	48.50	5.42	
2025-01-16 06:32:38.96	48.48	5.43	
2025-01-16 06:32:39.16	48.45	5.44	
2025-01-16 06:32:39.37	48.42	5.44	
2025-01-16 06:32:39.57	48.39	5.45	
2025-01-16 06:32:39.77	48.37	5.46	
2025-01-16 06:32:39.98	48.34	5.47	
2025-01-16 06:32:40.18	48.31	5.47	
2025-01-16 06:32:40.38	48.29	5.48	
2025-01-16 06:32:40.59	48.26	5.49	
2025-01-16 06:32:40.79	48.23	5.50	
2025-01-16 06:32:40.99	48.21	5.50	
2025-01-16 06:32:41.20	48.18	5.51	
2025-01-16 06:32:41.40	48.15	5.52	
2025-01-16 06:32:41.60	48.12	5.52	
2025-01-16 06:32:41.81	48.10	5.53	
2025-01-16 06:32:42.01	48.07	5.54	
2025-01-16 06:32:42.21	48.04	5.55	
2025-01-16 06:32:42.41	48.02	5.55	
2025-01-16 06:32:42.62	47.99	5.56	
2025-01-16 06:32:42.82	47.96	5.57	
2025-01-16 06:32:43.02	47.93	5.58	
2025-01-16 06:32:43.23	47.91	5.58	
2025-01-16 06:32:43.43	47.88	5.59	
2025-01-16 06:32:43.63	47.85	5.60	
2025-01-16 06:32:43.84	47.82	5.60	
2025-01-16 06:32:44.04	47.80	5.61	
2025-01-16 06:32:44.24	47.77	5.62	
2025-01-16 06:32:44.45	47.74	5.63	
2025-01-16 06:32:44.65	47.71	5.63	
2025-01-16 06:32:44.85	47.69	5.64	
2025-01-16 06:32:45.05	47.66	5.65	
2025-01-16 06:32:45.26	47.63	5.66	
2025-01-16 06:32:45.46	47.61	5.66	
2025-01-16 06:32:45.66	47.58	5.67	
2025-01-16 06:32:45.87	47.55	5.68	
2025-01-16 06:32:46.07	47.52	5.68	
2025-01-16 06:32:46.27	47.50	5.69	
2025-01-16 06:32:46.48	47.47	5.70	
2025-01-16 06:32:46.68	47.44	5.71	
2025-01-16 06:32:46.88	47.41	5.71	
2025-01-16 06:32:47.09	47.38	5.72	
2025-01-16 06:32:47.29	47.36	5.73	
2025-01-16 06:32:47.49	47.33	5.73	
2025-01-16 06:32:47.69	47.30	5.74	
2025-01-16 06:32:47.90	47.27	5.75	
2025-01-16 06:32:48.10	47.25	5.76	
2025-01-16 06:32:48.30	47.22	5.76	
2025-01-16 06:32:48.51	47.19	5.77	
2025-01-16 06:32:48.71	47.16	5.78	
2025-01-16 06:32:48.91	47.14	5.78	
2025-01-16 06:32:49.12	47.11	5.79	
2025-01-16 06:32:49.32	47.08	5.80	
2025-01-16 06:32:49.52	47.05	5.81	
2025-01-16 06:32:49.72	47.03	5.81	
2025-01-16 06:32:49.93	47.00	5.82	
2025-01-16 06:32:50.13	46.97	5.83	
2025-01-16 06:32:50.33	46.94	5.83	
2025-01-16 06:32:50.54	46.92	5.84	
2025-01-16 06:32:50.74	46.89	5.85	
2025-01-16 06:32:50.94	46.86	5.86	
2025-01-16 06:32:51.15	46.83	5.86	
2025-01-16 06:32:51.35	46.80	5.87	
2025-01-16 06:32:51.55	46.78	5.88	
2025-01-16 06:32:51.76	46.75	5.88	
2025-01-16 06:32:51.96	46.72	5.89	
2025-01-16 06:32:52.16	46.69	5.90	
2025-01-16 06:32:52.36	46.67	5.91	
2025-01-16 06:32:52.57	46.64	5.91	
2025-01-16 06:32:52.77	46.61	5.92	
2025-01-16 06:32:52.97	46.58	5.93	
2025-01-16 06:32:53.18	46.55	5.93	
2025-01-16 06:32:53.38	46.53	5.94	
2025-01-16 06:32:53.58	46.50	5.95	
2025-01-16 06:32:53.79	46.47	5.95	
2025-01-16 06:32:53.99	46.44	5.96	
2025-01-16 06:32:54.19	46.41	5.97	
2025-01-16 06:32:54.40	46.38	5.98	
2025-01-16 06:32:54.60	46.36	5.98	
2025-01-16 06:32:54.80	46.33	5.99	
2025-01-16 06:32:55.00	46.30	6.00	
2025-01-16 06:32:55.21	46.27	6.00	
2025-01-16 06:32:55.41	46.25	6.01	
2025-01-16 06:32:55.61	46.22	6.02	
2025-01-16 06:32:55.82	46.19	6.02	
2025-01-16 06:32:56.02	46.16	6.03	
2025-01-16 06:32:56.22	46.13	6.04	
2025-01-16 06:32:56.43	46.10	6.05	
2025-01-16 06:32:56.63	46.08	6.05	
2025-01-16 06:32:56.83	46.05	6.06	
2025-01-16 06:32:57.04	46.02	6.07	
2025-01-16 06:32:57.24	45.99	6.07	
2025-01-16 06:32:57.44	45.96	6.08	
2025-01-16 06:32:57.64	45.94	6.09	
2025-01-16 06:32:57.85	45.91	6.09	
2025-01-16 06:32:58.05	45.88	6.10	
2025-01-16 06:32:58.25	45.85	6.11	
2025-01-16 06:32:58.46	45.82	6.12	
2025-01-16 06:32:58.66	45.79	6.12	
2025-01-16 06:32:58.86	45.77	6.13	
2025-01-16 06:32:59.07	45.74	6.14	
2025-01-16 06:32:59.27	45.71	6.14	
2025-01-16 06:32:59.47	45.68	6.15	
2025-01-16 06:32:59.68	45.65	6.16	
2025-01-16 06:32:59.88	45.62	6.16	
2025-01-16 06:33:00.08	45.60	6.17	
2025-01-16 06:33:00.28	45.57	6.18	
2025-01-16 06:33:00.49	45.54	6.18	
2025-01-16 06:33:00.69	45.51	6.19	
2025-01-16 06:33:00.89	45.48	6.20	
2025-01-16 06:33:01.10	45.45	6.21	
2025-01-16 06:33:01.30	45.42	6.21	
2025-01-16 06:33:01.50	45.40	6.22	
2025-01-16 06:33:01.71	45.37	6.23	
2025-01-16 06:33:01.91	45.34	6.23	
2025-01-16 06:33:02.11	45.31	6.24	
2025-01-16 06:33:02.32	45.28	6.25	
2025-01-16 06:33:02.52	45.25	6.25	
2025-01-16 06:33:02.72	45.22	6.26	
2025-01-16 06:33:02.92	45.20	6.27	
2025-01-16 06:33:03.13	45.17	6.27	
2025-01-16 06:33:03.33	45.14	6.28	
2025-01-16 06:33:03.53	45.11	6.29	
2025-01-16 06:33:03.74	45.08	6.29	
2025-01-16 06:33:03.94	45.05	6.30	
2025-01-16 06:33:04.14	45.02	6.31	
2025-01-16 06:33:04.35	45.00	6.31	
2025-01-16 06:33:04.55	44.97	6.32	
2025-01-16 06:33:04.75	44.94	6.33	
2025-01-16 06:33:04.96	44.91	6.34	
2025-01-16 06:33:05.16	44.88	6.34	
2025-01-16 06:33:05.36	44.85	6.35	
2025-01-16 06:33:05.56	44.82	6.36	
2025-01-16 06:33:05.77	44.79	6.36	
2025-01-16 06:33:05.97	44.77	6.37	
2025-01-16 06:33:06.17	44.74	6.38	
2025-01-16 06:33:06.38	44.71	6.38	
2025-01-16 06:33:06.58	44.68	6.39	
2025-01-16 06:33:06.78	44.65	6.40	
2025-01-16 06:33:06.99	44.62	6.40	
2025-01-16 06:33:07.19	44.59	6.41	
2025-01-16 06:33:07.39	44.56	6.42	
2025-01-16 06:33:07.60	44.53	6.42	
2025-01-16 06:33:07.80	44.51	6.43	
2025-01-16 06:33:08.00	44.48	6.44	
2025-01-16 06:33:08.20	44.45	6.44	
2025-01-16 06:33:08.41	44.42	6.45	
2025-01-16 06:33:08.61	44.39	6.46	
2025-01-16 06:33:08.81	44.36	6.46	
2025-01-16 06:33:09.02	44.33	6.47	
2025-01-16 06:33:09.22	44.30	6.48	
2025-01-16 06:33:09.42	44.27	6.48	
2025-01-16 06:33:09.63	44.24	6.49	
2025-01-16 06:33:09.83	44.22	6.50	
2025-01-16 06:33:10.03	44.19	6.50	
2025-01-16 06:33:10.24	44.16	6.51	
2025-01-16 06:33:10.44	44.13	6.52	
2025-01-16 06:33:10.64	44.10	6.52	
2025-01-16 06:33:10.84	44.07	6.53	
2025-01-16 06:33:11.05	44.04	6.54	
2025-01-16 06:33:11.25	44.01	6.54	
2025-01-16 06:33:11.45	43.98	6.55	
2025-01-16 06:33:11.66	43.95	6.56	
2025-01-16 06:33:11.86	43.92	6.56	
2025-01-16 06:33:12.06	43.90	6.57	
2025-01-16 06:33:12.27	43.87	6.58	
2025-01-16 06:33:12.47	43.84	6.58	
2025-01-16 06:33:12.67	43.81	6.59	
2025-01-16 06:33:12.88	43.78	6.60	
2025-01-16 06:33:13.08	43.75	6.60	
2025-01-16 06:33:13.28	43.72	6.61	
2025-01-16 06:33:13.48	43.69	6.62	
2025-01-16 06:33:13.69	43.66	6.62	
2025-01-16 06:33:13.89	43.63	6.63	
2025-01-16 06:33:14.09	43.60	6.63	
2025-01-16 06:33:14.30	43.57	6.64	
2025-01-16 06:33:14.50	43.54	6.65	
2025-01-16 06:33:14.70	43.51	6.65	
2025-01-16 06:33:14.91	43.48	6.66	
2025-01-16 06:33:15.11	43.46	6.67	
2025-01-16 06:33:15.31	43.43	6.67	
2025-01-16 06:33:15.52	43.40	6.68	
2025-01-16 06:33:15.72	43.37	6.69	
2025-01-16 06:33:15.92	43.34	6.69	
2025-01-16 06:33:16.12	43.31	6.70	
2025-01-16 06:33:16.33	43.28	6.71	
2025-01-16 06:33:16.53	43.25	6.71	
2025-01-16 06:33:16.73	43.22	6.72	
2025-01-16 06:33:16.94	43.19	6.73	
2025-01-16 06:33:17.14	43.16	6.73	
2025-01-16 06:33:17.34	43.13	6.74	
2025-01-16 06:33:17.55	43.10	6.75	
2025-01-16 06:33:17.75	43.07	6.75	
2025-01-16 06:33:17.95	43.04	6.76	
2025-01-16 06:33:18.16	43.01	6.76	
2025-01-16 06:33:18.36	42.98	6.77	
2025-01-16 06:33:18.56	42.95	6.78	
2025-01-16 06:33:18.76	42.92	6.78	
2025-01-16 06:33:18.97	42.89	6.79	
2025-01-16 06:33:19.17	42.86	6.80	
2025-01-16 06:33:19.37	42.84	6.80	
2025-01-16 06:33:19.58	42.80	6.81	
2025-01-16 06:33:19.78	42.78	6.82	
2025-01-16 06:33:19.98	42.75	6.82	
2025-01-16 06:33:20.19	42.72	6.83	
2025-01-16 06:33:20.39	42.69	6.84	
2025-01-16 06:33:20.59	42.66	6.84	
2025-01-16 06:33:20.80	42.63	6.85	
2025-01-16 06:33:21.00	42.60	6.85	
2025-01-16 06:33:21.20	42.57	6.86	
2025-01-16 06:33:21.40	42.54	6.87	
2025-01-16 06:33:21.61	42.51	6.87	
2025-01-16 06:33:21.81	42.48	6.88	
2025-01-16 06:33:22.01	42.45	6.89	
2025-01-16 06:33:22.22	42.42	6.89	
2025-01-16 06:33:22.42	42.39	6.90	
2025-01-16 06:33:22.62	42.36	6.90	
2025-01-16 06:33:22.83	42.33	6.91	
2025-01-16 06:33:23.03	42.30	6.92	
2025-01-16 06:33:23.23	42.27	6.92	
2025-01-16 06:33:23.44	42.24	6.93	
2025-01-16 06:33:23.64	42.21	6.94	
2025-01-16 06:33:23.84	42.18	6.94	
2025-01-16 06:33:24.04	42.15	6.95	
2025-01-16 06:33:24.25	42.12	6.96	
2025-01-16 06:33:24.45	42.09	6.96	
2025-01-16 06:33:24.65	42.06	6.97	
2025-01-16 06:33:24.86	42.03	6.97	
2025-01-16 06:33:25.06	42.00	6.98	
2025-01-16 06:33:25.26	41.97	6.99	
2025-01-16 06:33:25.47	41.94	6.99	
2025-01-16 06:33:25.67	41.91	7.00	
2025-01-16 06:33:25.87	41.88	7.01	
2025-01-16 06:33:26.08	41.85	7.01	
2025-01-16 06:33:26.28	41.82	7.02	
2025-01-16 06:33:26.48	41.79	7.02	
2025-01-16 06:33:26.68	41.76	7.03	
2025-01-16 06:33:26.89	41.73	7.04	
2025-01-16 06:33:27.09	41.70	7.04	
2025-01-16 06:33:27.29	41.67	7.05	
2025-01-16 06:33:27.50	41.64	7.06	
2025-01-16 06:33:27.70	41.61	7.06	
2025-01-16 06:33:27.90	41.58	7.07	
2025-01-16 06:33:28.11	41.55	7.07	
2025-01-16 06:33:28.31	41.52	7.08	
2025-01-16 06:33:28.51	41.49	7.09	
2025-01-16 06:33:28.72	41.45	7.09	
2025-01-16 06:33:28.92	41.42	7.10	
2025-01-16 06:33:29.12	41.39	7.10	
2025-01-16 06:33:29.32	41.36	7.11	
2025-01-16 06:33:29.53	41.33	7.12	
2025-01-16 06:33:29.73	41.30	7.12	
2025-01-16 06:33:29.93	41.27	7.13	
2025-01-16 06:33:30.14	41.24	7.13	
2025-01-16 06:33:30.34	41.21	7.14	
2025-01-16 06:33:30.54	41.18	7.15	
2025-01-16 06:33:30.75	41.15	7.15	
2025-01-16 06:33:30.95	41.12	7.16	
2025-01-16 06:33:31.15	41.09	7.17	
2025-01-16 06:33:31.36	41.06	7.17	
2025-01-16 06:33:31.56	41.03	7.18	
2025-01-16 06:33:31.76	41.00	7.18	
2025-01-16 06:33:31.96	40.97	7.19	
2025-01-16 06:33:32.17	40.94	7.20	
2025-01-16 06:33:32.37	40.91	7.20	
2025-01-16 06:33:32.57	40.88	7.21	
2025-01-16 06:33:32.78	40.85	7.21	
2025-01-16 06:33:32.98	40.82	7.22	
2025-01-16 06:33:33.18	40.79	7.23	
2025-01-16 06:33:33.39	40.75	7.23	
2025-01-16 06:33:33.59	40.72	7.24	
2025-01-16 06:33:33.79	40.69	7.24	
2025-01-16 06:33:34.00	40.66	7.25	
2025-01-16 06:33:34.20	40.63	7.26	
2025-01-16 06:33:34.40	40.60	7.26	
2025-01-16 06:33:34.60	40.57	7.27	
2025-01-16 06:33:34.81	40.54	7.27	
2025-01-16 06:33:35.01	40.51	7.28	
2025-01-16 06:33:35.21	40.48	7.29	
2025-01-16 06:33:35.42	40.45	7.29	
2025-01-16 06:33:35.62	40.42	7.30	
2025-01-16 06:33:35.82	40.39	7.30	
2025-01-16 06:33:36.03	40.36	7.31	
2025-01-16 06:33:36.23	40.32	7.31	
2025-01-16 06:33:36.43	40.29	7.32	
2025-01-16 06:33:36.64	40.26	7.33	
2025-01-16 06:33:36.84	40.23	7.33	
2025-01-16 06:33:37.04	40.20	7.34	
2025-01-16 06:33:37.24	40.17	7.34	
2025-01-16 06:33:37.45	40.14	7.35	
2025-01-16 06:33:37.65	40.11	7.36	
2025-01-16 06:33:37.85	40.08	7.36	
2025-01-16 06:33:38.06	40.05	7.37	
2025-01-16 06:33:38.26	40.02	7.37	
2025-01-16 06:33:38.46	39.99	7.38	
2025-01-16 06:33:38.67	39.95	7.39	
2025-01-16 06:33:38.87	39.92	7.39	
2025-01-16 06:33:39.07	39.89	7.40	
2025-01-16 06:33:39.28	39.86	7.40	
2025-01-16 06:33:39.48	39.83	7.41	
2025-01-16 06:33:39.68	39.80	7.41	
2025-01-16 06:33:39.88	39.77	7.42	
2025-01-16 06:33:40.09	39.74	7.43	
2025-01-16 06:33:40.29	39.71	7.43	
2025-01-16 06:33:40.49	39.68	7.44	
2025-01-16 06:33:40.70	39.64	7.44	
2025-01-16 06:33:40.90	39.61	7.45	
2025-01-16 06:33:41.10	39.58	7.45	
2025-01-16 06:33:41.31	39.55	7.46	
2025-01-16 06:33:41.51	39.52	7.47	
2025-01-16 06:33:41.71	39.49	7.47	
2025-01-16 06:33:41.92	39.46	7.48	
2025-01-16 06:33:42.12	39.43	7.48	
2025-01-16 06:33:42.32	39.40	7.49	
2025-01-16 06:33:42.52	39.37	7.49	
2025-01-16 06:33:42.73	39.33	7.50	
2025-01-16 06:33:42.93	39.30	7.51	
2025-01-16 06:33:43.13	39.27	7.51	
2025-01-16 06:33:43.34	39.24	7.52	
2025-01-16 06:33:43.54	39.21	7.52	
2025-01-16 06:33:43.74	39.18	7.53	
2025-01-16 06:33:43.95	39.15	7.53	
2025-01-16 06:33:44.15	39.12	7.54	
2025-01-16 06:33:44.35	39.08	7.55	
2025-01-16 06:33:44.56	39.05	7.55	
2025-01-16 06:33:44.76	39.02	7.56	
2025-01-16 06:33:44.96	38.99	7.56	
2025-01-16 06:33:45.16	38.96	7.57	
2025-01-16 06:33:45.37	38.93	7.57	
2025-01-16 06:33:45.57	38.90	7.58	
2025-01-16 06:33:45.77	38.87	7.59	
2025-01-16 06:33:45.98	38.83	7.59	
2025-01-16 06:33:46.18	38.80	7.60	
2025-01-16 06:33:46.38	38.77	7.60	
2025-01-16 06:33:46.59	38.74	7.61	
2025-01-16 06:33:46.79	38.71	7.61	
2025-01-16 06:33:46.99	38.68	7.62	
2025-01-16 06:33:47.20	38.64	7.62	
2025-01-16 06:33:47.40	38.61	7.63	
2025-01-16 06:33:47.60	38.58	7.64	
2025-01-16 06:33:47.81	38.55	7.64	
2025-01-16 06:33:48.01	38.52	7.65	
2025-01-16 06:33:48.21	38.49	7.65	
2025-01-16 06:33:48.41	38.46	7.66	
2025-01-16 06:33:48.62	38.42	7.66	
2025-01-16 06:33:48.82	38.39	7.67	
2025-01-16 06:33:49.02	38.36	7.67	
2025-01-16 06:33:49.23	38.33	7.68	
2025-01-16 06:33:49.43	38.30	7.68	
2025-01-16 06:33:49.63	38.27	7.69	
2025-01-16 06:33:49.84	38.23	7.70	
2025-01-16 06:33:50.04	38.20	7.70	
2025-01-16 06:33:50.24	38.17	7.71	
2025-01-16 06:33:50.45	38.14	7.71	
2025-01-16 06:33:50.65	38.11	7.72	
2025-01-16 06:33:50.85	38.08	7.72	
2025-01-16 06:33:51.05	38.05	7.73	
2025-01-16 06:33:51.26	38.01	7.73	
2025-01-16 06:33:51.46	37.98	7.74	
2025-01-16 06:33:51.66	37.95	7.74	
2025-01-16 06:33:51.87	37.92	7.75	
2025-01-16 06:33:52.07	37.89	7.76	
2025-01-16 06:33:52.27	37.86	7.76	
2025-01-16 06:33:52.48	37.82	7.77	
2025-01-16 06:33:52.68	37.79	7.77	
2025-01-16 06:33:52.88	37.76	7.78	
2025-01-16 06:33:53.09	37.73	7.78	
2025-01-16 06:33:53.29	37.70	7.79	
2025-01-16 06:33:53.49	37.66	7.79	
2025-01-16 06:33:53.69	37.63	7.80	
2025-01-16 06:33:53.90	37.60	7.80	
2025-01-16 06:33:54.10	37.57	7.81	
2025-01-16 06:33:54.30	37.54	7.81	
2025-01-16 06:33:54.51	37.50	7.82	
2025-01-16 06:33:54.71	37.47	7.82	
2025-01-16 06:33:54.91	37.44	7.83	
2025-01-16 06:33:55.12	37.41	7.84	
2025-01-16 06:33:55.32	37.38	7.84	
2025-01-16 06:33:55.52	37.35	7.85	
2025-01-16 06:33:55.73	37.31	7.85	
2025-01-16 06:33:55.93	37.28	7.86	
2025-01-16 06:33:56.13	37.25	7.86	
2025-01-16 06:33:56.33	37.22	7.87	
2025-01-16 06:33:56.54	37.19	7.87	
2025-01-16 06:33:56.74	37.15	7.88	
2025-01-16 06:33:56.94	37.12	7.88	
2025-01-16 06:33:57.15	37.09	7.89	
2025-01-16 06:33:57.35	37.06	7.89	
2025-01-16 06:33:57.55	37.03	7.90	
2025-01-16 06:33:57.76	36.99	7.90	
2025-01-16 06:33:57.96	36.96	7.91	
2025-01-16 06:33:58.16	36.93	7.91	
2025-01-16 06:33:58.37	36.90	7.92	
2025-01-16 06:33:58.57	36.87	7.92	
2025-01-16 06:33:58.77	36.83	7.93	
2025-01-16 06:33:58.97	36.80	7.93	
2025-01-16 06:33:59.18	36.77	7.94	
2025-01-16 06:33:59.38	36.74	7.94	
2025-01-16 06:33:59.58	36.71	7.95	
2025-01-16 06:33:59.79	36.67	7.95	
2025-01-16 06:33:59.99	36.64	7.96	
2025-01-16 06:34:00.19	36.61	7.96	
2025-01-16 06:34:00.40	36.58	7.97	
2025-01-16 06:34:00.60	36.54	7.98	
2025-01-16 06:34:00.80	36.51	7.98	
2025-01-16 06:34:01.01	36.48	7.99	
2025-01-16 06:34:01.21	36.45	7.99	
2025-01-16 06:34:01.41	36.42	8.00	
2025-01-16 06:34:01.61	36.38	8.00	
2025-01-16 06:34:01.82	36.35	8.01	
2025-01-16 06:34:02.02	36.32	8.01	
2025-01-16 06:34:02.22	36.29	8.02	
2025-01-16 06:34:02.43	36.25	8.02	
2025-01-16 06:34:02.63	36.22	8.03	
2025-01-16 06:34:02.83	36.19	8.03	
2025-01-16 06:34:03.04	36.16	8.04	
2025-01-16 06:34:03.24	36.12	8.04	
2025-01-16 06:34:03.44	36.09	8.05	
2025-01-16 06:34:03.65	36.06	8.05	
2025-01-16 06:34:03.85	36.03	8.06	
2025-01-16 06:34:04.05	35.99	8.06	
2025-01-16 06:34:04.25	35.96	8.07	
2025-01-16 06:34:04.46	35.93	8.07	
2025-01-16 06:34:04.66	35.90	8.07	
2025-01-16 06:34:04.86	35.87	8.08	
2025-01-16 06:34:05.07	35.83	8.08	
2025-01-16 06:34:05.27	35.80	8.09	
2025-01-16 06:34:05.47	35.77	8.09	
2025-01-16 06:34:05.68	35.73	8.10	
2025-01-16 06:34:05.88	35.70	8.10	
2025-01-16 06:34:06.08	35.67	8.11	
2025-01-16 06:34:06.29	35.64	8.11	
2025-01-16 06:34:06.49	35.60	8.12	
2025-01-16 06:34:06.69	35.57	8.12	
2025-01-16 06:34:06.89	35.54	8.13	
2025-01-16 06:34:07.10	35.51	8.13	
2025-01-16 06:34:07.30	35.47	8.14	
2025-01-16 06:34:07.50	35.44	8.14	
2025-01-16 06:34:07.71	35.41	8.15	
2025-01-16 06:34:07.91	35.38	8.15	
2025-01-16 06:34:08.11	35.34	8.16	
2025-01-16 06:34:08.32	35.31	8.16	
2025-01-16 06:34:08.52	35.28	8.17	
2025-01-16 06:34:08.72	35.25	8.17	
2025-01-16 06:34:08.93	35.21	8.18	
2025-01-16 06:34:09.13	35.18	8.18	
2025-01-16 06:34:09.33	35.15	8.19	
2025-01-16 06:34:09.53	35.12	8.19	
2025-01-16 06:34:09.74	35.08	8.20	
2025-01-16 06:34:09.94	35.05	8.20	
2025-01-16 06:34:10.14	35.02	8.20	
2025-01-16 06:34:10.35	34.98	8.21	
2025-01-16 06:34:10.55	34.95	8.21	
2025-01-16 06:34:10.75	34.92	8.22	
2025-01-16 06:34:10.96	34.89	8.22	
2025-01-16 06:34:11.16	34.85	8.23	
2025-01-16 06:34:11.36	34.82	8.23	
2025-01-16 06:34:11.57	34.79	8.24	
2025-01-16 06:34:11.77	34.75	8.24	
2025-01-16 06:34:11.97	34.72	8.25	
2025-01-16 06:34:12.17	34.69	8.25	
2025-01-16 06:34:12.38	34.66	8.26	
2025-01-16 06:34:12.58	34.62	8.26	
2025-01-16 06:34:12.78	34.59	8.27	
2025-01-16 06:34:12.99	34.56	8.27	
2025-01-16 06:34:13.19	34.53	8.27	
2025-01-16 06:34:13.39	34.49	8.28	
2025-01-16 06:34:13.60	34.46	8.28	
2025-01-16 06:34:13.80	34.43	8.29	
2025-01-16 06:34:14.00	34.39	8.29	
2025-01-16 06:34:14.21	34.36	8.30	
2025-01-16 06:34:14.41	34.33	8.30	
2025-01-16 06:34:14.61	34.29	8.31	
2025-01-16 06:34:14.81	34.26	8.31	
2025-01-16 06:34:15.02	34.23	8.32	
2025-01-16 06:34:15.22	34.20	8.32	
2025-01-16 06:34:15.42	34.16	8.32	
2025-01-16 06:34:15.63	34.13	8.33	
2025-01-16 06:34:15.83	34.10	8.33	
2025-01-16 06:34:16.03	34.06	8.34	
2025-01-16 06:34:16.24	34.03	8.34	
2025-01-16 06:34:16.44	34.00	8.35	
2025-01-16 06:34:16.64	33.96	8.35	
2025-01-16 06:34:16.85	33.93	8.36	
2025-01-16 06:34:17.05	33.90	8.36	
2025-01-16 06:34:17.25	33.87	8.36	
2025-01-16 06:34:17.45	33.83	8.37	
2025-01-16 06:34:17.66	33.80	8.37	
2025-01-16 06:34:17.86	33.77	8.38	
2025-01-16 06:34:18.06	33.73	8.38	
2025-01-16 06:34:18.27	33.70	8.39	
2025-01-16 06:34:18.47	33.67	8.39	
2025-01-16 06:34:18.67	33.63	8.40	
2025-01-16 06:34:18.88	33.60	8.40	
2025-01-16 06:34:19.08	33.57	8.40	
2025-01-16 06:34:19.28	33.53	8.41	
2025-01-16 06:34:19.49	33.50	8.41	
2025-01-16 06:34:19.69	33.47	8.42	
2025-01-16 06:34:19.89	33.43	8.42	
2025-01-16 06:34:20.09	33.40	8.43	
2025-01-16 06:34:20.30	33.37	8.43	
2025-01-16 06:34:20.50	33.33	8.43	
2025-01-16 06:34:20.70	33.30	8.44	
2025-01-16 06:34:20.91	33.27	8.44	
2025-01-16 06:34:21.11	33.23	8.45	
2025-01-16 06:34:21.31	33.20	8.45	
2025-01-16 06:34:21.52	33.17	8.46	
2025-01-16 06:34:21.72	33.13	8.46	
2025-01-16 06:34:21.92	33.10	8.46	
2025-01-16 06:34:22.13	33.07	8.47	
2025-01-16 06:34:22.33	33.03	8.47	
2025-01-16 06:34:22.53	33.00	8.48	
2025-01-16 06:34:22.73	32.97	8.48	
2025-01-16 06:34:22.94	32.93	8.49	
2025-01-16 06:34:23.14	32.90	8.49	
2025-01-16 06:34:23.34	32.87	8.49	
2025-01-16 06:34:23.55	32.83	8.50	
2025-01-16 06:34:23.75	32.80	8.50	
2025-01-16 06:34:23.95	32.77	8.51	
2025-01-16 06:34:24.16	32.73	8.51	
2025-01-16 06:34:24.36	32.70	8.51	
2025-01-16 06:34:24.56	32.67	8.52	
2025-01-16 06:34:24.77	32.63	8.52	
2025-01-16 06:34:24.97	32.60	8.53	
2025-01-16 06:34:25.17	32.57	8.53	
2025-01-16 06:34:25.37	32.53	8.53	
2025-01-16 06:34:25.58	32.50	8.54	
2025-01-16 06:34:25.78	32.47	8.54	
2025-01-16 06:34:25.98	32.43	8.55	
2025-01-16 06:34:26.19	32.40	8.55	
2025-01-16 06:34:26.39	32.37	8.56	
2025-01-16 06:34:26.59	32.33	8.56	
2025-01-16 06:34:26.80	32.30	8.56	
2025-01-16 06:34:27.00	32.26	8.57	
2025-01-16 06:34:27.20	32.23	8.57	
2025-01-16 06:34:27.41	32.20	8.58	
2025-01-16 06:34:27.61	32.16	8.58	
2025-01-16 06:34:27.81	32.13	8.58	
2025-01-16 06:34:28.01	32.10	8.59	
2025-01-16 06:34:28.22	32.06	8.59	
2025-01-16 06:34:28.42	32.03	8.60	
2025-01-16 06:34:28.62	32.00	8.60	
2025-01-16 06:34:28.83	31.96	8.60	
2025-01-16 06:34:29.03	31.93	8.61	
2025-01-16 06:34:29.23	31.90	8.61	
2025-01-16 06:34:29.44	31.86	8.62	
2025-01-16 06:34:29.64	31.83	8.62	
2025-01-16 06:34:29.84	31.79	8.62	
2025-01-16 06:34:30.05	31.76	8.63	
2025-01-16 06:34:30.25	31.73	8.63	
2025-01-16 06:34:30.45	31.69	8.63	
2025-01-16 06:34:30.65	31.66	8.64	
2025-01-16 06:34:30.86	31.62	8.64	
2025-01-16 06:34:31.06	31.59	8.65	
2025-01-16 06:34:31.26	31.56	8.65	
2025-01-16 06:34:31.47	31.52	8.65	
2025-01-16 06:34:31.67	31.49	8.66	
2025-01-16 06:34:31.87	31.46	8.66	
2025-01-16 06:34:32.08	31.42	8.67	
2025-01-16 06:34:32.28	31.39	8.67	
2025-01-16 06:34:32.48	31.36	8.67	
2025-01-16 06:34:32.69	31.32	8.68	
2025-01-16 06:34:32.89	31.29	8.68	
2025-01-16 06:34:33.09	31.25	8.68	
2025-01-16 06:34:33.29	31.22	8.69	
2025-01-16 06:34:33.50	31.19	8.69	
2025-01-16 06:34:33.70	31.15	8.70	
2025-01-16 06:34:33.90	31.12	8.70	
2025-01-16 06:34:34.11	31.08	8.70	
2025-01-16 06:34:34.31	31.05	8.71	
2025-01-16 06:34:34.51	31.02	8.71	
2025-01-16 06:34:34.72	30.98	8.71	
2025-01-16 06:34:34.92	30.95	8.72	
2025-01-16 06:34:35.12	30.92	8.72	
2025-01-16 06:34:35.33	30.88	8.72	
2025-01-16 06:34:35.53	30.85	8.73	
2025-01-16 06:34:35.73	30.81	8.73	
2025-01-16 06:34:35.93	30.78	8.74	
2025-01-16 06:34:36.14	30.74	8.74	
2025-01-16 06:34:36.34	30.71	8.74	
2025-01-16 06:34:36.54	30.68	8.75	
2025-01-16 06:34:36.75	30.64	8.75	
2025-01-16 06:34:36.95	30.61	8.75	
2025-01-16 06:34:37.15	30.58	8.76	
2025-01-16 06:34:37.36	30.54	8.76	
2025-01-16 06:34:37.56	30.51	8.76	
2025-01-16 06:34:37.76	30.47	8.77	
2025-01-16 06:34:37.97	30.44	8.77	
2025-01-16 06:34:38.17	30.40	8.78	
2025-01-16 06:34:38.37	30.37	8.78	
2025-01-16 06:34:38.57	30.34	8.78	
2025-01-16 06:34:38.78	30.30	8.79	
2025-01-16 06:34:38.98	30.27	8.79	
2025-01-16 06:34:39.18	30.24	8.79	
2025-01-16 06:34:39.39	30.20	8.80	
2025-01-16 06:34:39.59	30.17	8.80	
2025-01-16 06:34:39.79	30.13	8.80	
2025-01-16 06:34:40.00	30.10	8.81	
2025-01-16 06:34:40.20	30.06	8.81	
2025-01-16 06:34:40.40	30.03	8.81	
2025-01-16 06:34:40.60	30.00	8.82	
2025-01-16 06:34:40.81	29.96	8.82	
2025-01-16 06:34:41.01	29.93	8.82	
2025-01-16 06:34:41.21	29.89	8.83	
2025-01-16 06:34:41.42	29.86	8.83	
2025-01-16 06:34:41.62	29.82	8.83	
2025-01-16 06:34:41.82	29.79	8.84	
2025-01-16 06:34:42.03	29.76	8.84	
2025-01-16 06:34:42.23	29.72	8.84	
2025-01-16 06:34:42.43	29.69	8.85	
2025-01-16 06:34:42.64	29.65	8.85	
2025-01-16 06:34:42.84	29.62	8.85	
2025-01-16 06:34:43.04	29.59	8.86	
2025-01-16 06:34:43.24	29.55	8.86	
2025-01-16 06:34:43.45	29.52	8.86	
2025-01-16 06:34:43.65	29.48	8.87	
2025-01-16 06:34:43.85	29.45	8.87	
2025-01-16 06:34:44.06	29.41	8.87	
2025-01-16 06:34:44.26	29.38	8.88	
2025-01-16 06:34:44.46	29.35	8.88	
2025-01-16 06:34:44.67	29.31	8.88	
2025-01-16 06:34:44.87	29.28	8.89	
2025-01-16 06:34:45.07	29.24	8.89	
2025-01-16 06:34:45.28	29.21	8.89	
2025-01-16 06:34:45.48	29.17	8.90	
2025-01-16 06:34:45.68	29.14	8.90	
2025-01-16 06:34:45.88	29.11	8.90	
2025-01-16 06:34:46.09	29.07	8.91	
2025-01-16 06:34:46.29	29.04	8.91	
2025-01-16 06:34:46.49	29.00	8.91	
2025-01-16 06:34:46.70	28.97	8.92	
2025-01-16 06:34:46.90	28.93	8.92	
2025-01-16 06:34:47.10	28.90	8.92	
2025-01-16 06:34:47.31	28.86	8.92	
2025-01-16 06:34:47.51	28.83	8.93	
2025-01-16 06:34:47.71	28.80	8.93	
2025-01-16 06:34:47.92	28.76	8.93	
2025-01-16 06:34:48.12	28.73	8.94	
2025-01-16 06:34:48.32	28.69	8.94	
2025-01-16 06:34:48.52	28.66	8.94	
2025-01-16 06:34:48.73	28.62	8.95	
2025-01-16 06:34:48.93	28.59	8.95	
2025-01-16 06:34:49.13	28.55	8.95	
2025-01-16 06:34:49.34	28.52	8.96	
2025-01-16 06:34:49.54	28.49	8.96	
2025-01-16 06:34:49.74	28.45	8.96	
2025-01-16 06:34:49.95	28.42	8.96	
2025-01-16 06:34:50.15	28.38	8.97	
2025-01-16 06:34:50.35	28.35	8.97	
2025-01-16 06:34:50.56	28.31	8.97	
2025-01-16 06:34:50.76	28.28	8.98	
2025-01-16 06:34:50.96	28.24	8.98	
2025-01-16 06:34:51.16	28.21	8.98	
2025-01-16 06:34:51.37	28.17	8.98	
2025-01-16 06:34:51.57	28.14	8.99	
2025-01-16 06:34:51.77	28.11	8.99	
2025-01-16 06:34:51.98	28.07	8.99	
2025-01-16 06:34:52.18	28.04	9.00	
2025-01-16 06:34:52.38	28.00	9.00	
2025-01-16 06:34:52.59	27.97	9.00	
2025-01-16 06:34:52.79	27.93	9.00	
2025-01-16 06:34:52.99	27.90	9.01	
2025-01-16 06:34:53.20	27.86	9.01	
2025-01-16 06:34:53.40	27.83	9.01	
2025-01-16 06:34:53.60	27.79	9.02	
2025-01-16 06:34:53.80	27.76	9.02	
2025-01-16 06:34:54.01	27.72	9.02	
2025-01-16 06:34:54.21	27.69	9.02	
2025-01-16 06:34:54.41	27.66	9.03	
2025-01-16 06:34:54.62	27.62	9.03	
2025-01-16 06:34:54.82	27.59	9.03	
2025-01-16 06:34:55.02	27.55	9.04	
2025-01-16 06:34:55.23	27.52	9.04	
2025-01-16 06:34:55.43	27.48	9.04	
2025-01-16 06:34:55.63	27.45	9.04	
2025-01-16 06:34:55.84	27.41	9.05	
2025-01-16 06:34:56.04	27.38	9.05	
2025-01-16 06:34:56.24	27.34	9.05	
2025-01-16 06:34:56.44	27.31	9.05	
2025-01-16 06:34:56.65	27.27	9.06	
2025-01-16 06:34:56.85	27.24	9.06	
2025-01-16 06:34:57.05	27.21	9.06	
2025-01-16 06:34:57.26	27.17	9.07	
2025-01-16 06:34:57.46	27.13	9.07	
2025-01-16 06:34:57.66	27.10	9.07	
2025-01-16 06:34:57.87	27.06	9.07	
2025-01-16 06:34:58.07	27.03	9.08	
2025-01-16 06:34:58.27	27.00	9.08	
2025-01-16 06:34:58.48	26.96	9.08	
2025-01-16 06:34:58.68	26.93	9.08	
2025-01-16 06:34:58.88	26.89	9.09	
2025-01-16 06:34:59.08	26.86	9.09	
2025-01-16 06:34:59.29	26.82	9.09	
2025-01-16 06:34:59.49	26.79	9.09	
2025-01-16 06:34:59.69	26.75	9.10	
2025-01-16 06:34:59.90	26.72	9.10	
2025-01-16 06:35:00.10	26.68	9.10	
2025-01-16 06:35:00.30	26.65	9.10	
2025-01-16 06:35:00.51	26.61	9.11	
2025-01-16 06:35:00.71	26.58	9.11	
2025-01-16 06:35:00.91	26.54	9.11	
2025-01-16 06:35:01.12	26.51	9.11	
2025-01-16 06:35:01.32	26.47	9.12	
2025-01-16 06:35:01.52	26.44	9.12	
2025-01-16 06:35:01.72	26.40	9.12	
2025-01-16 06:35:01.93	26.37	9.12	
2025-01-16 06:35:02.13	26.33	9.13	
2025-01-16 06:35:02.33	26.30	9.13	
2025-01-16 06:35:02.54	26.26	9.13	
2025-01-16 06:35:02.74	26.23	9.13	
2025-01-16 06:35:02.94	26.19	9.14	
2025-01-16 06:35:03.15	26.16	9.14	
2025-01-16 06:35:03.35	26.12	9.14	
2025-01-16 06:35:03.55	26.09	9.14	
2025-01-16 06:35:03.76	26.05	9.14	
2025-01-16 06:35:03.96	26.02	9.15	
2025-01-16 06:35:04.16	25.99	9.15	
2025-01-16 06:35:04.36	25.95	9.15	
2025-01-16 06:35:04.57	25.91	9.15	
2025-01-16 06:35:04.77	25.88	9.16	
2025-01-16 06:35:04.97	25.85	9.16	
2025-01-16 06:35:05.18	25.81	9.16	
2025-01-16 06:35:05.38	25.77	9.16	
2025-01-16 06:35:05.58	25.74	9.17	
2025-01-16 06:35:05.79	25.70	9.17	
2025-01-16 06:35:05.99	25.67	9.17	
2025-01-16 06:35:06.19	25.64	9.17	
2025-01-16 06:35:06.40	25.60	9.17	
2025-01-16 06:35:06.60	25.56	9.18	
2025-01-16 06:35:06.80	25.53	9.18	
2025-01-16 06:35:07.00	25.50	9.18	
2025-01-16 06:35:07.21	25.46	9.18	
2025-01-16 06:35:07.41	25.43	9.18	
2025-01-16 06:35:07.61	25.39	9.19	
2025-01-16 06:35:07.82	25.35	9.19	
2025-01-16 06:35:08.02	25.32	9.19	
2025-01-16 06:35:08.22	25.29	9.19	
2025-01-16 06:35:08.43	25.25	9.20	
2025-01-16 06:35:08.63	25.21	9.20	
2025-01-16 06:35:08.83	25.18	9.20	
2025-01-16 06:35:09.04	25.14	9.20	
2025-01-16 06:35:09.24	25.11	9.20	
2025-01-16 06:35:09.44	25.07	9.21	
2025-01-16 06:35:09.64	25.04	9.21	
2025-01-16 06:35:09.85	25.00	9.21	
2025-01-16 06:35:10.05	24.97	9.21	
2025-01-16 06:35:10.25	24.93	9.21	
2025-01-16 06:35:10.46	24.90	9.22	
2025-01-16 06:35:10.66	24.86	9.22	
2025-01-16 06:35:10.86	24.83	9.22	
2025-01-16 06:35:11.07	24.79	9.22	
2025-01-16 06:35:11.27	24.76	9.22	
2025-01-16 06:35:11.47	24.72	9.23	
2025-01-16 06:35:11.68	24.69	9.23	
2025-01-16 06:35:11.88	24.65	9.23	
2025-01-16 06:35:12.08	24.62	9.23	
2025-01-16 06:35:12.28	24.58	9.23	
2025-01-16 06:35:12.49	24.55	9.24	
2025-01-16 06:35:12.69	24.51	9.24	
2025-01-16 06:35:12.89	24.48	9.24	
2025-01-16 06:35:13.10	24.44	9.24	
2025-01-16 06:35:13.30	24.41	9.24	
2025-01-16 06:35:13.50	24.37	9.24	
2025-01-16 06:35:13.71	24.34	9.25	
2025-01-16 06:35:13.91	24.30	9.25	
2025-01-16 06:35:14.11	24.27	9.25	
2025-01-16 06:35:14.32	24.23	9.25	
2025-01-16 06:35:14.52	24.20	9.25	
2025-01-16 06:35:14.72	24.16	9.26	
2025-01-16 06:35:14.92	24.13	9.26	
2025-01-16 06:35:15.13	24.09	9.26	
2025-01-16 06:35:15.33	24.05	9.26	
2025-01-16 06:35:15.53	24.02	9.26	
2025-01-16 06:35:15.74	23.98	9.26	
2025-01-16 06:35:15.94	23.95	9.27	
2025-01-16 06:35:16.14	23.91	9.27	
2025-01-16 06:35:16.35	23.88	9.27	
2025-01-16 06:35:16.55	23.84	9.27	
2025-01-16 06:35:16.75	23.81	9.27	
2025-01-16 06:35:16.96	23.77	9.27	
2025-01-16 06:35:17.16	23.74	9.28	
2025-01-16 06:35:17.36	23.70	9.28	
2025-01-16 06:35:17.56	23.67	9.28	
2025-01-16 06:35:17.77	23.63	9.28	
2025-01-16 06:35:17.97	23.60	9.28	
2025-01-16 06:35:18.17	23.56	9.28	
2025-01-16 06:35:18.38	23.53	9.29	
2025-01-16 06:35:18.58	23.49	9.29	
2025-01-16 06:35:18.78	23.46	9.29	
2025-01-16 06:35:18.99	23.42	9.29	
2025-01-16 06:35:19.19	23.38	9.29	
2025-01-16 06:35:19.39	23.35	9.29	
2025-01-16 06:35:19.60	23.31	9.30	
2025-01-16 06:35:19.80	23.28	9.30	
2025-01-16 06:35:20.00	23.24	9.30	
2025-01-16 06:35:20.20	23.21	9.30	
2025-01-16 06:35:20.41	23.17	9.30	
2025-01-16 06:35:20.61	23.14	9.30	
2025-01-16 06:35:20.81	23.10	9.30	
2025-01-16 06:35:21.02	23.07	9.31	
2025-01-16 06:35:21.22	23.03	9.31	
2025-01-16 06:35:21.42	23.00	9.31	
2025-01-16 06:35:21.63	22.96	9.31	
2025-01-16 06:35:21.83	22.93	9.31	
2025-01-16 06:35:22.03	22.89	9.31	
2025-01-16 06:35:22.24	22.85	9.31	
2025-01-16 06:35:22.44	22.82	9.32	
2025-01-16 06:35:22.64	22.78	9.32	
2025-01-16 06:35:22.84	22.75	9.32	
2025-01-16 06:35:23.05	22.71	9.32	
2025-01-16 06:35:23.25	22.68	9.32	
2025-01-16 06:35:23.45	22.64	9.32	
2025-01-16 06:35:23.66	22.61	9.32	
2025-01-16 06:35:23.86	22.57	9.33	
2025-01-16 06:35:24.06	22.54	9.33	
2025-01-16 06:35:24.27	22.50	9.33	
2025-01-16 06:35:24.47	22.47	9.33	
2025-01-16 06:35:24.67	22.43	9.33	
2025-01-16 06:35:24.88	22.39	9.33	
2025-01-16 06:35:25.08	22.36	9.33	
2025-01-16 06:35:25.28	22.32	9.33	
2025-01-16 06:35:25.48	22.29	9.34	
2025-01-16 06:35:25.69	22.25	9.34	
2025-01-16 06:35:25.89	22.22	9.34	
2025-01-16 06:35:26.09	22.18	9.34	
2025-01-16 06:35:26.30	22.15	9.34	
2025-01-16 06:35:26.50	22.11	9.34	
2025-01-16 06:35:26.70	22.08	9.34	
2025-01-16 06:35:26.91	22.04	9.34	
2025-01-16 06:35:27.11	22.01	9.35	
2025-01-16 06:35:27.31	21.97	9.35	
2025-01-16 06:35:27.52	21.93	9.35	
2025-01-16 06:35:27.72	21.90	9.35	
2025-01-16 06:35:27.92	21.86	9.35	
2025-01-16 06:35:28.12	21.83	9.35	
2025-01-16 06:35:28.33	21.79	9.35	
2025-01-16 06:35:28.53	21.76	9.35	
2025-01-16 06:35:28.73	21.72	9.35	
2025-01-16 06:35:28.94	21.69	9.36	
2025-01-16 06:35:29.14	21.65	9.36	
2025-01-16 06:35:29.34	21.62	9.36	
2025-01-16 06:35:29.55	21.58	9.36	
2025-01-16 06:35:29.75	21.55	9.36	
2025-01-16 06:35:29.95	21.51	9.36	
2025-01-16 06:35:30.16	21.47	9.36	
2025-01-16 06:35:30.36	21.44	9.36	
2025-01-16 06:35:30.56	21.40	9.36	
2025-01-16 06:35:30.76	21.37	9.36	
2025-01-16 06:35:30.97	21.33	9.37	
2025-01-16 06:35:31.17	21.30	9.37	
2025-01-16 06:35:31.37	21.26	9.37	
2025-01-16 06:35:31.58	21.23	9.37	
2025-01-16 06:35:31.78	21.19	9.37	
2025-01-16 06:35:31.98	21.16	9.37	
2025-01-16 06:35:32.19	21.12	9.37	
2025-01-16 06:35:32.39	21.08	9.37	
2025-01-16 06:35:32.59	21.05	9.37	
2025-01-16 06:35:32.80	21.01	9.37	
2025-01-16 06:35:33.00	20.98	9.37	
2025-01-16 06:35:33.20	20.94	9.38	
2025-01-16 06:35:33.40	20.91	9.38	
2025-01-16 06:35:33.61	20.87	9.38	
2025-01-16 06:35:33.81	20.84	9.38	
2025-01-16 06:35:34.01	20.80	9.38	
2025-01-16 06:35:34.22	20.76	9.38	
2025-01-16 06:35:34.42	20.73	9.38	
2025-01-16 06:35:34.62	20.69	9.38	
2025-01-16 06:35:34.83	20.66	9.38	
2025-01-16 06:35:35.03	20.62	9.38	
2025-01-16 06:35:35.23	20.59	9.38	
2025-01-16 06:35:35.44	20.55	9.38	
2025-01-16 06:35:35.64	20.52	9.38	
2025-01-16 06:35:35.84	20.48	9.39	
2025-01-16 06:35:36.04	20.45	9.39	
2025-01-16 06:35:36.25	20.41	9.39	
2025-01-16 06:35:36.45	20.37	9.39	
2025-01-16 06:35:36.65	20.34	9.39	
2025-01-16 06:35:36.86	20.30	9.39	
2025-01-16 06:35:37.06	20.27	9.39	
2025-01-16 06:35:37.26	20.23	9.39	
2025-01-16 06:35:37.47	20.20	9.39	
2025-01-16 06:35:37.67	20.16	9.39	
2025-01-16 06:35:37.87	20.13	9.39	
2025-01-16 06:35:38.08	20.09	9.39	
2025-01-16 06:35:38.28	20.05	9.39	
2025-01-16 06:35:38.48	20.02	9.39	
2025-01-16 06:35:38.68	19.98	9.39	
2025-01-16 06:35:38.89	19.95	9.39	
2025-01-16 06:35:39.09	19.91	9.40	
2025-01-16 06:35:39.29	19.88	9.40	
2025-01-16 06:35:39.50	19.84	9.40	
2025-01-16 06:35:39.70	19.81	9.40	
2025-01-16 06:35:39.90	19.77	9.40	
2025-01-16 06:35:40.11	19.73	9.40	
2025-01-16 06:35:40.31	19.70	9.40	
2025-01-16 06:35:40.51	19.66	9.40	
2025-01-16 06:35:40.72	19.63	9.40	
2025-01-16 06:35:40.92	19.59	9.40	
2025-01-16 06:35:41.12	19.56	9.40	
2025-01-16 06:35:41.32	19.52	9.40	
2025-01-16 06:35:41.53	19.49	9.40	
2025-01-16 06:35:41.73	19.45	9.40	
2025-01-16 06:35:41.93	19.42	9.40	
2025-01-16 06:35:42.14	19.38	9.40	
2025-01-16 06:35:42.34	19.34	9.40	
2025-01-16 06:35:42.54	19.31	9.40	
2025-01-16 06:35:42.75	19.27	9.40	
2025-01-16 06:35:42.95	19.24	9.40	
2025-01-16 06:35:43.15	19.20	9.40	
2025-01-16 06:35:43.36	19.16	9.40	
2025-01-16 06:35:43.56	19.13	9.40	
2025-01-16 06:35:43.76	19.09	9.40	
2025-01-16 06:35:43.96	19.06	9.40	
2025-01-16 06:35:44.17	19.02	9.41	
2025-01-16 06:35:44.37	18.99	9.41	
2025-01-16 06:35:44.57	18.95	9.41	
2025-01-16 06:35:44.78	18.92	9.41	
2025-01-16 06:35:44.98	18.88	9.41	
2025-01-16 06:35:45.18	18.85	9.41	
2025-01-16 06:35:45.39	18.81	9.41	
2025-01-16 06:35:45.59	18.77	9.41	
2025-01-16 06:35:45.79	18.74	9.41	
2025-01-16 06:35:46.00	18.70	9.41	
2025-01-16 06:35:46.20	18.67	9.41	
2025-01-16 06:35:46.40	18.63	9.41	
2025-01-16 06:35:46.60	18.60	9.41	
2025-01-16 06:35:46.81	18.56	9.41	
2025-01-16 06:35:47.01	18.53	9.41	
2025-01-16 06:35:47.21	18.49	9.41	
2025-01-16 06:35:47.42	18.45	9.41	
2025-01-16 06:35:47.62	18.42	9.41	
2025-01-16 06:35:47.82	18.38	9.41	
2025-01-16 06:35:48.03	18.35	9.41	
2025-01-16 06:35:48.23	18.31	9.41	
2025-01-16 06:35:48.43	18.28	9.41	
2025-01-16 06:35:48.64	18.24	9.41	
2025-01-16 06:35:48.84	18.20	9.41	
2025-01-16 06:35:49.04	18.17	9.41	
2025-01-16 06:35:49.24	18.13	9.41	
2025-01-16 06:35:49.45	18.10	9.41	
2025-01-16 06:35:49.65	18.06	9.41	
2025-01-16 06:35:49.85	18.03	9.41	
2025-01-16 06:35:50.06	17.99	9.41	
2025-01-16 06:35:50.26	17.96	9.41	
2025-01-16 06:35:50.46	17.92	9.41	
2025-01-16 06:35:50.67	17.88	9.41	
2025-01-16 06:35:50.87	17.85	9.41	
2025-01-16 06:35:51.07	17.81	9.41	
2025-01-16 06:35:51.27	17.78	9.41	
2025-01-16 06:35:51.48	17.74	9.41	
2025-01-16 06:35:51.68	17.71	9.41	
2025-01-16 06:35:51.88	17.67	9.41	
2025-01-16 06:35:52.09	17.64	9.41	
2025-01-16 06:35:52.29	17.60	9.41	
2025-01-16 06:35:52.49	17.57	9.41	
2025-01-16 06:35:52.70	17.53	9.41	
2025-01-16 06:35:52.90	17.49	9.41	
2025-01-16 06:35:53.10	17.46	9.41	
2025-01-16 06:35:53.31	17.42	9.41	
2025-01-16 06:35:53.51	17.39	9.41	
2025-01-16 06:35:53.71	17.35	9.41	
2025-01-16 06:35:53.91	17.32	9.41	
2025-01-16 06:35:54.12	17.28	9.41	
2025-01-16 06:35:54.32	17.25	9.41	
2025-01-16 06:35:54.52	17.21	9.41	
2025-01-16 06:35:54.73	17.17	9.41	
2025-01-16 06:35:54.93	17.14	9.40	
2025-01-16 06:35:55.13	17.10	9.40	
2025-01-16 06:35:55.34	17.07	9.40	
2025-01-16 06:35:55.54	17.03	9.40	
2025-01-16 06:35:55.74	17.00	9.40	
2025-01-16 06:35:55.95	16.96	9.40	
2025-01-16 06:35:56.15	16.92	9.40	
2025-01-16 06:35:56.35	16.89	9.40	
2025-01-16 06:35:56.55	16.85	9.40	
2025-01-16 06:35:56.76	16.82	9.40	
2025-01-16 06:35:56.96	16.78	9.40	
2025-01-16 06:35:57.16	16.75	9.40	
2025-01-16 06:35:57.37	16.71	9.40	
2025-01-16 06:35:57.57	16.68	9.40	
2025-01-16 06:35:57.77	16.64	9.40	
2025-01-16 06:35:57.98	16.60	9.40	
2025-01-16 06:35:58.18	16.57	9.40	
2025-01-16 06:35:58.38	16.53	9.40	
2025-01-16 06:35:58.59	16.50	9.40	
2025-01-16 06:35:58.79	16.46	9.40	
2025-01-16 06:35:58.99	16.43	9.40	
2025-01-16 06:35:59.19	16.39	9.40	
2025-01-16 06:35:59.40	16.36	9.40	
2025-01-16 06:35:59.60	16.32	9.40	
2025-01-16 06:35:59.80	16.29	9.40	
2025-01-16 06:36:00.01	16.25	9.39	
2025-01-16 06:36:00.21	16.21	9.39	
2025-01-16 06:36:00.41	16.18	9.39	
2025-01-16 06:36:00.62	16.14	9.39	
2025-01-16 06:36:00.82	16.11	9.39	
2025-01-16 06:36:01.02	16.07	9.39	
2025-01-16 06:36:01.23	16.04	9.39	
2025-01-16 06:36:01.43	16.00	9.39	
2025-01-16 06:36:01.63	15.97	9.39	
2025-01-16 06:36:01.83	15.93	9.39	
2025-01-16 06:36:02.04	15.89	9.39	
2025-01-16 06:36:02.24	15.86	9.39	
2025-01-16 06:36:02.44	15.82	9.39	
2025-01-16 06:36:02.65	15.79	9.39	
2025-01-16 06:36:02.85	15.75	9.39	
2025-01-16 06:36:03.05	15.72	9.39	
2025-01-16 06:36:03.26	15.68	9.38	
2025-01-16 06:36:03.46	15.65	9.38	
2025-01-16 06:36:03.66	15.61	9.38	
2025-01-16 06:36:03.87	15.57	9.38	
2025-01-16 06:36:04.07	15.54	9.38	
2025-01-16 06:36:04.27	15.50	9.38	
2025-01-16 06:36:04.49	15.47	9.38	
2025-01-16 06:36:04.69	15.43	9.38	
2025-01-16 06:36:04.90	15.39	9.38	
2025-01-16 06:36:05.10	15.36	9.38	
2025-01-16 06:36:05.30	15.32	9.38	
2025-01-16 06:36:05.51	15.29	9.38	
2025-01-16 06:36:05.71	15.25	9.37	
2025-01-16 06:36:05.91	15.22	9.37	
2025-01-16 06:36:06.12	15.18	9.37	
2025-01-16 06:36:06.32	15.15	9.37	
2025-01-16 06:36:06.52	15.11	9.37	
2025-01-16 06:36:06.72	15.08	9.37	
2025-01-16 06:36:06.93	15.04	9.37	
2025-01-16 06:36:07.13	15.00	9.37	
2025-01-16 06:36:07.33	14.97	9.37	
2025-01-16 06:36:07.54	14.93	9.37	
2025-01-16 06:36:07.74	14.90	9.37	
2025-01-16 06:36:07.94	14.86	9.37	
2025-01-16 06:36:08.15	14.83	9.36	
2025-01-16 06:36:08.35	14.79	9.36	
2025-01-16 06:36:08.55	14.76	9.36	
2025-01-16 06:36:08.76	14.72	9.36	
2025-01-16 06:36:08.96	14.68	9.36	
2025-01-16 06:36:09.16	14.65	9.36	
2025-01-16 06:36:09.36	14.61	9.36	
2025-01-16 06:36:09.57	14.58	9.36	
2025-01-16 06:36:09.77	14.54	9.36	
2025-01-16 06:36:09.97	14.51	9.35	
2025-01-16 06:36:10.18	14.47	9.35	
2025-01-16 06:36:10.38	14.44	9.35	
2025-01-16 06:36:10.58	14.40	9.35	
2025-01-16 06:36:10.79	14.37	9.35	
2025-01-16 06:36:10.99	14.33	9.35	
2025-01-16 06:36:11.19	14.30	9.35	
2025-01-16 06:36:11.40	14.26	9.35	
2025-01-16 06:36:11.60	14.22	9.35	
2025-01-16 06:36:11.80	14.19	9.34	
2025-01-16 06:36:12.00	14.15	9.34	
2025-01-16 06:36:12.21	14.12	9.34	
2025-01-16 06:36:12.41	14.08	9.34	
2025-01-16 06:36:12.61	14.05	9.34	
2025-01-16 06:36:12.82	14.01	9.34	
2025-01-16 06:36:13.02	13.98	9.34	
2025-01-16 06:36:13.22	13.94	9.34	
2025-01-16 06:36:13.43	13.91	9.34	
2025-01-16 06:36:13.63	13.87	9.33	
2025-01-16 06:36:13.83	13.84	9.33	
2025-01-16 06:36:14.03	13.80	9.33	
2025-01-16 06:36:14.24	13.76	9.33	
2025-01-16 06:36:14.44	13.73	9.33	
2025-01-16 06:36:14.64	13.69	9.33	
2025-01-16 06:36:14.85	13.66	9.33	
2025-01-16 06:36:15.05	13.62	9.33	
2025-01-16 06:36:15.25	13.59	9.32	
2025-01-16 06:36:15.46	13.55	9.32	
2025-01-16 06:36:15.66	13.52	9.32	
2025-01-16 06:36:15.86	13.48	9.32	
2025-01-16 06:36:16.07	13.45	9.32	
2025-01-16 06:36:16.27	13.41	9.32	
2025-01-16 06:36:16.47	13.38	9.32	
2025-01-16 06:36:16.67	13.34	9.31	
2025-01-16 06:36:16.88	13.30	9.31	
2025-01-16 06:36:17.08	13.27	9.31	
2025-01-16 06:36:17.28	13.23	9.31	
2025-01-16 06:36:17.49	13.20	9.31	
2025-01-16 06:36:17.69	13.16	9.31	
2025-01-16 06:36:17.89	13.13	9.31	
2025-01-16 06:36:18.10	13.09	9.30	
2025-01-16 06:36:18.30	13.06	9.30	
2025-01-16 06:36:18.50	13.02	9.30	
2025-01-16 06:36:18.71	12.99	9.30	
2025-01-16 06:36:18.91	12.95	9.30	
2025-01-16 06:36:19.11	12.92	9.30	
2025-01-16 06:36:19.31	12.88	9.30	
2025-01-16 06:36:19.52	12.85	9.29	
2025-01-16 06:36:19.72	12.81	9.29	
2025-01-16 06:36:19.92	12.78	9.29	
2025-01-16 06:36:20.13	12.74	9.29	
2025-01-16 06:36:20.33	12.70	9.29	
2025-01-16 06:36:20.53	12.67	9.29	
2025-01-16 06:36:20.74	12.63	9.28	
2025-01-16 06:36:20.94	12.60	9.28	
2025-01-16 06:36:21.14	12.56	9.28	
2025-01-16 06:36:21.35	12.53	9.28	
2025-01-16 06:36:21.55	12.49	9.28	
2025-01-16 06:36:21.75	12.46	9.28	
2025-01-16 06:36:21.95	12.42	9.27	
2025-01-16 06:36:22.16	12.39	9.27	
2025-01-16 06:36:22.36	12.35	9.27	
2025-01-16 06:36:22.56	12.32	9.27	
2025-01-16 06:36:22.77	12.28	9.27	
2025-01-16 06:36:22.97	12.25	9.27	
2025-01-16 06:36:23.17	12.21	9.26	
2025-01-16 06:36:23.38	12.18	9.26	
2025-01-16 06:36:23.58	12.14	9.26	
2025-01-16 06:36:23.78	12.11	9.26	
2025-01-16 06:36:23.99	12.07	9.26	
2025-01-16 06:36:24.19	12.04	9.26	
2025-01-16 06:36:24.39	12.00	9.25	
2025-01-16 06:36:24.59	11.97	9.25	
2025-01-16 06:36:24.80	11.93	9.25	
2025-01-16 06:36:25.00	11.90	9.25	
2025-01-16 06:36:25.20	11.86	9.25	
2025-01-16 06:36:25.41	11.82	9.24	
2025-01-16 06:36:25.61	11.79	9.24	
2025-01-16 06:36:25.81	11.75	9.24	
2025-01-16 06:36:26.02	11.72	9.24	
2025-01-16 06:36:26.22	11.68	9.24	
2025-01-16 06:36:26.42	11.65	9.24	
2025-01-16 06:36:26.63	11.61	9.23	
2025-01-16 06:36:26.83	11.58	9.23	
2025-01-16 06:36:27.03	11.54	9.23	
2025-01-16 06:36:27.23	11.51	9.23	
2025-01-16 06:36:27.44	11.47	9.23	
2025-01-16 06:36:27.64	11.44	9.22	
2025-01-16 06:36:27.84	11.40	9.22	
2025-01-16 06:36:28.05	11.37	9.22	
2025-01-16 06:36:28.25	11.33	9.22	
2025-01-16 06:36:28.45	11.30	9.22	
2025-01-16 06:36:28.66	11.26	9.21	
2025-01-16 06:36:28.86	11.23	9.21	
2025-01-16 06:36:29.06	11.19	9.21	
2025-01-16 06:36:29.27	11.16	9.21	
2025-01-16 06:36:29.47	11.12	9.21	
2025-01-16 06:36:29.67	11.09	9.20	
2025-01-16 06:36:29.87	11.05	9.20	
2025-01-16 06:36:30.08	11.02	9.20	
2025-01-16 06:36:30.28	10.98	9.20	
2025-01-16 06:36:30.48	10.95	9.20	
2025-01-16 06:36:30.69	10.91	9.19	
2025-01-16 06:36:30.89	10.88	9.19	
2025-01-16 06:36:31.09	10.84	9.19	
2025-01-16 06:36:31.30	10.81	9.19	
2025-01-16 06:36:31.50	10.77	9.18	
2025-01-16 06:36:31.70	10.74	9.18	
2025-01-16 06:36:31.91	10.70	9.18	
2025-01-16 06:36:32.11	10.67	9.18	
2025-01-16 06:36:32.31	10.63	9.18	
2025-01-16 06:36:32.51	10.60	9.17	
2025-01-16 06:36:32.72	10.56	9.17	
2025-01-16 06:36:32.92	10.53	9.17	
2025-01-16 06:36:33.12	10.49	9.17	
2025-01-16 06:36:33.33	10.46	9.16	
2025-01-16 06:36:33.53	10.42	9.16	
2025-01-16 06:36:33.73	10.39	9.16	
2025-01-16 06:36:33.94	10.35	9.16	
2025-01-16 06:36:34.14	10.32	9.16	
2025-01-16 06:36:34.34	10.28	9.15	
2025-01-16 06:36:34.55	10.25	9.15	
2025-01-16 06:36:34.75	10.21	9.15	
2025-01-16 06:36:34.95	10.18	9.15	
2025-01-16 06:36:35.15	10.14	9.14	
2025-01-16 06:36:35.36	10.11	9.14	
2025-01-16 06:36:35.56	10.07	9.14	
2025-01-16 06:36:35.76	10.04	9.14	
2025-01-16 06:36:35.97	10.00	9.13	
2025-01-16 06:36:36.17	9.97	9.13	
2025-01-16 06:36:36.37	9.93	9.13	
2025-01-16 06:36:36.58	9.90	9.13	
2025-01-16 06:36:36.78	9.86	9.13	
2025-01-16 06:36:36.98	9.83	9.12	
2025-01-16 06:36:37.19	9.79	9.12	
2025-01-16 06:36:37.39	9.76	9.12	
2025-01-16 06:36:37.59	9.72	9.12	
2025-01-16 06:36:37.79	9.69	9.11	
2025-01-16 06:36:38.00	9.65	9.11	
2025-01-16 06:36:38.20	9.62	9.11	
2025-01-16 06:36:38.40	9.59	9.11	
2025-01-16 06:36:38.61	9.55	9.10	
2025-01-16 06:36:38.81	9.52	9.10	
2025-01-16 06:36:39.01	9.48	9.10	
2025-01-16 06:36:39.22	9.45	9.10	
2025-01-16 06:36:39.42	9.41	9.09	
2025-01-16 06:36:39.62	9.38	9.09	
2025-01-16 06:36:39.83	9.34	9.09	
2025-01-16 06:36:40.03	9.31	9.09	
2025-01-16 06:36:40.23	9.27	9.08	
2025-01-16 06:36:40.43	9.24	9.08	
2025-01-16 06:36:40.64	9.20	9.08	
2025-01-16 06:36:40.84	9.17	9.08	
2025-01-16 06:36:41.04	9.13	9.07	
2025-01-16 06:36:41.25	9.10	9.07	
2025-01-16 06:36:41.45	9.06	9.07	
2025-01-16 06:36:41.65	9.03	9.06	
2025-01-16 06:36:41.86	8.99	9.06	
2025-01-16 06:36:42.06	8.96	9.06	
2025-01-16 06:36:42.26	8.92	9.06	
2025-01-16 06:36:42.47	8.89	9.05	
2025-01-16 06:36:42.67	8.85	9.05	
2025-01-16 06:36:42.87	8.82	9.05	
2025-01-16 06:36:43.07	8.79	9.05	
2025-01-16 06:36:43.28	8.75	9.04	
2025-01-16 06:36:43.48	8.72	9.04	
2025-01-16 06:36:43.68	8.68	9.04	
2025-01-16 06:36:43.89	8.65	9.04	
2025-01-16 06:36:44.09	8.61	9.03	
2025-01-16 06:36:44.29	8.58	9.03	
2025-01-16 06:36:44.50	8.54	9.03	
2025-01-16 06:36:44.70	8.51	9.02	
2025-01-16 06:36:44.90	8.47	9.02	
2025-01-16 06:36:45.11	8.44	9.02	
2025-01-16 06:36:45.31	8.40	9.02	
2025-01-16 06:36:45.51	8.37	9.01	
2025-01-16 06:36:45.71	8.34	9.01	
2025-01-16 06:36:45.92	8.30	9.01	
2025-01-16 06:36:46.12	8.27	9.00	
2025-01-16 06:36:46.32	8.23	9.00	
2025-01-16 06:36:46.53	8.20	9.00	
2025-01-16 06:36:46.73	8.16	9.00	
2025-01-16 06:36:46.93	8.13	8.99	
2025-01-16 06:36:47.14	8.09	8.99	
2025-01-16 06:36:47.34	8.06	8.99	
2025-01-16 06:36:47.54	8.03	8.98	
2025-01-16 06:36:47.75	7.99	8.98	
2025-01-16 06:36:47.95	7.96	8.98	
2025-01-16 06:36:48.15	7.92	8.98	
2025-01-16 06:36:48.35	7.89	8.97	
2025-01-16 06:36:48.56	7.85	8.97	
2025-01-16 06:36:48.76	7.82	8.97	
2025-01-16 06:36:48.96	7.78	8.96	
2025-01-16 06:36:49.17	7.75	8.96	
2025-01-16 06:36:49.37	7.71	8.96	
2025-01-16 06:36:49.57	7.68	8.95	
2025-01-16 06:36:49.78	7.64	8.95	
2025-01-16 06:36:49.98	7.61	8.95	
2025-01-16 06:36:50.18	7.58	8.95	
2025-01-16 06:36:50.39	7.54	8.94	
2025-01-16 06:36:50.59	7.51	8.94	
2025-01-16 06:36:50.79	7.47	8.94	
2025-01-16 06:36:50.99	7.44	8.93	
2025-01-16 06:36:51.20	7.40	8.93	
2025-01-16 06:36:51.40	7.37	8.93	
2025-01-16 06:36:51.60	7.34	8.92	
2025-01-16 06:36:51.81	7.30	8.92	
2025-01-16 06:36:52.01	7.27	8.92	
2025-01-16 06:36:52.21	7.23	8.91	
2025-01-16 06:36:52.42	7.20	8.91	
2025-01-16 06:36:52.62	7.16	8.91	
2025-01-16 06:36:52.82	7.13	8.91	
2025-01-16 06:36:53.03	7.09	8.90	
2025-01-16 06:36:53.23	7.06	8.90	
2025-01-16 06:36:53.43	7.03	8.90	
2025-01-16 06:36:53.63	6.99	8.89	
2025-01-16 06:36:53.84	6.96	8.89	
2025-01-16 06:36:54.04	6.92	8.89	
2025-01-16 06:36:54.24	6.89	8.88	
2025-01-16 06:36:54.45	6.85	8.88	
2025-01-16 06:36:54.65	6.82	8.88	
2025-01-16 06:36:54.85	6.79	8.87	
2025-01-16 06:36:55.06	6.75	8.87	
2025-01-16 06:36:55.26	6.72	8.87	
2025-01-16 06:36:55.46	6.68	8.86	
2025-01-16 06:36:55.67	6.65	8.86	
2025-01-16 06:36:55.87	6.62	8.86	
2025-01-16 06:36:56.07	6.58	8.85	
2025-01-16 06:36:56.27	6.55	8.85	
2025-01-16 06:36:56.48	6.51	8.85	
2025-01-16 06:36:56.68	6.48	8.84	
2025-01-16 06:36:56.88	6.45	8.84	
2025-01-16 06:36:57.09	6.41	8.84	
2025-01-16 06:36:57.29	6.38	8.83	
2025-01-16 06:36:57.49	6.34	8.83	
2025-01-16 06:36:57.70	6.31	8.83	
2025-01-16 06:36:57.90	6.27	8.82	
2025-01-16 06:36:58.10	6.24	8.82	
2025-01-16 06:36:58.31	6.20	8.82	
2025-01-16 06:36:58.51	6.17	8.81	
2025-01-16 06:36:58.71	6.14	8.81	
2025-01-16 06:36:58.91	6.10	8.81	
2025-01-16 06:36:59.12	6.07	8.80	
2025-01-16 06:36:59.32	6.04	8.80	
2025-01-16 06:36:59.52	6.00	8.80	
2025-01-16 06:36:59.73	5.97	8.79	
2025-01-16 06:36:59.93	5.93	8.79	
2025-01-16 06:37:00.13	5.90	8.79	
2025-01-16 06:37:00.34	5.86	8.78	
2025-01-16 06:37:00.54	5.83	8.78	
2025-01-16 06:37:00.74	5.80	8.77	
2025-01-16 06:37:00.95	5.76	8.77	
2025-01-16 06:37:01.15	5.73	8.77	
2025-01-16 06:37:01.35	5.69	8.76	
2025-01-16 06:37:01.55	5.66	8.76	
2025-01-16 06:37:01.76	5.63	8.76	
2025-01-16 06:37:01.96	5.59	8.75	
2025-01-16 06:37:02.16	5.56	8.75	
2025-01-16 06:37:02.37	5.52	8.75	
2025-01-16 06:37:02.57	5.49	8.74	
2025-01-16 06:37:02.77	5.46	8.74	
2025-01-16 06:37:02.98	5.42	8.74	
2025-01-16 06:37:03.18	5.39	8.73	
2025-01-16 06:37:03.38	5.36	8.73	
2025-01-16 06:37:03.59	5.32	8.72	
2025-01-16 06:37:03.79	5.29	8.72	
2025-01-16 06:37:03.99	5.25	8.72	
2025-01-16 06:37:04.19	5.22	8.71	
2025-01-16 06:37:04.40	5.19	8.71	
2025-01-16 06:37:04.60	5.15	8.71	
2025-01-16 06:37:04.80	5.12	8.70	
2025-01-16 06:37:05.01	5.08	8.70	
2025-01-16 06:37:05.21	5.05	8.69	
2025-01-16 06:37:05.41	5.02	8.69	
2025-01-16 06:37:05.62	4.98	8.69	
2025-01-16 06:37:05.82	4.95	8.68	
2025-01-16 06:37:06.02	4.92	8.68	
2025-01-16 06:37:06.23	4.88	8.68	
2025-01-16 06:37:06.43	4.85	8.67	
2025-01-16 06:37:06.63	4.81	8.67	
2025-01-16 06:37:06.83	4.78	8.66	
2025-01-16 06:37:07.04	4.75	8.66	
2025-01-16 06:37:07.24	4.71	8.66	
2025-01-16 06:37:07.44	4.68	8.65	
2025-01-16 06:37:07.65	4.64	8.65	
2025-01-16 06:37:07.85	4.61	8.65	
2025-01-16 06:37:08.05	4.58	8.64	
2025-01-16 06:37:08.26	4.54	8.64	
2025-01-16 06:37:08.46	4.51	8.63	
2025-01-16 06:37:08.66	4.48	8.63	
2025-01-16 06:37:08.87	4.44	8.63	
2025-01-16 06:37:09.07	4.41	8.62	
2025-01-16 06:37:09.27	4.38	8.62	
2025-01-16 06:37:09.47	4.34	8.61	
2025-01-16 06:37:09.68	4.31	8.61	
2025-01-16 06:37:09.88	4.27	8.61	
2025-01-16 06:37:10.08	4.24	8.60	
2025-01-16 06:37:10.29	4.21	8.60	
2025-01-16 06:37:10.49	4.17	8.60	
2025-01-16 06:37:10.69	4.14	8.59	
2025-01-16 06:37:10.90	4.11	8.59	
2025-01-16 06:37:11.10	4.07	8.58	
2025-01-16 06:37:11.30	4.04	8.58	
2025-01-16 06:37:11.51	4.01	8.58	
2025-01-16 06:37:11.71	3.97	8.57	
2025-01-16 06:37:11.91	3.94	8.57	
2025-01-16 06:37:12.11	3.91	8.56	
2025-01-16 06:37:12.32	3.87	8.56	
2025-01-16 06:37:12.52	3.84	8.56	
2025-01-16 06:37:12.72	3.81	8.55	
2025-01-16 06:37:12.93	3.77	8.55	
2025-01-16 06:37:13.13	3.74	8.54	
2025-01-16 06:37:13.33	3.71	8.54	
2025-01-16 06:37:13.54	3.67	8.53	
2025-01-16 06:37:13.74	3.64	8.53	
2025-01-16 06:37:13.94	3.60	8.53	
2025-01-16 06:37:14.15	3.57	8.52	
2025-01-16 06:37:14.35	3.54	8.52	
2025-01-16 06:37:14.55	3.50	8.51	
2025-01-16 06:37:14.75	3.47	8.51	
2025-01-16 06:37:14.96	3.44	8.51	
2025-01-16 06:37:15.16	3.40	8.50	
2025-01-16 06:37:15.36	3.37	8.50	
2025-01-16 06:37:15.57	3.34	8.49	
2025-01-16 06:37:15.77	3.30	8.49	
2025-01-16 06:37:15.97	3.27	8.49	
2025-01-16 06:37:16.18	3.24	8.48	
2025-01-16 06:37:16.38	3.20	8.48	
2025-01-16 06:37:16.58	3.17	8.47	
2025-01-16 06:37:16.79	3.14	8.47	
2025-01-16 06:37:16.99	3.10	8.46	
2025-01-16 06:37:17.19	3.07	8.46	
2025-01-16 06:37:17.39	3.04	8.46	
2025-01-16 06:37:17.60	3.00	8.45	
2025-01-16 06:37:17.80	2.97	8.45	
2025-01-16 06:37:18.00	2.94	8.44	
2025-01-16 06:37:18.21	2.90	8.44	
2025-01-16 06:37:18.41	2.87	8.43	
2025-01-16 06:37:18.61	2.84	8.43	
2025-01-16 06:37:18.82	2.80	8.43	
2025-01-16 06:37:19.02	2.77	8.42	
2025-01-16 06:37:19.22	2.74	8.42	
2025-01-16 06:37:19.43	2.70	8.41	
2025-01-16 06:37:19.63	2.67	8.41	
2025-01-16 06:37:19.83	2.64	8.40	
2025-01-16 06:37:20.03	2.61	8.40	
2025-01-16 06:37:20.24	2.57	8.40	
2025-01-16 06:37:20.44	2.54	8.39	
2025-01-16 06:37:20.64	2.51	8.39	
2025-01-16 06:37:20.85	2.47	8.38	
2025-01-16 06:37:21.05	2.44	8.38	
2025-01-16 06:37:21.25	2.41	8.37	
2025-01-16 06:37:21.46	2.37	8.37	
2025-01-16 06:37:21.66	2.34	8.36	
2025-01-16 06:37:21.86	2.31	8.36	
2025-01-16 06:37:22.07	2.27	8.36	
2025-01-16 06:37:22.27	2.24	8.35	
2025-01-16 06:37:22.47	2.21	8.35	
2025-01-16 06:37:22.67	2.18	8.34	
2025-01-16 06:37:22.88	2.14	8.34	
2025-01-16 06:37:23.08	2.11	8.33	
2025-01-16 06:37:23.28	2.08	8.33	
2025-01-16 06:37:23.49	2.04	8.32	
2025-01-16 06:37:23.69	2.01	8.32	
2025-01-16 06:37:23.89	1.98	8.32	
2025-01-16 06:37:24.10	1.94	8.31	
2025-01-16 06:37:24.30	1.91	8.31	
2025-01-16 06:37:24.50	1.88	8.30	
2025-01-16 06:37:24.70	1.85	8.30	
2025-01-16 06:37:24.91	1.81	8.29	
2025-01-16 06:37:25.11	1.78	8.29	
2025-01-16 06:37:25.31	1.75	8.28	
2025-01-16 06:37:25.52	1.71	8.28	
2025-01-16 06:37:25.72	1.68	8.27	
2025-01-16 06:37:25.92	1.65	8.27	
2025-01-16 06:37:26.13	1.62	8.27	
2025-01-16 06:37:26.33	1.58	8.26	
2025-01-16 06:37:26.53	1.55	8.26	
2025-01-16 06:37:26.74	1.52	8.25	
2025-01-16 06:37:26.94	1.49	8.25	
2025-01-16 06:37:27.14	1.45	8.24	
2025-01-16 06:37:27.34	1.42	8.24	
2025-01-16 06:37:27.55	1.39	8.23	
2025-01-16 06:37:27.75	1.35	8.23	
2025-01-16 06:37:27.95	1.32	8.22	
2025-01-16 06:37:28.16	1.29	8.22	
2025-01-16 06:37:28.36	1.26	8.21	
2025-01-16 06:37:28.56	1.22	8.21	
2025-01-16 06:37:28.77	1.19	8.20	
2025-01-16 06:37:28.97	1.16	8.20	
2025-01-16 06:37:29.17	1.13	8.20	
2025-01-16 06:37:29.38	1.09	8.19	
2025-01-16 06:37:29.58	1.06	8.19	
2025-01-16 06:37:29.78	1.03	8.18	
2025-01-16 06:37:29.98	1.00	8.18	
2025-01-16 06:37:30.19	0.96	8.17	
2025-01-16 06:37:30.39	0.93	8.17	
2025-01-16 06:37:30.59	0.90	8.16	
2025-01-16 06:37:30.80	0.86	8.16	
2025-01-16 06:37:31.00	0.83	8.15	
2025-01-16 06:37:31.20	0.80	8.15	
2025-01-16 06:37:31.41	0.77	8.14	
2025-01-16 06:37:31.61	0.73	8.14	
2025-01-16 06:37:31.81	0.70	8.13	
2025-01-16 06:37:32.02	0.67	8.13	
2025-01-16 06:37:32.22	0.64	8.12	
2025-01-16 06:37:32.42	0.60	8.12	
2025-01-16 06:37:32.62	0.57	8.11	
2025-01-16 06:37:32.83	0.54	8.11	
2025-01-16 06:37:33.03	0.51	8.10	
2025-01-16 06:37:33.23	0.47	8.10	
2025-01-16 06:37:33.44	0.44	8.09	
2025-01-16 06:37:33.64	0.41	8.09	
2025-01-16 06:37:33.84	0.38	8.08	
2025-01-16 06:37:34.05	0.34	8.08	
2025-01-16 06:37:34.25	0.31	8.07	
2025-01-16 06:37:34.45	0.28	8.07	
2025-01-16 06:37:34.66	0.25	8.07	
2025-01-16 06:37:34.86	0.21	8.06	
2025-01-16 06:37:35.06	0.18	8.06	
2025-01-16 06:37:35.26	0.15	8.05	
2025-01-16 06:37:35.47	0.12	8.05	
2025-01-16 06:37:35.67	0.09	8.04	
2025-01-16 06:37:35.87	0.05	8.04	
2025-01-16 06:37:36.08	0.02	8.03	
2025-01-16 06:37:36.28	359.99	8.03	
2025-01-16 06:37:36.48	359.96	8.02	
2025-01-16 06:37:36.69	359.92	8.02	
2025-01-16 06:37:36.89	359.89	8.01	
2025-01-16 06:37:37.09	359.86	8.01	
2025-01-16 06:37:37.30	359.83	8.00	
2025-01-16 06:37:37.50	359.80	8.00	
2025-01-16 06:37:37.70	359.76	7.99	
2025-01-16 06:37:37.90	359.73	7.99	
2025-01-16 06:37:38.11	359.70	7.98	
2025-01-16 06:37:38.31	359.67	7.98	
2025-01-16 06:37:38.51	359.64	7.97	
2025-01-16 06:37:38.72	359.60	7.96	
2025-01-16 06:37:38.92	359.57	7.96	
2025-01-16 06:37:39.12	359.54	7.95	
2025-01-16 06:37:39.33	359.51	7.95	
2025-01-16 06:37:39.53	359.47	7.94	
2025-01-16 06:37:39.73	359.44	7.94	
2025-01-16 06:37:39.94	359.41	7.93	
2025-01-16 06:37:40.14	359.38	7.93	
2025-01-16 06:37:40.34	359.35	7.92	
2025-01-16 06:37:40.54	359.31	7.92	
2025-01-16 06:37:40.75	359.28	7.91	
2025-01-16 06:37:40.95	359.25	7.91	
2025-01-16 06:37:41.15	359.22	7.90	
2025-01-16 06:37:41.36	359.19	7.90	
2025-01-16 06:37:41.56	359.15	7.89	
2025-01-16 06:37:41.76	359.12	7.89	
2025-01-16 06:37:41.97	359.09	7.88	
2025-01-16 06:37:42.17	359.06	7.88	
2025-01-16 06:37:42.37	359.03	7.87	
2025-01-16 06:37:42.58	358.99	7.87	
2025-01-16 06:37:42.78	358.96	7.86	
2025-01-16 06:37:42.98	358.93	7.86	
2025-01-16 06:37:43.18	358.90	7.85	
2025-01-16 06:37:43.39	358.87	7.85	
2025-01-16 06:37:43.59	358.83	7.84	
2025-01-16 06:37:43.79	358.80	7.84	
2025-01-16 06:37:44.00	358.77	7.83	
2025-01-16 06:37:44.20	358.74	7.83	
2025-01-16 06:37:44.40	358.71	7.82	
2025-01-16 06:37:44.61	358.67	7.81	
2025-01-16 06:37:44.81	358.64	7.81	
2025-01-16 06:37:45.01	358.61	7.80	
2025-01-16 06:37:45.22	358.58	7.80	
2025-01-16 06:37:45.42	358.55	7.79	
2025-01-16 06:37:45.62	358.52	7.79	
2025-01-16 06:37:45.82	358.49	7.78	
2025-01-16 06:37:46.03	358.45	7.78	
2025-01-16 06:37:46.23	358.42	7.77	
2025-01-16 06:37:46.43	358.39	7.77	
2025-01-16 06:37:46.64	358.36	7.76	
2025-01-16 06:37:46.84	358.33	7.76	
2025-01-16 06:37:47.04	358.30	7.75	
2025-01-16 06:37:47.25	358.26	7.74	
2025-01-16 06:37:47.45	358.23	7.74	
2025-01-16 06:37:47.65	358.20	7.73	
2025-01-16 06:37:47.86	358.17	7.73	
2025-01-16 06:37:48.06	358.14	7.72	
2025-01-16 06:37:48.26	358.11	7.72	
2025-01-16 06:37:48.46	358.07	7.71	
2025-01-16 06:37:48.67	358.04	7.71	
2025-01-16 06:37:48.87	358.01	7.70	
2025-01-16 06:37:49.07	357.98	7.70	
2025-01-16 06:37:49.28	357.95	7.69	
2025-01-16 06:37:49.48	357.92	7.69	
2025-01-16 06:37:49.68	357.88	7.68	
2025-01-16 06:37:49.89	357.85	7.67	
