passes_logs/2025/01/16/SPB_Silybum_02/SPB_Silybum_02__20250116_070132_TERRA_rec.log

#Pass ID: 20250116_070132_TERRA
#Satellite: TERRA
#Configuration: TERRA
#Start time: 2025-01-16 07:01:30

#Version: 2.0.20230423
#Station: SPB_Silybum_02
#Location: 30.233357 lon 59.946436 lat
#TLE: 1 25994U 99068A   25015.81469206  .00000761  00000+0  16641-3 0  9994
#TLE: 2 25994  98.0214  78.8192 0003429  70.9720  38.3229 14.60396307334199

#Time	Az	El	Level	Level2	SNR	BER	Gain	Gain2
2025-01-16 07:01:32.64	25.46	4.04	
2025-01-16 07:01:32.84	25.48	4.05	
2025-01-16 07:01:33.04	25.49	4.07	
2025-01-16 07:01:33.24	25.51	4.08	
2025-01-16 07:01:33.45	25.53	4.09	
2025-01-16 07:01:33.65	25.54	4.10	
2025-01-16 07:01:33.85	25.56	4.12	
2025-01-16 07:01:34.06	25.58	4.13	
2025-01-16 07:01:34.26	25.59	4.14	
2025-01-16 07:01:34.46	25.61	4.15	
2025-01-16 07:01:34.67	25.62	4.17	
2025-01-16 07:01:34.87	25.64	4.18	
2025-01-16 07:01:35.07	25.66	4.19	
2025-01-16 07:01:35.28	25.67	4.21	
2025-01-16 07:01:35.48	25.69	4.22	
2025-01-16 07:01:35.68	25.71	4.23	
2025-01-16 07:01:35.88	25.72	4.24	
2025-01-16 07:01:36.09	25.74	4.26	
2025-01-16 07:01:36.29	25.75	4.27	
2025-01-16 07:01:36.49	25.77	4.28	
2025-01-16 07:01:36.70	25.79	4.29	
2025-01-16 07:01:36.90	25.80	4.31	
2025-01-16 07:01:37.10	25.82	4.32	
2025-01-16 07:01:37.31	25.84	4.33	
2025-01-16 07:01:37.51	25.85	4.35	
2025-01-16 07:01:37.71	25.87	4.36	
2025-01-16 07:01:37.92	25.89	4.37	
2025-01-16 07:01:38.12	25.90	4.38	
2025-01-16 07:01:38.32	25.92	4.40	
2025-01-16 07:01:38.52	25.94	4.41	
2025-01-16 07:01:38.73	25.95	4.42	
2025-01-16 07:01:38.93	25.97	4.44	
2025-01-16 07:01:39.13	25.99	4.45	
2025-01-16 07:01:39.34	26.00	4.46	
2025-01-16 07:01:39.54	26.02	4.47	
2025-01-16 07:01:39.74	26.04	4.49	
2025-01-16 07:01:39.95	26.05	4.50	
2025-01-16 07:01:40.15	26.07	4.51	
2025-01-16 07:01:40.35	26.09	4.53	
2025-01-16 07:01:40.55	26.10	4.54	
2025-01-16 07:01:40.76	26.12	4.55	
2025-01-16 07:01:40.96	26.14	4.56	
2025-01-16 07:01:41.16	26.15	4.58	
2025-01-16 07:01:41.37	26.17	4.59	
2025-01-16 07:01:41.57	26.19	4.60	
2025-01-16 07:01:41.77	26.20	4.62	
2025-01-16 07:01:41.98	26.22	4.63	
2025-01-16 07:01:42.18	26.24	4.64	
2025-01-16 07:01:42.38	26.26	4.65	
2025-01-16 07:01:42.59	26.27	4.67	
2025-01-16 07:01:42.79	26.29	4.68	
2025-01-16 07:01:42.99	26.31	4.69	
2025-01-16 07:01:43.19	26.32	4.71	
2025-01-16 07:01:43.40	26.34	4.72	
2025-01-16 07:01:43.60	26.36	4.73	
2025-01-16 07:01:43.80	26.37	4.74	
2025-01-16 07:01:44.01	26.39	4.76	
2025-01-16 07:01:44.21	26.41	4.77	
2025-01-16 07:01:44.41	26.43	4.78	
2025-01-16 07:01:44.62	26.44	4.80	
2025-01-16 07:01:44.82	26.46	4.81	
2025-01-16 07:01:45.02	26.48	4.82	
2025-01-16 07:01:45.23	26.49	4.84	
2025-01-16 07:01:45.43	26.51	4.85	
2025-01-16 07:01:45.63	26.53	4.86	
2025-01-16 07:01:45.83	26.55	4.87	
2025-01-16 07:01:46.04	26.56	4.89	
2025-01-16 07:01:46.24	26.58	4.90	
2025-01-16 07:01:46.44	26.60	4.91	
2025-01-16 07:01:46.65	26.61	4.93	
2025-01-16 07:01:46.85	26.63	4.94	
2025-01-16 07:01:47.05	26.65	4.95	
2025-01-16 07:01:47.26	26.67	4.97	
2025-01-16 07:01:47.46	26.68	4.98	
2025-01-16 07:01:47.66	26.70	4.99	
2025-01-16 07:01:47.87	26.72	5.01	
2025-01-16 07:01:48.07	26.74	5.02	
2025-01-16 07:01:48.27	26.75	5.03	
2025-01-16 07:01:48.47	26.77	5.04	
2025-01-16 07:01:48.68	26.79	5.06	
2025-01-16 07:01:48.88	26.81	5.07	
2025-01-16 07:01:49.08	26.82	5.08	
2025-01-16 07:01:49.29	26.84	5.10	
2025-01-16 07:01:49.49	26.86	5.11	
2025-01-16 07:01:49.69	26.87	5.12	
2025-01-16 07:01:49.90	26.89	5.14	
2025-01-16 07:01:50.10	26.91	5.15	
2025-01-16 07:01:50.30	26.93	5.16	
2025-01-16 07:01:50.51	26.95	5.18	
2025-01-16 07:01:50.71	26.96	5.19	
2025-01-16 07:01:50.91	26.98	5.20	
2025-01-16 07:01:51.11	27.00	5.21	
2025-01-16 07:01:51.32	27.02	5.23	
2025-01-16 07:01:51.52	27.03	5.24	
2025-01-16 07:01:51.72	27.05	5.25	
2025-01-16 07:01:51.93	27.07	5.27	
2025-01-16 07:01:52.13	27.09	5.28	
2025-01-16 07:01:52.33	27.10	5.29	
2025-01-16 07:01:52.54	27.12	5.31	
2025-01-16 07:01:52.74	27.14	5.32	
2025-01-16 07:01:52.94	27.16	5.33	
2025-01-16 07:01:53.15	27.18	5.35	
2025-01-16 07:01:53.35	27.19	5.36	
2025-01-16 07:01:53.55	27.21	5.37	
2025-01-16 07:01:53.75	27.23	5.39	
2025-01-16 07:01:53.96	27.25	5.40	
2025-01-16 07:01:54.16	27.26	5.41	
2025-01-16 07:01:54.36	27.28	5.43	
2025-01-16 07:01:54.57	27.30	5.44	
2025-01-16 07:01:54.77	27.32	5.45	
2025-01-16 07:01:54.97	27.34	5.47	
2025-01-16 07:01:55.18	27.35	5.48	
2025-01-16 07:01:55.38	27.37	5.49	
2025-01-16 07:01:55.58	27.39	5.51	
2025-01-16 07:01:55.79	27.41	5.52	
2025-01-16 07:01:55.99	27.43	5.53	
2025-01-16 07:01:56.19	27.44	5.54	
2025-01-16 07:01:56.39	27.46	5.56	
2025-01-16 07:01:56.60	27.48	5.57	
2025-01-16 07:01:56.80	27.50	5.58	
2025-01-16 07:01:57.00	27.52	5.60	
2025-01-16 07:01:57.21	27.53	5.61	
2025-01-16 07:01:57.41	27.55	5.62	
2025-01-16 07:01:57.61	27.57	5.64	
2025-01-16 07:01:57.82	27.59	5.65	
2025-01-16 07:01:58.02	27.61	5.66	
2025-01-16 07:01:58.22	27.62	5.68	
2025-01-16 07:01:58.43	27.64	5.69	
2025-01-16 07:01:58.63	27.66	5.70	
2025-01-16 07:01:58.83	27.68	5.72	
2025-01-16 07:01:59.03	27.70	5.73	
2025-01-16 07:01:59.24	27.72	5.74	
2025-01-16 07:01:59.44	27.73	5.76	
2025-01-16 07:01:59.64	27.75	5.77	
2025-01-16 07:01:59.85	27.77	5.79	
2025-01-16 07:02:00.05	27.79	5.80	
2025-01-16 07:02:00.25	27.81	5.81	
2025-01-16 07:02:00.46	27.83	5.83	
2025-01-16 07:02:00.66	27.84	5.84	
2025-01-16 07:02:00.86	27.86	5.85	
2025-01-16 07:02:01.07	27.88	5.87	
2025-01-16 07:02:01.27	27.90	5.88	
2025-01-16 07:02:01.47	27.92	5.89	
2025-01-16 07:02:01.67	27.94	5.91	
2025-01-16 07:02:01.88	27.95	5.92	
2025-01-16 07:02:02.08	27.97	5.93	
2025-01-16 07:02:02.28	27.99	5.95	
2025-01-16 07:02:02.49	28.01	5.96	
2025-01-16 07:02:02.69	28.03	5.97	
2025-01-16 07:02:02.89	28.05	5.99	
2025-01-16 07:02:03.10	28.07	6.00	
2025-01-16 07:02:03.30	28.08	6.01	
2025-01-16 07:02:03.50	28.10	6.03	
2025-01-16 07:02:03.71	28.12	6.04	
2025-01-16 07:02:03.91	28.14	6.05	
2025-01-16 07:02:04.11	28.16	6.07	
2025-01-16 07:02:04.31	28.18	6.08	
2025-01-16 07:02:04.52	28.20	6.09	
2025-01-16 07:02:04.72	28.22	6.11	
2025-01-16 07:02:04.92	28.23	6.12	
2025-01-16 07:02:05.13	28.25	6.13	
2025-01-16 07:02:05.33	28.27	6.15	
2025-01-16 07:02:05.53	28.29	6.16	
2025-01-16 07:02:05.74	28.31	6.18	
2025-01-16 07:02:05.94	28.33	6.19	
2025-01-16 07:02:06.14	28.35	6.20	
2025-01-16 07:02:06.35	28.37	6.22	
2025-01-16 07:02:06.55	28.38	6.23	
2025-01-16 07:02:06.75	28.40	6.24	
2025-01-16 07:02:06.95	28.42	6.26	
2025-01-16 07:02:07.16	28.44	6.27	
2025-01-16 07:02:07.36	28.46	6.28	
2025-01-16 07:02:07.56	28.48	6.30	
2025-01-16 07:02:07.77	28.50	6.31	
2025-01-16 07:02:07.97	28.52	6.32	
2025-01-16 07:02:08.17	28.54	6.34	
2025-01-16 07:02:08.38	28.56	6.35	
2025-01-16 07:02:08.58	28.57	6.37	
2025-01-16 07:02:08.78	28.59	6.38	
2025-01-16 07:02:08.99	28.61	6.39	
2025-01-16 07:02:09.19	28.63	6.41	
2025-01-16 07:02:09.39	28.65	6.42	
2025-01-16 07:02:09.59	28.67	6.43	
2025-01-16 07:02:09.80	28.69	6.45	
2025-01-16 07:02:10.00	28.71	6.46	
2025-01-16 07:02:10.20	28.73	6.47	
2025-01-16 07:02:10.41	28.75	6.49	
2025-01-16 07:02:10.61	28.77	6.50	
2025-01-16 07:02:10.81	28.79	6.51	
2025-01-16 07:02:11.02	28.81	6.53	
2025-01-16 07:02:11.22	28.82	6.54	
2025-01-16 07:02:11.42	28.84	6.56	
2025-01-16 07:02:11.63	28.86	6.57	
2025-01-16 07:02:11.83	28.88	6.58	
2025-01-16 07:02:12.03	28.90	6.60	
2025-01-16 07:02:12.23	28.92	6.61	
2025-01-16 07:02:12.44	28.94	6.62	
2025-01-16 07:02:12.64	28.96	6.64	
2025-01-16 07:02:12.84	28.98	6.65	
2025-01-16 07:02:13.05	29.00	6.67	
2025-01-16 07:02:13.25	29.02	6.68	
2025-01-16 07:02:13.45	29.04	6.69	
2025-01-16 07:02:13.66	29.06	6.71	
2025-01-16 07:02:13.86	29.08	6.72	
2025-01-16 07:02:14.06	29.10	6.73	
2025-01-16 07:02:14.27	29.12	6.75	
2025-01-16 07:02:14.47	29.14	6.76	
2025-01-16 07:02:14.67	29.16	6.78	
2025-01-16 07:02:14.87	29.18	6.79	
2025-01-16 07:02:15.08	29.20	6.80	
2025-01-16 07:02:15.28	29.22	6.82	
2025-01-16 07:02:15.48	29.23	6.83	
2025-01-16 07:02:15.69	29.25	6.85	
2025-01-16 07:02:15.89	29.27	6.86	
2025-01-16 07:02:16.09	29.29	6.87	
2025-01-16 07:02:16.30	29.31	6.89	
2025-01-16 07:02:16.50	29.33	6.90	
2025-01-16 07:02:16.70	29.35	6.91	
2025-01-16 07:02:16.91	29.37	6.93	
2025-01-16 07:02:17.11	29.39	6.94	
2025-01-16 07:02:17.31	29.41	6.96	
2025-01-16 07:02:17.51	29.43	6.97	
2025-01-16 07:02:17.72	29.45	6.98	
2025-01-16 07:02:17.92	29.47	7.00	
2025-01-16 07:02:18.12	29.49	7.01	
2025-01-16 07:02:18.33	29.51	7.03	
2025-01-16 07:02:18.53	29.53	7.04	
2025-01-16 07:02:18.73	29.55	7.05	
2025-01-16 07:02:18.94	29.57	7.07	
2025-01-16 07:02:19.14	29.59	7.08	
2025-01-16 07:02:19.34	29.61	7.09	
2025-01-16 07:02:19.55	29.63	7.11	
2025-01-16 07:02:19.75	29.65	7.12	
2025-01-16 07:02:19.95	29.67	7.14	
2025-01-16 07:02:20.15	29.69	7.15	
2025-01-16 07:02:20.36	29.71	7.16	
2025-01-16 07:02:20.56	29.73	7.18	
2025-01-16 07:02:20.76	29.75	7.19	
2025-01-16 07:02:20.97	29.78	7.21	
2025-01-16 07:02:21.17	29.80	7.22	
2025-01-16 07:02:21.37	29.82	7.23	
2025-01-16 07:02:21.58	29.84	7.25	
2025-01-16 07:02:21.78	29.86	7.26	
2025-01-16 07:02:21.98	29.88	7.28	
2025-01-16 07:02:22.19	29.90	7.29	
2025-01-16 07:02:22.39	29.92	7.30	
2025-01-16 07:02:22.59	29.94	7.32	
2025-01-16 07:02:22.79	29.96	7.33	
2025-01-16 07:02:23.00	29.98	7.35	
2025-01-16 07:02:23.20	30.00	7.36	
2025-01-16 07:02:23.40	30.02	7.37	
2025-01-16 07:02:23.61	30.04	7.39	
2025-01-16 07:02:23.81	30.06	7.40	
2025-01-16 07:02:24.01	30.08	7.42	
2025-01-16 07:02:24.22	30.10	7.43	
2025-01-16 07:02:24.42	30.12	7.44	
2025-01-16 07:02:24.62	30.14	7.46	
2025-01-16 07:02:24.83	30.16	7.47	
2025-01-16 07:02:25.03	30.18	7.49	
2025-01-16 07:02:25.23	30.20	7.50	
2025-01-16 07:02:25.43	30.23	7.51	
2025-01-16 07:02:25.64	30.25	7.53	
2025-01-16 07:02:25.84	30.27	7.54	
2025-01-16 07:02:26.04	30.29	7.56	
2025-01-16 07:02:26.25	30.31	7.57	
2025-01-16 07:02:26.45	30.33	7.58	
2025-01-16 07:02:26.65	30.35	7.60	
2025-01-16 07:02:26.86	30.37	7.61	
2025-01-16 07:02:27.06	30.39	7.63	
2025-01-16 07:02:27.26	30.41	7.64	
2025-01-16 07:02:27.47	30.43	7.66	
2025-01-16 07:02:27.67	30.46	7.67	
2025-01-16 07:02:27.87	30.48	7.68	
2025-01-16 07:02:28.07	30.50	7.70	
2025-01-16 07:02:28.28	30.52	7.71	
2025-01-16 07:02:28.48	30.54	7.73	
2025-01-16 07:02:28.68	30.56	7.74	
2025-01-16 07:02:28.89	30.58	7.75	
2025-01-16 07:02:29.09	30.60	7.77	
2025-01-16 07:02:29.29	30.62	7.78	
2025-01-16 07:02:29.50	30.64	7.80	
2025-01-16 07:02:29.70	30.67	7.81	
2025-01-16 07:02:29.90	30.69	7.83	
2025-01-16 07:02:30.11	30.71	7.84	
2025-01-16 07:02:30.31	30.73	7.85	
2025-01-16 07:02:30.51	30.75	7.87	
2025-01-16 07:02:30.71	30.77	7.88	
2025-01-16 07:02:30.92	30.79	7.90	
2025-01-16 07:02:31.12	30.81	7.91	
2025-01-16 07:02:31.32	30.83	7.92	
2025-01-16 07:02:31.53	30.86	7.94	
2025-01-16 07:02:31.73	30.88	7.95	
2025-01-16 07:02:31.93	30.90	7.97	
2025-01-16 07:02:32.14	30.92	7.98	
2025-01-16 07:02:32.34	30.94	8.00	
2025-01-16 07:02:32.54	30.96	8.01	
2025-01-16 07:02:32.75	30.99	8.03	
2025-01-16 07:02:32.95	31.01	8.04	
2025-01-16 07:02:33.15	31.03	8.05	
2025-01-16 07:02:33.35	31.05	8.07	
2025-01-16 07:02:33.56	31.07	8.08	
2025-01-16 07:02:33.76	31.09	8.10	
2025-01-16 07:02:33.96	31.11	8.11	
2025-01-16 07:02:34.17	31.14	8.13	
2025-01-16 07:02:34.37	31.16	8.14	
2025-01-16 07:02:34.57	31.18	8.15	
2025-01-16 07:02:34.78	31.20	8.17	
2025-01-16 07:02:34.98	31.22	8.18	
2025-01-16 07:02:35.18	31.24	8.20	
2025-01-16 07:02:35.39	31.27	8.21	
2025-01-16 07:02:35.59	31.29	8.23	
2025-01-16 07:02:35.79	31.31	8.24	
2025-01-16 07:02:35.99	31.33	8.25	
2025-01-16 07:02:36.20	31.35	8.27	
2025-01-16 07:02:36.40	31.38	8.28	
2025-01-16 07:02:36.60	31.40	8.30	
2025-01-16 07:02:36.81	31.42	8.31	
2025-01-16 07:02:37.01	31.44	8.33	
2025-01-16 07:02:37.21	31.46	8.34	
2025-01-16 07:02:37.42	31.49	8.36	
2025-01-16 07:02:37.62	31.51	8.37	
2025-01-16 07:02:37.82	31.53	8.38	
2025-01-16 07:02:38.02	31.55	8.40	
2025-01-16 07:02:38.23	31.57	8.41	
2025-01-16 07:02:38.43	31.60	8.43	
2025-01-16 07:02:38.63	31.62	8.44	
2025-01-16 07:02:38.84	31.64	8.46	
2025-01-16 07:02:39.04	31.66	8.47	
2025-01-16 07:02:39.24	31.68	8.48	
2025-01-16 07:02:39.45	31.71	8.50	
2025-01-16 07:02:39.65	31.73	8.51	
2025-01-16 07:02:39.85	31.75	8.53	
2025-01-16 07:02:40.06	31.77	8.54	
2025-01-16 07:02:40.26	31.80	8.56	
2025-01-16 07:02:40.46	31.82	8.57	
2025-01-16 07:02:40.67	31.84	8.59	
2025-01-16 07:02:40.87	31.86	8.60	
2025-01-16 07:02:41.07	31.88	8.62	
2025-01-16 07:02:41.27	31.91	8.63	
2025-01-16 07:02:41.48	31.93	8.64	
2025-01-16 07:02:41.68	31.95	8.66	
2025-01-16 07:02:41.88	31.97	8.67	
2025-01-16 07:02:42.09	32.00	8.69	
2025-01-16 07:02:42.29	32.02	8.70	
2025-01-16 07:02:42.49	32.04	8.72	
2025-01-16 07:02:42.70	32.07	8.73	
2025-01-16 07:02:42.90	32.09	8.75	
2025-01-16 07:02:43.10	32.11	8.76	
2025-01-16 07:02:43.30	32.13	8.78	
2025-01-16 07:02:43.51	32.16	8.79	
2025-01-16 07:02:43.71	32.18	8.81	
2025-01-16 07:02:43.91	32.20	8.82	
2025-01-16 07:02:44.12	32.22	8.83	
2025-01-16 07:02:44.32	32.25	8.85	
2025-01-16 07:02:44.52	32.27	8.86	
2025-01-16 07:02:44.73	32.29	8.88	
2025-01-16 07:02:44.93	32.31	8.89	
2025-01-16 07:02:45.13	32.34	8.91	
2025-01-16 07:02:45.34	32.36	8.92	
2025-01-16 07:02:45.54	32.38	8.94	
2025-01-16 07:02:45.74	32.41	8.95	
2025-01-16 07:02:45.95	32.43	8.97	
2025-01-16 07:02:46.15	32.45	8.98	
2025-01-16 07:02:46.35	32.48	9.00	
2025-01-16 07:02:46.55	32.50	9.01	
2025-01-16 07:02:46.76	32.52	9.03	
2025-01-16 07:02:46.96	32.54	9.04	
2025-01-16 07:02:47.16	32.57	9.05	
2025-01-16 07:02:47.37	32.59	9.07	
2025-01-16 07:02:47.57	32.61	9.08	
2025-01-16 07:02:47.77	32.64	9.10	
2025-01-16 07:02:47.98	32.66	9.11	
2025-01-16 07:02:48.18	32.68	9.13	
2025-01-16 07:02:48.38	32.71	9.14	
2025-01-16 07:02:48.59	32.73	9.16	
2025-01-16 07:02:48.79	32.75	9.17	
2025-01-16 07:02:48.99	32.78	9.19	
2025-01-16 07:02:49.19	32.80	9.20	
2025-01-16 07:02:49.40	32.82	9.22	
2025-01-16 07:02:49.60	32.85	9.23	
2025-01-16 07:02:49.80	32.87	9.25	
2025-01-16 07:02:50.01	32.89	9.26	
2025-01-16 07:02:50.21	32.92	9.28	
2025-01-16 07:02:50.41	32.94	9.29	
2025-01-16 07:02:50.62	32.96	9.31	
2025-01-16 07:02:50.82	32.99	9.32	
2025-01-16 07:02:51.02	33.01	9.33	
2025-01-16 07:02:51.22	33.03	9.35	
2025-01-16 07:02:51.43	33.06	9.36	
2025-01-16 07:02:51.63	33.08	9.38	
2025-01-16 07:02:51.83	33.11	9.39	
2025-01-16 07:02:52.04	33.13	9.41	
2025-01-16 07:02:52.24	33.15	9.42	
2025-01-16 07:02:52.44	33.18	9.44	
2025-01-16 07:02:52.65	33.20	9.45	
2025-01-16 07:02:52.85	33.22	9.47	
2025-01-16 07:02:53.05	33.25	9.48	
2025-01-16 07:02:53.26	33.27	9.50	
2025-01-16 07:02:53.46	33.30	9.51	
2025-01-16 07:02:53.66	33.32	9.53	
2025-01-16 07:02:53.86	33.34	9.54	
2025-01-16 07:02:54.07	33.37	9.56	
2025-01-16 07:02:54.27	33.39	9.57	
2025-01-16 07:02:54.47	33.41	9.59	
2025-01-16 07:02:54.68	33.44	9.60	
2025-01-16 07:02:54.88	33.46	9.62	
2025-01-16 07:02:55.08	33.49	9.63	
2025-01-16 07:02:55.29	33.51	9.65	
2025-01-16 07:02:55.49	33.54	9.66	
2025-01-16 07:02:55.69	33.56	9.68	
2025-01-16 07:02:55.90	33.58	9.69	
2025-01-16 07:02:56.10	33.61	9.71	
2025-01-16 07:02:56.30	33.63	9.72	
2025-01-16 07:02:56.50	33.66	9.74	
2025-01-16 07:02:56.71	33.68	9.75	
2025-01-16 07:02:56.91	33.71	9.77	
2025-01-16 07:02:57.11	33.73	9.78	
2025-01-16 07:02:57.32	33.75	9.80	
2025-01-16 07:02:57.52	33.78	9.81	
2025-01-16 07:02:57.72	33.80	9.83	
2025-01-16 07:02:57.93	33.83	9.84	
2025-01-16 07:02:58.13	33.85	9.86	
2025-01-16 07:02:58.33	33.88	9.87	
2025-01-16 07:02:58.54	33.90	9.89	
2025-01-16 07:02:58.74	33.93	9.90	
2025-01-16 07:02:58.94	33.95	9.92	
2025-01-16 07:02:59.14	33.97	9.93	
2025-01-16 07:02:59.35	34.00	9.95	
2025-01-16 07:02:59.55	34.02	9.96	
2025-01-16 07:02:59.75	34.05	9.98	
2025-01-16 07:02:59.96	34.07	9.99	
2025-01-16 07:03:00.16	34.10	10.01	
2025-01-16 07:03:00.36	34.12	10.02	
2025-01-16 07:03:00.57	34.15	10.04	
2025-01-16 07:03:00.77	34.17	10.05	
2025-01-16 07:03:00.97	34.20	10.07	
2025-01-16 07:03:01.18	34.22	10.08	
2025-01-16 07:03:01.38	34.25	10.10	
2025-01-16 07:03:01.58	34.27	10.11	
2025-01-16 07:03:01.78	34.30	10.13	
2025-01-16 07:03:01.99	34.32	10.14	
2025-01-16 07:03:02.19	34.35	10.16	
2025-01-16 07:03:02.39	34.37	10.17	
2025-01-16 07:03:02.60	34.40	10.19	
2025-01-16 07:03:02.80	34.42	10.20	
2025-01-16 07:03:03.00	34.45	10.22	
2025-01-16 07:03:03.21	34.47	10.24	
2025-01-16 07:03:03.41	34.50	10.25	
2025-01-16 07:03:03.61	34.52	10.27	
2025-01-16 07:03:03.82	34.55	10.28	
2025-01-16 07:03:04.02	34.57	10.30	
2025-01-16 07:03:04.22	34.60	10.31	
2025-01-16 07:03:04.42	34.62	10.33	
2025-01-16 07:03:04.63	34.65	10.34	
2025-01-16 07:03:04.83	34.67	10.36	
2025-01-16 07:03:05.03	34.70	10.37	
2025-01-16 07:03:05.24	34.72	10.39	
2025-01-16 07:03:05.44	34.75	10.40	
2025-01-16 07:03:05.64	34.77	10.42	
2025-01-16 07:03:05.85	34.80	10.43	
2025-01-16 07:03:06.05	34.83	10.45	
2025-01-16 07:03:06.25	34.85	10.46	
2025-01-16 07:03:06.46	34.88	10.48	
2025-01-16 07:03:06.66	34.90	10.49	
2025-01-16 07:03:06.86	34.93	10.51	
2025-01-16 07:03:07.06	34.95	10.52	
2025-01-16 07:03:07.27	34.98	10.54	
2025-01-16 07:03:07.47	35.01	10.56	
2025-01-16 07:03:07.67	35.03	10.57	
2025-01-16 07:03:07.88	35.06	10.59	
2025-01-16 07:03:08.08	35.08	10.60	
2025-01-16 07:03:08.28	35.11	10.62	
2025-01-16 07:03:08.49	35.14	10.63	
2025-01-16 07:03:08.69	35.16	10.65	
2025-01-16 07:03:08.89	35.19	10.66	
2025-01-16 07:03:09.10	35.21	10.68	
2025-01-16 07:03:09.30	35.24	10.69	
2025-01-16 07:03:09.50	35.26	10.71	
2025-01-16 07:03:09.70	35.29	10.72	
2025-01-16 07:03:09.91	35.32	10.74	
2025-01-16 07:03:10.11	35.34	10.75	
2025-01-16 07:03:10.31	35.37	10.77	
2025-01-16 07:03:10.52	35.39	10.79	
2025-01-16 07:03:10.72	35.42	10.80	
2025-01-16 07:03:10.92	35.45	10.82	
2025-01-16 07:03:11.13	35.47	10.83	
2025-01-16 07:03:11.33	35.50	10.85	
2025-01-16 07:03:11.53	35.53	10.86	
2025-01-16 07:03:11.74	35.55	10.88	
2025-01-16 07:03:11.94	35.58	10.89	
2025-01-16 07:03:12.14	35.60	10.91	
2025-01-16 07:03:12.34	35.63	10.92	
2025-01-16 07:03:12.55	35.66	10.94	
2025-01-16 07:03:12.75	35.68	10.95	
2025-01-16 07:03:12.95	35.71	10.97	
2025-01-16 07:03:13.16	35.74	10.99	
2025-01-16 07:03:13.36	35.76	11.00	
2025-01-16 07:03:13.56	35.79	11.02	
2025-01-16 07:03:13.77	35.82	11.03	
2025-01-16 07:03:13.97	35.84	11.05	
2025-01-16 07:03:14.17	35.87	11.06	
2025-01-16 07:03:14.38	35.90	11.08	
2025-01-16 07:03:14.58	35.92	11.09	
2025-01-16 07:03:14.78	35.95	11.11	
2025-01-16 07:03:14.98	35.98	11.13	
2025-01-16 07:03:15.19	36.00	11.14	
2025-01-16 07:03:15.39	36.03	11.16	
2025-01-16 07:03:15.59	36.06	11.17	
2025-01-16 07:03:15.80	36.08	11.19	
2025-01-16 07:03:16.00	36.11	11.20	
2025-01-16 07:03:16.20	36.14	11.22	
2025-01-16 07:03:16.41	36.17	11.23	
2025-01-16 07:03:16.61	36.19	11.25	
2025-01-16 07:03:16.81	36.22	11.27	
2025-01-16 07:03:17.02	36.25	11.28	
2025-01-16 07:03:17.22	36.27	11.30	
2025-01-16 07:03:17.42	36.30	11.31	
2025-01-16 07:03:17.62	36.33	11.33	
2025-01-16 07:03:17.83	36.35	11.34	
2025-01-16 07:03:18.03	36.38	11.36	
2025-01-16 07:03:18.23	36.41	11.37	
2025-01-16 07:03:18.44	36.44	11.39	
2025-01-16 07:03:18.64	36.46	11.41	
2025-01-16 07:03:18.84	36.49	11.42	
2025-01-16 07:03:19.05	36.52	11.44	
2025-01-16 07:03:19.25	36.55	11.45	
2025-01-16 07:03:19.45	36.57	11.47	
2025-01-16 07:03:19.66	36.60	11.48	
2025-01-16 07:03:19.86	36.63	11.50	
2025-01-16 07:03:20.06	36.65	11.52	
2025-01-16 07:03:20.26	36.68	11.53	
2025-01-16 07:03:20.47	36.71	11.55	
2025-01-16 07:03:20.67	36.74	11.56	
2025-01-16 07:03:20.87	36.76	11.58	
2025-01-16 07:03:21.08	36.79	11.59	
2025-01-16 07:03:21.28	36.82	11.61	
2025-01-16 07:03:21.48	36.85	11.62	
2025-01-16 07:03:21.69	36.88	11.64	
2025-01-16 07:03:21.89	36.90	11.66	
2025-01-16 07:03:22.09	36.93	11.67	
2025-01-16 07:03:22.30	36.96	11.69	
2025-01-16 07:03:22.50	36.99	11.70	
2025-01-16 07:03:22.70	37.02	11.72	
2025-01-16 07:03:22.90	37.04	11.73	
2025-01-16 07:03:23.11	37.07	11.75	
2025-01-16 07:03:23.31	37.10	11.77	
2025-01-16 07:03:23.51	37.13	11.78	
2025-01-16 07:03:23.72	37.16	11.80	
2025-01-16 07:03:23.92	37.18	11.81	
2025-01-16 07:03:24.12	37.21	11.83	
2025-01-16 07:03:24.33	37.24	11.85	
2025-01-16 07:03:24.53	37.27	11.86	
2025-01-16 07:03:24.73	37.30	11.88	
2025-01-16 07:03:24.94	37.33	11.89	
2025-01-16 07:03:25.14	37.35	11.91	
2025-01-16 07:03:25.34	37.38	11.92	
2025-01-16 07:03:25.54	37.41	11.94	
2025-01-16 07:03:25.75	37.44	11.96	
2025-01-16 07:03:25.95	37.47	11.97	
2025-01-16 07:03:26.15	37.49	11.99	
2025-01-16 07:03:26.36	37.52	12.00	
2025-01-16 07:03:26.56	37.55	12.02	
2025-01-16 07:03:26.76	37.58	12.03	
2025-01-16 07:03:26.97	37.61	12.05	
2025-01-16 07:03:27.17	37.64	12.07	
2025-01-16 07:03:27.37	37.67	12.08	
2025-01-16 07:03:27.58	37.70	12.10	
2025-01-16 07:03:27.78	37.72	12.11	
2025-01-16 07:03:27.98	37.75	12.13	
2025-01-16 07:03:28.18	37.78	12.15	
2025-01-16 07:03:28.39	37.81	12.16	
2025-01-16 07:03:28.59	37.84	12.18	
2025-01-16 07:03:28.79	37.87	12.19	
2025-01-16 07:03:29.00	37.90	12.21	
2025-01-16 07:03:29.20	37.93	12.23	
2025-01-16 07:03:29.40	37.95	12.24	
2025-01-16 07:03:29.61	37.98	12.26	
2025-01-16 07:03:29.81	38.01	12.27	
2025-01-16 07:03:30.01	38.04	12.29	
2025-01-16 07:03:30.22	38.07	12.31	
2025-01-16 07:03:30.42	38.10	12.32	
2025-01-16 07:03:30.62	38.13	12.34	
2025-01-16 07:03:30.82	38.16	12.35	
2025-01-16 07:03:31.03	38.19	12.37	
2025-01-16 07:03:31.23	38.22	12.38	
2025-01-16 07:03:31.43	38.24	12.40	
2025-01-16 07:03:31.64	38.28	12.42	
2025-01-16 07:03:31.84	38.30	12.43	
2025-01-16 07:03:32.04	38.33	12.45	
2025-01-16 07:03:32.25	38.36	12.47	
2025-01-16 07:03:32.45	38.39	12.48	
2025-01-16 07:03:32.65	38.42	12.50	
2025-01-16 07:03:32.86	38.45	12.51	
2025-01-16 07:03:33.06	38.48	12.53	
2025-01-16 07:03:33.26	38.51	12.54	
2025-01-16 07:03:33.46	38.54	12.56	
2025-01-16 07:03:33.67	38.57	12.58	
2025-01-16 07:03:33.87	38.60	12.59	
2025-01-16 07:03:34.07	38.63	12.61	
2025-01-16 07:03:34.28	38.66	12.63	
2025-01-16 07:03:34.48	38.69	12.64	
2025-01-16 07:03:34.68	38.72	12.66	
2025-01-16 07:03:34.89	38.75	12.67	
2025-01-16 07:03:35.09	38.78	12.69	
2025-01-16 07:03:35.29	38.81	12.71	
2025-01-16 07:03:35.50	38.84	12.72	
2025-01-16 07:03:35.70	38.87	12.74	
2025-01-16 07:03:35.90	38.90	12.75	
2025-01-16 07:03:36.10	38.93	12.77	
2025-01-16 07:03:36.31	38.96	12.79	
2025-01-16 07:03:36.51	38.99	12.80	
2025-01-16 07:03:36.71	39.02	12.82	
2025-01-16 07:03:36.92	39.05	12.83	
2025-01-16 07:03:37.12	39.08	12.85	
2025-01-16 07:03:37.32	39.11	12.87	
2025-01-16 07:03:37.53	39.14	12.88	
2025-01-16 07:03:37.73	39.17	12.90	
2025-01-16 07:03:37.93	39.20	12.91	
2025-01-16 07:03:38.14	39.23	12.93	
2025-01-16 07:03:38.34	39.26	12.95	
2025-01-16 07:03:38.54	39.29	12.96	
2025-01-16 07:03:38.74	39.32	12.98	
2025-01-16 07:03:38.95	39.35	13.00	
2025-01-16 07:03:39.15	39.38	13.01	
2025-01-16 07:03:39.35	39.41	13.03	
2025-01-16 07:03:39.56	39.44	13.04	
2025-01-16 07:03:39.76	39.47	13.06	
2025-01-16 07:03:39.96	39.51	13.08	
2025-01-16 07:03:40.17	39.54	13.09	
2025-01-16 07:03:40.37	39.57	13.11	
2025-01-16 07:03:40.57	39.60	13.12	
2025-01-16 07:03:40.78	39.63	13.14	
2025-01-16 07:03:40.98	39.66	13.16	
2025-01-16 07:03:41.18	39.69	13.17	
2025-01-16 07:03:41.38	39.72	13.19	
2025-01-16 07:03:41.59	39.75	13.21	
2025-01-16 07:03:41.79	39.78	13.22	
2025-01-16 07:03:41.99	39.81	13.24	
2025-01-16 07:03:42.20	39.85	13.25	
2025-01-16 07:03:42.40	39.88	13.27	
2025-01-16 07:03:42.60	39.91	13.29	
2025-01-16 07:03:42.81	39.94	13.30	
2025-01-16 07:03:43.01	39.97	13.32	
2025-01-16 07:03:43.21	40.00	13.34	
2025-01-16 07:03:43.42	40.03	13.35	
2025-01-16 07:03:43.62	40.06	13.37	
2025-01-16 07:03:43.82	40.10	13.38	
2025-01-16 07:03:44.02	40.13	13.40	
2025-01-16 07:03:44.23	40.16	13.42	
2025-01-16 07:03:44.43	40.19	13.43	
2025-01-16 07:03:44.63	40.22	13.45	
2025-01-16 07:03:44.84	40.25	13.47	
2025-01-16 07:03:45.04	40.28	13.48	
2025-01-16 07:03:45.24	40.32	13.50	
2025-01-16 07:03:45.45	40.35	13.52	
2025-01-16 07:03:45.65	40.38	13.53	
2025-01-16 07:03:45.85	40.41	13.55	
2025-01-16 07:03:46.06	40.44	13.56	
2025-01-16 07:03:46.26	40.48	13.58	
2025-01-16 07:03:46.46	40.51	13.60	
2025-01-16 07:03:46.66	40.54	13.61	
2025-01-16 07:03:46.87	40.57	13.63	
2025-01-16 07:03:47.07	40.60	13.65	
2025-01-16 07:03:47.27	40.63	13.66	
2025-01-16 07:03:47.48	40.67	13.68	
2025-01-16 07:03:47.68	40.70	13.69	
2025-01-16 07:03:47.88	40.73	13.71	
2025-01-16 07:03:48.09	40.76	13.73	
2025-01-16 07:03:48.29	40.80	13.74	
2025-01-16 07:03:48.49	40.83	13.76	
2025-01-16 07:03:48.70	40.86	13.78	
2025-01-16 07:03:48.90	40.89	13.79	
2025-01-16 07:03:49.10	40.92	13.81	
2025-01-16 07:03:49.30	40.96	13.83	
2025-01-16 07:03:49.51	40.99	13.84	
2025-01-16 07:03:49.71	41.02	13.86	
2025-01-16 07:03:49.91	41.05	13.87	
2025-01-16 07:03:50.12	41.09	13.89	
2025-01-16 07:03:50.32	41.12	13.91	
2025-01-16 07:03:50.52	41.15	13.92	
2025-01-16 07:03:50.73	41.19	13.94	
2025-01-16 07:03:50.93	41.22	13.96	
2025-01-16 07:03:51.13	41.25	13.97	
2025-01-16 07:03:51.34	41.28	13.99	
2025-01-16 07:03:51.54	41.32	14.01	
2025-01-16 07:03:51.74	41.35	14.02	
2025-01-16 07:03:51.94	41.38	14.04	
2025-01-16 07:03:52.15	41.41	14.06	
2025-01-16 07:03:52.35	41.45	14.07	
2025-01-16 07:03:52.55	41.48	14.09	
2025-01-16 07:03:52.76	41.51	14.11	
2025-01-16 07:03:52.96	41.55	14.12	
2025-01-16 07:03:53.16	41.58	14.14	
2025-01-16 07:03:53.37	41.61	14.15	
2025-01-16 07:03:53.57	41.65	14.17	
2025-01-16 07:03:53.77	41.68	14.19	
2025-01-16 07:03:53.98	41.71	14.20	
2025-01-16 07:03:54.18	41.75	14.22	
2025-01-16 07:03:54.38	41.78	14.24	
2025-01-16 07:03:54.58	41.81	14.25	
2025-01-16 07:03:54.79	41.85	14.27	
2025-01-16 07:03:54.99	41.88	14.29	
2025-01-16 07:03:55.19	41.91	14.30	
2025-01-16 07:03:55.40	41.95	14.32	
2025-01-16 07:03:55.60	41.98	14.34	
2025-01-16 07:03:55.80	42.01	14.35	
2025-01-16 07:03:56.01	42.05	14.37	
2025-01-16 07:03:56.21	42.08	14.39	
2025-01-16 07:03:56.41	42.11	14.40	
2025-01-16 07:03:56.62	42.15	14.42	
2025-01-16 07:03:56.82	42.18	14.44	
2025-01-16 07:03:57.02	42.21	14.45	
2025-01-16 07:03:57.22	42.25	14.47	
2025-01-16 07:03:57.43	42.28	14.49	
2025-01-16 07:03:57.63	42.32	14.50	
2025-01-16 07:03:57.83	42.35	14.52	
2025-01-16 07:03:58.04	42.38	14.54	
2025-01-16 07:03:58.24	42.42	14.55	
2025-01-16 07:03:58.44	42.45	14.57	
2025-01-16 07:03:58.65	42.49	14.58	
2025-01-16 07:03:58.85	42.52	14.60	
2025-01-16 07:03:59.05	42.55	14.62	
2025-01-16 07:03:59.26	42.59	14.63	
2025-01-16 07:03:59.46	42.62	14.65	
2025-01-16 07:03:59.66	42.66	14.67	
2025-01-16 07:03:59.86	42.69	14.68	
2025-01-16 07:04:00.07	42.73	14.70	
2025-01-16 07:04:00.27	42.76	14.72	
2025-01-16 07:04:00.47	42.79	14.73	
2025-01-16 07:04:00.68	42.83	14.75	
2025-01-16 07:04:00.88	42.86	14.77	
2025-01-16 07:04:01.08	42.90	14.78	
2025-01-16 07:04:01.29	42.93	14.80	
2025-01-16 07:04:01.49	42.97	14.82	
2025-01-16 07:04:01.69	43.00	14.83	
2025-01-16 07:04:01.89	43.04	14.85	
2025-01-16 07:04:02.10	43.07	14.87	
2025-01-16 07:04:02.30	43.11	14.88	
2025-01-16 07:04:02.50	43.14	14.90	
2025-01-16 07:04:02.71	43.18	14.92	
2025-01-16 07:04:02.91	43.21	14.93	
2025-01-16 07:04:03.11	43.25	14.95	
2025-01-16 07:04:03.32	43.28	14.97	
2025-01-16 07:04:03.52	43.32	14.98	
2025-01-16 07:04:03.72	43.35	15.00	
2025-01-16 07:04:03.93	43.39	15.02	
2025-01-16 07:04:04.13	43.42	15.03	
2025-01-16 07:04:04.33	43.46	15.05	
2025-01-16 07:04:04.53	43.49	15.07	
2025-01-16 07:04:04.74	43.53	15.08	
2025-01-16 07:04:04.94	43.56	15.10	
2025-01-16 07:04:05.14	43.60	15.12	
2025-01-16 07:04:05.35	43.64	15.13	
2025-01-16 07:04:05.55	43.67	15.15	
2025-01-16 07:04:05.75	43.71	15.17	
2025-01-16 07:04:05.96	43.74	15.18	
2025-01-16 07:04:06.16	43.78	15.20	
2025-01-16 07:04:06.36	43.81	15.22	
2025-01-16 07:04:06.57	43.85	15.23	
2025-01-16 07:04:06.77	43.88	15.25	
2025-01-16 07:04:06.97	43.92	15.27	
2025-01-16 07:04:07.17	43.96	15.28	
2025-01-16 07:04:07.38	43.99	15.30	
2025-01-16 07:04:07.58	44.03	15.32	
2025-01-16 07:04:07.78	44.06	15.33	
2025-01-16 07:04:07.99	44.10	15.35	
2025-01-16 07:04:08.19	44.14	15.37	
2025-01-16 07:04:08.39	44.17	15.38	
2025-01-16 07:04:08.60	44.21	15.40	
2025-01-16 07:04:08.80	44.24	15.42	
2025-01-16 07:04:09.00	44.28	15.43	
2025-01-16 07:04:09.21	44.32	15.45	
2025-01-16 07:04:09.41	44.35	15.47	
2025-01-16 07:04:09.61	44.39	15.48	
2025-01-16 07:04:09.81	44.42	15.50	
2025-01-16 07:04:10.02	44.46	15.52	
2025-01-16 07:04:10.22	44.50	15.54	
2025-01-16 07:04:10.42	44.53	15.55	
2025-01-16 07:04:10.63	44.57	15.57	
2025-01-16 07:04:10.83	44.61	15.59	
2025-01-16 07:04:11.03	44.64	15.60	
2025-01-16 07:04:11.24	44.68	15.62	
2025-01-16 07:04:11.44	44.72	15.64	
2025-01-16 07:04:11.64	44.75	15.65	
2025-01-16 07:04:11.85	44.79	15.67	
2025-01-16 07:04:12.05	44.83	15.69	
2025-01-16 07:04:12.25	44.87	15.70	
2025-01-16 07:04:12.45	44.90	15.72	
2025-01-16 07:04:12.66	44.94	15.74	
2025-01-16 07:04:12.86	44.98	15.75	
2025-01-16 07:04:13.06	45.01	15.77	
2025-01-16 07:04:13.27	45.05	15.79	
2025-01-16 07:04:13.47	45.09	15.80	
2025-01-16 07:04:13.67	45.12	15.82	
2025-01-16 07:04:13.88	45.16	15.84	
2025-01-16 07:04:14.08	45.20	15.85	
2025-01-16 07:04:14.28	45.24	15.87	
2025-01-16 07:04:14.49	45.28	15.89	
2025-01-16 07:04:14.69	45.31	15.90	
2025-01-16 07:04:14.89	45.35	15.92	
2025-01-16 07:04:15.09	45.39	15.94	
2025-01-16 07:04:15.30	45.42	15.96	
2025-01-16 07:04:15.50	45.46	15.97	
2025-01-16 07:04:15.70	45.50	15.99	
2025-01-16 07:04:15.91	45.54	16.01	
2025-01-16 07:04:16.11	45.57	16.02	
2025-01-16 07:04:16.31	45.61	16.04	
2025-01-16 07:04:16.52	45.65	16.06	
2025-01-16 07:04:16.72	45.69	16.07	
2025-01-16 07:04:16.92	45.73	16.09	
2025-01-16 07:04:17.13	45.76	16.11	
2025-01-16 07:04:17.33	45.80	16.12	
2025-01-16 07:04:17.53	45.84	16.14	
2025-01-16 07:04:17.73	45.88	16.16	
2025-01-16 07:04:17.94	45.92	16.17	
2025-01-16 07:04:18.14	45.95	16.19	
2025-01-16 07:04:18.34	45.99	16.21	
2025-01-16 07:04:18.55	46.03	16.22	
2025-01-16 07:04:18.75	46.07	16.24	
2025-01-16 07:04:18.95	46.11	16.26	
2025-01-16 07:04:19.16	46.15	16.27	
2025-01-16 07:04:19.36	46.18	16.29	
2025-01-16 07:04:19.56	46.22	16.31	
2025-01-16 07:04:19.77	46.26	16.33	
2025-01-16 07:04:19.97	46.30	16.34	
2025-01-16 07:04:20.17	46.34	16.36	
2025-01-16 07:04:20.37	46.38	16.38	
2025-01-16 07:04:20.58	46.42	16.39	
2025-01-16 07:04:20.78	46.45	16.41	
2025-01-16 07:04:20.98	46.49	16.43	
2025-01-16 07:04:21.19	46.53	16.44	
2025-01-16 07:04:21.39	46.57	16.46	
2025-01-16 07:04:21.59	46.61	16.48	
2025-01-16 07:04:21.80	46.65	16.49	
2025-01-16 07:04:22.00	46.69	16.51	
2025-01-16 07:04:22.20	46.73	16.53	
2025-01-16 07:04:22.41	46.77	16.54	
2025-01-16 07:04:22.61	46.81	16.56	
2025-01-16 07:04:22.81	46.84	16.58	
2025-01-16 07:04:23.01	46.88	16.59	
2025-01-16 07:04:23.22	46.92	16.61	
2025-01-16 07:04:23.42	46.96	16.63	
2025-01-16 07:04:23.62	47.00	16.65	
2025-01-16 07:04:23.83	47.04	16.66	
2025-01-16 07:04:24.03	47.08	16.68	
2025-01-16 07:04:24.23	47.12	16.70	
2025-01-16 07:04:24.44	47.16	16.71	
2025-01-16 07:04:24.64	47.20	16.73	
2025-01-16 07:04:24.84	47.24	16.75	
2025-01-16 07:04:25.05	47.28	16.76	
2025-01-16 07:04:25.25	47.32	16.78	
2025-01-16 07:04:25.45	47.36	16.80	
2025-01-16 07:04:25.65	47.40	16.81	
2025-01-16 07:04:25.86	47.44	16.83	
2025-01-16 07:04:26.06	47.48	16.85	
2025-01-16 07:04:26.26	47.52	16.86	
2025-01-16 07:04:26.47	47.56	16.88	
2025-01-16 07:04:26.67	47.60	16.90	
2025-01-16 07:04:26.87	47.64	16.92	
2025-01-16 07:04:27.08	47.68	16.93	
2025-01-16 07:04:27.28	47.72	16.95	
2025-01-16 07:04:27.48	47.76	16.97	
2025-01-16 07:04:27.69	47.80	16.98	
2025-01-16 07:04:27.89	47.84	17.00	
2025-01-16 07:04:28.09	47.88	17.02	
2025-01-16 07:04:28.29	47.92	17.03	
2025-01-16 07:04:28.50	47.96	17.05	
2025-01-16 07:04:28.70	48.00	17.07	
2025-01-16 07:04:28.90	48.04	17.08	
2025-01-16 07:04:29.11	48.08	17.10	
2025-01-16 07:04:29.31	48.12	17.12	
2025-01-16 07:04:29.51	48.16	17.13	
2025-01-16 07:04:29.72	48.20	17.15	
2025-01-16 07:04:29.92	48.25	17.17	
2025-01-16 07:04:30.12	48.29	17.19	
2025-01-16 07:04:30.33	48.33	17.20	
2025-01-16 07:04:30.53	48.37	17.22	
2025-01-16 07:04:30.73	48.41	17.24	
2025-01-16 07:04:30.93	48.45	17.25	
2025-01-16 07:04:31.14	48.49	17.27	
2025-01-16 07:04:31.34	48.53	17.29	
2025-01-16 07:04:31.54	48.57	17.30	
2025-01-16 07:04:31.75	48.62	17.32	
2025-01-16 07:04:31.95	48.66	17.34	
2025-01-16 07:04:32.15	48.70	17.35	
2025-01-16 07:04:32.36	48.74	17.37	
2025-01-16 07:04:32.56	48.78	17.39	
2025-01-16 07:04:32.76	48.82	17.40	
2025-01-16 07:04:32.97	48.86	17.42	
2025-01-16 07:04:33.17	48.90	17.44	
2025-01-16 07:04:33.37	48.95	17.46	
2025-01-16 07:04:33.57	48.99	17.47	
2025-01-16 07:04:33.78	49.03	17.49	
2025-01-16 07:04:33.98	49.07	17.51	
2025-01-16 07:04:34.18	49.11	17.52	
2025-01-16 07:04:34.39	49.16	17.54	
2025-01-16 07:04:34.59	49.20	17.56	
2025-01-16 07:04:34.79	49.24	17.57	
2025-01-16 07:04:35.00	49.28	17.59	
2025-01-16 07:04:35.20	49.32	17.61	
2025-01-16 07:04:35.40	49.36	17.62	
2025-01-16 07:04:35.61	49.41	17.64	
2025-01-16 07:04:35.81	49.45	17.66	
2025-01-16 07:04:36.01	49.49	17.67	
2025-01-16 07:04:36.21	49.53	17.69	
2025-01-16 07:04:36.42	49.58	17.71	
2025-01-16 07:04:36.62	49.62	17.72	
2025-01-16 07:04:36.82	49.66	17.74	
2025-01-16 07:04:37.03	49.70	17.76	
2025-01-16 07:04:37.23	49.75	17.78	
2025-01-16 07:04:37.43	49.79	17.79	
2025-01-16 07:04:37.64	49.83	17.81	
2025-01-16 07:04:37.84	49.87	17.83	
2025-01-16 07:04:38.04	49.92	17.84	
2025-01-16 07:04:38.25	49.96	17.86	
2025-01-16 07:04:38.45	50.00	17.88	
2025-01-16 07:04:38.65	50.05	17.89	
2025-01-16 07:04:38.85	50.09	17.91	
2025-01-16 07:04:39.06	50.13	17.93	
2025-01-16 07:04:39.26	50.17	17.94	
2025-01-16 07:04:39.46	50.22	17.96	
2025-01-16 07:04:39.67	50.26	17.98	
2025-01-16 07:04:39.87	50.30	17.99	
2025-01-16 07:04:40.07	50.35	18.01	
2025-01-16 07:04:40.28	50.39	18.03	
2025-01-16 07:04:40.48	50.43	18.04	
2025-01-16 07:04:40.68	50.48	18.06	
2025-01-16 07:04:40.89	50.52	18.08	
2025-01-16 07:04:41.09	50.56	18.09	
2025-01-16 07:04:41.29	50.61	18.11	
2025-01-16 07:04:41.49	50.65	18.13	
2025-01-16 07:04:41.70	50.70	18.15	
2025-01-16 07:04:41.90	50.74	18.16	
2025-01-16 07:04:42.10	50.78	18.18	
2025-01-16 07:04:42.31	50.83	18.20	
2025-01-16 07:04:42.51	50.87	18.21	
2025-01-16 07:04:42.71	50.91	18.23	
2025-01-16 07:04:42.92	50.96	18.25	
2025-01-16 07:04:43.12	51.00	18.26	
2025-01-16 07:04:43.32	51.05	18.28	
2025-01-16 07:04:43.53	51.09	18.30	
2025-01-16 07:04:43.73	51.13	18.31	
2025-01-16 07:04:43.93	51.18	18.33	
2025-01-16 07:04:44.13	51.22	18.35	
2025-01-16 07:04:44.34	51.27	18.36	
2025-01-16 07:04:44.54	51.31	18.38	
2025-01-16 07:04:44.74	51.35	18.40	
2025-01-16 07:04:44.95	51.40	18.41	
2025-01-16 07:04:45.15	51.44	18.43	
2025-01-16 07:04:45.35	51.49	18.45	
2025-01-16 07:04:45.56	51.53	18.46	
2025-01-16 07:04:45.76	51.58	18.48	
2025-01-16 07:04:45.96	51.62	18.50	
2025-01-16 07:04:46.17	51.67	18.51	
2025-01-16 07:04:46.37	51.71	18.53	
2025-01-16 07:04:46.57	51.76	18.55	
2025-01-16 07:04:46.77	51.80	18.56	
2025-01-16 07:04:46.98	51.85	18.58	
2025-01-16 07:04:47.18	51.89	18.60	
2025-01-16 07:04:47.38	51.94	18.61	
2025-01-16 07:04:47.59	51.98	18.63	
2025-01-16 07:04:47.79	52.03	18.65	
2025-01-16 07:04:47.99	52.07	18.66	
2025-01-16 07:04:48.20	52.12	18.68	
2025-01-16 07:04:48.40	52.16	18.70	
2025-01-16 07:04:48.60	52.21	18.71	
2025-01-16 07:04:48.81	52.26	18.73	
2025-01-16 07:04:49.01	52.30	18.75	
2025-01-16 07:04:49.21	52.34	18.76	
2025-01-16 07:04:49.41	52.39	18.78	
2025-01-16 07:04:49.62	52.44	18.80	
2025-01-16 07:04:49.82	52.48	18.81	
2025-01-16 07:04:50.02	52.53	18.83	
2025-01-16 07:04:50.23	52.57	18.85	
2025-01-16 07:04:50.43	52.62	18.86	
2025-01-16 07:04:50.63	52.66	18.88	
2025-01-16 07:04:50.84	52.71	18.90	
2025-01-16 07:04:51.04	52.76	18.91	
2025-01-16 07:04:51.24	52.80	18.93	
2025-01-16 07:04:51.45	52.85	18.95	
2025-01-16 07:04:51.65	52.90	18.96	
2025-01-16 07:04:51.85	52.94	18.98	
2025-01-16 07:04:52.05	52.99	19.00	
2025-01-16 07:04:52.26	53.03	19.01	
2025-01-16 07:04:52.46	53.08	19.03	
2025-01-16 07:04:52.66	53.13	19.05	
2025-01-16 07:04:52.87	53.17	19.06	
2025-01-16 07:04:53.07	53.22	19.08	
2025-01-16 07:04:53.27	53.27	19.10	
2025-01-16 07:04:53.48	53.31	19.11	
2025-01-16 07:04:53.68	53.36	19.13	
2025-01-16 07:04:53.88	53.41	19.15	
2025-01-16 07:04:54.09	53.45	19.16	
2025-01-16 07:04:54.29	53.50	19.18	
2025-01-16 07:04:54.49	53.55	19.19	
2025-01-16 07:04:54.69	53.59	19.21	
2025-01-16 07:04:54.90	53.64	19.23	
2025-01-16 07:04:55.10	53.69	19.24	
2025-01-16 07:04:55.30	53.73	19.26	
2025-01-16 07:04:55.51	53.78	19.28	
2025-01-16 07:04:55.71	53.83	19.29	
2025-01-16 07:04:55.91	53.88	19.31	
2025-01-16 07:04:56.12	53.92	19.33	
2025-01-16 07:04:56.32	53.97	19.34	
2025-01-16 07:04:56.52	54.02	19.36	
2025-01-16 07:04:56.73	54.07	19.38	
2025-01-16 07:04:56.93	54.11	19.39	
2025-01-16 07:04:57.13	54.16	19.41	
2025-01-16 07:04:57.33	54.21	19.43	
2025-01-16 07:04:57.54	54.26	19.44	
2025-01-16 07:04:57.74	54.30	19.46	
2025-01-16 07:04:57.94	54.35	19.47	
2025-01-16 07:04:58.15	54.40	19.49	
2025-01-16 07:04:58.35	54.45	19.51	
2025-01-16 07:04:58.55	54.49	19.52	
2025-01-16 07:04:58.76	54.54	19.54	
2025-01-16 07:04:58.96	54.59	19.56	
2025-01-16 07:04:59.16	54.64	19.57	
2025-01-16 07:04:59.37	54.69	19.59	
2025-01-16 07:04:59.57	54.74	19.61	
2025-01-16 07:04:59.77	54.78	19.62	
2025-01-16 07:04:59.97	54.83	19.64	
2025-01-16 07:05:00.18	54.88	19.65	
2025-01-16 07:05:00.38	54.93	19.67	
2025-01-16 07:05:00.58	54.98	19.69	
2025-01-16 07:05:00.79	55.03	19.70	
2025-01-16 07:05:00.99	55.07	19.72	
2025-01-16 07:05:01.19	55.12	19.74	
2025-01-16 07:05:01.40	55.17	19.75	
2025-01-16 07:05:01.60	55.22	19.77	
2025-01-16 07:05:01.80	55.27	19.78	
2025-01-16 07:05:02.01	55.32	19.80	
2025-01-16 07:05:02.21	55.37	19.82	
2025-01-16 07:05:02.41	55.42	19.83	
2025-01-16 07:05:02.61	55.46	19.85	
2025-01-16 07:05:02.82	55.51	19.87	
2025-01-16 07:05:03.02	55.56	19.88	
2025-01-16 07:05:03.22	55.61	19.90	
2025-01-16 07:05:03.43	55.66	19.92	
2025-01-16 07:05:03.63	55.71	19.93	
2025-01-16 07:05:03.83	55.76	19.95	
2025-01-16 07:05:04.04	55.81	19.96	
2025-01-16 07:05:04.24	55.86	19.98	
2025-01-16 07:05:04.44	55.91	20.00	
2025-01-16 07:05:04.65	55.96	20.01	
2025-01-16 07:05:04.85	56.01	20.03	
2025-01-16 07:05:05.05	56.06	20.04	
2025-01-16 07:05:05.25	56.11	20.06	
2025-01-16 07:05:05.46	56.16	20.08	
2025-01-16 07:05:05.66	56.21	20.09	
2025-01-16 07:05:05.86	56.26	20.11	
2025-01-16 07:05:06.07	56.31	20.13	
2025-01-16 07:05:06.27	56.36	20.14	
2025-01-16 07:05:06.47	56.41	20.16	
2025-01-16 07:05:06.68	56.46	20.17	
2025-01-16 07:05:06.88	56.51	20.19	
2025-01-16 07:05:07.08	56.56	20.20	
2025-01-16 07:05:07.28	56.61	20.22	
2025-01-16 07:05:07.49	56.66	20.24	
2025-01-16 07:05:07.69	56.71	20.25	
2025-01-16 07:05:07.89	56.76	20.27	
2025-01-16 07:05:08.10	56.81	20.29	
2025-01-16 07:05:08.30	56.86	20.30	
2025-01-16 07:05:08.50	56.91	20.32	
2025-01-16 07:05:08.71	56.96	20.33	
2025-01-16 07:05:08.91	57.01	20.35	
2025-01-16 07:05:09.11	57.06	20.36	
2025-01-16 07:05:09.32	57.11	20.38	
2025-01-16 07:05:09.52	57.16	20.40	
2025-01-16 07:05:09.72	57.21	20.41	
2025-01-16 07:05:09.93	57.27	20.43	
2025-01-16 07:05:10.13	57.32	20.44	
2025-01-16 07:05:10.33	57.37	20.46	
2025-01-16 07:05:10.53	57.42	20.48	
2025-01-16 07:05:10.74	57.47	20.49	
2025-01-16 07:05:10.94	57.52	20.51	
2025-01-16 07:05:11.14	57.57	20.52	
2025-01-16 07:05:11.35	57.62	20.54	
2025-01-16 07:05:11.55	57.67	20.56	
2025-01-16 07:05:11.75	57.73	20.57	
2025-01-16 07:05:11.96	57.78	20.59	
2025-01-16 07:05:12.16	57.83	20.60	
2025-01-16 07:05:12.36	57.88	20.62	
2025-01-16 07:05:12.56	57.93	20.63	
2025-01-16 07:05:12.77	57.98	20.65	
2025-01-16 07:05:12.97	58.04	20.67	
2025-01-16 07:05:13.17	58.09	20.68	
2025-01-16 07:05:13.38	58.14	20.70	
2025-01-16 07:05:13.58	58.19	20.71	
2025-01-16 07:05:13.78	58.24	20.73	
2025-01-16 07:05:13.99	58.30	20.74	
2025-01-16 07:05:14.19	58.35	20.76	
2025-01-16 07:05:14.39	58.40	20.78	
2025-01-16 07:05:14.60	58.45	20.79	
2025-01-16 07:05:14.80	58.50	20.81	
2025-01-16 07:05:15.00	58.56	20.82	
2025-01-16 07:05:15.20	58.61	20.84	
2025-01-16 07:05:15.41	58.66	20.85	
2025-01-16 07:05:15.61	58.71	20.87	
2025-01-16 07:05:15.81	58.77	20.88	
2025-01-16 07:05:16.02	58.82	20.90	
2025-01-16 07:05:16.22	58.87	20.92	
2025-01-16 07:05:16.42	58.92	20.93	
2025-01-16 07:05:16.63	58.98	20.95	
2025-01-16 07:05:16.83	59.03	20.96	
2025-01-16 07:05:17.03	59.08	20.98	
2025-01-16 07:05:17.24	59.14	20.99	
2025-01-16 07:05:17.44	59.19	21.01	
2025-01-16 07:05:17.64	59.24	21.02	
2025-01-16 07:05:17.84	59.29	21.04	
2025-01-16 07:05:18.05	59.35	21.06	
2025-01-16 07:05:18.25	59.40	21.07	
2025-01-16 07:05:18.45	59.45	21.09	
2025-01-16 07:05:18.66	59.51	21.10	
2025-01-16 07:05:18.86	59.56	21.12	
2025-01-16 07:05:19.06	59.61	21.13	
2025-01-16 07:05:19.27	59.67	21.15	
2025-01-16 07:05:19.47	59.72	21.16	
2025-01-16 07:05:19.67	59.77	21.18	
2025-01-16 07:05:19.88	59.83	21.19	
2025-01-16 07:05:20.08	59.88	21.21	
2025-01-16 07:05:20.28	59.94	21.22	
2025-01-16 07:05:20.48	59.99	21.24	
2025-01-16 07:05:20.69	60.04	21.25	
2025-01-16 07:05:20.89	60.10	21.27	
2025-01-16 07:05:21.09	60.15	21.28	
2025-01-16 07:05:21.30	60.21	21.30	
2025-01-16 07:05:21.50	60.26	21.32	
2025-01-16 07:05:21.70	60.31	21.33	
2025-01-16 07:05:21.91	60.37	21.35	
2025-01-16 07:05:22.11	60.42	21.36	
2025-01-16 07:05:22.31	60.48	21.38	
2025-01-16 07:05:22.52	60.53	21.39	
2025-01-16 07:05:22.72	60.59	21.41	
2025-01-16 07:05:22.92	60.64	21.42	
2025-01-16 07:05:23.12	60.69	21.44	
2025-01-16 07:05:23.33	60.75	21.45	
2025-01-16 07:05:23.53	60.80	21.47	
2025-01-16 07:05:23.73	60.86	21.48	
2025-01-16 07:05:23.94	60.91	21.50	
2025-01-16 07:05:24.14	60.97	21.51	
2025-01-16 07:05:24.34	61.02	21.53	
2025-01-16 07:05:24.55	61.08	21.54	
2025-01-16 07:05:24.75	61.13	21.56	
2025-01-16 07:05:24.95	61.19	21.57	
2025-01-16 07:05:25.16	61.24	21.59	
2025-01-16 07:05:25.36	61.30	21.60	
2025-01-16 07:05:25.56	61.35	21.62	
2025-01-16 07:05:25.76	61.41	21.63	
2025-01-16 07:05:25.97	61.46	21.65	
2025-01-16 07:05:26.17	61.52	21.66	
2025-01-16 07:05:26.37	61.57	21.68	
2025-01-16 07:05:26.58	61.63	21.69	
2025-01-16 07:05:26.78	61.68	21.71	
2025-01-16 07:05:26.98	61.74	21.72	
2025-01-16 07:05:27.19	61.80	21.73	
2025-01-16 07:05:27.39	61.85	21.75	
2025-01-16 07:05:27.59	61.91	21.76	
2025-01-16 07:05:27.80	61.96	21.78	
2025-01-16 07:05:28.00	62.02	21.79	
2025-01-16 07:05:28.20	62.07	21.81	
2025-01-16 07:05:28.40	62.13	21.82	
2025-01-16 07:05:28.61	62.19	21.84	
2025-01-16 07:05:28.81	62.24	21.85	
2025-01-16 07:05:29.01	62.30	21.87	
2025-01-16 07:05:29.22	62.36	21.88	
2025-01-16 07:05:29.42	62.41	21.90	
2025-01-16 07:05:29.62	62.47	21.91	
2025-01-16 07:05:29.83	62.52	21.93	
2025-01-16 07:05:30.03	62.58	21.94	
2025-01-16 07:05:30.23	62.64	21.95	
2025-01-16 07:05:30.44	62.69	21.97	
2025-01-16 07:05:30.64	62.75	21.98	
2025-01-16 07:05:30.84	62.81	22.00	
2025-01-16 07:05:31.04	62.86	22.01	
2025-01-16 07:05:31.25	62.92	22.03	
2025-01-16 07:05:31.45	62.98	22.04	
2025-01-16 07:05:31.65	63.03	22.05	
2025-01-16 07:05:31.86	63.09	22.07	
2025-01-16 07:05:32.06	63.15	22.08	
2025-01-16 07:05:32.26	63.20	22.10	
2025-01-16 07:05:32.47	63.26	22.11	
2025-01-16 07:05:32.67	63.32	22.13	
2025-01-16 07:05:32.87	63.37	22.14	
2025-01-16 07:05:33.08	63.43	22.15	
2025-01-16 07:05:33.28	63.49	22.17	
2025-01-16 07:05:33.48	63.55	22.18	
2025-01-16 07:05:33.68	63.60	22.20	
2025-01-16 07:05:33.89	63.66	22.21	
2025-01-16 07:05:34.09	63.72	22.23	
2025-01-16 07:05:34.29	63.77	22.24	
2025-01-16 07:05:34.50	63.83	22.25	
2025-01-16 07:05:34.70	63.89	22.27	
2025-01-16 07:05:34.90	63.95	22.28	
2025-01-16 07:05:35.11	64.01	22.30	
2025-01-16 07:05:35.31	64.06	22.31	
2025-01-16 07:05:35.51	64.12	22.32	
2025-01-16 07:05:35.72	64.18	22.34	
2025-01-16 07:05:35.92	64.24	22.35	
2025-01-16 07:05:36.12	64.30	22.37	
2025-01-16 07:05:36.32	64.35	22.38	
2025-01-16 07:05:36.53	64.41	22.39	
2025-01-16 07:05:36.73	64.47	22.41	
2025-01-16 07:05:36.93	64.53	22.42	
2025-01-16 07:05:37.14	64.59	22.44	
2025-01-16 07:05:37.34	64.65	22.45	
2025-01-16 07:05:37.54	64.70	22.46	
2025-01-16 07:05:37.75	64.76	22.48	
2025-01-16 07:05:37.95	64.82	22.49	
2025-01-16 07:05:38.15	64.88	22.50	
2025-01-16 07:05:38.36	64.94	22.52	
2025-01-16 07:05:38.56	65.00	22.53	
2025-01-16 07:05:38.76	65.05	22.54	
2025-01-16 07:05:38.96	65.11	22.56	
2025-01-16 07:05:39.17	65.17	22.57	
2025-01-16 07:05:39.37	65.23	22.59	
2025-01-16 07:05:39.57	65.29	22.60	
2025-01-16 07:05:39.78	65.35	22.61	
2025-01-16 07:05:39.98	65.41	22.63	
2025-01-16 07:05:40.18	65.47	22.64	
2025-01-16 07:05:40.39	65.53	22.65	
2025-01-16 07:05:40.59	65.59	22.67	
2025-01-16 07:05:40.79	65.64	22.68	
2025-01-16 07:05:41.00	65.71	22.69	
2025-01-16 07:05:41.20	65.76	22.71	
2025-01-16 07:05:41.40	65.82	22.72	
2025-01-16 07:05:41.60	65.88	22.73	
2025-01-16 07:05:41.81	65.94	22.75	
2025-01-16 07:05:42.01	66.00	22.76	
2025-01-16 07:05:42.21	66.06	22.77	
2025-01-16 07:05:42.42	66.12	22.79	
2025-01-16 07:05:42.62	66.18	22.80	
2025-01-16 07:05:42.82	66.24	22.81	
2025-01-16 07:05:43.03	66.30	22.83	
2025-01-16 07:05:43.23	66.36	22.84	
2025-01-16 07:05:43.43	66.42	22.85	
2025-01-16 07:05:43.64	66.48	22.87	
2025-01-16 07:05:43.84	66.54	22.88	
2025-01-16 07:05:44.04	66.60	22.89	
2025-01-16 07:05:44.24	66.66	22.91	
2025-01-16 07:05:44.45	66.72	22.92	
2025-01-16 07:05:44.65	66.78	22.93	
2025-01-16 07:05:44.85	66.84	22.94	
2025-01-16 07:05:45.06	66.90	22.96	
2025-01-16 07:05:45.26	66.96	22.97	
2025-01-16 07:05:45.46	67.02	22.98	
2025-01-16 07:05:45.67	67.08	23.00	
2025-01-16 07:05:45.87	67.14	23.01	
2025-01-16 07:05:46.07	67.20	23.02	
2025-01-16 07:05:46.28	67.26	23.04	
2025-01-16 07:05:46.48	67.32	23.05	
2025-01-16 07:05:46.68	67.38	23.06	
2025-01-16 07:05:46.88	67.44	23.07	
2025-01-16 07:05:47.09	67.51	23.09	
2025-01-16 07:05:47.29	67.57	23.10	
2025-01-16 07:05:47.49	67.63	23.11	
2025-01-16 07:05:47.70	67.69	23.12	
2025-01-16 07:05:47.90	67.75	23.14	
2025-01-16 07:05:48.10	67.81	23.15	
2025-01-16 07:05:48.31	67.87	23.16	
2025-01-16 07:05:48.51	67.93	23.17	
2025-01-16 07:05:48.71	67.99	23.19	
2025-01-16 07:05:48.92	68.06	23.20	
2025-01-16 07:05:49.12	68.12	23.21	
2025-01-16 07:05:49.32	68.18	23.22	
2025-01-16 07:05:49.52	68.24	23.24	
2025-01-16 07:05:49.73	68.30	23.25	
2025-01-16 07:05:49.93	68.36	23.26	
2025-01-16 07:05:50.13	68.42	23.27	
2025-01-16 07:05:50.34	68.49	23.29	
2025-01-16 07:05:50.54	68.55	23.30	
2025-01-16 07:05:50.74	68.61	23.31	
2025-01-16 07:05:50.95	68.67	23.32	
2025-01-16 07:05:51.15	68.73	23.33	
2025-01-16 07:05:51.35	68.79	23.35	
2025-01-16 07:05:51.56	68.86	23.36	
2025-01-16 07:05:51.76	68.92	23.37	
2025-01-16 07:05:51.96	68.98	23.38	
2025-01-16 07:05:52.16	69.04	23.39	
2025-01-16 07:05:52.37	69.11	23.41	
2025-01-16 07:05:52.57	69.17	23.42	
2025-01-16 07:05:52.77	69.23	23.43	
2025-01-16 07:05:52.98	69.29	23.44	
2025-01-16 07:05:53.18	69.35	23.46	
2025-01-16 07:05:53.38	69.42	23.47	
2025-01-16 07:05:53.59	69.48	23.48	
2025-01-16 07:05:53.79	69.54	23.49	
2025-01-16 07:05:53.99	69.60	23.50	
2025-01-16 07:05:54.20	69.67	23.51	
2025-01-16 07:05:54.40	69.73	23.53	
2025-01-16 07:05:54.60	69.79	23.54	
2025-01-16 07:05:54.80	69.85	23.55	
2025-01-16 07:05:55.01	69.92	23.56	
2025-01-16 07:05:55.21	69.98	23.57	
2025-01-16 07:05:55.41	70.04	23.58	
2025-01-16 07:05:55.62	70.11	23.60	
2025-01-16 07:05:55.82	70.17	23.61	
2025-01-16 07:05:56.02	70.23	23.62	
2025-01-16 07:05:56.23	70.30	23.63	
2025-01-16 07:05:56.43	70.36	23.64	
2025-01-16 07:05:56.63	70.42	23.65	
2025-01-16 07:05:56.84	70.49	23.67	
2025-01-16 07:05:57.04	70.55	23.68	
2025-01-16 07:05:57.24	70.61	23.69	
2025-01-16 07:05:57.44	70.67	23.70	
2025-01-16 07:05:57.65	70.74	23.71	
2025-01-16 07:05:57.85	70.80	23.72	
2025-01-16 07:05:58.05	70.86	23.73	
2025-01-16 07:05:58.26	70.93	23.74	
2025-01-16 07:05:58.46	70.99	23.76	
2025-01-16 07:05:58.66	71.06	23.77	
2025-01-16 07:05:58.87	71.12	23.78	
2025-01-16 07:05:59.07	71.18	23.79	
2025-01-16 07:05:59.27	71.25	23.80	
2025-01-16 07:05:59.48	71.31	23.81	
2025-01-16 07:05:59.68	71.38	23.82	
2025-01-16 07:05:59.88	71.44	23.83	
2025-01-16 07:06:00.08	71.50	23.84	
2025-01-16 07:06:00.29	71.57	23.85	
2025-01-16 07:06:00.49	71.63	23.87	
2025-01-16 07:06:00.69	71.69	23.88	
2025-01-16 07:06:00.90	71.76	23.89	
2025-01-16 07:06:01.10	71.82	23.90	
2025-01-16 07:06:01.30	71.89	23.91	
2025-01-16 07:06:01.51	71.95	23.92	
2025-01-16 07:06:01.71	72.02	23.93	
2025-01-16 07:06:01.91	72.08	23.94	
2025-01-16 07:06:02.12	72.15	23.95	
2025-01-16 07:06:02.32	72.21	23.96	
2025-01-16 07:06:02.52	72.27	23.97	
2025-01-16 07:06:02.72	72.34	23.98	
2025-01-16 07:06:02.93	72.40	23.99	
2025-01-16 07:06:03.13	72.47	24.00	
2025-01-16 07:06:03.33	72.53	24.01	
2025-01-16 07:06:03.54	72.60	24.02	
2025-01-16 07:06:03.74	72.66	24.04	
2025-01-16 07:06:03.94	72.73	24.05	
2025-01-16 07:06:04.15	72.79	24.06	
2025-01-16 07:06:04.35	72.86	24.07	
2025-01-16 07:06:04.55	72.92	24.08	
2025-01-16 07:06:04.76	72.99	24.09	
2025-01-16 07:06:04.96	73.05	24.10	
2025-01-16 07:06:05.16	73.12	24.11	
2025-01-16 07:06:05.36	73.18	24.12	
2025-01-16 07:06:05.57	73.25	24.13	
2025-01-16 07:06:05.77	73.31	24.14	
2025-01-16 07:06:05.97	73.38	24.15	
2025-01-16 07:06:06.18	73.44	24.16	
2025-01-16 07:06:06.38	73.51	24.17	
2025-01-16 07:06:06.58	73.57	24.18	
2025-01-16 07:06:06.79	73.64	24.19	
2025-01-16 07:06:06.99	73.70	24.20	
2025-01-16 07:06:07.19	73.77	24.21	
2025-01-16 07:06:07.40	73.84	24.22	
2025-01-16 07:06:07.60	73.90	24.23	
2025-01-16 07:06:07.80	73.97	24.24	
2025-01-16 07:06:08.00	74.03	24.25	
2025-01-16 07:06:08.21	74.10	24.26	
2025-01-16 07:06:08.41	74.16	24.26	
2025-01-16 07:06:08.61	74.23	24.27	
2025-01-16 07:06:08.82	74.30	24.28	
2025-01-16 07:06:09.02	74.36	24.29	
2025-01-16 07:06:09.22	74.43	24.30	
2025-01-16 07:06:09.43	74.49	24.31	
2025-01-16 07:06:09.63	74.56	24.32	
2025-01-16 07:06:09.83	74.62	24.33	
2025-01-16 07:06:10.04	74.69	24.34	
2025-01-16 07:06:10.24	74.76	24.35	
2025-01-16 07:06:10.44	74.82	24.36	
2025-01-16 07:06:10.64	74.89	24.37	
2025-01-16 07:06:10.85	74.96	24.38	
2025-01-16 07:06:11.05	75.02	24.39	
2025-01-16 07:06:11.25	75.09	24.40	
2025-01-16 07:06:11.46	75.16	24.41	
2025-01-16 07:06:11.66	75.22	24.41	
2025-01-16 07:06:11.86	75.29	24.42	
2025-01-16 07:06:12.07	75.36	24.43	
2025-01-16 07:06:12.27	75.42	24.44	
2025-01-16 07:06:12.47	75.49	24.45	
2025-01-16 07:06:12.68	75.56	24.46	
2025-01-16 07:06:12.88	75.62	24.47	
2025-01-16 07:06:13.08	75.69	24.48	
2025-01-16 07:06:13.28	75.75	24.49	
2025-01-16 07:06:13.49	75.82	24.49	
2025-01-16 07:06:13.69	75.89	24.50	
2025-01-16 07:06:13.89	75.95	24.51	
2025-01-16 07:06:14.10	76.02	24.52	
2025-01-16 07:06:14.30	76.09	24.53	
2025-01-16 07:06:14.50	76.15	24.54	
2025-01-16 07:06:14.71	76.22	24.55	
2025-01-16 07:06:14.91	76.29	24.55	
2025-01-16 07:06:15.11	76.36	24.56	
2025-01-16 07:06:15.32	76.42	24.57	
2025-01-16 07:06:15.52	76.49	24.58	
2025-01-16 07:06:15.72	76.56	24.59	
2025-01-16 07:06:15.92	76.62	24.60	
2025-01-16 07:06:16.13	76.69	24.60	
2025-01-16 07:06:16.33	76.76	24.61	
2025-01-16 07:06:16.53	76.83	24.62	
2025-01-16 07:06:16.74	76.90	24.63	
2025-01-16 07:06:16.94	76.96	24.64	
2025-01-16 07:06:17.14	77.03	24.65	
2025-01-16 07:06:17.35	77.10	24.65	
2025-01-16 07:06:17.55	77.16	24.66	
2025-01-16 07:06:17.75	77.23	24.67	
2025-01-16 07:06:17.96	77.30	24.68	
2025-01-16 07:06:18.16	77.37	24.69	
2025-01-16 07:06:18.36	77.43	24.69	
2025-01-16 07:06:18.56	77.50	24.70	
2025-01-16 07:06:18.77	77.57	24.71	
2025-01-16 07:06:18.97	77.64	24.72	
2025-01-16 07:06:19.17	77.70	24.72	
2025-01-16 07:06:19.38	77.77	24.73	
2025-01-16 07:06:19.58	77.84	24.74	
2025-01-16 07:06:19.78	77.91	24.75	
2025-01-16 07:06:19.99	77.98	24.75	
2025-01-16 07:06:20.19	78.04	24.76	
2025-01-16 07:06:20.39	78.11	24.77	
2025-01-16 07:06:20.60	78.18	24.78	
2025-01-16 07:06:20.80	78.25	24.78	
2025-01-16 07:06:21.00	78.32	24.79	
2025-01-16 07:06:21.20	78.38	24.80	
2025-01-16 07:06:21.41	78.45	24.81	
2025-01-16 07:06:21.61	78.52	24.81	
2025-01-16 07:06:21.81	78.59	24.82	
2025-01-16 07:06:22.02	78.66	24.83	
2025-01-16 07:06:22.22	78.73	24.84	
2025-01-16 07:06:22.42	78.79	24.84	
2025-01-16 07:06:22.63	78.86	24.85	
2025-01-16 07:06:22.83	78.93	24.86	
2025-01-16 07:06:23.03	79.00	24.86	
2025-01-16 07:06:23.23	79.07	24.87	
2025-01-16 07:06:23.44	79.14	24.88	
2025-01-16 07:06:23.64	79.20	24.88	
2025-01-16 07:06:23.84	79.27	24.89	
2025-01-16 07:06:24.05	79.34	24.90	
2025-01-16 07:06:24.25	79.41	24.90	
2025-01-16 07:06:24.45	79.48	24.91	
2025-01-16 07:06:24.66	79.55	24.92	
2025-01-16 07:06:24.86	79.62	24.92	
2025-01-16 07:06:25.06	79.68	24.93	
2025-01-16 07:06:25.27	79.76	24.94	
2025-01-16 07:06:25.47	79.82	24.94	
2025-01-16 07:06:25.67	79.89	24.95	
2025-01-16 07:06:25.87	79.96	24.96	
2025-01-16 07:06:26.08	80.03	24.96	
2025-01-16 07:06:26.28	80.10	24.97	
2025-01-16 07:06:26.48	80.17	24.98	
2025-01-16 07:06:26.69	80.24	24.98	
2025-01-16 07:06:26.89	80.30	24.99	
2025-01-16 07:06:27.09	80.37	25.00	
2025-01-16 07:06:27.30	80.44	25.00	
2025-01-16 07:06:27.50	80.51	25.01	
2025-01-16 07:06:27.70	80.58	25.01	
2025-01-16 07:06:27.91	80.65	25.02	
2025-01-16 07:06:28.11	80.72	25.03	
2025-01-16 07:06:28.31	80.79	25.03	
2025-01-16 07:06:28.51	80.86	25.04	
2025-01-16 07:06:28.72	80.93	25.04	
2025-01-16 07:06:28.92	81.00	25.05	
2025-01-16 07:06:29.12	81.06	25.05	
2025-01-16 07:06:29.33	81.14	25.06	
2025-01-16 07:06:29.53	81.20	25.07	
2025-01-16 07:06:29.73	81.27	25.07	
2025-01-16 07:06:29.94	81.34	25.08	
2025-01-16 07:06:30.14	81.41	25.08	
2025-01-16 07:06:30.34	81.48	25.09	
2025-01-16 07:06:30.55	81.55	25.09	
2025-01-16 07:06:30.75	81.62	25.10	
2025-01-16 07:06:30.95	81.69	25.11	
2025-01-16 07:06:31.15	81.76	25.11	
2025-01-16 07:06:31.36	81.83	25.12	
2025-01-16 07:06:31.56	81.90	25.12	
2025-01-16 07:06:31.76	81.97	25.13	
2025-01-16 07:06:31.97	82.04	25.13	
2025-01-16 07:06:32.17	82.11	25.14	
2025-01-16 07:06:32.37	82.18	25.14	
2025-01-16 07:06:32.58	82.25	25.15	
2025-01-16 07:06:32.78	82.32	25.15	
2025-01-16 07:06:32.98	82.39	25.16	
2025-01-16 07:06:33.19	82.46	25.16	
2025-01-16 07:06:33.39	82.53	25.17	
2025-01-16 07:06:33.59	82.60	25.17	
2025-01-16 07:06:33.79	82.66	25.18	
2025-01-16 07:06:34.00	82.74	25.18	
2025-01-16 07:06:34.20	82.80	25.19	
2025-01-16 07:06:34.40	82.87	25.19	
2025-01-16 07:06:34.61	82.95	25.20	
2025-01-16 07:06:34.81	83.01	25.20	
2025-01-16 07:06:35.01	83.08	25.20	
2025-01-16 07:06:35.22	83.16	25.21	
2025-01-16 07:06:35.42	83.23	25.21	
2025-01-16 07:06:35.62	83.29	25.22	
2025-01-16 07:06:35.83	83.37	25.22	
2025-01-16 07:06:36.03	83.44	25.23	
2025-01-16 07:06:36.23	83.50	25.23	
2025-01-16 07:06:36.43	83.57	25.24	
2025-01-16 07:06:36.64	83.65	25.24	
2025-01-16 07:06:36.84	83.72	25.24	
2025-01-16 07:06:37.04	83.78	25.25	
2025-01-16 07:06:37.25	83.86	25.25	
2025-01-16 07:06:37.45	83.93	25.26	
2025-01-16 07:06:37.65	84.00	25.26	
2025-01-16 07:06:37.86	84.07	25.26	
2025-01-16 07:06:38.06	84.14	25.27	
2025-01-16 07:06:38.26	84.21	25.27	
2025-01-16 07:06:38.47	84.28	25.28	
2025-01-16 07:06:38.67	84.35	25.28	
2025-01-16 07:06:38.87	84.42	25.28	
2025-01-16 07:06:39.07	84.49	25.29	
2025-01-16 07:06:39.28	84.56	25.29	
2025-01-16 07:06:39.48	84.63	25.29	
2025-01-16 07:06:39.68	84.70	25.30	
2025-01-16 07:06:39.89	84.77	25.30	
2025-01-16 07:06:40.09	84.84	25.31	
2025-01-16 07:06:40.29	84.91	25.31	
2025-01-16 07:06:40.50	84.98	25.31	
2025-01-16 07:06:40.70	85.05	25.32	
2025-01-16 07:06:40.90	85.12	25.32	
2025-01-16 07:06:41.11	85.19	25.32	
2025-01-16 07:06:41.31	85.26	25.33	
2025-01-16 07:06:41.51	85.33	25.33	
2025-01-16 07:06:41.71	85.40	25.33	
2025-01-16 07:06:41.92	85.48	25.34	
2025-01-16 07:06:42.12	85.55	25.34	
2025-01-16 07:06:42.32	85.62	25.34	
2025-01-16 07:06:42.53	85.69	25.34	
2025-01-16 07:06:42.73	85.76	25.35	
2025-01-16 07:06:42.93	85.83	25.35	
2025-01-16 07:06:43.14	85.90	25.35	
2025-01-16 07:06:43.34	85.97	25.36	
2025-01-16 07:06:43.54	86.04	25.36	
2025-01-16 07:06:43.75	86.11	25.36	
2025-01-16 07:06:43.95	86.18	25.36	
2025-01-16 07:06:44.15	86.25	25.37	
2025-01-16 07:06:44.35	86.32	25.37	
2025-01-16 07:06:44.56	86.39	25.37	
2025-01-16 07:06:44.76	86.46	25.37	
2025-01-16 07:06:44.96	86.53	25.38	
2025-01-16 07:06:45.17	86.61	25.38	
2025-01-16 07:06:45.37	86.68	25.38	
2025-01-16 07:06:45.57	86.75	25.38	
2025-01-16 07:06:45.78	86.82	25.39	
2025-01-16 07:06:45.98	86.89	25.39	
2025-01-16 07:06:46.18	86.96	25.39	
2025-01-16 07:06:46.39	87.03	25.39	
2025-01-16 07:06:46.59	87.10	25.40	
2025-01-16 07:06:46.79	87.17	25.40	
2025-01-16 07:06:46.99	87.24	25.40	
2025-01-16 07:06:47.20	87.32	25.40	
2025-01-16 07:06:47.40	87.39	25.40	
2025-01-16 07:06:47.60	87.46	25.40	
2025-01-16 07:06:47.81	87.53	25.41	
2025-01-16 07:06:48.01	87.60	25.41	
2025-01-16 07:06:48.21	87.67	25.41	
2025-01-16 07:06:48.42	87.74	25.41	
2025-01-16 07:06:48.62	87.81	25.41	
2025-01-16 07:06:48.82	87.88	25.42	
2025-01-16 07:06:49.03	87.95	25.42	
2025-01-16 07:06:49.23	88.02	25.42	
2025-01-16 07:06:49.43	88.09	25.42	
2025-01-16 07:06:49.63	88.16	25.42	
2025-01-16 07:06:49.84	88.24	25.42	
2025-01-16 07:06:50.04	88.31	25.42	
2025-01-16 07:06:50.24	88.38	25.43	
2025-01-16 07:06:50.45	88.45	25.43	
2025-01-16 07:06:50.65	88.52	25.43	
2025-01-16 07:06:50.85	88.59	25.43	
2025-01-16 07:06:51.06	88.66	25.43	
2025-01-16 07:06:51.26	88.73	25.43	
2025-01-16 07:06:51.46	88.80	25.43	
2025-01-16 07:06:51.67	88.88	25.43	
2025-01-16 07:06:51.87	88.95	25.43	
2025-01-16 07:06:52.07	89.02	25.44	
2025-01-16 07:06:52.27	89.09	25.44	
2025-01-16 07:06:52.48	89.16	25.44	
2025-01-16 07:06:52.68	89.23	25.44	
2025-01-16 07:06:52.88	89.30	25.44	
2025-01-16 07:06:53.09	89.38	25.44	
2025-01-16 07:06:53.29	89.45	25.44	
2025-01-16 07:06:53.49	89.52	25.44	
2025-01-16 07:06:53.70	89.59	25.44	
2025-01-16 07:06:53.90	89.66	25.44	
2025-01-16 07:06:54.10	89.73	25.44	
2025-01-16 07:06:54.31	89.80	25.44	
2025-01-16 07:06:54.51	89.87	25.44	
2025-01-16 07:06:54.71	89.94	25.44	
2025-01-16 07:06:54.91	90.01	25.44	
2025-01-16 07:06:55.12	90.09	25.44	
2025-01-16 07:06:55.32	90.16	25.44	
2025-01-16 07:06:55.52	90.23	25.44	
2025-01-16 07:06:55.73	90.30	25.44	
2025-01-16 07:06:55.93	90.37	25.44	
2025-01-16 07:06:56.13	90.44	25.44	
2025-01-16 07:06:56.34	90.51	25.44	
2025-01-16 07:06:56.54	90.58	25.44	
2025-01-16 07:06:56.74	90.65	25.44	
2025-01-16 07:06:56.95	90.73	25.44	
2025-01-16 07:06:57.15	90.80	25.44	
2025-01-16 07:06:57.35	90.87	25.44	
2025-01-16 07:06:57.55	90.94	25.44	
2025-01-16 07:06:57.76	91.01	25.44	
2025-01-16 07:06:57.96	91.08	25.44	
2025-01-16 07:06:58.16	91.15	25.44	
2025-01-16 07:06:58.37	91.22	25.44	
2025-01-16 07:06:58.57	91.29	25.44	
2025-01-16 07:06:58.77	91.36	25.44	
2025-01-16 07:06:58.98	91.44	25.44	
2025-01-16 07:06:59.18	91.51	25.44	
2025-01-16 07:06:59.38	91.58	25.44	
2025-01-16 07:06:59.59	91.65	25.44	
2025-01-16 07:06:59.79	91.72	25.44	
2025-01-16 07:06:59.99	91.79	25.44	
2025-01-16 07:07:00.19	91.86	25.44	
2025-01-16 07:07:00.40	91.93	25.43	
2025-01-16 07:07:00.60	92.00	25.43	
2025-01-16 07:07:00.80	92.07	25.43	
2025-01-16 07:07:01.01	92.15	25.43	
2025-01-16 07:07:01.21	92.22	25.43	
2025-01-16 07:07:01.41	92.29	25.43	
2025-01-16 07:07:01.62	92.36	25.43	
2025-01-16 07:07:01.82	92.43	25.43	
2025-01-16 07:07:02.02	92.50	25.43	
2025-01-16 07:07:02.23	92.57	25.42	
2025-01-16 07:07:02.43	92.64	25.42	
2025-01-16 07:07:02.63	92.71	25.42	
2025-01-16 07:07:02.83	92.78	25.42	
2025-01-16 07:07:03.04	92.86	25.42	
2025-01-16 07:07:03.24	92.93	25.42	
2025-01-16 07:07:03.44	93.00	25.42	
2025-01-16 07:07:03.65	93.07	25.41	
2025-01-16 07:07:03.85	93.14	25.41	
2025-01-16 07:07:04.05	93.21	25.41	
2025-01-16 07:07:04.26	93.28	25.41	
2025-01-16 07:07:04.46	93.35	25.41	
2025-01-16 07:07:04.66	93.42	25.41	
2025-01-16 07:07:04.87	93.50	25.40	
2025-01-16 07:07:05.07	93.57	25.40	
2025-01-16 07:07:05.27	93.64	25.40	
2025-01-16 07:07:05.47	93.71	25.40	
2025-01-16 07:07:05.68	93.78	25.40	
2025-01-16 07:07:05.88	93.85	25.39	
2025-01-16 07:07:06.08	93.92	25.39	
2025-01-16 07:07:06.29	93.99	25.39	
2025-01-16 07:07:06.49	94.06	25.39	
2025-01-16 07:07:06.69	94.13	25.38	
2025-01-16 07:07:06.90	94.21	25.38	
2025-01-16 07:07:07.10	94.28	25.38	
2025-01-16 07:07:07.30	94.35	25.38	
2025-01-16 07:07:07.51	94.42	25.37	
2025-01-16 07:07:07.71	94.49	25.37	
2025-01-16 07:07:07.91	94.56	25.37	
2025-01-16 07:07:08.11	94.63	25.37	
2025-01-16 07:07:08.32	94.70	25.36	
2025-01-16 07:07:08.52	94.77	25.36	
2025-01-16 07:07:08.72	94.84	25.36	
2025-01-16 07:07:08.93	94.91	25.36	
2025-01-16 07:07:09.13	94.98	25.35	
2025-01-16 07:07:09.33	95.05	25.35	
2025-01-16 07:07:09.54	95.13	25.35	
2025-01-16 07:07:09.74	95.20	25.34	
2025-01-16 07:07:09.94	95.27	25.34	
2025-01-16 07:07:10.15	95.34	25.34	
2025-01-16 07:07:10.35	95.41	25.34	
2025-01-16 07:07:10.55	95.48	25.33	
2025-01-16 07:07:10.75	95.55	25.33	
2025-01-16 07:07:10.96	95.62	25.33	
