passes_logs/2025/01/16/SPB_Silybum_02/SPB_Silybum_02__20250116_215543_SUOMI_NPP_rec.log

#Pass ID: 20250116_215543_SUOMI NPP
#Satellite: SUOMI NPP
#Configuration: NPP
#Start time: 2025-01-16 21:55:43

#Version: 2.0.20230423
#Station: SPB_Silybum_02
#Location: 30.233357 lon 59.946436 lat
#TLE: 1 37849U 11061A   25016.11811449  .00000162  00000+0  97827-4 0  9998
#TLE: 2 37849  98.7448 317.0925 0001640  39.6134 320.5162 14.19538688685075

#Time	Az	El	Level	Level2	SNR	BER	Gain	Gain2
2025-01-16 21:55:45.48	33.50	4.08	
2025-01-16 21:55:45.68	33.52	4.09	
2025-01-16 21:55:45.88	33.54	4.10	
2025-01-16 21:55:46.09	33.56	4.11	
2025-01-16 21:55:46.29	33.59	4.12	
2025-01-16 21:55:46.49	33.61	4.12	
2025-01-16 21:55:46.70	33.63	4.13	
2025-01-16 21:55:46.90	33.66	4.14	
2025-01-16 21:55:47.10	33.68	4.15	
2025-01-16 21:55:47.30	33.70	4.16	
2025-01-16 21:55:47.51	33.72	4.17	
2025-01-16 21:55:47.71	33.75	4.18	
2025-01-16 21:55:47.91	33.77	4.19	
2025-01-16 21:55:48.12	33.79	4.20	
2025-01-16 21:55:48.32	33.82	4.21	
2025-01-16 21:55:48.52	33.84	4.21	
2025-01-16 21:55:48.72	33.86	4.22	
2025-01-16 21:55:48.93	33.88	4.23	
2025-01-16 21:55:49.13	33.91	4.24	
2025-01-16 21:55:49.33	33.93	4.25	
2025-01-16 21:55:49.54	33.95	4.26	
2025-01-16 21:55:49.74	33.98	4.27	
2025-01-16 21:55:49.94	34.00	4.28	
2025-01-16 21:55:50.15	34.02	4.29	
2025-01-16 21:55:50.35	34.05	4.29	
2025-01-16 21:55:50.55	34.07	4.30	
2025-01-16 21:55:50.75	34.09	4.31	
2025-01-16 21:55:50.96	34.12	4.32	
2025-01-16 21:55:51.16	34.14	4.33	
2025-01-16 21:55:51.36	34.16	4.34	
2025-01-16 21:55:51.57	34.19	4.35	
2025-01-16 21:55:51.77	34.21	4.36	
2025-01-16 21:55:51.97	34.23	4.37	
2025-01-16 21:55:52.17	34.25	4.37	
2025-01-16 21:55:52.38	34.28	4.38	
2025-01-16 21:55:52.58	34.30	4.39	
2025-01-16 21:55:52.78	34.32	4.40	
2025-01-16 21:55:52.99	34.35	4.41	
2025-01-16 21:55:53.19	34.37	4.42	
2025-01-16 21:55:53.39	34.39	4.43	
2025-01-16 21:55:53.60	34.42	4.44	
2025-01-16 21:55:53.80	34.44	4.45	
2025-01-16 21:55:54.00	34.46	4.45	
2025-01-16 21:55:54.20	34.49	4.46	
2025-01-16 21:55:54.41	34.51	4.47	
2025-01-16 21:55:54.61	34.53	4.48	
2025-01-16 21:55:54.81	34.56	4.49	
2025-01-16 21:55:55.02	34.58	4.50	
2025-01-16 21:55:55.22	34.60	4.51	
2025-01-16 21:55:55.42	34.63	4.52	
2025-01-16 21:55:55.63	34.65	4.53	
2025-01-16 21:55:55.83	34.67	4.53	
2025-01-16 21:55:56.03	34.70	4.54	
2025-01-16 21:55:56.23	34.72	4.55	
2025-01-16 21:55:56.44	34.75	4.56	
2025-01-16 21:55:56.64	34.77	4.57	
2025-01-16 21:55:56.84	34.79	4.58	
2025-01-16 21:55:57.05	34.82	4.59	
2025-01-16 21:55:57.25	34.84	4.60	
2025-01-16 21:55:57.45	34.86	4.61	
2025-01-16 21:55:57.66	34.89	4.61	
2025-01-16 21:55:57.86	34.91	4.62	
2025-01-16 21:55:58.06	34.93	4.63	
2025-01-16 21:55:58.26	34.96	4.64	
2025-01-16 21:55:58.47	34.98	4.65	
2025-01-16 21:55:58.67	35.00	4.66	
2025-01-16 21:55:58.87	35.03	4.67	
2025-01-16 21:55:59.08	35.05	4.68	
2025-01-16 21:55:59.28	35.08	4.69	
2025-01-16 21:55:59.48	35.10	4.69	
2025-01-16 21:55:59.68	35.12	4.70	
2025-01-16 21:55:59.89	35.15	4.71	
2025-01-16 21:56:00.09	35.17	4.72	
2025-01-16 21:56:00.29	35.19	4.73	
2025-01-16 21:56:00.50	35.22	4.74	
2025-01-16 21:56:00.70	35.24	4.75	
2025-01-16 21:56:00.90	35.26	4.76	
2025-01-16 21:56:01.11	35.29	4.77	
2025-01-16 21:56:01.31	35.31	4.77	
2025-01-16 21:56:01.51	35.34	4.78	
2025-01-16 21:56:01.71	35.36	4.79	
2025-01-16 21:56:01.92	35.38	4.80	
2025-01-16 21:56:02.12	35.41	4.81	
2025-01-16 21:56:02.32	35.43	4.82	
2025-01-16 21:56:02.53	35.46	4.83	
2025-01-16 21:56:02.73	35.48	4.84	
2025-01-16 21:56:02.93	35.50	4.84	
2025-01-16 21:56:03.14	35.53	4.85	
2025-01-16 21:56:03.34	35.55	4.86	
2025-01-16 21:56:03.54	35.58	4.87	
2025-01-16 21:56:03.74	35.60	4.88	
2025-01-16 21:56:03.95	35.62	4.89	
2025-01-16 21:56:04.15	35.65	4.90	
2025-01-16 21:56:04.35	35.67	4.91	
2025-01-16 21:56:04.56	35.70	4.92	
2025-01-16 21:56:04.76	35.72	4.92	
2025-01-16 21:56:04.96	35.74	4.93	
2025-01-16 21:56:05.16	35.77	4.94	
2025-01-16 21:56:05.37	35.79	4.95	
2025-01-16 21:56:05.57	35.82	4.96	
2025-01-16 21:56:05.77	35.84	4.97	
2025-01-16 21:56:05.98	35.87	4.98	
2025-01-16 21:56:06.18	35.89	4.99	
2025-01-16 21:56:06.38	35.91	4.99	
2025-01-16 21:56:06.59	35.94	5.00	
2025-01-16 21:56:06.79	35.96	5.01	
2025-01-16 21:56:06.99	35.99	5.02	
2025-01-16 21:56:07.19	36.01	5.03	
2025-01-16 21:56:07.40	36.03	5.04	
2025-01-16 21:56:07.60	36.06	5.05	
2025-01-16 21:56:07.80	36.08	5.06	
2025-01-16 21:56:08.01	36.11	5.07	
2025-01-16 21:56:08.21	36.13	5.07	
2025-01-16 21:56:08.41	36.16	5.08	
2025-01-16 21:56:08.62	36.18	5.09	
2025-01-16 21:56:08.82	36.20	5.10	
2025-01-16 21:56:09.02	36.23	5.11	
2025-01-16 21:56:09.22	36.25	5.12	
2025-01-16 21:56:09.43	36.28	5.13	
2025-01-16 21:56:09.63	36.30	5.14	
2025-01-16 21:56:09.83	36.33	5.14	
2025-01-16 21:56:10.04	36.35	5.15	
2025-01-16 21:56:10.24	36.38	5.16	
2025-01-16 21:56:10.44	36.40	5.17	
2025-01-16 21:56:10.65	36.42	5.18	
2025-01-16 21:56:10.85	36.45	5.19	
2025-01-16 21:56:11.05	36.47	5.20	
2025-01-16 21:56:11.25	36.50	5.21	
2025-01-16 21:56:11.46	36.52	5.22	
2025-01-16 21:56:11.66	36.55	5.22	
2025-01-16 21:56:11.86	36.57	5.23	
2025-01-16 21:56:12.07	36.60	5.24	
2025-01-16 21:56:12.27	36.62	5.25	
2025-01-16 21:56:12.47	36.64	5.26	
2025-01-16 21:56:12.67	36.67	5.27	
2025-01-16 21:56:12.88	36.69	5.28	
2025-01-16 21:56:13.08	36.72	5.29	
2025-01-16 21:56:13.28	36.74	5.29	
2025-01-16 21:56:13.49	36.77	5.30	
2025-01-16 21:56:13.69	36.79	5.31	
2025-01-16 21:56:13.89	36.82	5.32	
2025-01-16 21:56:14.10	36.84	5.33	
2025-01-16 21:56:14.30	36.87	5.34	
2025-01-16 21:56:14.50	36.89	5.35	
2025-01-16 21:56:14.70	36.92	5.36	
2025-01-16 21:56:14.91	36.94	5.36	
2025-01-16 21:56:15.11	36.97	5.37	
2025-01-16 21:56:15.31	36.99	5.38	
2025-01-16 21:56:15.52	37.02	5.39	
2025-01-16 21:56:15.72	37.04	5.40	
2025-01-16 21:56:15.92	37.06	5.41	
2025-01-16 21:56:16.13	37.09	5.42	
2025-01-16 21:56:16.33	37.12	5.43	
2025-01-16 21:56:16.53	37.14	5.43	
2025-01-16 21:56:16.73	37.16	5.44	
2025-01-16 21:56:16.94	37.19	5.45	
2025-01-16 21:56:17.14	37.21	5.46	
2025-01-16 21:56:17.34	37.24	5.47	
2025-01-16 21:56:17.55	37.26	5.48	
2025-01-16 21:56:17.75	37.29	5.49	
2025-01-16 21:56:17.95	37.31	5.50	
2025-01-16 21:56:18.15	37.34	5.50	
2025-01-16 21:56:18.36	37.36	5.51	
2025-01-16 21:56:18.56	37.39	5.52	
2025-01-16 21:56:18.76	37.41	5.53	
2025-01-16 21:56:18.97	37.44	5.54	
2025-01-16 21:56:19.17	37.46	5.55	
2025-01-16 21:56:19.37	37.49	5.56	
2025-01-16 21:56:19.58	37.52	5.57	
2025-01-16 21:56:19.78	37.54	5.57	
2025-01-16 21:56:19.98	37.56	5.58	
2025-01-16 21:56:20.18	37.59	5.59	
2025-01-16 21:56:20.39	37.62	5.60	
2025-01-16 21:56:20.59	37.64	5.61	
2025-01-16 21:56:20.79	37.67	5.62	
2025-01-16 21:56:21.00	37.69	5.63	
2025-01-16 21:56:21.20	37.72	5.64	
2025-01-16 21:56:21.40	37.74	5.64	
2025-01-16 21:56:21.61	37.77	5.65	
2025-01-16 21:56:21.81	37.79	5.66	
2025-01-16 21:56:22.01	37.82	5.67	
2025-01-16 21:56:22.21	37.84	5.68	
2025-01-16 21:56:22.42	37.87	5.69	
2025-01-16 21:56:22.62	37.89	5.70	
2025-01-16 21:56:22.82	37.92	5.71	
2025-01-16 21:56:23.03	37.94	5.71	
2025-01-16 21:56:23.23	37.97	5.72	
2025-01-16 21:56:23.43	37.99	5.73	
2025-01-16 21:56:23.64	38.02	5.74	
2025-01-16 21:56:23.84	38.05	5.75	
2025-01-16 21:56:24.04	38.07	5.76	
2025-01-16 21:56:24.24	38.10	5.77	
2025-01-16 21:56:24.45	38.12	5.78	
2025-01-16 21:56:24.65	38.15	5.78	
2025-01-16 21:56:24.85	38.17	5.79	
2025-01-16 21:56:25.06	38.20	5.80	
2025-01-16 21:56:25.26	38.22	5.81	
2025-01-16 21:56:25.46	38.25	5.82	
2025-01-16 21:56:25.66	38.27	5.83	
2025-01-16 21:56:25.87	38.30	5.84	
2025-01-16 21:56:26.07	38.33	5.84	
2025-01-16 21:56:26.27	38.35	5.85	
2025-01-16 21:56:26.48	38.38	5.86	
2025-01-16 21:56:26.68	38.40	5.87	
2025-01-16 21:56:26.88	38.43	5.88	
2025-01-16 21:56:27.09	38.45	5.89	
2025-01-16 21:56:27.29	38.48	5.90	
2025-01-16 21:56:27.49	38.50	5.91	
2025-01-16 21:56:27.69	38.53	5.91	
2025-01-16 21:56:27.90	38.56	5.92	
2025-01-16 21:56:28.10	38.58	5.93	
2025-01-16 21:56:28.30	38.61	5.94	
2025-01-16 21:56:28.51	38.63	5.95	
2025-01-16 21:56:28.71	38.66	5.96	
2025-01-16 21:56:28.91	38.68	5.97	
2025-01-16 21:56:29.12	38.71	5.97	
2025-01-16 21:56:29.32	38.74	5.98	
2025-01-16 21:56:29.52	38.76	5.99	
2025-01-16 21:56:29.72	38.79	6.00	
2025-01-16 21:56:29.93	38.81	6.01	
2025-01-16 21:56:30.13	38.84	6.02	
2025-01-16 21:56:30.33	38.87	6.03	
2025-01-16 21:56:30.54	38.89	6.04	
2025-01-16 21:56:30.74	38.92	6.04	
2025-01-16 21:56:30.94	38.94	6.05	
2025-01-16 21:56:31.14	38.97	6.06	
2025-01-16 21:56:31.35	39.00	6.07	
2025-01-16 21:56:31.55	39.02	6.08	
2025-01-16 21:56:31.75	39.05	6.09	
2025-01-16 21:56:31.96	39.07	6.10	
2025-01-16 21:56:32.16	39.10	6.10	
2025-01-16 21:56:32.36	39.13	6.11	
2025-01-16 21:56:32.57	39.15	6.12	
2025-01-16 21:56:32.77	39.18	6.13	
2025-01-16 21:56:32.97	39.20	6.14	
2025-01-16 21:56:33.17	39.23	6.15	
2025-01-16 21:56:33.38	39.26	6.16	
2025-01-16 21:56:33.58	39.28	6.16	
2025-01-16 21:56:33.78	39.31	6.17	
2025-01-16 21:56:33.99	39.33	6.18	
2025-01-16 21:56:34.19	39.36	6.19	
2025-01-16 21:56:34.39	39.39	6.20	
2025-01-16 21:56:34.60	39.41	6.21	
2025-01-16 21:56:34.80	39.44	6.22	
2025-01-16 21:56:35.00	39.47	6.22	
2025-01-16 21:56:35.20	39.49	6.23	
2025-01-16 21:56:35.41	39.52	6.24	
2025-01-16 21:56:35.61	39.54	6.25	
2025-01-16 21:56:35.81	39.57	6.26	
2025-01-16 21:56:36.02	39.60	6.27	
2025-01-16 21:56:36.22	39.62	6.28	
2025-01-16 21:56:36.42	39.65	6.28	
2025-01-16 21:56:36.62	39.67	6.29	
2025-01-16 21:56:36.83	39.70	6.30	
2025-01-16 21:56:37.03	39.73	6.31	
2025-01-16 21:56:37.23	39.75	6.32	
2025-01-16 21:56:37.44	39.78	6.33	
2025-01-16 21:56:37.64	39.81	6.34	
2025-01-16 21:56:37.84	39.83	6.34	
2025-01-16 21:56:38.05	39.86	6.35	
2025-01-16 21:56:38.25	39.89	6.36	
2025-01-16 21:56:38.45	39.91	6.37	
2025-01-16 21:56:38.65	39.94	6.38	
2025-01-16 21:56:38.86	39.97	6.39	
2025-01-16 21:56:39.06	39.99	6.40	
2025-01-16 21:56:39.26	40.02	6.40	
2025-01-16 21:56:39.47	40.05	6.41	
2025-01-16 21:56:39.67	40.07	6.42	
2025-01-16 21:56:39.87	40.10	6.43	
2025-01-16 21:56:40.08	40.13	6.44	
2025-01-16 21:56:40.28	40.15	6.45	
2025-01-16 21:56:40.48	40.18	6.46	
2025-01-16 21:56:40.68	40.20	6.46	
2025-01-16 21:56:40.89	40.23	6.47	
2025-01-16 21:56:41.09	40.26	6.48	
2025-01-16 21:56:41.29	40.28	6.49	
2025-01-16 21:56:41.50	40.31	6.50	
2025-01-16 21:56:41.70	40.34	6.51	
2025-01-16 21:56:41.90	40.37	6.52	
2025-01-16 21:56:42.11	40.39	6.52	
2025-01-16 21:56:42.31	40.42	6.53	
2025-01-16 21:56:42.51	40.45	6.54	
2025-01-16 21:56:42.71	40.47	6.55	
2025-01-16 21:56:42.92	40.50	6.56	
2025-01-16 21:56:43.12	40.53	6.57	
2025-01-16 21:56:43.32	40.55	6.58	
2025-01-16 21:56:43.53	40.58	6.58	
2025-01-16 21:56:43.73	40.61	6.59	
2025-01-16 21:56:43.93	40.63	6.60	
2025-01-16 21:56:44.13	40.66	6.61	
2025-01-16 21:56:44.34	40.69	6.62	
2025-01-16 21:56:44.54	40.71	6.63	
2025-01-16 21:56:44.74	40.74	6.63	
2025-01-16 21:56:44.95	40.77	6.64	
2025-01-16 21:56:45.15	40.80	6.65	
2025-01-16 21:56:45.35	40.82	6.66	
2025-01-16 21:56:45.56	40.85	6.67	
2025-01-16 21:56:45.76	40.88	6.68	
2025-01-16 21:56:45.96	40.90	6.69	
2025-01-16 21:56:46.16	40.93	6.69	
2025-01-16 21:56:46.37	40.96	6.70	
2025-01-16 21:56:46.57	40.98	6.71	
2025-01-16 21:56:46.77	41.01	6.72	
2025-01-16 21:56:46.98	41.04	6.73	
2025-01-16 21:56:47.18	41.07	6.74	
2025-01-16 21:56:47.38	41.09	6.75	
2025-01-16 21:56:47.59	41.12	6.75	
2025-01-16 21:56:47.79	41.15	6.76	
2025-01-16 21:56:47.99	41.17	6.77	
2025-01-16 21:56:48.19	41.20	6.78	
2025-01-16 21:56:48.40	41.23	6.79	
2025-01-16 21:56:48.60	41.26	6.80	
2025-01-16 21:56:48.80	41.28	6.80	
2025-01-16 21:56:49.01	41.31	6.81	
2025-01-16 21:56:49.21	41.34	6.82	
2025-01-16 21:56:49.41	41.36	6.83	
2025-01-16 21:56:49.61	41.39	6.84	
2025-01-16 21:56:49.82	41.42	6.85	
2025-01-16 21:56:50.02	41.45	6.86	
2025-01-16 21:56:50.22	41.47	6.86	
2025-01-16 21:56:50.43	41.50	6.87	
2025-01-16 21:56:50.63	41.53	6.88	
2025-01-16 21:56:50.83	41.56	6.89	
2025-01-16 21:56:51.04	41.58	6.90	
2025-01-16 21:56:51.24	41.61	6.91	
2025-01-16 21:56:51.44	41.64	6.91	
2025-01-16 21:56:51.64	41.67	6.92	
2025-01-16 21:56:51.85	41.69	6.93	
2025-01-16 21:56:52.05	41.72	6.94	
2025-01-16 21:56:52.25	41.75	6.95	
2025-01-16 21:56:52.46	41.78	6.96	
2025-01-16 21:56:52.66	41.80	6.96	
2025-01-16 21:56:52.86	41.83	6.97	
2025-01-16 21:56:53.07	41.86	6.98	
2025-01-16 21:56:53.27	41.89	6.99	
2025-01-16 21:56:53.47	41.91	7.00	
2025-01-16 21:56:53.67	41.94	7.01	
2025-01-16 21:56:53.88	41.97	7.01	
2025-01-16 21:56:54.08	42.00	7.02	
2025-01-16 21:56:54.28	42.02	7.03	
2025-01-16 21:56:54.49	42.05	7.04	
2025-01-16 21:56:54.69	42.08	7.05	
2025-01-16 21:56:54.89	42.11	7.06	
2025-01-16 21:56:55.09	42.13	7.06	
2025-01-16 21:56:55.30	42.16	7.07	
2025-01-16 21:56:55.50	42.19	7.08	
2025-01-16 21:56:55.70	42.22	7.09	
2025-01-16 21:56:55.91	42.25	7.10	
2025-01-16 21:56:56.11	42.27	7.11	
2025-01-16 21:56:56.31	42.30	7.11	
2025-01-16 21:56:56.52	42.33	7.12	
2025-01-16 21:56:56.72	42.36	7.13	
2025-01-16 21:56:56.92	42.39	7.14	
2025-01-16 21:56:57.12	42.41	7.15	
2025-01-16 21:56:57.33	42.44	7.16	
2025-01-16 21:56:57.53	42.47	7.16	
2025-01-16 21:56:57.73	42.50	7.17	
2025-01-16 21:56:57.94	42.53	7.18	
2025-01-16 21:56:58.14	42.55	7.19	
2025-01-16 21:56:58.34	42.58	7.20	
2025-01-16 21:56:58.55	42.61	7.21	
2025-01-16 21:56:58.75	42.64	7.21	
2025-01-16 21:56:58.95	42.66	7.22	
2025-01-16 21:56:59.15	42.69	7.23	
2025-01-16 21:56:59.36	42.72	7.24	
2025-01-16 21:56:59.56	42.75	7.25	
2025-01-16 21:56:59.76	42.78	7.26	
2025-01-16 21:56:59.97	42.81	7.26	
2025-01-16 21:57:00.17	42.83	7.27	
2025-01-16 21:57:00.37	42.86	7.28	
2025-01-16 21:57:00.57	42.89	7.29	
2025-01-16 21:57:00.78	42.92	7.30	
2025-01-16 21:57:00.98	42.95	7.31	
2025-01-16 21:57:01.18	42.97	7.31	
2025-01-16 21:57:01.39	43.00	7.32	
2025-01-16 21:57:01.59	43.03	7.33	
2025-01-16 21:57:01.79	43.06	7.34	
2025-01-16 21:57:02.00	43.09	7.35	
2025-01-16 21:57:02.20	43.12	7.36	
2025-01-16 21:57:02.40	43.14	7.36	
2025-01-16 21:57:02.60	43.17	7.37	
2025-01-16 21:57:02.81	43.20	7.38	
2025-01-16 21:57:03.01	43.23	7.39	
2025-01-16 21:57:03.21	43.26	7.40	
2025-01-16 21:57:03.42	43.29	7.41	
2025-01-16 21:57:03.62	43.31	7.41	
2025-01-16 21:57:03.82	43.34	7.42	
2025-01-16 21:57:04.03	43.37	7.43	
2025-01-16 21:57:04.23	43.40	7.44	
2025-01-16 21:57:04.43	43.43	7.45	
2025-01-16 21:57:04.63	43.45	7.45	
2025-01-16 21:57:04.84	43.48	7.46	
2025-01-16 21:57:05.04	43.51	7.47	
2025-01-16 21:57:05.24	43.54	7.48	
2025-01-16 21:57:05.45	43.57	7.49	
2025-01-16 21:57:05.65	43.60	7.50	
2025-01-16 21:57:05.85	43.63	7.50	
2025-01-16 21:57:06.06	43.66	7.51	
2025-01-16 21:57:06.26	43.68	7.52	
2025-01-16 21:57:06.46	43.71	7.53	
2025-01-16 21:57:06.66	43.74	7.54	
2025-01-16 21:57:06.87	43.77	7.54	
2025-01-16 21:57:07.07	43.80	7.55	
2025-01-16 21:57:07.27	43.83	7.56	
2025-01-16 21:57:07.48	43.86	7.57	
2025-01-16 21:57:07.68	43.88	7.58	
2025-01-16 21:57:07.88	43.91	7.59	
2025-01-16 21:57:08.08	43.94	7.59	
2025-01-16 21:57:08.29	43.97	7.60	
2025-01-16 21:57:08.49	44.00	7.61	
2025-01-16 21:57:08.69	44.03	7.62	
2025-01-16 21:57:08.90	44.06	7.63	
2025-01-16 21:57:09.10	44.08	7.63	
2025-01-16 21:57:09.30	44.11	7.64	
2025-01-16 21:57:09.51	44.14	7.65	
2025-01-16 21:57:09.71	44.17	7.66	
2025-01-16 21:57:09.91	44.20	7.67	
2025-01-16 21:57:10.11	44.23	7.67	
2025-01-16 21:57:10.32	44.26	7.68	
2025-01-16 21:57:10.52	44.29	7.69	
2025-01-16 21:57:10.72	44.32	7.70	
2025-01-16 21:57:10.93	44.35	7.71	
2025-01-16 21:57:11.13	44.37	7.72	
2025-01-16 21:57:11.33	44.40	7.72	
2025-01-16 21:57:11.54	44.43	7.73	
2025-01-16 21:57:11.74	44.46	7.74	
2025-01-16 21:57:11.94	44.49	7.75	
2025-01-16 21:57:12.14	44.52	7.76	
2025-01-16 21:57:12.35	44.55	7.76	
2025-01-16 21:57:12.55	44.58	7.77	
2025-01-16 21:57:12.75	44.61	7.78	
2025-01-16 21:57:12.96	44.64	7.79	
2025-01-16 21:57:13.16	44.66	7.80	
2025-01-16 21:57:13.36	44.69	7.80	
2025-01-16 21:57:13.56	44.72	7.81	
2025-01-16 21:57:13.77	44.75	7.82	
2025-01-16 21:57:13.97	44.78	7.83	
2025-01-16 21:57:14.17	44.81	7.84	
2025-01-16 21:57:14.38	44.84	7.84	
2025-01-16 21:57:14.58	44.87	7.85	
2025-01-16 21:57:14.78	44.90	7.86	
2025-01-16 21:57:14.99	44.93	7.87	
2025-01-16 21:57:15.19	44.96	7.88	
2025-01-16 21:57:15.39	44.98	7.88	
2025-01-16 21:57:15.59	45.01	7.89	
2025-01-16 21:57:15.80	45.04	7.90	
2025-01-16 21:57:16.00	45.07	7.91	
2025-01-16 21:57:16.20	45.10	7.92	
2025-01-16 21:57:16.41	45.13	7.93	
2025-01-16 21:57:16.61	45.16	7.93	
2025-01-16 21:57:16.81	45.19	7.94	
2025-01-16 21:57:17.02	45.22	7.95	
2025-01-16 21:57:17.22	45.25	7.96	
2025-01-16 21:57:17.42	45.28	7.96	
2025-01-16 21:57:17.62	45.31	7.97	
2025-01-16 21:57:17.83	45.34	7.98	
2025-01-16 21:57:18.03	45.37	7.99	
2025-01-16 21:57:18.23	45.40	8.00	
2025-01-16 21:57:18.44	45.43	8.01	
2025-01-16 21:57:18.64	45.46	8.01	
2025-01-16 21:57:18.84	45.48	8.02	
2025-01-16 21:57:19.04	45.51	8.03	
2025-01-16 21:57:19.25	45.54	8.04	
2025-01-16 21:57:19.45	45.57	8.04	
2025-01-16 21:57:19.65	45.60	8.05	
2025-01-16 21:57:19.86	45.63	8.06	
2025-01-16 21:57:20.06	45.66	8.07	
2025-01-16 21:57:20.26	45.69	8.08	
2025-01-16 21:57:20.47	45.72	8.08	
2025-01-16 21:57:20.67	45.75	8.09	
2025-01-16 21:57:20.87	45.78	8.10	
2025-01-16 21:57:21.07	45.81	8.11	
2025-01-16 21:57:21.28	45.84	8.12	
2025-01-16 21:57:21.48	45.87	8.12	
2025-01-16 21:57:21.68	45.90	8.13	
2025-01-16 21:57:21.89	45.93	8.14	
2025-01-16 21:57:22.09	45.96	8.15	
2025-01-16 21:57:22.29	45.99	8.16	
2025-01-16 21:57:22.50	46.02	8.16	
2025-01-16 21:57:22.70	46.05	8.17	
2025-01-16 21:57:22.90	46.08	8.18	
2025-01-16 21:57:23.10	46.11	8.19	
2025-01-16 21:57:23.31	46.14	8.20	
2025-01-16 21:57:23.51	46.17	8.20	
2025-01-16 21:57:23.71	46.20	8.21	
2025-01-16 21:57:23.92	46.23	8.22	
2025-01-16 21:57:24.12	46.26	8.23	
2025-01-16 21:57:24.32	46.29	8.23	
2025-01-16 21:57:24.52	46.32	8.24	
2025-01-16 21:57:24.73	46.35	8.25	
2025-01-16 21:57:24.93	46.38	8.26	
2025-01-16 21:57:25.13	46.41	8.27	
2025-01-16 21:57:25.34	46.44	8.27	
2025-01-16 21:57:25.54	46.47	8.28	
2025-01-16 21:57:25.74	46.50	8.29	
2025-01-16 21:57:25.95	46.53	8.30	
2025-01-16 21:57:26.15	46.56	8.30	
2025-01-16 21:57:26.35	46.59	8.31	
2025-01-16 21:57:26.55	46.62	8.32	
2025-01-16 21:57:26.76	46.65	8.33	
2025-01-16 21:57:26.96	46.68	8.34	
2025-01-16 21:57:27.16	46.71	8.34	
2025-01-16 21:57:27.37	46.74	8.35	
2025-01-16 21:57:27.57	46.77	8.36	
2025-01-16 21:57:27.77	46.80	8.37	
2025-01-16 21:57:27.98	46.83	8.38	
2025-01-16 21:57:28.18	46.86	8.38	
2025-01-16 21:57:28.38	46.89	8.39	
2025-01-16 21:57:28.58	46.92	8.40	
2025-01-16 21:57:28.79	46.95	8.41	
2025-01-16 21:57:28.99	46.98	8.41	
2025-01-16 21:57:29.19	47.01	8.42	
2025-01-16 21:57:29.40	47.04	8.43	
2025-01-16 21:57:29.60	47.07	8.44	
2025-01-16 21:57:29.80	47.10	8.44	
2025-01-16 21:57:30.01	47.13	8.45	
2025-01-16 21:57:30.21	47.16	8.46	
2025-01-16 21:57:30.41	47.19	8.47	
2025-01-16 21:57:30.61	47.22	8.48	
2025-01-16 21:57:30.82	47.26	8.48	
2025-01-16 21:57:31.02	47.29	8.49	
2025-01-16 21:57:31.22	47.32	8.50	
2025-01-16 21:57:31.43	47.35	8.51	
2025-01-16 21:57:31.63	47.38	8.51	
2025-01-16 21:57:31.83	47.41	8.52	
2025-01-16 21:57:32.03	47.44	8.53	
2025-01-16 21:57:32.24	47.47	8.54	
2025-01-16 21:57:32.44	47.50	8.55	
2025-01-16 21:57:32.64	47.53	8.55	
2025-01-16 21:57:32.85	47.56	8.56	
2025-01-16 21:57:33.05	47.59	8.57	
2025-01-16 21:57:33.25	47.62	8.58	
2025-01-16 21:57:33.46	47.65	8.58	
2025-01-16 21:57:33.66	47.68	8.59	
2025-01-16 21:57:33.86	47.71	8.60	
2025-01-16 21:57:34.06	47.74	8.61	
2025-01-16 21:57:34.27	47.78	8.61	
2025-01-16 21:57:34.47	47.81	8.62	
2025-01-16 21:57:34.67	47.84	8.63	
2025-01-16 21:57:34.88	47.87	8.64	
2025-01-16 21:57:35.08	47.90	8.64	
2025-01-16 21:57:35.28	47.93	8.65	
2025-01-16 21:57:35.49	47.96	8.66	
2025-01-16 21:57:35.69	47.99	8.67	
2025-01-16 21:57:35.89	48.02	8.67	
2025-01-16 21:57:36.09	48.05	8.68	
2025-01-16 21:57:36.30	48.08	8.69	
2025-01-16 21:57:36.50	48.11	8.70	
2025-01-16 21:57:36.70	48.14	8.71	
2025-01-16 21:57:36.91	48.18	8.71	
2025-01-16 21:57:37.11	48.21	8.72	
2025-01-16 21:57:37.31	48.24	8.73	
2025-01-16 21:57:37.51	48.27	8.74	
2025-01-16 21:57:37.72	48.30	8.74	
2025-01-16 21:57:37.92	48.33	8.75	
2025-01-16 21:57:38.12	48.36	8.76	
2025-01-16 21:57:38.33	48.39	8.77	
2025-01-16 21:57:38.53	48.42	8.77	
2025-01-16 21:57:38.73	48.45	8.78	
2025-01-16 21:57:38.94	48.49	8.79	
2025-01-16 21:57:39.14	48.52	8.80	
2025-01-16 21:57:39.34	48.55	8.80	
2025-01-16 21:57:39.54	48.58	8.81	
2025-01-16 21:57:39.75	48.61	8.82	
2025-01-16 21:57:39.95	48.64	8.83	
2025-01-16 21:57:40.15	48.67	8.83	
2025-01-16 21:57:40.36	48.70	8.84	
2025-01-16 21:57:40.56	48.74	8.85	
2025-01-16 21:57:40.76	48.77	8.86	
2025-01-16 21:57:40.97	48.80	8.86	
2025-01-16 21:57:41.17	48.83	8.87	
2025-01-16 21:57:41.37	48.86	8.88	
2025-01-16 21:57:41.57	48.89	8.89	
2025-01-16 21:57:41.78	48.92	8.89	
2025-01-16 21:57:41.98	48.95	8.90	
2025-01-16 21:57:42.18	48.98	8.91	
2025-01-16 21:57:42.39	49.02	8.92	
2025-01-16 21:57:42.59	49.05	8.92	
2025-01-16 21:57:42.79	49.08	8.93	
2025-01-16 21:57:43.00	49.11	8.94	
2025-01-16 21:57:43.20	49.14	8.95	
2025-01-16 21:57:43.40	49.17	8.95	
2025-01-16 21:57:43.60	49.20	8.96	
2025-01-16 21:57:43.81	49.24	8.97	
2025-01-16 21:57:44.01	49.27	8.97	
2025-01-16 21:57:44.21	49.30	8.98	
2025-01-16 21:57:44.42	49.33	8.99	
2025-01-16 21:57:44.62	49.36	9.00	
2025-01-16 21:57:44.82	49.39	9.00	
2025-01-16 21:57:45.02	49.42	9.01	
2025-01-16 21:57:45.23	49.46	9.02	
2025-01-16 21:57:45.43	49.49	9.03	
2025-01-16 21:57:45.63	49.52	9.03	
2025-01-16 21:57:45.84	49.55	9.04	
2025-01-16 21:57:46.04	49.58	9.05	
2025-01-16 21:57:46.24	49.61	9.06	
2025-01-16 21:57:46.45	49.65	9.06	
2025-01-16 21:57:46.65	49.68	9.07	
2025-01-16 21:57:46.85	49.71	9.08	
2025-01-16 21:57:47.05	49.74	9.09	
2025-01-16 21:57:47.26	49.77	9.09	
2025-01-16 21:57:47.46	49.81	9.10	
2025-01-16 21:57:47.66	49.84	9.11	
2025-01-16 21:57:47.87	49.87	9.11	
2025-01-16 21:57:48.07	49.90	9.12	
2025-01-16 21:57:48.27	49.93	9.13	
2025-01-16 21:57:48.48	49.96	9.14	
2025-01-16 21:57:48.68	50.00	9.14	
2025-01-16 21:57:48.88	50.03	9.15	
2025-01-16 21:57:49.08	50.06	9.16	
2025-01-16 21:57:49.29	50.09	9.17	
2025-01-16 21:57:49.49	50.12	9.17	
2025-01-16 21:57:49.69	50.15	9.18	
2025-01-16 21:57:49.90	50.19	9.19	
2025-01-16 21:57:50.10	50.22	9.19	
2025-01-16 21:57:50.30	50.25	9.20	
2025-01-16 21:57:50.50	50.28	9.21	
2025-01-16 21:57:50.71	50.32	9.22	
2025-01-16 21:57:50.91	50.35	9.22	
2025-01-16 21:57:51.11	50.38	9.23	
2025-01-16 21:57:51.32	50.41	9.24	
2025-01-16 21:57:51.52	50.44	9.25	
2025-01-16 21:57:51.72	50.47	9.25	
2025-01-16 21:57:51.93	50.51	9.26	
2025-01-16 21:57:52.13	50.54	9.27	
2025-01-16 21:57:52.33	50.57	9.27	
2025-01-16 21:57:52.53	50.60	9.28	
2025-01-16 21:57:52.74	50.64	9.29	
2025-01-16 21:57:52.94	50.67	9.30	
2025-01-16 21:57:53.14	50.70	9.30	
2025-01-16 21:57:53.35	50.73	9.31	
2025-01-16 21:57:53.55	50.76	9.32	
2025-01-16 21:57:53.75	50.80	9.32	
2025-01-16 21:57:53.96	50.83	9.33	
2025-01-16 21:57:54.16	50.86	9.34	
2025-01-16 21:57:54.36	50.89	9.35	
2025-01-16 21:57:54.56	50.92	9.35	
2025-01-16 21:57:54.77	50.96	9.36	
2025-01-16 21:57:54.97	50.99	9.37	
2025-01-16 21:57:55.17	51.02	9.37	
2025-01-16 21:57:55.38	51.06	9.38	
2025-01-16 21:57:55.58	51.09	9.39	
2025-01-16 21:57:55.78	51.12	9.39	
2025-01-16 21:57:55.98	51.15	9.40	
2025-01-16 21:57:56.19	51.18	9.41	
2025-01-16 21:57:56.39	51.22	9.42	
2025-01-16 21:57:56.59	51.25	9.42	
2025-01-16 21:57:56.80	51.28	9.43	
2025-01-16 21:57:57.00	51.31	9.44	
2025-01-16 21:57:57.20	51.35	9.44	
2025-01-16 21:57:57.41	51.38	9.45	
2025-01-16 21:57:57.61	51.41	9.46	
2025-01-16 21:57:57.81	51.44	9.47	
2025-01-16 21:57:58.01	51.48	9.47	
2025-01-16 21:57:58.22	51.51	9.48	
2025-01-16 21:57:58.42	51.54	9.49	
2025-01-16 21:57:58.62	51.57	9.49	
2025-01-16 21:57:58.83	51.61	9.50	
2025-01-16 21:57:59.03	51.64	9.51	
2025-01-16 21:57:59.23	51.67	9.51	
2025-01-16 21:57:59.44	51.71	9.52	
2025-01-16 21:57:59.64	51.74	9.53	
2025-01-16 21:57:59.84	51.77	9.54	
2025-01-16 21:58:00.04	51.80	9.54	
2025-01-16 21:58:00.25	51.84	9.55	
2025-01-16 21:58:00.45	51.87	9.56	
2025-01-16 21:58:00.65	51.90	9.56	
2025-01-16 21:58:00.86	51.93	9.57	
2025-01-16 21:58:01.06	51.97	9.58	
2025-01-16 21:58:01.26	52.00	9.58	
2025-01-16 21:58:01.47	52.03	9.59	
2025-01-16 21:58:01.67	52.06	9.60	
2025-01-16 21:58:01.87	52.10	9.60	
2025-01-16 21:58:02.07	52.13	9.61	
2025-01-16 21:58:02.28	52.16	9.62	
2025-01-16 21:58:02.48	52.20	9.63	
2025-01-16 21:58:02.68	52.23	9.63	
2025-01-16 21:58:02.89	52.26	9.64	
2025-01-16 21:58:03.09	52.29	9.65	
2025-01-16 21:58:03.29	52.33	9.65	
2025-01-16 21:58:03.49	52.36	9.66	
2025-01-16 21:58:03.70	52.39	9.67	
2025-01-16 21:58:03.90	52.43	9.67	
2025-01-16 21:58:04.10	52.46	9.68	
2025-01-16 21:58:04.31	52.49	9.69	
2025-01-16 21:58:04.51	52.53	9.69	
2025-01-16 21:58:04.71	52.56	9.70	
2025-01-16 21:58:04.92	52.59	9.71	
2025-01-16 21:58:05.12	52.62	9.71	
2025-01-16 21:58:05.32	52.66	9.72	
2025-01-16 21:58:05.52	52.69	9.73	
2025-01-16 21:58:05.73	52.72	9.73	
2025-01-16 21:58:05.93	52.76	9.74	
2025-01-16 21:58:06.13	52.79	9.75	
2025-01-16 21:58:06.34	52.82	9.75	
2025-01-16 21:58:06.54	52.86	9.76	
2025-01-16 21:58:06.74	52.89	9.77	
2025-01-16 21:58:06.95	52.92	9.78	
2025-01-16 21:58:07.15	52.96	9.78	
2025-01-16 21:58:07.35	52.99	9.79	
2025-01-16 21:58:07.55	53.02	9.80	
2025-01-16 21:58:07.76	53.06	9.80	
2025-01-16 21:58:07.96	53.09	9.81	
2025-01-16 21:58:08.16	53.12	9.82	
2025-01-16 21:58:08.37	53.16	9.82	
2025-01-16 21:58:08.57	53.19	9.83	
2025-01-16 21:58:08.77	53.22	9.84	
2025-01-16 21:58:08.97	53.25	9.84	
2025-01-16 21:58:09.18	53.29	9.85	
2025-01-16 21:58:09.38	53.32	9.86	
2025-01-16 21:58:09.58	53.35	9.86	
2025-01-16 21:58:09.79	53.39	9.87	
2025-01-16 21:58:09.99	53.42	9.88	
2025-01-16 21:58:10.19	53.46	9.88	
2025-01-16 21:58:10.40	53.49	9.89	
2025-01-16 21:58:10.60	53.52	9.90	
2025-01-16 21:58:10.80	53.56	9.90	
2025-01-16 21:58:11.00	53.59	9.91	
2025-01-16 21:58:11.21	53.62	9.92	
2025-01-16 21:58:11.41	53.66	9.92	
2025-01-16 21:58:11.61	53.69	9.93	
2025-01-16 21:58:11.82	53.72	9.94	
2025-01-16 21:58:12.02	53.76	9.94	
2025-01-16 21:58:12.22	53.79	9.95	
2025-01-16 21:58:12.43	53.83	9.95	
2025-01-16 21:58:12.63	53.86	9.96	
2025-01-16 21:58:12.83	53.89	9.97	
2025-01-16 21:58:13.03	53.92	9.97	
2025-01-16 21:58:13.24	53.96	9.98	
2025-01-16 21:58:13.44	53.99	9.99	
2025-01-16 21:58:13.64	54.03	9.99	
2025-01-16 21:58:13.85	54.06	10.00	
2025-01-16 21:58:14.05	54.09	10.01	
2025-01-16 21:58:14.25	54.13	10.01	
2025-01-16 21:58:14.45	54.16	10.02	
2025-01-16 21:58:14.66	54.20	10.03	
2025-01-16 21:58:14.86	54.23	10.03	
2025-01-16 21:58:15.06	54.26	10.04	
2025-01-16 21:58:15.27	54.30	10.05	
2025-01-16 21:58:15.47	54.33	10.05	
2025-01-16 21:58:15.67	54.36	10.06	
2025-01-16 21:58:15.88	54.40	10.07	
2025-01-16 21:58:16.08	54.43	10.07	
2025-01-16 21:58:16.28	54.47	10.08	
2025-01-16 21:58:16.48	54.50	10.08	
2025-01-16 21:58:16.69	54.53	10.09	
2025-01-16 21:58:16.89	54.57	10.10	
2025-01-16 21:58:17.09	54.60	10.10	
2025-01-16 21:58:17.30	54.64	10.11	
2025-01-16 21:58:17.50	54.67	10.12	
2025-01-16 21:58:17.70	54.70	10.12	
2025-01-16 21:58:17.91	54.74	10.13	
2025-01-16 21:58:18.11	54.77	10.14	
2025-01-16 21:58:18.31	54.80	10.14	
2025-01-16 21:58:18.51	54.84	10.15	
2025-01-16 21:58:18.72	54.87	10.15	
2025-01-16 21:58:18.92	54.91	10.16	
2025-01-16 21:58:19.12	54.94	10.17	
2025-01-16 21:58:19.33	54.98	10.17	
2025-01-16 21:58:19.53	55.01	10.18	
2025-01-16 21:58:19.73	55.04	10.19	
2025-01-16 21:58:19.94	55.08	10.19	
2025-01-16 21:58:20.14	55.11	10.20	
2025-01-16 21:58:20.34	55.15	10.21	
2025-01-16 21:58:20.54	55.18	10.21	
2025-01-16 21:58:20.75	55.21	10.22	
2025-01-16 21:58:20.95	55.25	10.22	
2025-01-16 21:58:21.15	55.28	10.23	
2025-01-16 21:58:21.36	55.32	10.24	
2025-01-16 21:58:21.56	55.35	10.24	
2025-01-16 21:58:21.76	55.39	10.25	
2025-01-16 21:58:21.96	55.42	10.25	
2025-01-16 21:58:22.17	55.45	10.26	
2025-01-16 21:58:22.37	55.49	10.27	
2025-01-16 21:58:22.57	55.52	10.27	
2025-01-16 21:58:22.78	55.56	10.28	
2025-01-16 21:58:22.98	55.59	10.29	
2025-01-16 21:58:23.18	55.63	10.29	
2025-01-16 21:58:23.39	55.66	10.30	
2025-01-16 21:58:23.59	55.69	10.30	
2025-01-16 21:58:23.79	55.73	10.31	
2025-01-16 21:58:23.99	55.76	10.32	
2025-01-16 21:58:24.20	55.80	10.32	
2025-01-16 21:58:24.40	55.83	10.33	
2025-01-16 21:58:24.60	55.87	10.34	
2025-01-16 21:58:24.81	55.90	10.34	
2025-01-16 21:58:25.01	55.94	10.35	
2025-01-16 21:58:25.21	55.97	10.35	
2025-01-16 21:58:25.42	56.01	10.36	
2025-01-16 21:58:25.62	56.04	10.37	
2025-01-16 21:58:25.82	56.07	10.37	
2025-01-16 21:58:26.02	56.11	10.38	
2025-01-16 21:58:26.23	56.14	10.38	
2025-01-16 21:58:26.43	56.18	10.39	
2025-01-16 21:58:26.63	56.21	10.40	
2025-01-16 21:58:26.84	56.25	10.40	
2025-01-16 21:58:27.04	56.28	10.41	
2025-01-16 21:58:27.24	56.32	10.41	
2025-01-16 21:58:27.44	56.35	10.42	
2025-01-16 21:58:27.65	56.39	10.43	
2025-01-16 21:58:27.85	56.42	10.43	
2025-01-16 21:58:28.05	56.45	10.44	
2025-01-16 21:58:28.26	56.49	10.44	
2025-01-16 21:58:28.46	56.52	10.45	
2025-01-16 21:58:28.66	56.56	10.46	
2025-01-16 21:58:28.87	56.59	10.46	
2025-01-16 21:58:29.07	56.63	10.47	
2025-01-16 21:58:29.27	56.66	10.47	
2025-01-16 21:58:29.47	56.70	10.48	
2025-01-16 21:58:29.68	56.73	10.49	
2025-01-16 21:58:29.88	56.77	10.49	
2025-01-16 21:58:30.08	56.80	10.50	
2025-01-16 21:58:30.29	56.84	10.50	
2025-01-16 21:58:30.49	56.87	10.51	
2025-01-16 21:58:30.69	56.91	10.52	
2025-01-16 21:58:30.90	56.94	10.52	
2025-01-16 21:58:31.10	56.98	10.53	
2025-01-16 21:58:31.30	57.01	10.53	
2025-01-16 21:58:31.50	57.05	10.54	
2025-01-16 21:58:31.71	57.08	10.55	
2025-01-16 21:58:31.91	57.12	10.55	
2025-01-16 21:58:32.11	57.15	10.56	
2025-01-16 21:58:32.32	57.19	10.56	
2025-01-16 21:58:32.52	57.22	10.57	
2025-01-16 21:58:32.72	57.26	10.57	
2025-01-16 21:58:32.92	57.29	10.58	
2025-01-16 21:58:33.13	57.33	10.59	
2025-01-16 21:58:33.33	57.36	10.59	
2025-01-16 21:58:33.53	57.40	10.60	
2025-01-16 21:58:33.74	57.43	10.60	
2025-01-16 21:58:33.94	57.47	10.61	
2025-01-16 21:58:34.14	57.50	10.61	
2025-01-16 21:58:34.35	57.54	10.62	
2025-01-16 21:58:34.55	57.57	10.63	
2025-01-16 21:58:34.75	57.61	10.63	
2025-01-16 21:58:34.95	57.64	10.64	
2025-01-16 21:58:35.16	57.68	10.64	
2025-01-16 21:58:35.36	57.71	10.65	
2025-01-16 21:58:35.56	57.75	10.65	
2025-01-16 21:58:35.77	57.78	10.66	
2025-01-16 21:58:35.97	57.82	10.67	
2025-01-16 21:58:36.17	57.85	10.67	
2025-01-16 21:58:36.38	57.89	10.68	
2025-01-16 21:58:36.58	57.92	10.68	
2025-01-16 21:58:36.78	57.96	10.69	
2025-01-16 21:58:36.98	57.99	10.69	
2025-01-16 21:58:37.19	58.03	10.70	
2025-01-16 21:58:37.39	58.07	10.71	
2025-01-16 21:58:37.59	58.10	10.71	
2025-01-16 21:58:37.80	58.14	10.72	
2025-01-16 21:58:38.00	58.17	10.72	
2025-01-16 21:58:38.20	58.21	10.73	
2025-01-16 21:58:38.41	58.24	10.73	
2025-01-16 21:58:38.61	58.28	10.74	
2025-01-16 21:58:38.81	58.31	10.75	
2025-01-16 21:58:39.01	58.35	10.75	
2025-01-16 21:58:39.22	58.38	10.76	
2025-01-16 21:58:39.42	58.42	10.76	
2025-01-16 21:58:39.62	58.45	10.77	
2025-01-16 21:58:39.83	58.49	10.77	
2025-01-16 21:58:40.03	58.53	10.78	
2025-01-16 21:58:40.23	58.56	10.78	
2025-01-16 21:58:40.43	58.60	10.79	
2025-01-16 21:58:40.64	58.63	10.80	
2025-01-16 21:58:40.84	58.67	10.80	
2025-01-16 21:58:41.04	58.70	10.81	
2025-01-16 21:58:41.25	58.74	10.81	
2025-01-16 21:58:41.45	58.77	10.82	
2025-01-16 21:58:41.65	58.81	10.82	
2025-01-16 21:58:41.86	58.85	10.83	
2025-01-16 21:58:42.06	58.88	10.83	
2025-01-16 21:58:42.26	58.92	10.84	
2025-01-16 21:58:42.46	58.95	10.84	
2025-01-16 21:58:42.67	58.99	10.85	
2025-01-16 21:58:42.87	59.02	10.85	
2025-01-16 21:58:43.07	59.06	10.86	
2025-01-16 21:58:43.28	59.10	10.87	
2025-01-16 21:58:43.48	59.13	10.87	
2025-01-16 21:58:43.68	59.17	10.88	
2025-01-16 21:58:43.89	59.20	10.88	
2025-01-16 21:58:44.09	59.24	10.89	
2025-01-16 21:58:44.29	59.27	10.89	
2025-01-16 21:58:44.49	59.31	10.90	
2025-01-16 21:58:44.70	59.35	10.90	
2025-01-16 21:58:44.90	59.38	10.91	
2025-01-16 21:58:45.10	59.42	10.91	
2025-01-16 21:58:45.31	59.45	10.92	
2025-01-16 21:58:45.51	59.49	10.92	
2025-01-16 21:58:45.71	59.52	10.93	
2025-01-16 21:58:45.91	59.56	10.93	
2025-01-16 21:58:46.12	59.60	10.94	
2025-01-16 21:58:46.32	59.63	10.95	
2025-01-16 21:58:46.52	59.67	10.95	
2025-01-16 21:58:46.73	59.70	10.96	
2025-01-16 21:58:46.93	59.74	10.96	
2025-01-16 21:58:47.13	59.78	10.97	
2025-01-16 21:58:47.34	59.81	10.97	
2025-01-16 21:58:47.54	59.85	10.98	
2025-01-16 21:58:47.74	59.88	10.98	
2025-01-16 21:58:47.94	59.92	10.99	
2025-01-16 21:58:48.15	59.96	10.99	
2025-01-16 21:58:48.35	59.99	11.00	
2025-01-16 21:58:48.55	60.03	11.00	
2025-01-16 21:58:48.76	60.06	11.01	
2025-01-16 21:58:48.96	60.10	11.01	
2025-01-16 21:58:49.16	60.14	11.02	
2025-01-16 21:58:49.37	60.17	11.02	
2025-01-16 21:58:49.57	60.21	11.03	
2025-01-16 21:58:49.77	60.24	11.03	
2025-01-16 21:58:49.97	60.28	11.04	
2025-01-16 21:58:50.18	60.32	11.04	
2025-01-16 21:58:50.38	60.35	11.05	
2025-01-16 21:58:50.58	60.39	11.05	
2025-01-16 21:58:50.79	60.43	11.06	
2025-01-16 21:58:50.99	60.46	11.06	
2025-01-16 21:58:51.19	60.50	11.07	
2025-01-16 21:58:51.39	60.53	11.07	
2025-01-16 21:58:51.60	60.57	11.08	
2025-01-16 21:58:51.80	60.61	11.08	
2025-01-16 21:58:52.00	60.64	11.09	
2025-01-16 21:58:52.21	60.68	11.09	
2025-01-16 21:58:52.41	60.72	11.10	
2025-01-16 21:58:52.61	60.75	11.10	
2025-01-16 21:58:52.82	60.79	11.11	
2025-01-16 21:58:53.02	60.82	11.11	
2025-01-16 21:58:53.22	60.86	11.12	
2025-01-16 21:58:53.42	60.90	11.12	
2025-01-16 21:58:53.63	60.93	11.13	
2025-01-16 21:58:53.83	60.97	11.13	
2025-01-16 21:58:54.03	61.00	11.14	
2025-01-16 21:58:54.24	61.04	11.14	
2025-01-16 21:58:54.44	61.08	11.15	
2025-01-16 21:58:54.64	61.11	11.15	
2025-01-16 21:58:54.85	61.15	11.16	
2025-01-16 21:58:55.05	61.19	11.16	
2025-01-16 21:58:55.25	61.22	11.17	
2025-01-16 21:58:55.45	61.26	11.17	
2025-01-16 21:58:55.66	61.30	11.18	
2025-01-16 21:58:55.86	61.33	11.18	
2025-01-16 21:58:56.06	61.37	11.19	
2025-01-16 21:58:56.27	61.41	11.19	
2025-01-16 21:58:56.47	61.44	11.20	
2025-01-16 21:58:56.67	61.48	11.20	
2025-01-16 21:58:56.87	61.51	11.21	
2025-01-16 21:58:57.08	61.55	11.21	
2025-01-16 21:58:57.28	61.59	11.22	
2025-01-16 21:58:57.48	61.62	11.22	
2025-01-16 21:58:57.69	61.66	11.23	
2025-01-16 21:58:57.89	61.70	11.23	
2025-01-16 21:58:58.09	61.73	11.23	
2025-01-16 21:58:58.30	61.77	11.24	
2025-01-16 21:58:58.50	61.81	11.24	
2025-01-16 21:58:58.70	61.84	11.25	
2025-01-16 21:58:58.90	61.88	11.25	
2025-01-16 21:58:59.11	61.92	11.26	
2025-01-16 21:58:59.31	61.96	11.26	
2025-01-16 21:58:59.51	61.99	11.27	
2025-01-16 21:58:59.72	62.03	11.27	
2025-01-16 21:58:59.92	62.07	11.28	
2025-01-16 21:59:00.12	62.10	11.28	
2025-01-16 21:59:00.33	62.14	11.29	
2025-01-16 21:59:00.53	62.18	11.29	
2025-01-16 21:59:00.73	62.21	11.30	
2025-01-16 21:59:00.93	62.25	11.30	
2025-01-16 21:59:01.14	62.29	11.30	
2025-01-16 21:59:01.34	62.32	11.31	
2025-01-16 21:59:01.54	62.36	11.31	
2025-01-16 21:59:01.75	62.40	11.32	
2025-01-16 21:59:01.95	62.43	11.32	
2025-01-16 21:59:02.15	62.47	11.33	
2025-01-16 21:59:02.35	62.51	11.33	
2025-01-16 21:59:02.56	62.54	11.34	
2025-01-16 21:59:02.76	62.58	11.34	
2025-01-16 21:59:02.96	62.62	11.35	
2025-01-16 21:59:03.17	62.65	11.35	
2025-01-16 21:59:03.37	62.69	11.35	
2025-01-16 21:59:03.57	62.73	11.36	
2025-01-16 21:59:03.78	62.77	11.36	
2025-01-16 21:59:03.98	62.80	11.37	
2025-01-16 21:59:04.18	62.84	11.37	
2025-01-16 21:59:04.38	62.87	11.38	
2025-01-16 21:59:04.59	62.91	11.38	
2025-01-16 21:59:04.79	62.95	11.39	
2025-01-16 21:59:04.99	62.99	11.39	
2025-01-16 21:59:05.20	63.02	11.39	
2025-01-16 21:59:05.40	63.06	11.40	
2025-01-16 21:59:05.60	63.10	11.40	
2025-01-16 21:59:05.81	63.14	11.41	
2025-01-16 21:59:06.01	63.17	11.41	
2025-01-16 21:59:06.21	63.21	11.42	
2025-01-16 21:59:06.41	63.24	11.42	
2025-01-16 21:59:06.62	63.28	11.42	
2025-01-16 21:59:06.82	63.32	11.43	
2025-01-16 21:59:07.02	63.36	11.43	
2025-01-16 21:59:07.23	63.39	11.44	
2025-01-16 21:59:07.43	63.43	11.44	
2025-01-16 21:59:07.63	63.47	11.45	
2025-01-16 21:59:07.84	63.51	11.45	
2025-01-16 21:59:08.04	63.54	11.45	
2025-01-16 21:59:08.24	63.58	11.46	
2025-01-16 21:59:08.44	63.62	11.46	
2025-01-16 21:59:08.65	63.65	11.47	
2025-01-16 21:59:08.85	63.69	11.47	
2025-01-16 21:59:09.05	63.73	11.48	
2025-01-16 21:59:09.26	63.77	11.48	
2025-01-16 21:59:09.46	63.80	11.48	
2025-01-16 21:59:09.66	63.84	11.49	
2025-01-16 21:59:09.86	63.88	11.49	
2025-01-16 21:59:10.07	63.91	11.50	
2025-01-16 21:59:10.27	63.95	11.50	
2025-01-16 21:59:10.47	63.99	11.51	
2025-01-16 21:59:10.68	64.03	11.51	
2025-01-16 21:59:10.88	64.06	11.51	
2025-01-16 21:59:11.08	64.10	11.52	
2025-01-16 21:59:11.29	64.14	11.52	
2025-01-16 21:59:11.49	64.18	11.53	
2025-01-16 21:59:11.69	64.21	11.53	
2025-01-16 21:59:11.89	64.25	11.53	
2025-01-16 21:59:12.10	64.29	11.54	
2025-01-16 21:59:12.30	64.32	11.54	
2025-01-16 21:59:12.50	64.36	11.55	
2025-01-16 21:59:12.71	64.40	11.55	
2025-01-16 21:59:12.91	64.44	11.55	
2025-01-16 21:59:13.11	64.47	11.56	
2025-01-16 21:59:13.32	64.51	11.56	
2025-01-16 21:59:13.52	64.55	11.57	
2025-01-16 21:59:13.72	64.59	11.57	
2025-01-16 21:59:13.92	64.62	11.57	
2025-01-16 21:59:14.13	64.66	11.58	
2025-01-16 21:59:14.33	64.70	11.58	
2025-01-16 21:59:14.53	64.74	11.59	
2025-01-16 21:59:14.74	64.77	11.59	
2025-01-16 21:59:14.94	64.81	11.59	
2025-01-16 21:59:15.14	64.85	11.60	
2025-01-16 21:59:15.34	64.89	11.60	
2025-01-16 21:59:15.55	64.92	11.61	
2025-01-16 21:59:15.75	64.96	11.61	
2025-01-16 21:59:15.95	65.00	11.61	
2025-01-16 21:59:16.16	65.04	11.62	
2025-01-16 21:59:16.36	65.07	11.62	
2025-01-16 21:59:16.56	65.11	11.62	
2025-01-16 21:59:16.77	65.15	11.63	
2025-01-16 21:59:16.97	65.19	11.63	
2025-01-16 21:59:17.17	65.22	11.64	
2025-01-16 21:59:17.37	65.26	11.64	
2025-01-16 21:59:17.58	65.30	11.64	
2025-01-16 21:59:17.78	65.34	11.65	
2025-01-16 21:59:17.98	65.37	11.65	
2025-01-16 21:59:18.19	65.41	11.65	
2025-01-16 21:59:18.39	65.45	11.66	
2025-01-16 21:59:18.59	65.49	11.66	
2025-01-16 21:59:18.80	65.53	11.67	
2025-01-16 21:59:19.00	65.56	11.67	
2025-01-16 21:59:19.20	65.60	11.67	
2025-01-16 21:59:19.40	65.64	11.68	
2025-01-16 21:59:19.61	65.68	11.68	
2025-01-16 21:59:19.81	65.71	11.68	
2025-01-16 21:59:20.01	65.75	11.69	
2025-01-16 21:59:20.22	65.79	11.69	
2025-01-16 21:59:20.42	65.83	11.70	
2025-01-16 21:59:20.62	65.86	11.70	
2025-01-16 21:59:20.83	65.90	11.70	
2025-01-16 21:59:21.03	65.94	11.71	
2025-01-16 21:59:21.23	65.98	11.71	
2025-01-16 21:59:21.43	66.02	11.71	
2025-01-16 21:59:21.64	66.05	11.72	
2025-01-16 21:59:21.84	66.09	11.72	
2025-01-16 21:59:22.04	66.13	11.72	
2025-01-16 21:59:22.25	66.17	11.73	
2025-01-16 21:59:22.45	66.21	11.73	
2025-01-16 21:59:22.65	66.24	11.73	
2025-01-16 21:59:22.85	66.28	11.74	
2025-01-16 21:59:23.06	66.32	11.74	
2025-01-16 21:59:23.26	66.36	11.74	
2025-01-16 21:59:23.46	66.39	11.75	
2025-01-16 21:59:23.67	66.43	11.75	
2025-01-16 21:59:23.87	66.47	11.76	
2025-01-16 21:59:24.07	66.51	11.76	
2025-01-16 21:59:24.28	66.55	11.76	
2025-01-16 21:59:24.48	66.58	11.77	
2025-01-16 21:59:24.68	66.62	11.77	
2025-01-16 21:59:24.88	66.66	11.77	
2025-01-16 21:59:25.09	66.70	11.78	
2025-01-16 21:59:25.29	66.74	11.78	
2025-01-16 21:59:25.49	66.77	11.78	
2025-01-16 21:59:25.70	66.81	11.79	
2025-01-16 21:59:25.90	66.85	11.79	
2025-01-16 21:59:26.10	66.89	11.79	
2025-01-16 21:59:26.31	66.93	11.80	
2025-01-16 21:59:26.51	66.96	11.80	
2025-01-16 21:59:26.71	67.00	11.80	
2025-01-16 21:59:26.91	67.04	11.81	
2025-01-16 21:59:27.12	67.08	11.81	
2025-01-16 21:59:27.32	67.12	11.81	
2025-01-16 21:59:27.52	67.15	11.82	
2025-01-16 21:59:27.73	67.19	11.82	
2025-01-16 21:59:27.93	67.23	11.82	
2025-01-16 21:59:28.14	67.27	11.83	
2025-01-16 21:59:28.34	67.31	11.83	
2025-01-16 21:59:28.54	67.34	11.83	
2025-01-16 21:59:28.75	67.38	11.83	
2025-01-16 21:59:28.95	67.42	11.84	
2025-01-16 21:59:29.15	67.46	11.84	
2025-01-16 21:59:29.35	67.50	11.84	
2025-01-16 21:59:29.56	67.54	11.85	
2025-01-16 21:59:29.76	67.57	11.85	
2025-01-16 21:59:29.96	67.61	11.85	
2025-01-16 21:59:30.17	67.65	11.86	
2025-01-16 21:59:30.37	67.69	11.86	
2025-01-16 21:59:30.57	67.73	11.86	
2025-01-16 21:59:30.78	67.77	11.87	
2025-01-16 21:59:30.98	67.80	11.87	
2025-01-16 21:59:31.18	67.84	11.87	
2025-01-16 21:59:31.38	67.88	11.88	
2025-01-16 21:59:31.59	67.92	11.88	
2025-01-16 21:59:31.79	67.96	11.88	
2025-01-16 21:59:31.99	67.99	11.88	
2025-01-16 21:59:32.20	68.03	11.89	
2025-01-16 21:59:32.40	68.07	11.89	
2025-01-16 21:59:32.60	68.11	11.89	
2025-01-16 21:59:32.81	68.15	11.90	
2025-01-16 21:59:33.01	68.19	11.90	
2025-01-16 21:59:33.21	68.22	11.90	
2025-01-16 21:59:33.41	68.26	11.90	
2025-01-16 21:59:33.62	68.30	11.91	
2025-01-16 21:59:33.82	68.34	11.91	
2025-01-16 21:59:34.02	68.38	11.91	
2025-01-16 21:59:34.23	68.42	11.92	
2025-01-16 21:59:34.43	68.45	11.92	
2025-01-16 21:59:34.63	68.49	11.92	
2025-01-16 21:59:34.83	68.53	11.93	
2025-01-16 21:59:35.04	68.57	11.93	
2025-01-16 21:59:35.24	68.61	11.93	
2025-01-16 21:59:35.44	68.64	11.93	
2025-01-16 21:59:35.65	68.68	11.94	
2025-01-16 21:59:35.85	68.72	11.94	
2025-01-16 21:59:36.05	68.76	11.94	
2025-01-16 21:59:36.26	68.80	11.94	
2025-01-16 21:59:36.46	68.84	11.95	
2025-01-16 21:59:36.66	68.87	11.95	
2025-01-16 21:59:36.86	68.91	11.95	
2025-01-16 21:59:37.07	68.95	11.96	
2025-01-16 21:59:37.27	68.99	11.96	
2025-01-16 21:59:37.47	69.03	11.96	
2025-01-16 21:59:37.68	69.07	11.96	
2025-01-16 21:59:37.88	69.11	11.97	
2025-01-16 21:59:38.08	69.14	11.97	
2025-01-16 21:59:38.29	69.18	11.97	
2025-01-16 21:59:38.49	69.22	11.97	
2025-01-16 21:59:38.69	69.26	11.98	
2025-01-16 21:59:38.89	69.30	11.98	
2025-01-16 21:59:39.10	69.34	11.98	
2025-01-16 21:59:39.30	69.37	11.99	
2025-01-16 21:59:39.50	69.41	11.99	
2025-01-16 21:59:39.71	69.45	11.99	
2025-01-16 21:59:39.91	69.49	11.99	
2025-01-16 21:59:40.11	69.53	12.00	
2025-01-16 21:59:40.31	69.57	12.00	
2025-01-16 21:59:40.52	69.61	12.00	
2025-01-16 21:59:40.72	69.64	12.00	
2025-01-16 21:59:40.92	69.68	12.01	
2025-01-16 21:59:41.13	69.72	12.01	
2025-01-16 21:59:41.33	69.76	12.01	
2025-01-16 21:59:41.53	69.80	12.01	
2025-01-16 21:59:41.74	69.84	12.02	
2025-01-16 21:59:41.94	69.88	12.02	
2025-01-16 21:59:42.14	69.91	12.02	
2025-01-16 21:59:42.34	69.95	12.02	
2025-01-16 21:59:42.55	69.99	12.03	
2025-01-16 21:59:42.75	70.03	12.03	
2025-01-16 21:59:42.95	70.07	12.03	
2025-01-16 21:59:43.16	70.11	12.03	
2025-01-16 21:59:43.36	70.15	12.04	
2025-01-16 21:59:43.56	70.18	12.04	
2025-01-16 21:59:43.77	70.22	12.04	
2025-01-16 21:59:43.97	70.26	12.04	
2025-01-16 21:59:44.17	70.30	12.04	
2025-01-16 21:59:44.37	70.34	12.05	
2025-01-16 21:59:44.58	70.38	12.05	
2025-01-16 21:59:44.78	70.42	12.05	
2025-01-16 21:59:44.98	70.45	12.05	
2025-01-16 21:59:45.19	70.49	12.06	
2025-01-16 21:59:45.39	70.53	12.06	
2025-01-16 21:59:45.59	70.57	12.06	
2025-01-16 21:59:45.80	70.61	12.06	
2025-01-16 21:59:46.00	70.65	12.06	
2025-01-16 21:59:46.20	70.69	12.07	
2025-01-16 21:59:46.40	70.73	12.07	
2025-01-16 21:59:46.61	70.77	12.07	
2025-01-16 21:59:46.81	70.80	12.07	
2025-01-16 21:59:47.01	70.84	12.08	
2025-01-16 21:59:47.22	70.88	12.08	
2025-01-16 21:59:47.42	70.92	12.08	
2025-01-16 21:59:47.62	70.96	12.08	
2025-01-16 21:59:47.82	71.00	12.08	
2025-01-16 21:59:48.03	71.04	12.09	
2025-01-16 21:59:48.23	71.07	12.09	
2025-01-16 21:59:48.43	71.11	12.09	
2025-01-16 21:59:48.64	71.15	12.09	
2025-01-16 21:59:48.84	71.19	12.09	
2025-01-16 21:59:49.04	71.23	12.10	
2025-01-16 21:59:49.25	71.27	12.10	
2025-01-16 21:59:49.45	71.31	12.10	
2025-01-16 21:59:49.65	71.35	12.10	
2025-01-16 21:59:49.85	71.38	12.11	
2025-01-16 21:59:50.06	71.42	12.11	
2025-01-16 21:59:50.26	71.46	12.11	
2025-01-16 21:59:50.46	71.50	12.11	
2025-01-16 21:59:50.67	71.54	12.11	
2025-01-16 21:59:50.87	71.58	12.12	
2025-01-16 21:59:51.07	71.62	12.12	
2025-01-16 21:59:51.28	71.66	12.12	
2025-01-16 21:59:51.48	71.70	12.12	
2025-01-16 21:59:51.68	71.73	12.12	
2025-01-16 21:59:51.88	71.77	12.12	
2025-01-16 21:59:52.09	71.81	12.13	
2025-01-16 21:59:52.29	71.85	12.13	
2025-01-16 21:59:52.49	71.89	12.13	
2025-01-16 21:59:52.70	71.93	12.13	
2025-01-16 21:59:52.90	71.97	12.13	
2025-01-16 21:59:53.10	72.01	12.14	
2025-01-16 21:59:53.30	72.04	12.14	
2025-01-16 21:59:53.51	72.08	12.14	
2025-01-16 21:59:53.71	72.12	12.14	
2025-01-16 21:59:53.91	72.16	12.14	
2025-01-16 21:59:54.12	72.20	12.14	
2025-01-16 21:59:54.32	72.24	12.15	
2025-01-16 21:59:54.52	72.28	12.15	
2025-01-16 21:59:54.73	72.32	12.15	
2025-01-16 21:59:54.93	72.36	12.15	
2025-01-16 21:59:55.13	72.40	12.15	
2025-01-16 21:59:55.33	72.43	12.16	
2025-01-16 21:59:55.54	72.47	12.16	
2025-01-16 21:59:55.74	72.51	12.16	
2025-01-16 21:59:55.94	72.55	12.16	
2025-01-16 21:59:56.15	72.59	12.16	
2025-01-16 21:59:56.35	72.63	12.16	
2025-01-16 21:59:56.55	72.67	12.16	
2025-01-16 21:59:56.76	72.71	12.17	
2025-01-16 21:59:56.96	72.75	12.17	
2025-01-16 21:59:57.16	72.79	12.17	
2025-01-16 21:59:57.36	72.82	12.17	
2025-01-16 21:59:57.57	72.86	12.17	
2025-01-16 21:59:57.77	72.90	12.17	
2025-01-16 21:59:57.97	72.94	12.18	
2025-01-16 21:59:58.18	72.98	12.18	
2025-01-16 21:59:58.38	73.02	12.18	
2025-01-16 21:59:58.58	73.06	12.18	
2025-01-16 21:59:58.78	73.10	12.18	
2025-01-16 21:59:58.99	73.14	12.18	
2025-01-16 21:59:59.19	73.18	12.19	
2025-01-16 21:59:59.39	73.21	12.19	
2025-01-16 21:59:59.60	73.25	12.19	
2025-01-16 21:59:59.80	73.29	12.19	
2025-01-16 22:00:00.00	73.33	12.19	
2025-01-16 22:00:00.21	73.37	12.19	
2025-01-16 22:00:00.41	73.41	12.19	
2025-01-16 22:00:00.61	73.45	12.19	
2025-01-16 22:00:00.81	73.49	12.20	
2025-01-16 22:00:01.02	73.53	12.20	
2025-01-16 22:00:01.22	73.57	12.20	
2025-01-16 22:00:01.42	73.60	12.20	
2025-01-16 22:00:01.63	73.64	12.20	
2025-01-16 22:00:01.83	73.68	12.20	
2025-01-16 22:00:02.03	73.72	12.20	
2025-01-16 22:00:02.24	73.76	12.21	
2025-01-16 22:00:02.44	73.80	12.21	
2025-01-16 22:00:02.64	73.84	12.21	
2025-01-16 22:00:02.84	73.88	12.21	
2025-01-16 22:00:03.05	73.92	12.21	
2025-01-16 22:00:03.25	73.96	12.21	
2025-01-16 22:00:03.45	73.99	12.21	
2025-01-16 22:00:03.66	74.04	12.21	
2025-01-16 22:00:03.86	74.07	12.22	
2025-01-16 22:00:04.06	74.11	12.22	
2025-01-16 22:00:04.27	74.15	12.22	
2025-01-16 22:00:04.47	74.19	12.22	
2025-01-16 22:00:04.67	74.23	12.22	
2025-01-16 22:00:04.87	74.27	12.22	
2025-01-16 22:00:05.08	74.31	12.22	
2025-01-16 22:00:05.28	74.35	12.22	
2025-01-16 22:00:05.48	74.39	12.22	
2025-01-16 22:00:05.69	74.43	12.23	
2025-01-16 22:00:05.89	74.47	12.23	
2025-01-16 22:00:06.09	74.50	12.23	
2025-01-16 22:00:06.29	74.54	12.23	
2025-01-16 22:00:06.50	74.58	12.23	
2025-01-16 22:00:06.70	74.62	12.23	
2025-01-16 22:00:06.90	74.66	12.23	
2025-01-16 22:00:07.11	74.70	12.23	
2025-01-16 22:00:07.31	74.74	12.23	
2025-01-16 22:00:07.51	74.78	12.24	
2025-01-16 22:00:07.72	74.82	12.24	
2025-01-16 22:00:07.92	74.86	12.24	
2025-01-16 22:00:08.12	74.90	12.24	
2025-01-16 22:00:08.32	74.93	12.24	
2025-01-16 22:00:08.53	74.97	12.24	
2025-01-16 22:00:08.73	75.01	12.24	
2025-01-16 22:00:08.93	75.05	12.24	
2025-01-16 22:00:09.14	75.09	12.24	
2025-01-16 22:00:09.34	75.13	12.24	
2025-01-16 22:00:09.54	75.17	12.24	
2025-01-16 22:00:09.75	75.21	12.25	
2025-01-16 22:00:09.95	75.25	12.25	
2025-01-16 22:00:10.15	75.29	12.25	
2025-01-16 22:00:10.35	75.33	12.25	
2025-01-16 22:00:10.56	75.37	12.25	
2025-01-16 22:00:10.76	75.40	12.25	
2025-01-16 22:00:10.96	75.44	12.25	
2025-01-16 22:00:11.17	75.48	12.25	
2025-01-16 22:00:11.37	75.52	12.25	
2025-01-16 22:00:11.57	75.56	12.25	
2025-01-16 22:00:11.77	75.60	12.25	
2025-01-16 22:00:11.98	75.64	12.25	
2025-01-16 22:00:12.18	75.68	12.25	
2025-01-16 22:00:12.38	75.72	12.26	
2025-01-16 22:00:12.59	75.76	12.26	
2025-01-16 22:00:12.79	75.80	12.26	
2025-01-16 22:00:12.99	75.84	12.26	
2025-01-16 22:00:13.20	75.88	12.26	
2025-01-16 22:00:13.40	75.91	12.26	
2025-01-16 22:00:13.60	75.95	12.26	
2025-01-16 22:00:13.80	75.99	12.26	
2025-01-16 22:00:14.01	76.03	12.26	
2025-01-16 22:00:14.21	76.07	12.26	
2025-01-16 22:00:14.41	76.11	12.26	
2025-01-16 22:00:14.62	76.15	12.26	
2025-01-16 22:00:14.82	76.19	12.26	
2025-01-16 22:00:15.02	76.23	12.26	
2025-01-16 22:00:15.23	76.27	12.26	
2025-01-16 22:00:15.43	76.31	12.26	
2025-01-16 22:00:15.63	76.35	12.26	
2025-01-16 22:00:15.83	76.38	12.26	
2025-01-16 22:00:16.04	76.43	12.27	
2025-01-16 22:00:16.24	76.46	12.27	
2025-01-16 22:00:16.44	76.50	12.27	
2025-01-16 22:00:16.65	76.54	12.27	
2025-01-16 22:00:16.85	76.58	12.27	
2025-01-16 22:00:17.05	76.62	12.27	
2025-01-16 22:00:17.25	76.66	12.27	
2025-01-16 22:00:17.46	76.70	12.27	
2025-01-16 22:00:17.66	76.74	12.27	
2025-01-16 22:00:17.86	76.78	12.27	
2025-01-16 22:00:18.07	76.82	12.27	
2025-01-16 22:00:18.27	76.86	12.27	
2025-01-16 22:00:18.47	76.89	12.27	
2025-01-16 22:00:18.68	76.94	12.27	
2025-01-16 22:00:18.88	76.97	12.27	
2025-01-16 22:00:19.08	77.01	12.27	
2025-01-16 22:00:19.28	77.05	12.27	
2025-01-16 22:00:19.49	77.09	12.27	
2025-01-16 22:00:19.69	77.13	12.27	
2025-01-16 22:00:19.89	77.17	12.27	
2025-01-16 22:00:20.10	77.21	12.27	
2025-01-16 22:00:20.30	77.25	12.27	
2025-01-16 22:00:20.50	77.29	12.27	
2025-01-16 22:00:20.71	77.33	12.27	
2025-01-16 22:00:20.91	77.37	12.27	
2025-01-16 22:00:21.11	77.41	12.27	
2025-01-16 22:00:21.31	77.44	12.27	
2025-01-16 22:00:21.52	77.48	12.27	
2025-01-16 22:00:21.72	77.52	12.27	
2025-01-16 22:00:21.92	77.56	12.27	
2025-01-16 22:00:22.13	77.60	12.27	
2025-01-16 22:00:22.33	77.64	12.27	
2025-01-16 22:00:22.53	77.68	12.27	
2025-01-16 22:00:22.73	77.72	12.27	
2025-01-16 22:00:22.94	77.76	12.27	
2025-01-16 22:00:23.14	77.80	12.27	
2025-01-16 22:00:23.34	77.84	12.27	
2025-01-16 22:00:23.55	77.88	12.27	
2025-01-16 22:00:23.75	77.92	12.27	
2025-01-16 22:00:23.95	77.96	12.27	
2025-01-16 22:00:24.16	78.00	12.27	
2025-01-16 22:00:24.36	78.03	12.27	
2025-01-16 22:00:24.56	78.07	12.27	
2025-01-16 22:00:24.76	78.11	12.27	
2025-01-16 22:00:24.97	78.15	12.27	
2025-01-16 22:00:25.17	78.19	12.27	
2025-01-16 22:00:25.37	78.23	12.27	
2025-01-16 22:00:25.58	78.27	12.27	
2025-01-16 22:00:25.78	78.31	12.27	
2025-01-16 22:00:25.98	78.35	12.27	
2025-01-16 22:00:26.19	78.39	12.27	
2025-01-16 22:00:26.39	78.43	12.27	
2025-01-16 22:00:26.59	78.47	12.27	
2025-01-16 22:00:26.79	78.50	12.27	
2025-01-16 22:00:27.00	78.55	12.27	
2025-01-16 22:00:27.20	78.58	12.27	
2025-01-16 22:00:27.40	78.62	12.27	
2025-01-16 22:00:27.61	78.66	12.27	
2025-01-16 22:00:27.81	78.70	12.27	
2025-01-16 22:00:28.01	78.74	12.27	
2025-01-16 22:00:28.21	78.78	12.27	
2025-01-16 22:00:28.42	78.82	12.27	
2025-01-16 22:00:28.62	78.86	12.27	
2025-01-16 22:00:28.82	78.90	12.27	
2025-01-16 22:00:29.03	78.94	12.27	
2025-01-16 22:00:29.23	78.98	12.27	
2025-01-16 22:00:29.43	79.02	12.27	
2025-01-16 22:00:29.64	79.06	12.27	
2025-01-16 22:00:29.84	79.09	12.27	
2025-01-16 22:00:30.04	79.13	12.27	
2025-01-16 22:00:30.24	79.17	12.27	
2025-01-16 22:00:30.45	79.21	12.27	
2025-01-16 22:00:30.65	79.25	12.27	
2025-01-16 22:00:30.85	79.29	12.27	
2025-01-16 22:00:31.06	79.33	12.27	
2025-01-16 22:00:31.26	79.37	12.27	
2025-01-16 22:00:31.46	79.41	12.27	
2025-01-16 22:00:31.67	79.45	12.27	
2025-01-16 22:00:31.87	79.49	12.27	
2025-01-16 22:00:32.07	79.53	12.26	
2025-01-16 22:00:32.27	79.56	12.26	
2025-01-16 22:00:32.48	79.61	12.26	
2025-01-16 22:00:32.68	79.64	12.26	
2025-01-16 22:00:32.88	79.68	12.26	
2025-01-16 22:00:33.09	79.72	12.26	
2025-01-16 22:00:33.29	79.76	12.26	
2025-01-16 22:00:33.49	79.80	12.26	
2025-01-16 22:00:33.70	79.84	12.26	
2025-01-16 22:00:33.90	79.88	12.26	
2025-01-16 22:00:34.10	79.92	12.26	
2025-01-16 22:00:34.30	79.96	12.26	
2025-01-16 22:00:34.51	80.00	12.26	
2025-01-16 22:00:34.71	80.04	12.26	
2025-01-16 22:00:34.91	80.08	12.26	
2025-01-16 22:00:35.12	80.12	12.26	
2025-01-16 22:00:35.32	80.15	12.26	
2025-01-16 22:00:35.52	80.19	12.25	
2025-01-16 22:00:35.72	80.23	12.25	
2025-01-16 22:00:35.93	80.27	12.25	
2025-01-16 22:00:36.13	80.31	12.25	
2025-01-16 22:00:36.33	80.35	12.25	
2025-01-16 22:00:36.54	80.39	12.25	
2025-01-16 22:00:36.74	80.43	12.25	
2025-01-16 22:00:36.94	80.47	12.25	
2025-01-16 22:00:37.15	80.51	12.25	
2025-01-16 22:00:37.35	80.55	12.25	
2025-01-16 22:00:37.55	80.59	12.25	
2025-01-16 22:00:37.75	80.62	12.25	
2025-01-16 22:00:37.96	80.66	12.25	
2025-01-16 22:00:38.16	80.70	12.24	
2025-01-16 22:00:38.36	80.74	12.24	
2025-01-16 22:00:38.57	80.78	12.24	
2025-01-16 22:00:38.77	80.82	12.24	
2025-01-16 22:00:38.97	80.86	12.24	
2025-01-16 22:00:39.18	80.90	12.24	
2025-01-16 22:00:39.38	80.94	12.24	
2025-01-16 22:00:39.58	80.98	12.24	
2025-01-16 22:00:39.78	81.02	12.24	
2025-01-16 22:00:39.99	81.06	12.24	
2025-01-16 22:00:40.19	81.10	12.24	
2025-01-16 22:00:40.39	81.13	12.23	
2025-01-16 22:00:40.60	81.17	12.23	
2025-01-16 22:00:40.80	81.21	12.23	
2025-01-16 22:00:41.00	81.25	12.23	
2025-01-16 22:00:41.20	81.29	12.23	
2025-01-16 22:00:41.41	81.33	12.23	
2025-01-16 22:00:41.61	81.37	12.23	
2025-01-16 22:00:41.81	81.41	12.23	
2025-01-16 22:00:42.02	81.45	12.23	
2025-01-16 22:00:42.22	81.49	12.23	
2025-01-16 22:00:42.42	81.53	12.22	
2025-01-16 22:00:42.63	81.57	12.22	
2025-01-16 22:00:42.83	81.60	12.22	
2025-01-16 22:00:43.03	81.64	12.22	
2025-01-16 22:00:43.23	81.68	12.22	
2025-01-16 22:00:43.44	81.72	12.22	
2025-01-16 22:00:43.64	81.76	12.22	
2025-01-16 22:00:43.84	81.80	12.22	
2025-01-16 22:00:44.05	81.84	12.21	
2025-01-16 22:00:44.25	81.88	12.21	
2025-01-16 22:00:44.45	81.92	12.21	
2025-01-16 22:00:44.66	81.96	12.21	
2025-01-16 22:00:44.86	82.00	12.21	
2025-01-16 22:00:45.06	82.03	12.21	
2025-01-16 22:00:45.26	82.07	12.21	
2025-01-16 22:00:45.47	82.11	12.21	
2025-01-16 22:00:45.67	82.15	12.20	
2025-01-16 22:00:45.87	82.19	12.20	
2025-01-16 22:00:46.08	82.23	12.20	
2025-01-16 22:00:46.28	82.27	12.20	
2025-01-16 22:00:46.48	82.31	12.20	
2025-01-16 22:00:46.69	82.35	12.20	
2025-01-16 22:00:46.89	82.39	12.20	
2025-01-16 22:00:47.09	82.43	12.20	
2025-01-16 22:00:47.29	82.46	12.19	
2025-01-16 22:00:47.50	82.50	12.19	
2025-01-16 22:00:47.70	82.54	12.19	
2025-01-16 22:00:47.90	82.58	12.19	
2025-01-16 22:00:48.11	82.62	12.19	
2025-01-16 22:00:48.31	82.66	12.19	
2025-01-16 22:00:48.51	82.70	12.19	
2025-01-16 22:00:48.71	82.74	12.18	
2025-01-16 22:00:48.92	82.78	12.18	
2025-01-16 22:00:49.12	82.82	12.18	
2025-01-16 22:00:49.32	82.85	12.18	
2025-01-16 22:00:49.53	82.90	12.18	
2025-01-16 22:00:49.73	82.93	12.18	
2025-01-16 22:00:49.93	82.97	12.18	
2025-01-16 22:00:50.14	83.01	12.17	
2025-01-16 22:00:50.34	83.05	12.17	
2025-01-16 22:00:50.54	83.09	12.17	
2025-01-16 22:00:50.74	83.13	12.17	
2025-01-16 22:00:50.95	83.17	12.17	
2025-01-16 22:00:51.15	83.21	12.17	
2025-01-16 22:00:51.35	83.25	12.16	
2025-01-16 22:00:51.56	83.29	12.16	
2025-01-16 22:00:51.76	83.32	12.16	
2025-01-16 22:00:51.96	83.36	12.16	
2025-01-16 22:00:52.17	83.40	12.16	
2025-01-16 22:00:52.37	83.44	12.16	
2025-01-16 22:00:52.57	83.48	12.15	
2025-01-16 22:00:52.77	83.52	12.15	
2025-01-16 22:00:52.98	83.56	12.15	
2025-01-16 22:00:53.18	83.60	12.15	
2025-01-16 22:00:53.38	83.63	12.15	
2025-01-16 22:00:53.59	83.68	12.15	
2025-01-16 22:00:53.79	83.71	12.14	
2025-01-16 22:00:53.99	83.75	12.14	
2025-01-16 22:00:54.19	83.79	12.14	
2025-01-16 22:00:54.40	83.83	12.14	
2025-01-16 22:00:54.60	83.87	12.14	
2025-01-16 22:00:54.80	83.91	12.13	
2025-01-16 22:00:55.01	83.95	12.13	
2025-01-16 22:00:55.21	83.99	12.13	
2025-01-16 22:00:55.41	84.02	12.13	
2025-01-16 22:00:55.62	84.06	12.13	
2025-01-16 22:00:55.82	84.10	12.13	
2025-01-16 22:00:56.02	84.14	12.12	
2025-01-16 22:00:56.22	84.18	12.12	
2025-01-16 22:00:56.43	84.22	12.12	
2025-01-16 22:00:56.63	84.26	12.12	
2025-01-16 22:00:56.83	84.30	12.12	
2025-01-16 22:00:57.04	84.34	12.11	
2025-01-16 22:00:57.24	84.38	12.11	
2025-01-16 22:00:57.44	84.41	12.11	
2025-01-16 22:00:57.65	84.45	12.11	
2025-01-16 22:00:57.85	84.49	12.11	
2025-01-16 22:00:58.05	84.53	12.10	
2025-01-16 22:00:58.25	84.57	12.10	
2025-01-16 22:00:58.46	84.61	12.10	
2025-01-16 22:00:58.66	84.65	12.10	
2025-01-16 22:00:58.86	84.69	12.10	
2025-01-16 22:00:59.07	84.73	12.09	
2025-01-16 22:00:59.27	84.76	12.09	
2025-01-16 22:00:59.47	84.80	12.09	
2025-01-16 22:00:59.67	84.84	12.09	
2025-01-16 22:00:59.88	84.88	12.09	
2025-01-16 22:01:00.08	84.92	12.08	
2025-01-16 22:01:00.28	84.96	12.08	
2025-01-16 22:01:00.49	85.00	12.08	
2025-01-16 22:01:00.69	85.04	12.08	
2025-01-16 22:01:00.89	85.07	12.07	
2025-01-16 22:01:01.10	85.11	12.07	
2025-01-16 22:01:01.30	85.15	12.07	
2025-01-16 22:01:01.50	85.19	12.07	
2025-01-16 22:01:01.70	85.23	12.07	
2025-01-16 22:01:01.91	85.27	12.06	
2025-01-16 22:01:02.11	85.31	12.06	
2025-01-16 22:01:02.31	85.34	12.06	
2025-01-16 22:01:02.52	85.38	12.06	
2025-01-16 22:01:02.72	85.42	12.05	
2025-01-16 22:01:02.92	85.46	12.05	
2025-01-16 22:01:03.13	85.50	12.05	
2025-01-16 22:01:03.33	85.54	12.05	
2025-01-16 22:01:03.53	85.58	12.05	
2025-01-16 22:01:03.73	85.62	12.04	
2025-01-16 22:01:03.94	85.66	12.04	
2025-01-16 22:01:04.14	85.69	12.04	
2025-01-16 22:01:04.34	85.73	12.04	
2025-01-16 22:01:04.55	85.77	12.03	
2025-01-16 22:01:04.75	85.81	12.03	
2025-01-16 22:01:04.95	85.85	12.03	
2025-01-16 22:01:05.16	85.89	12.03	
2025-01-16 22:01:05.36	85.93	12.02	
2025-01-16 22:01:05.56	85.96	12.02	
2025-01-16 22:01:05.76	86.00	12.02	
2025-01-16 22:01:05.97	86.04	12.02	
2025-01-16 22:01:06.17	86.08	12.01	
2025-01-16 22:01:06.37	86.12	12.01	
2025-01-16 22:01:06.58	86.16	12.01	
2025-01-16 22:01:06.78	86.20	12.01	
2025-01-16 22:01:06.98	86.23	12.00	
2025-01-16 22:01:07.18	86.27	12.00	
2025-01-16 22:01:07.39	86.31	12.00	
2025-01-16 22:01:07.59	86.35	12.00	
2025-01-16 22:01:07.79	86.39	11.99	
2025-01-16 22:01:08.00	86.43	11.99	
2025-01-16 22:01:08.20	86.47	11.99	
2025-01-16 22:01:08.40	86.50	11.99	
2025-01-16 22:01:08.61	86.54	11.98	
2025-01-16 22:01:08.81	86.58	11.98	
2025-01-16 22:01:09.01	86.62	11.98	
2025-01-16 22:01:09.21	86.66	11.98	
2025-01-16 22:01:09.42	86.70	11.97	
2025-01-16 22:01:09.62	86.74	11.97	
2025-01-16 22:01:09.82	86.77	11.97	
2025-01-16 22:01:10.03	86.81	11.96	
2025-01-16 22:01:10.23	86.85	11.96	
2025-01-16 22:01:10.43	86.89	11.96	
2025-01-16 22:01:10.64	86.93	11.96	
2025-01-16 22:01:10.84	86.97	11.95	
2025-01-16 22:01:11.04	87.01	11.95	
2025-01-16 22:01:11.24	87.04	11.95	
2025-01-16 22:01:11.45	87.08	11.95	
2025-01-16 22:01:11.65	87.12	11.94	
2025-01-16 22:01:11.85	87.16	11.94	
2025-01-16 22:01:12.06	87.20	11.94	
2025-01-16 22:01:12.26	87.24	11.93	
2025-01-16 22:01:12.46	87.27	11.93	
2025-01-16 22:01:12.66	87.31	11.93	
2025-01-16 22:01:12.87	87.35	11.93	
2025-01-16 22:01:13.07	87.39	11.92	
2025-01-16 22:01:13.27	87.43	11.92	
2025-01-16 22:01:13.48	87.47	11.92	
2025-01-16 22:01:13.68	87.51	11.91	
2025-01-16 22:01:13.88	87.54	11.91	
2025-01-16 22:01:14.09	87.58	11.91	
2025-01-16 22:01:14.29	87.62	11.91	
2025-01-16 22:01:14.49	87.66	11.90	
2025-01-16 22:01:14.69	87.70	11.90	
2025-01-16 22:01:14.90	87.74	11.90	
2025-01-16 22:01:15.10	87.77	11.89	
2025-01-16 22:01:15.30	87.81	11.89	
2025-01-16 22:01:15.51	87.85	11.89	
2025-01-16 22:01:15.71	87.89	11.88	
2025-01-16 22:01:15.91	87.93	11.88	
2025-01-16 22:01:16.12	87.97	11.88	
2025-01-16 22:01:16.32	88.00	11.88	
2025-01-16 22:01:16.52	88.04	11.87	
2025-01-16 22:01:16.72	88.08	11.87	
2025-01-16 22:01:16.93	88.12	11.87	
2025-01-16 22:01:17.13	88.16	11.86	
2025-01-16 22:01:17.33	88.19	11.86	
2025-01-16 22:01:17.54	88.23	11.86	
2025-01-16 22:01:17.74	88.27	11.85	
2025-01-16 22:01:17.94	88.31	11.85	
2025-01-16 22:01:18.14	88.35	11.85	
2025-01-16 22:01:18.35	88.39	11.84	
2025-01-16 22:01:18.55	88.42	11.84	
2025-01-16 22:01:18.75	88.46	11.84	
2025-01-16 22:01:18.96	88.50	11.84	
2025-01-16 22:01:19.16	88.54	11.83	
2025-01-16 22:01:19.36	88.58	11.83	
2025-01-16 22:01:19.57	88.62	11.83	
2025-01-16 22:01:19.77	88.65	11.82	
2025-01-16 22:01:19.97	88.69	11.82	
2025-01-16 22:01:20.17	88.73	11.82	
2025-01-16 22:01:20.38	88.77	11.81	
2025-01-16 22:01:20.58	88.81	11.81	
2025-01-16 22:01:20.78	88.84	11.81	
2025-01-16 22:01:20.99	88.88	11.80	
2025-01-16 22:01:21.19	88.92	11.80	
2025-01-16 22:01:21.39	88.96	11.80	
2025-01-16 22:01:21.60	89.00	11.79	
2025-01-16 22:01:21.80	89.03	11.79	
2025-01-16 22:01:22.00	89.07	11.79	
2025-01-16 22:01:22.20	89.11	11.78	
2025-01-16 22:01:22.41	89.15	11.78	
2025-01-16 22:01:22.61	89.19	11.78	
2025-01-16 22:01:22.81	89.22	11.77	
2025-01-16 22:01:23.02	89.26	11.77	
2025-01-16 22:01:23.22	89.30	11.77	
2025-01-16 22:01:23.42	89.34	11.76	
2025-01-16 22:01:23.63	89.38	11.76	
2025-01-16 22:01:23.83	89.42	11.76	
2025-01-16 22:01:24.03	89.45	11.75	
2025-01-16 22:01:24.23	89.49	11.75	
2025-01-16 22:01:24.44	89.53	11.75	
2025-01-16 22:01:24.64	89.57	11.74	
2025-01-16 22:01:24.84	89.60	11.74	
2025-01-16 22:01:25.05	89.64	11.73	
2025-01-16 22:01:25.25	89.68	11.73	
