passes_logs/2025/01/16/SPB_Silybum_02/SPB_Silybum_02__20250116_005824_AQUA_rec.log

#Pass ID: 20250116_005824_AQUA
#Satellite: AQUA
#Configuration: AQUA
#Start time: 2025-01-16 00:58:22

#Version: 2.0.20230423
#Station: SPB_Silybum_02
#Location: 30.233357 lon 59.946436 lat
#TLE: 1 27424U 02022A   25015.14217918  .00001674  00000+0  35361-3 0  9999
#TLE: 2 27424  98.3589 331.8074 0001731 111.2907 305.4435 14.60682485207649

#Time	Az	El	Level	Level2	SNR	BER	Gain	Gain2
2025-01-16 00:58:25.02	19.15	4.02	
2025-01-16 00:58:25.22	19.16	4.03	
2025-01-16 00:58:25.42	19.16	4.05	
2025-01-16 00:58:25.63	19.17	4.06	
2025-01-16 00:58:25.83	19.17	4.08	
2025-01-16 00:58:26.03	19.18	4.09	
2025-01-16 00:58:26.23	19.18	4.11	
2025-01-16 00:58:26.44	19.19	4.12	
2025-01-16 00:58:26.64	19.19	4.14	
2025-01-16 00:58:26.84	19.20	4.15	
2025-01-16 00:58:27.05	19.20	4.16	
2025-01-16 00:58:27.25	19.21	4.18	
2025-01-16 00:58:27.45	19.21	4.19	
2025-01-16 00:58:27.66	19.22	4.21	
2025-01-16 00:58:27.86	19.22	4.22	
2025-01-16 00:58:28.06	19.23	4.24	
2025-01-16 00:58:28.26	19.23	4.25	
2025-01-16 00:58:28.47	19.24	4.27	
2025-01-16 00:58:28.67	19.24	4.28	
2025-01-16 00:58:28.87	19.24	4.29	
2025-01-16 00:58:29.08	19.25	4.31	
2025-01-16 00:58:29.28	19.25	4.32	
2025-01-16 00:58:29.48	19.26	4.34	
2025-01-16 00:58:29.69	19.26	4.35	
2025-01-16 00:58:29.89	19.27	4.37	
2025-01-16 00:58:30.09	19.27	4.38	
2025-01-16 00:58:30.29	19.28	4.40	
2025-01-16 00:58:30.50	19.28	4.41	
2025-01-16 00:58:30.70	19.29	4.43	
2025-01-16 00:58:30.90	19.29	4.44	
2025-01-16 00:58:31.11	19.30	4.46	
2025-01-16 00:58:31.31	19.30	4.47	
2025-01-16 00:58:31.51	19.31	4.48	
2025-01-16 00:58:31.72	19.31	4.50	
2025-01-16 00:58:31.92	19.32	4.51	
2025-01-16 00:58:32.12	19.32	4.53	
2025-01-16 00:58:32.32	19.33	4.54	
2025-01-16 00:58:32.53	19.33	4.56	
2025-01-16 00:58:32.73	19.34	4.57	
2025-01-16 00:58:32.93	19.34	4.59	
2025-01-16 00:58:33.14	19.35	4.60	
2025-01-16 00:58:33.34	19.35	4.62	
2025-01-16 00:58:33.54	19.36	4.63	
2025-01-16 00:58:33.74	19.36	4.65	
2025-01-16 00:58:33.95	19.37	4.66	
2025-01-16 00:58:34.15	19.37	4.67	
2025-01-16 00:58:34.35	19.38	4.69	
2025-01-16 00:58:34.56	19.38	4.70	
2025-01-16 00:58:34.76	19.39	4.72	
2025-01-16 00:58:34.96	19.39	4.73	
2025-01-16 00:58:35.17	19.40	4.75	
2025-01-16 00:58:35.37	19.40	4.76	
2025-01-16 00:58:35.57	19.41	4.78	
2025-01-16 00:58:35.77	19.41	4.79	
2025-01-16 00:58:35.98	19.42	4.81	
2025-01-16 00:58:36.18	19.42	4.82	
2025-01-16 00:58:36.38	19.43	4.84	
2025-01-16 00:58:36.59	19.43	4.85	
2025-01-16 00:58:36.79	19.44	4.87	
2025-01-16 00:58:36.99	19.44	4.88	
2025-01-16 00:58:37.20	19.45	4.90	
2025-01-16 00:58:37.40	19.45	4.91	
2025-01-16 00:58:37.60	19.46	4.93	
2025-01-16 00:58:37.80	19.46	4.94	
2025-01-16 00:58:38.01	19.47	4.96	
2025-01-16 00:58:38.21	19.47	4.97	
2025-01-16 00:58:38.41	19.48	4.99	
2025-01-16 00:58:38.62	19.48	5.00	
2025-01-16 00:58:38.82	19.49	5.02	
2025-01-16 00:58:39.02	19.49	5.03	
2025-01-16 00:58:39.23	19.50	5.05	
2025-01-16 00:58:39.43	19.50	5.06	
2025-01-16 00:58:39.63	19.51	5.08	
2025-01-16 00:58:39.83	19.51	5.09	
2025-01-16 00:58:40.04	19.52	5.11	
2025-01-16 00:58:40.24	19.52	5.12	
2025-01-16 00:58:40.44	19.53	5.14	
2025-01-16 00:58:40.65	19.54	5.15	
2025-01-16 00:58:40.85	19.54	5.17	
2025-01-16 00:58:41.05	19.55	5.18	
2025-01-16 00:58:41.26	19.55	5.20	
2025-01-16 00:58:41.46	19.56	5.21	
2025-01-16 00:58:41.66	19.56	5.23	
2025-01-16 00:58:41.86	19.57	5.24	
2025-01-16 00:58:42.07	19.57	5.26	
2025-01-16 00:58:42.27	19.58	5.27	
2025-01-16 00:58:42.47	19.58	5.29	
2025-01-16 00:58:42.68	19.59	5.30	
2025-01-16 00:58:42.88	19.59	5.32	
2025-01-16 00:58:43.08	19.60	5.33	
2025-01-16 00:58:43.29	19.60	5.35	
2025-01-16 00:58:43.49	19.61	5.36	
2025-01-16 00:58:43.69	19.61	5.38	
2025-01-16 00:58:43.89	19.62	5.39	
2025-01-16 00:58:44.10	19.62	5.41	
2025-01-16 00:58:44.30	19.63	5.42	
2025-01-16 00:58:44.50	19.63	5.44	
2025-01-16 00:58:44.71	19.64	5.45	
2025-01-16 00:58:44.91	19.64	5.47	
2025-01-16 00:58:45.11	19.65	5.48	
2025-01-16 00:58:45.32	19.65	5.50	
2025-01-16 00:58:45.52	19.66	5.52	
2025-01-16 00:58:45.72	19.67	5.53	
2025-01-16 00:58:45.92	19.67	5.55	
2025-01-16 00:58:46.13	19.68	5.56	
2025-01-16 00:58:46.33	19.68	5.58	
2025-01-16 00:58:46.53	19.69	5.59	
2025-01-16 00:58:46.74	19.69	5.61	
2025-01-16 00:58:46.94	19.70	5.62	
2025-01-16 00:58:47.14	19.70	5.64	
2025-01-16 00:58:47.35	19.71	5.65	
2025-01-16 00:58:47.55	19.71	5.67	
2025-01-16 00:58:47.75	19.72	5.68	
2025-01-16 00:58:47.95	19.72	5.70	
2025-01-16 00:58:48.16	19.73	5.71	
2025-01-16 00:58:48.36	19.73	5.73	
2025-01-16 00:58:48.56	19.74	5.75	
2025-01-16 00:58:48.77	19.74	5.76	
2025-01-16 00:58:48.97	19.75	5.78	
2025-01-16 00:58:49.17	19.76	5.79	
2025-01-16 00:58:49.37	19.76	5.81	
2025-01-16 00:58:49.58	19.77	5.82	
2025-01-16 00:58:49.78	19.77	5.84	
2025-01-16 00:58:49.98	19.78	5.85	
2025-01-16 00:58:50.19	19.78	5.87	
2025-01-16 00:58:50.39	19.79	5.88	
2025-01-16 00:58:50.59	19.79	5.90	
2025-01-16 00:58:50.80	19.80	5.92	
2025-01-16 00:58:51.00	19.80	5.93	
2025-01-16 00:58:51.20	19.81	5.95	
2025-01-16 00:58:51.40	19.81	5.96	
2025-01-16 00:58:51.61	19.82	5.98	
2025-01-16 00:58:51.81	19.83	5.99	
2025-01-16 00:58:52.01	19.83	6.01	
2025-01-16 00:58:52.22	19.84	6.02	
2025-01-16 00:58:52.42	19.84	6.04	
2025-01-16 00:58:52.62	19.85	6.06	
2025-01-16 00:58:52.83	19.85	6.07	
2025-01-16 00:58:53.03	19.86	6.09	
2025-01-16 00:58:53.23	19.86	6.10	
2025-01-16 00:58:53.43	19.87	6.12	
2025-01-16 00:58:53.64	19.87	6.13	
2025-01-16 00:58:53.84	19.88	6.15	
2025-01-16 00:58:54.04	19.88	6.17	
2025-01-16 00:58:54.25	19.89	6.18	
2025-01-16 00:58:54.45	19.90	6.20	
2025-01-16 00:58:54.65	19.90	6.21	
2025-01-16 00:58:54.86	19.91	6.23	
2025-01-16 00:58:55.06	19.91	6.24	
2025-01-16 00:58:55.26	19.92	6.26	
2025-01-16 00:58:55.46	19.92	6.28	
2025-01-16 00:58:55.67	19.93	6.29	
2025-01-16 00:58:55.87	19.93	6.31	
2025-01-16 00:58:56.07	19.94	6.32	
2025-01-16 00:58:56.28	19.95	6.34	
2025-01-16 00:58:56.48	19.95	6.35	
2025-01-16 00:58:56.68	19.96	6.37	
2025-01-16 00:58:56.89	19.96	6.39	
2025-01-16 00:58:57.09	19.97	6.40	
2025-01-16 00:58:57.29	19.97	6.42	
2025-01-16 00:58:57.49	19.98	6.43	
2025-01-16 00:58:57.70	19.98	6.45	
2025-01-16 00:58:57.90	19.99	6.47	
2025-01-16 00:58:58.10	20.00	6.48	
2025-01-16 00:58:58.31	20.00	6.50	
2025-01-16 00:58:58.51	20.01	6.51	
2025-01-16 00:58:58.71	20.01	6.53	
2025-01-16 00:58:58.92	20.02	6.55	
2025-01-16 00:58:59.12	20.02	6.56	
2025-01-16 00:58:59.32	20.03	6.58	
2025-01-16 00:58:59.52	20.03	6.59	
2025-01-16 00:58:59.73	20.04	6.61	
2025-01-16 00:58:59.93	20.05	6.62	
2025-01-16 00:59:00.13	20.05	6.64	
2025-01-16 00:59:00.34	20.06	6.66	
2025-01-16 00:59:00.54	20.06	6.67	
2025-01-16 00:59:00.74	20.07	6.69	
2025-01-16 00:59:00.94	20.07	6.70	
2025-01-16 00:59:01.15	20.08	6.72	
2025-01-16 00:59:01.35	20.09	6.74	
2025-01-16 00:59:01.55	20.09	6.75	
2025-01-16 00:59:01.76	20.10	6.77	
2025-01-16 00:59:01.96	20.10	6.79	
2025-01-16 00:59:02.16	20.11	6.80	
2025-01-16 00:59:02.37	20.11	6.82	
2025-01-16 00:59:02.57	20.12	6.83	
2025-01-16 00:59:02.77	20.13	6.85	
2025-01-16 00:59:02.97	20.13	6.87	
2025-01-16 00:59:03.18	20.14	6.88	
2025-01-16 00:59:03.38	20.14	6.90	
2025-01-16 00:59:03.58	20.15	6.91	
2025-01-16 00:59:03.79	20.15	6.93	
2025-01-16 00:59:03.99	20.16	6.95	
2025-01-16 00:59:04.19	20.17	6.96	
2025-01-16 00:59:04.40	20.17	6.98	
2025-01-16 00:59:04.60	20.18	7.00	
2025-01-16 00:59:04.80	20.18	7.01	
2025-01-16 00:59:05.00	20.19	7.03	
2025-01-16 00:59:05.21	20.19	7.04	
2025-01-16 00:59:05.41	20.20	7.06	
2025-01-16 00:59:05.61	20.21	7.08	
2025-01-16 00:59:05.82	20.21	7.09	
2025-01-16 00:59:06.02	20.22	7.11	
2025-01-16 00:59:06.22	20.22	7.13	
2025-01-16 00:59:06.43	20.23	7.14	
2025-01-16 00:59:06.63	20.24	7.16	
2025-01-16 00:59:06.83	20.24	7.18	
2025-01-16 00:59:07.03	20.25	7.19	
2025-01-16 00:59:07.24	20.25	7.21	
2025-01-16 00:59:07.44	20.26	7.22	
2025-01-16 00:59:07.64	20.26	7.24	
2025-01-16 00:59:07.85	20.27	7.26	
2025-01-16 00:59:08.05	20.28	7.27	
2025-01-16 00:59:08.25	20.28	7.29	
2025-01-16 00:59:08.46	20.29	7.31	
2025-01-16 00:59:08.66	20.29	7.32	
2025-01-16 00:59:08.86	20.30	7.34	
2025-01-16 00:59:09.06	20.31	7.36	
2025-01-16 00:59:09.27	20.31	7.37	
2025-01-16 00:59:09.47	20.32	7.39	
2025-01-16 00:59:09.67	20.32	7.41	
2025-01-16 00:59:09.88	20.33	7.42	
2025-01-16 00:59:10.08	20.33	7.44	
2025-01-16 00:59:10.28	20.34	7.46	
2025-01-16 00:59:10.49	20.35	7.47	
2025-01-16 00:59:10.69	20.35	7.49	
2025-01-16 00:59:10.89	20.36	7.50	
2025-01-16 00:59:11.09	20.36	7.52	
2025-01-16 00:59:11.30	20.37	7.54	
2025-01-16 00:59:11.50	20.38	7.55	
2025-01-16 00:59:11.70	20.38	7.57	
2025-01-16 00:59:11.91	20.39	7.59	
2025-01-16 00:59:12.11	20.39	7.61	
2025-01-16 00:59:12.31	20.40	7.62	
2025-01-16 00:59:12.52	20.41	7.64	
2025-01-16 00:59:12.72	20.41	7.66	
2025-01-16 00:59:12.92	20.42	7.67	
2025-01-16 00:59:13.12	20.42	7.69	
2025-01-16 00:59:13.33	20.43	7.71	
2025-01-16 00:59:13.53	20.44	7.72	
2025-01-16 00:59:13.73	20.44	7.74	
2025-01-16 00:59:13.94	20.45	7.76	
2025-01-16 00:59:14.14	20.45	7.77	
2025-01-16 00:59:14.34	20.46	7.79	
2025-01-16 00:59:14.55	20.47	7.81	
2025-01-16 00:59:14.75	20.47	7.82	
2025-01-16 00:59:14.95	20.48	7.84	
2025-01-16 00:59:15.15	20.48	7.86	
2025-01-16 00:59:15.36	20.49	7.87	
2025-01-16 00:59:15.56	20.50	7.89	
2025-01-16 00:59:15.76	20.50	7.91	
2025-01-16 00:59:15.97	20.51	7.92	
2025-01-16 00:59:16.17	20.52	7.94	
2025-01-16 00:59:16.37	20.52	7.96	
2025-01-16 00:59:16.58	20.53	7.98	
2025-01-16 00:59:16.78	20.53	7.99	
2025-01-16 00:59:16.98	20.54	8.01	
2025-01-16 00:59:17.18	20.55	8.03	
2025-01-16 00:59:17.39	20.55	8.04	
2025-01-16 00:59:17.59	20.56	8.06	
2025-01-16 00:59:17.79	20.56	8.08	
2025-01-16 00:59:18.00	20.57	8.09	
2025-01-16 00:59:18.20	20.58	8.11	
2025-01-16 00:59:18.40	20.58	8.13	
2025-01-16 00:59:18.60	20.59	8.14	
2025-01-16 00:59:18.81	20.60	8.16	
2025-01-16 00:59:19.01	20.60	8.18	
2025-01-16 00:59:19.21	20.61	8.20	
2025-01-16 00:59:19.42	20.61	8.21	
2025-01-16 00:59:19.62	20.62	8.23	
2025-01-16 00:59:19.82	20.63	8.25	
2025-01-16 00:59:20.03	20.63	8.27	
2025-01-16 00:59:20.23	20.64	8.28	
2025-01-16 00:59:20.43	20.65	8.30	
2025-01-16 00:59:20.63	20.65	8.32	
2025-01-16 00:59:20.84	20.66	8.33	
2025-01-16 00:59:21.04	20.66	8.35	
2025-01-16 00:59:21.24	20.67	8.37	
2025-01-16 00:59:21.45	20.68	8.39	
2025-01-16 00:59:21.65	20.68	8.40	
2025-01-16 00:59:21.85	20.69	8.42	
2025-01-16 00:59:22.06	20.70	8.44	
2025-01-16 00:59:22.26	20.70	8.45	
2025-01-16 00:59:22.46	20.71	8.47	
2025-01-16 00:59:22.66	20.71	8.49	
2025-01-16 00:59:22.87	20.72	8.51	
2025-01-16 00:59:23.07	20.73	8.52	
2025-01-16 00:59:23.27	20.73	8.54	
2025-01-16 00:59:23.48	20.74	8.56	
2025-01-16 00:59:23.68	20.75	8.58	
2025-01-16 00:59:23.88	20.75	8.59	
2025-01-16 00:59:24.09	20.76	8.61	
2025-01-16 00:59:24.29	20.77	8.63	
2025-01-16 00:59:24.49	20.77	8.65	
2025-01-16 00:59:24.69	20.78	8.66	
2025-01-16 00:59:24.90	20.79	8.68	
2025-01-16 00:59:25.10	20.79	8.70	
2025-01-16 00:59:25.30	20.80	8.72	
2025-01-16 00:59:25.51	20.80	8.73	
2025-01-16 00:59:25.71	20.81	8.75	
2025-01-16 00:59:25.91	20.82	8.77	
2025-01-16 00:59:26.12	20.82	8.79	
2025-01-16 00:59:26.32	20.83	8.80	
2025-01-16 00:59:26.52	20.84	8.82	
2025-01-16 00:59:26.72	20.84	8.84	
2025-01-16 00:59:26.93	20.85	8.86	
2025-01-16 00:59:27.13	20.86	8.87	
2025-01-16 00:59:27.33	20.86	8.89	
2025-01-16 00:59:27.54	20.87	8.91	
2025-01-16 00:59:27.74	20.88	8.93	
2025-01-16 00:59:27.94	20.88	8.94	
2025-01-16 00:59:28.15	20.89	8.96	
2025-01-16 00:59:28.35	20.90	8.98	
2025-01-16 00:59:28.55	20.90	9.00	
2025-01-16 00:59:28.75	20.91	9.02	
2025-01-16 00:59:28.96	20.91	9.03	
2025-01-16 00:59:29.16	20.92	9.05	
2025-01-16 00:59:29.36	20.93	9.07	
2025-01-16 00:59:29.57	20.93	9.09	
2025-01-16 00:59:29.77	20.94	9.10	
2025-01-16 00:59:29.97	20.95	9.12	
2025-01-16 00:59:30.18	20.95	9.14	
2025-01-16 00:59:30.38	20.96	9.16	
2025-01-16 00:59:30.58	20.97	9.18	
2025-01-16 00:59:30.78	20.97	9.19	
2025-01-16 00:59:30.99	20.98	9.21	
2025-01-16 00:59:31.19	20.99	9.23	
2025-01-16 00:59:31.39	20.99	9.25	
2025-01-16 00:59:31.60	21.00	9.27	
2025-01-16 00:59:31.80	21.01	9.28	
2025-01-16 00:59:32.00	21.01	9.30	
2025-01-16 00:59:32.21	21.02	9.32	
2025-01-16 00:59:32.41	21.03	9.34	
2025-01-16 00:59:32.61	21.03	9.36	
2025-01-16 00:59:32.81	21.04	9.37	
2025-01-16 00:59:33.02	21.05	9.39	
2025-01-16 00:59:33.22	21.05	9.41	
2025-01-16 00:59:33.42	21.06	9.43	
2025-01-16 00:59:33.63	21.07	9.45	
2025-01-16 00:59:33.83	21.07	9.46	
2025-01-16 00:59:34.03	21.08	9.48	
2025-01-16 00:59:34.23	21.09	9.50	
2025-01-16 00:59:34.44	21.09	9.52	
2025-01-16 00:59:34.64	21.10	9.54	
2025-01-16 00:59:34.84	21.11	9.55	
2025-01-16 00:59:35.05	21.12	9.57	
2025-01-16 00:59:35.25	21.12	9.59	
2025-01-16 00:59:35.45	21.13	9.61	
2025-01-16 00:59:35.66	21.14	9.63	
2025-01-16 00:59:35.86	21.14	9.65	
2025-01-16 00:59:36.06	21.15	9.66	
2025-01-16 00:59:36.26	21.16	9.68	
2025-01-16 00:59:36.47	21.16	9.70	
2025-01-16 00:59:36.67	21.17	9.72	
2025-01-16 00:59:36.87	21.18	9.74	
2025-01-16 00:59:37.08	21.18	9.76	
2025-01-16 00:59:37.28	21.19	9.77	
2025-01-16 00:59:37.48	21.20	9.79	
2025-01-16 00:59:37.69	21.20	9.81	
2025-01-16 00:59:37.89	21.21	9.83	
2025-01-16 00:59:38.09	21.22	9.85	
2025-01-16 00:59:38.29	21.22	9.86	
2025-01-16 00:59:38.50	21.23	9.88	
2025-01-16 00:59:38.70	21.24	9.90	
2025-01-16 00:59:38.90	21.25	9.92	
2025-01-16 00:59:39.11	21.25	9.94	
2025-01-16 00:59:39.31	21.26	9.96	
2025-01-16 00:59:39.51	21.27	9.98	
2025-01-16 00:59:39.72	21.27	9.99	
2025-01-16 00:59:39.92	21.28	10.01	
2025-01-16 00:59:40.12	21.29	10.03	
2025-01-16 00:59:40.32	21.29	10.05	
2025-01-16 00:59:40.53	21.30	10.07	
2025-01-16 00:59:40.73	21.31	10.09	
2025-01-16 00:59:40.93	21.32	10.11	
2025-01-16 00:59:41.14	21.32	10.12	
2025-01-16 00:59:41.34	21.33	10.14	
2025-01-16 00:59:41.54	21.34	10.16	
2025-01-16 00:59:41.75	21.34	10.18	
2025-01-16 00:59:41.95	21.35	10.20	
2025-01-16 00:59:42.15	21.36	10.22	
2025-01-16 00:59:42.35	21.36	10.24	
2025-01-16 00:59:42.56	21.37	10.26	
2025-01-16 00:59:42.76	21.38	10.27	
2025-01-16 00:59:42.96	21.39	10.29	
2025-01-16 00:59:43.17	21.39	10.31	
2025-01-16 00:59:43.37	21.40	10.33	
2025-01-16 00:59:43.57	21.41	10.35	
2025-01-16 00:59:43.78	21.41	10.37	
2025-01-16 00:59:43.98	21.42	10.39	
2025-01-16 00:59:44.18	21.43	10.41	
2025-01-16 00:59:44.38	21.44	10.42	
2025-01-16 00:59:44.59	21.44	10.44	
2025-01-16 00:59:44.79	21.45	10.46	
2025-01-16 00:59:44.99	21.46	10.48	
2025-01-16 00:59:45.20	21.46	10.50	
2025-01-16 00:59:45.40	21.47	10.52	
2025-01-16 00:59:45.60	21.48	10.54	
2025-01-16 00:59:45.81	21.49	10.56	
2025-01-16 00:59:46.01	21.49	10.58	
2025-01-16 00:59:46.21	21.50	10.59	
2025-01-16 00:59:46.41	21.51	10.61	
2025-01-16 00:59:46.62	21.52	10.63	
2025-01-16 00:59:46.82	21.52	10.65	
2025-01-16 00:59:47.02	21.53	10.67	
2025-01-16 00:59:47.23	21.54	10.69	
2025-01-16 00:59:47.43	21.54	10.71	
2025-01-16 00:59:47.63	21.55	10.73	
2025-01-16 00:59:47.83	21.56	10.75	
2025-01-16 00:59:48.04	21.57	10.77	
2025-01-16 00:59:48.24	21.57	10.79	
2025-01-16 00:59:48.44	21.58	10.80	
2025-01-16 00:59:48.65	21.59	10.82	
2025-01-16 00:59:48.85	21.60	10.84	
2025-01-16 00:59:49.05	21.60	10.86	
2025-01-16 00:59:49.26	21.61	10.88	
2025-01-16 00:59:49.46	21.62	10.90	
2025-01-16 00:59:49.66	21.63	10.92	
2025-01-16 00:59:49.86	21.63	10.94	
2025-01-16 00:59:50.07	21.64	10.96	
2025-01-16 00:59:50.27	21.65	10.98	
2025-01-16 00:59:50.47	21.66	11.00	
2025-01-16 00:59:50.68	21.66	11.02	
2025-01-16 00:59:50.88	21.67	11.04	
2025-01-16 00:59:51.08	21.68	11.06	
2025-01-16 00:59:51.29	21.69	11.08	
2025-01-16 00:59:51.49	21.69	11.10	
2025-01-16 00:59:51.69	21.70	11.11	
2025-01-16 00:59:51.89	21.71	11.13	
2025-01-16 00:59:52.10	21.72	11.15	
2025-01-16 00:59:52.30	21.72	11.17	
2025-01-16 00:59:52.50	21.73	11.19	
2025-01-16 00:59:52.71	21.74	11.21	
2025-01-16 00:59:52.91	21.75	11.23	
2025-01-16 00:59:53.11	21.75	11.25	
2025-01-16 00:59:53.32	21.76	11.27	
2025-01-16 00:59:53.52	21.77	11.29	
2025-01-16 00:59:53.72	21.78	11.31	
2025-01-16 00:59:53.92	21.78	11.33	
2025-01-16 00:59:54.13	21.79	11.35	
2025-01-16 00:59:54.33	21.80	11.37	
2025-01-16 00:59:54.53	21.81	11.39	
2025-01-16 00:59:54.74	21.81	11.41	
2025-01-16 00:59:54.94	21.82	11.43	
2025-01-16 00:59:55.14	21.83	11.45	
2025-01-16 00:59:55.35	21.84	11.47	
2025-01-16 00:59:55.55	21.84	11.49	
2025-01-16 00:59:55.75	21.85	11.51	
2025-01-16 00:59:55.95	21.86	11.53	
2025-01-16 00:59:56.16	21.87	11.55	
2025-01-16 00:59:56.36	21.88	11.57	
2025-01-16 00:59:56.56	21.88	11.59	
2025-01-16 00:59:56.77	21.89	11.61	
2025-01-16 00:59:56.97	21.90	11.63	
2025-01-16 00:59:57.17	21.91	11.65	
2025-01-16 00:59:57.38	21.91	11.67	
2025-01-16 00:59:57.58	21.92	11.69	
2025-01-16 00:59:57.78	21.93	11.71	
2025-01-16 00:59:57.98	21.94	11.73	
2025-01-16 00:59:58.19	21.95	11.75	
2025-01-16 00:59:58.39	21.95	11.77	
2025-01-16 00:59:58.59	21.96	11.79	
2025-01-16 00:59:58.80	21.97	11.81	
2025-01-16 00:59:59.00	21.98	11.83	
2025-01-16 00:59:59.20	21.98	11.85	
2025-01-16 00:59:59.41	21.99	11.87	
2025-01-16 00:59:59.61	22.00	11.89	
2025-01-16 00:59:59.81	22.01	11.91	
2025-01-16 01:00:00.01	22.02	11.93	
2025-01-16 01:00:00.22	22.02	11.95	
2025-01-16 01:00:00.42	22.03	11.97	
2025-01-16 01:00:00.62	22.04	11.99	
2025-01-16 01:00:00.83	22.05	12.01	
2025-01-16 01:00:01.03	22.06	12.03	
2025-01-16 01:00:01.23	22.06	12.05	
2025-01-16 01:00:01.44	22.07	12.07	
2025-01-16 01:00:01.64	22.08	12.09	
2025-01-16 01:00:01.84	22.09	12.11	
2025-01-16 01:00:02.04	22.10	12.13	
2025-01-16 01:00:02.25	22.10	12.15	
2025-01-16 01:00:02.45	22.11	12.17	
2025-01-16 01:00:02.65	22.12	12.19	
2025-01-16 01:00:02.86	22.13	12.21	
2025-01-16 01:00:03.06	22.14	12.23	
2025-01-16 01:00:03.26	22.14	12.25	
2025-01-16 01:00:03.46	22.15	12.27	
2025-01-16 01:00:03.67	22.16	12.29	
2025-01-16 01:00:03.87	22.17	12.31	
2025-01-16 01:00:04.07	22.18	12.33	
2025-01-16 01:00:04.28	22.18	12.36	
2025-01-16 01:00:04.48	22.19	12.38	
2025-01-16 01:00:04.68	22.20	12.40	
2025-01-16 01:00:04.89	22.21	12.42	
2025-01-16 01:00:05.09	22.22	12.44	
2025-01-16 01:00:05.29	22.23	12.46	
2025-01-16 01:00:05.49	22.23	12.48	
2025-01-16 01:00:05.70	22.24	12.50	
2025-01-16 01:00:05.90	22.25	12.52	
2025-01-16 01:00:06.10	22.26	12.54	
2025-01-16 01:00:06.31	22.27	12.56	
2025-01-16 01:00:06.51	22.27	12.58	
2025-01-16 01:00:06.71	22.28	12.60	
2025-01-16 01:00:06.92	22.29	12.62	
2025-01-16 01:00:07.12	22.30	12.64	
2025-01-16 01:00:07.32	22.31	12.67	
2025-01-16 01:00:07.52	22.32	12.69	
2025-01-16 01:00:07.73	22.32	12.71	
2025-01-16 01:00:07.93	22.33	12.73	
2025-01-16 01:00:08.13	22.34	12.75	
2025-01-16 01:00:08.34	22.35	12.77	
2025-01-16 01:00:08.54	22.36	12.79	
2025-01-16 01:00:08.74	22.37	12.81	
2025-01-16 01:00:08.95	22.37	12.83	
2025-01-16 01:00:09.15	22.38	12.85	
2025-01-16 01:00:09.35	22.39	12.87	
2025-01-16 01:00:09.55	22.40	12.90	
2025-01-16 01:00:09.76	22.41	12.92	
2025-01-16 01:00:09.96	22.42	12.94	
2025-01-16 01:00:10.16	22.42	12.96	
2025-01-16 01:00:10.37	22.43	12.98	
2025-01-16 01:00:10.57	22.44	13.00	
2025-01-16 01:00:10.77	22.45	13.02	
2025-01-16 01:00:10.98	22.46	13.04	
2025-01-16 01:00:11.18	22.47	13.07	
2025-01-16 01:00:11.38	22.48	13.09	
2025-01-16 01:00:11.58	22.48	13.11	
2025-01-16 01:00:11.79	22.49	13.13	
2025-01-16 01:00:11.99	22.50	13.15	
2025-01-16 01:00:12.19	22.51	13.17	
2025-01-16 01:00:12.40	22.52	13.19	
2025-01-16 01:00:12.60	22.53	13.21	
2025-01-16 01:00:12.80	22.54	13.24	
2025-01-16 01:00:13.01	22.54	13.26	
2025-01-16 01:00:13.21	22.55	13.28	
2025-01-16 01:00:13.41	22.56	13.30	
2025-01-16 01:00:13.61	22.57	13.32	
2025-01-16 01:00:13.82	22.58	13.34	
2025-01-16 01:00:14.02	22.59	13.36	
2025-01-16 01:00:14.22	22.60	13.39	
2025-01-16 01:00:14.43	22.61	13.41	
2025-01-16 01:00:14.63	22.61	13.43	
2025-01-16 01:00:14.83	22.62	13.45	
2025-01-16 01:00:15.04	22.63	13.47	
2025-01-16 01:00:15.24	22.64	13.49	
2025-01-16 01:00:15.44	22.65	13.52	
2025-01-16 01:00:15.64	22.66	13.54	
2025-01-16 01:00:15.85	22.67	13.56	
2025-01-16 01:00:16.05	22.68	13.58	
2025-01-16 01:00:16.25	22.68	13.60	
2025-01-16 01:00:16.46	22.69	13.62	
2025-01-16 01:00:16.66	22.70	13.65	
2025-01-16 01:00:16.86	22.71	13.67	
2025-01-16 01:00:17.07	22.72	13.69	
2025-01-16 01:00:17.27	22.73	13.71	
2025-01-16 01:00:17.47	22.74	13.73	
2025-01-16 01:00:17.67	22.75	13.75	
2025-01-16 01:00:17.88	22.75	13.78	
2025-01-16 01:00:18.08	22.76	13.80	
2025-01-16 01:00:18.28	22.77	13.82	
2025-01-16 01:00:18.49	22.78	13.84	
2025-01-16 01:00:18.69	22.79	13.87	
2025-01-16 01:00:18.89	22.80	13.89	
2025-01-16 01:00:19.09	22.81	13.91	
2025-01-16 01:00:19.30	22.82	13.93	
2025-01-16 01:00:19.50	22.83	13.95	
2025-01-16 01:00:19.70	22.84	13.97	
2025-01-16 01:00:19.91	22.84	14.00	
2025-01-16 01:00:20.11	22.85	14.02	
2025-01-16 01:00:20.31	22.86	14.04	
2025-01-16 01:00:20.52	22.87	14.06	
2025-01-16 01:00:20.72	22.88	14.09	
2025-01-16 01:00:20.92	22.89	14.11	
2025-01-16 01:00:21.12	22.90	14.13	
2025-01-16 01:00:21.33	22.91	14.15	
2025-01-16 01:00:21.53	22.92	14.17	
2025-01-16 01:00:21.73	22.93	14.20	
2025-01-16 01:00:21.94	22.94	14.22	
2025-01-16 01:00:22.14	22.94	14.24	
2025-01-16 01:00:22.34	22.95	14.26	
2025-01-16 01:00:22.55	22.96	14.29	
2025-01-16 01:00:22.75	22.97	14.31	
2025-01-16 01:00:22.95	22.98	14.33	
2025-01-16 01:00:23.15	22.99	14.35	
2025-01-16 01:00:23.36	23.00	14.38	
2025-01-16 01:00:23.56	23.01	14.40	
2025-01-16 01:00:23.76	23.02	14.42	
2025-01-16 01:00:23.97	23.03	14.44	
2025-01-16 01:00:24.17	23.04	14.47	
2025-01-16 01:00:24.37	23.05	14.49	
2025-01-16 01:00:24.58	23.06	14.51	
2025-01-16 01:00:24.78	23.07	14.53	
2025-01-16 01:00:24.98	23.07	14.56	
2025-01-16 01:00:25.18	23.08	14.58	
2025-01-16 01:00:25.39	23.09	14.60	
2025-01-16 01:00:25.59	23.10	14.63	
2025-01-16 01:00:25.79	23.11	14.65	
2025-01-16 01:00:26.00	23.12	14.67	
2025-01-16 01:00:26.20	23.13	14.69	
2025-01-16 01:00:26.40	23.14	14.72	
2025-01-16 01:00:26.61	23.15	14.74	
2025-01-16 01:00:26.81	23.16	14.76	
2025-01-16 01:00:27.01	23.17	14.79	
2025-01-16 01:00:27.21	23.18	14.81	
2025-01-16 01:00:27.42	23.19	14.83	
2025-01-16 01:00:27.62	23.20	14.85	
2025-01-16 01:00:27.82	23.21	14.88	
2025-01-16 01:00:28.03	23.22	14.90	
2025-01-16 01:00:28.23	23.23	14.92	
2025-01-16 01:00:28.43	23.24	14.95	
2025-01-16 01:00:28.64	23.25	14.97	
2025-01-16 01:00:28.84	23.26	14.99	
2025-01-16 01:00:29.04	23.27	15.02	
2025-01-16 01:00:29.24	23.27	15.04	
2025-01-16 01:00:29.45	23.28	15.06	
2025-01-16 01:00:29.65	23.29	15.09	
2025-01-16 01:00:29.85	23.30	15.11	
2025-01-16 01:00:30.06	23.31	15.13	
2025-01-16 01:00:30.26	23.32	15.16	
2025-01-16 01:00:30.46	23.33	15.18	
2025-01-16 01:00:30.67	23.34	15.20	
2025-01-16 01:00:30.87	23.35	15.23	
2025-01-16 01:00:31.07	23.36	15.25	
2025-01-16 01:00:31.27	23.37	15.27	
2025-01-16 01:00:31.48	23.38	15.30	
2025-01-16 01:00:31.68	23.39	15.32	
2025-01-16 01:00:31.88	23.40	15.34	
2025-01-16 01:00:32.09	23.41	15.37	
2025-01-16 01:00:32.29	23.42	15.39	
2025-01-16 01:00:32.49	23.43	15.41	
2025-01-16 01:00:32.69	23.44	15.44	
2025-01-16 01:00:32.90	23.45	15.46	
2025-01-16 01:00:33.10	23.46	15.48	
2025-01-16 01:00:33.30	23.47	15.51	
2025-01-16 01:00:33.51	23.48	15.53	
2025-01-16 01:00:33.71	23.49	15.55	
2025-01-16 01:00:33.91	23.50	15.58	
2025-01-16 01:00:34.12	23.51	15.60	
2025-01-16 01:00:34.32	23.52	15.63	
2025-01-16 01:00:34.52	23.53	15.65	
2025-01-16 01:00:34.72	23.54	15.67	
2025-01-16 01:00:34.93	23.55	15.70	
2025-01-16 01:00:35.13	23.56	15.72	
2025-01-16 01:00:35.33	23.57	15.74	
2025-01-16 01:00:35.54	23.58	15.77	
2025-01-16 01:00:35.74	23.59	15.79	
2025-01-16 01:00:35.94	23.60	15.82	
2025-01-16 01:00:36.15	23.61	15.84	
2025-01-16 01:00:36.35	23.62	15.87	
2025-01-16 01:00:36.55	23.63	15.89	
2025-01-16 01:00:36.75	23.64	15.91	
2025-01-16 01:00:36.96	23.65	15.94	
2025-01-16 01:00:37.16	23.66	15.96	
2025-01-16 01:00:37.36	23.67	15.99	
2025-01-16 01:00:37.57	23.69	16.01	
2025-01-16 01:00:37.77	23.70	16.03	
2025-01-16 01:00:37.97	23.71	16.06	
2025-01-16 01:00:38.18	23.72	16.08	
2025-01-16 01:00:38.38	23.73	16.11	
2025-01-16 01:00:38.58	23.74	16.13	
2025-01-16 01:00:38.78	23.75	16.16	
2025-01-16 01:00:38.99	23.76	16.18	
2025-01-16 01:00:39.19	23.77	16.20	
2025-01-16 01:00:39.39	23.78	16.23	
2025-01-16 01:00:39.60	23.79	16.25	
2025-01-16 01:00:39.80	23.80	16.28	
2025-01-16 01:00:40.00	23.81	16.30	
2025-01-16 01:00:40.21	23.82	16.33	
2025-01-16 01:00:40.41	23.83	16.35	
2025-01-16 01:00:40.61	23.84	16.38	
2025-01-16 01:00:40.81	23.85	16.40	
2025-01-16 01:00:41.02	23.86	16.43	
2025-01-16 01:00:41.22	23.87	16.45	
2025-01-16 01:00:41.42	23.88	16.47	
2025-01-16 01:00:41.63	23.89	16.50	
2025-01-16 01:00:41.83	23.91	16.52	
2025-01-16 01:00:42.03	23.92	16.55	
2025-01-16 01:00:42.24	23.93	16.57	
2025-01-16 01:00:42.44	23.94	16.60	
2025-01-16 01:00:42.64	23.95	16.62	
2025-01-16 01:00:42.84	23.96	16.65	
2025-01-16 01:00:43.05	23.97	16.67	
2025-01-16 01:00:43.25	23.98	16.70	
2025-01-16 01:00:43.45	23.99	16.72	
2025-01-16 01:00:43.66	24.00	16.75	
2025-01-16 01:00:43.86	24.01	16.77	
2025-01-16 01:00:44.06	24.02	16.80	
2025-01-16 01:00:44.27	24.03	16.82	
2025-01-16 01:00:44.47	24.05	16.85	
2025-01-16 01:00:44.67	24.06	16.87	
2025-01-16 01:00:44.87	24.07	16.90	
2025-01-16 01:00:45.08	24.08	16.92	
2025-01-16 01:00:45.28	24.09	16.95	
2025-01-16 01:00:45.48	24.10	16.97	
2025-01-16 01:00:45.69	24.11	17.00	
2025-01-16 01:00:45.89	24.12	17.02	
2025-01-16 01:00:46.09	24.13	17.05	
2025-01-16 01:00:46.29	24.14	17.07	
2025-01-16 01:00:46.50	24.16	17.10	
2025-01-16 01:00:46.70	24.17	17.13	
2025-01-16 01:00:46.90	24.18	17.15	
2025-01-16 01:00:47.11	24.19	17.18	
2025-01-16 01:00:47.31	24.20	17.20	
2025-01-16 01:00:47.51	24.21	17.23	
2025-01-16 01:00:47.72	24.22	17.25	
2025-01-16 01:00:47.92	24.23	17.28	
2025-01-16 01:00:48.12	24.24	17.30	
2025-01-16 01:00:48.32	24.26	17.33	
2025-01-16 01:00:48.53	24.27	17.36	
2025-01-16 01:00:48.73	24.28	17.38	
2025-01-16 01:00:48.93	24.29	17.41	
2025-01-16 01:00:49.14	24.30	17.43	
2025-01-16 01:00:49.34	24.31	17.46	
2025-01-16 01:00:49.54	24.32	17.48	
2025-01-16 01:00:49.75	24.33	17.51	
2025-01-16 01:00:49.95	24.35	17.54	
2025-01-16 01:00:50.15	24.36	17.56	
2025-01-16 01:00:50.35	24.37	17.59	
2025-01-16 01:00:50.56	24.38	17.61	
2025-01-16 01:00:50.76	24.39	17.64	
2025-01-16 01:00:50.96	24.40	17.67	
2025-01-16 01:00:51.17	24.41	17.69	
2025-01-16 01:00:51.37	24.43	17.72	
2025-01-16 01:00:51.57	24.44	17.74	
2025-01-16 01:00:51.78	24.45	17.77	
2025-01-16 01:00:51.98	24.46	17.80	
2025-01-16 01:00:52.18	24.47	17.82	
2025-01-16 01:00:52.38	24.48	17.85	
2025-01-16 01:00:52.59	24.50	17.88	
2025-01-16 01:00:52.79	24.51	17.90	
2025-01-16 01:00:52.99	24.52	17.93	
2025-01-16 01:00:53.20	24.53	17.95	
2025-01-16 01:00:53.40	24.54	17.98	
2025-01-16 01:00:53.60	24.55	18.01	
2025-01-16 01:00:53.81	24.57	18.03	
2025-01-16 01:00:54.01	24.58	18.06	
2025-01-16 01:00:54.21	24.59	18.09	
2025-01-16 01:00:54.41	24.60	18.11	
2025-01-16 01:00:54.62	24.61	18.14	
2025-01-16 01:00:54.82	24.62	18.17	
2025-01-16 01:00:55.02	24.64	18.19	
2025-01-16 01:00:55.23	24.65	18.22	
2025-01-16 01:00:55.43	24.66	18.25	
2025-01-16 01:00:55.63	24.67	18.27	
2025-01-16 01:00:55.84	24.68	18.30	
2025-01-16 01:00:56.04	24.70	18.33	
2025-01-16 01:00:56.24	24.71	18.35	
2025-01-16 01:00:56.44	24.72	18.38	
2025-01-16 01:00:56.65	24.73	18.41	
2025-01-16 01:00:56.85	24.74	18.43	
2025-01-16 01:00:57.05	24.76	18.46	
2025-01-16 01:00:57.26	24.77	18.49	
2025-01-16 01:00:57.46	24.78	18.51	
2025-01-16 01:00:57.66	24.79	18.54	
2025-01-16 01:00:57.87	24.81	18.57	
2025-01-16 01:00:58.07	24.82	18.59	
2025-01-16 01:00:58.27	24.83	18.62	
2025-01-16 01:00:58.47	24.84	18.65	
2025-01-16 01:00:58.68	24.85	18.68	
2025-01-16 01:00:58.88	24.87	18.70	
2025-01-16 01:00:59.08	24.88	18.73	
2025-01-16 01:00:59.29	24.89	18.76	
2025-01-16 01:00:59.49	24.90	18.79	
2025-01-16 01:00:59.69	24.92	18.81	
2025-01-16 01:00:59.90	24.93	18.84	
2025-01-16 01:01:00.10	24.94	18.87	
2025-01-16 01:01:00.30	24.95	18.89	
2025-01-16 01:01:00.50	24.96	18.92	
2025-01-16 01:01:00.71	24.98	18.95	
2025-01-16 01:01:00.91	24.99	18.98	
2025-01-16 01:01:01.11	25.00	19.00	
2025-01-16 01:01:01.32	25.02	19.03	
2025-01-16 01:01:01.52	25.03	19.06	
2025-01-16 01:01:01.72	25.04	19.09	
2025-01-16 01:01:01.92	25.05	19.11	
2025-01-16 01:01:02.13	25.07	19.14	
2025-01-16 01:01:02.33	25.08	19.17	
2025-01-16 01:01:02.53	25.09	19.20	
2025-01-16 01:01:02.74	25.10	19.23	
2025-01-16 01:01:02.94	25.12	19.25	
2025-01-16 01:01:03.14	25.13	19.28	
2025-01-16 01:01:03.35	25.14	19.31	
2025-01-16 01:01:03.55	25.15	19.34	
2025-01-16 01:01:03.75	25.17	19.37	
2025-01-16 01:01:03.95	25.18	19.39	
2025-01-16 01:01:04.16	25.19	19.42	
2025-01-16 01:01:04.36	25.21	19.45	
2025-01-16 01:01:04.56	25.22	19.48	
2025-01-16 01:01:04.77	25.23	19.51	
2025-01-16 01:01:04.97	25.24	19.53	
2025-01-16 01:01:05.17	25.26	19.56	
2025-01-16 01:01:05.38	25.27	19.59	
2025-01-16 01:01:05.58	25.28	19.62	
2025-01-16 01:01:05.78	25.30	19.65	
2025-01-16 01:01:05.98	25.31	19.67	
2025-01-16 01:01:06.19	25.32	19.70	
2025-01-16 01:01:06.39	25.34	19.73	
2025-01-16 01:01:06.59	25.35	19.76	
2025-01-16 01:01:06.80	25.36	19.79	
2025-01-16 01:01:07.00	25.38	19.82	
2025-01-16 01:01:07.20	25.39	19.85	
2025-01-16 01:01:07.41	25.40	19.88	
2025-01-16 01:01:07.61	25.41	19.90	
2025-01-16 01:01:07.81	25.43	19.93	
2025-01-16 01:01:08.01	25.44	19.96	
2025-01-16 01:01:08.22	25.45	19.99	
2025-01-16 01:01:08.42	25.47	20.02	
2025-01-16 01:01:08.62	25.48	20.05	
2025-01-16 01:01:08.83	25.50	20.08	
2025-01-16 01:01:09.03	25.51	20.10	
2025-01-16 01:01:09.23	25.52	20.13	
2025-01-16 01:01:09.44	25.54	20.16	
2025-01-16 01:01:09.64	25.55	20.19	
2025-01-16 01:01:09.84	25.56	20.22	
2025-01-16 01:01:10.04	25.58	20.25	
2025-01-16 01:01:10.25	25.59	20.28	
2025-01-16 01:01:10.45	25.60	20.31	
2025-01-16 01:01:10.65	25.62	20.34	
2025-01-16 01:01:10.86	25.63	20.37	
2025-01-16 01:01:11.06	25.64	20.40	
2025-01-16 01:01:11.26	25.66	20.42	
2025-01-16 01:01:11.47	25.67	20.45	
2025-01-16 01:01:11.67	25.69	20.48	
2025-01-16 01:01:11.87	25.70	20.51	
2025-01-16 01:01:12.07	25.71	20.54	
2025-01-16 01:01:12.28	25.73	20.57	
2025-01-16 01:01:12.48	25.74	20.60	
2025-01-16 01:01:12.68	25.75	20.63	
2025-01-16 01:01:12.89	25.77	20.66	
2025-01-16 01:01:13.09	25.78	20.69	
2025-01-16 01:01:13.29	25.80	20.72	
2025-01-16 01:01:13.50	25.81	20.75	
2025-01-16 01:01:13.70	25.82	20.78	
2025-01-16 01:01:13.90	25.84	20.81	
2025-01-16 01:01:14.10	25.85	20.84	
2025-01-16 01:01:14.31	25.87	20.87	
2025-01-16 01:01:14.51	25.88	20.90	
2025-01-16 01:01:14.71	25.89	20.93	
2025-01-16 01:01:14.92	25.91	20.96	
2025-01-16 01:01:15.12	25.92	20.99	
2025-01-16 01:01:15.32	25.94	21.02	
2025-01-16 01:01:15.53	25.95	21.05	
2025-01-16 01:01:15.73	25.97	21.08	
2025-01-16 01:01:15.93	25.98	21.11	
2025-01-16 01:01:16.13	25.99	21.14	
2025-01-16 01:01:16.34	26.01	21.17	
2025-01-16 01:01:16.54	26.02	21.20	
2025-01-16 01:01:16.74	26.04	21.23	
2025-01-16 01:01:16.95	26.05	21.26	
2025-01-16 01:01:17.15	26.07	21.29	
2025-01-16 01:01:17.35	26.08	21.32	
2025-01-16 01:01:17.55	26.10	21.35	
2025-01-16 01:01:17.76	26.11	21.38	
2025-01-16 01:01:17.96	26.12	21.41	
2025-01-16 01:01:18.16	26.14	21.44	
2025-01-16 01:01:18.37	26.15	21.47	
2025-01-16 01:01:18.57	26.17	21.50	
2025-01-16 01:01:18.77	26.18	21.53	
2025-01-16 01:01:18.98	26.20	21.56	
2025-01-16 01:01:19.18	26.21	21.60	
2025-01-16 01:01:19.38	26.23	21.63	
2025-01-16 01:01:19.58	26.24	21.66	
2025-01-16 01:01:19.79	26.26	21.69	
2025-01-16 01:01:19.99	26.27	21.72	
2025-01-16 01:01:20.19	26.29	21.75	
2025-01-16 01:01:20.40	26.30	21.78	
2025-01-16 01:01:20.60	26.32	21.81	
2025-01-16 01:01:20.80	26.33	21.84	
2025-01-16 01:01:21.01	26.35	21.87	
2025-01-16 01:01:21.21	26.36	21.90	
2025-01-16 01:01:21.41	26.38	21.94	
2025-01-16 01:01:21.61	26.39	21.97	
2025-01-16 01:01:21.82	26.41	22.00	
2025-01-16 01:01:22.02	26.42	22.03	
2025-01-16 01:01:22.22	26.44	22.06	
2025-01-16 01:01:22.43	26.45	22.09	
2025-01-16 01:01:22.63	26.47	22.12	
2025-01-16 01:01:22.83	26.48	22.15	
2025-01-16 01:01:23.04	26.50	22.19	
2025-01-16 01:01:23.24	26.51	22.22	
2025-01-16 01:01:23.44	26.53	22.25	
2025-01-16 01:01:23.64	26.54	22.28	
2025-01-16 01:01:23.85	26.56	22.31	
2025-01-16 01:01:24.05	26.58	22.34	
2025-01-16 01:01:24.25	26.59	22.38	
2025-01-16 01:01:24.46	26.61	22.41	
2025-01-16 01:01:24.66	26.62	22.44	
2025-01-16 01:01:24.86	26.64	22.47	
2025-01-16 01:01:25.07	26.65	22.50	
2025-01-16 01:01:25.27	26.67	22.54	
2025-01-16 01:01:25.47	26.69	22.57	
2025-01-16 01:01:25.67	26.70	22.60	
2025-01-16 01:01:25.88	26.72	22.63	
2025-01-16 01:01:26.08	26.73	22.66	
2025-01-16 01:01:26.28	26.75	22.69	
2025-01-16 01:01:26.49	26.76	22.73	
2025-01-16 01:01:26.69	26.78	22.76	
2025-01-16 01:01:26.89	26.80	22.79	
2025-01-16 01:01:27.10	26.81	22.83	
2025-01-16 01:01:27.30	26.83	22.86	
2025-01-16 01:01:27.50	26.84	22.89	
2025-01-16 01:01:27.70	26.86	22.92	
2025-01-16 01:01:27.91	26.88	22.95	
2025-01-16 01:01:28.11	26.89	22.99	
2025-01-16 01:01:28.31	26.91	23.02	
2025-01-16 01:01:28.52	26.93	23.05	
2025-01-16 01:01:28.72	26.94	23.08	
2025-01-16 01:01:28.92	26.96	23.12	
2025-01-16 01:01:29.13	26.97	23.15	
2025-01-16 01:01:29.33	26.99	23.18	
2025-01-16 01:01:29.53	27.01	23.22	
2025-01-16 01:01:29.73	27.02	23.25	
2025-01-16 01:01:29.94	27.04	23.28	
2025-01-16 01:01:30.14	27.06	23.31	
2025-01-16 01:01:30.34	27.07	23.35	
2025-01-16 01:01:30.55	27.09	23.38	
2025-01-16 01:01:30.75	27.11	23.41	
2025-01-16 01:01:30.95	27.12	23.45	
2025-01-16 01:01:31.16	27.14	23.48	
2025-01-16 01:01:31.36	27.16	23.51	
2025-01-16 01:01:31.56	27.17	23.55	
2025-01-16 01:01:31.76	27.19	23.58	
2025-01-16 01:01:31.97	27.21	23.61	
2025-01-16 01:01:32.17	27.22	23.65	
2025-01-16 01:01:32.37	27.24	23.68	
2025-01-16 01:01:32.58	27.26	23.71	
2025-01-16 01:01:32.78	27.27	23.75	
2025-01-16 01:01:32.98	27.29	23.78	
2025-01-16 01:01:33.18	27.31	23.81	
2025-01-16 01:01:33.39	27.32	23.85	
2025-01-16 01:01:33.59	27.34	23.88	
2025-01-16 01:01:33.79	27.36	23.91	
2025-01-16 01:01:34.00	27.38	23.95	
2025-01-16 01:01:34.20	27.39	23.98	
2025-01-16 01:01:34.40	27.41	24.02	
2025-01-16 01:01:34.61	27.43	24.05	
2025-01-16 01:01:34.81	27.44	24.08	
2025-01-16 01:01:35.01	27.46	24.12	
2025-01-16 01:01:35.21	27.48	24.15	
2025-01-16 01:01:35.42	27.50	24.19	
2025-01-16 01:01:35.62	27.51	24.22	
2025-01-16 01:01:35.82	27.53	24.25	
2025-01-16 01:01:36.03	27.55	24.29	
2025-01-16 01:01:36.23	27.57	24.32	
2025-01-16 01:01:36.43	27.58	24.36	
2025-01-16 01:01:36.64	27.60	24.39	
2025-01-16 01:01:36.84	27.62	24.43	
2025-01-16 01:01:37.04	27.64	24.46	
2025-01-16 01:01:37.24	27.65	24.49	
2025-01-16 01:01:37.45	27.67	24.53	
2025-01-16 01:01:37.65	27.69	24.56	
2025-01-16 01:01:37.85	27.71	24.60	
2025-01-16 01:01:38.06	27.73	24.63	
2025-01-16 01:01:38.26	27.74	24.67	
2025-01-16 01:01:38.46	27.76	24.70	
2025-01-16 01:01:38.67	27.78	24.74	
2025-01-16 01:01:38.87	27.80	24.77	
2025-01-16 01:01:39.07	27.82	24.81	
2025-01-16 01:01:39.27	27.83	24.84	
2025-01-16 01:01:39.48	27.85	24.88	
2025-01-16 01:01:39.68	27.87	24.91	
2025-01-16 01:01:39.88	27.89	24.95	
2025-01-16 01:01:40.09	27.91	24.98	
2025-01-16 01:01:40.29	27.93	25.02	
2025-01-16 01:01:40.49	27.94	25.05	
2025-01-16 01:01:40.70	27.96	25.09	
2025-01-16 01:01:40.90	27.98	25.13	
2025-01-16 01:01:41.10	28.00	25.16	
2025-01-16 01:01:41.30	28.02	25.20	
2025-01-16 01:01:41.51	28.04	25.23	
2025-01-16 01:01:41.71	28.06	25.27	
2025-01-16 01:01:41.91	28.07	25.30	
2025-01-16 01:01:42.12	28.09	25.34	
2025-01-16 01:01:42.32	28.11	25.37	
2025-01-16 01:01:42.52	28.13	25.41	
2025-01-16 01:01:42.73	28.15	25.45	
2025-01-16 01:01:42.93	28.17	25.48	
2025-01-16 01:01:43.13	28.19	25.52	
2025-01-16 01:01:43.33	28.21	25.55	
2025-01-16 01:01:43.54	28.23	25.59	
2025-01-16 01:01:43.74	28.24	25.63	
2025-01-16 01:01:43.94	28.26	25.66	
2025-01-16 01:01:44.15	28.28	25.70	
2025-01-16 01:01:44.35	28.30	25.73	
2025-01-16 01:01:44.55	28.32	25.77	
2025-01-16 01:01:44.76	28.34	25.81	
2025-01-16 01:01:44.96	28.36	25.84	
2025-01-16 01:01:45.16	28.38	25.88	
2025-01-16 01:01:45.36	28.40	25.92	
2025-01-16 01:01:45.57	28.42	25.95	
2025-01-16 01:01:45.77	28.44	25.99	
2025-01-16 01:01:45.97	28.46	26.03	
2025-01-16 01:01:46.18	28.48	26.06	
2025-01-16 01:01:46.38	28.50	26.10	
2025-01-16 01:01:46.58	28.52	26.14	
2025-01-16 01:01:46.78	28.53	26.17	
2025-01-16 01:01:46.99	28.56	26.21	
2025-01-16 01:01:47.19	28.57	26.25	
2025-01-16 01:01:47.39	28.59	26.28	
2025-01-16 01:01:47.60	28.62	26.32	
2025-01-16 01:01:47.80	28.63	26.36	
2025-01-16 01:01:48.00	28.65	26.39	
2025-01-16 01:01:48.21	28.68	26.43	
2025-01-16 01:01:48.41	28.70	26.47	
2025-01-16 01:01:48.61	28.71	26.51	
2025-01-16 01:01:48.81	28.73	26.54	
2025-01-16 01:01:49.02	28.76	26.58	
2025-01-16 01:01:49.22	28.78	26.62	
2025-01-16 01:01:49.42	28.80	26.66	
2025-01-16 01:01:49.63	28.82	26.69	
2025-01-16 01:01:49.83	28.84	26.73	
2025-01-16 01:01:50.03	28.86	26.77	
2025-01-16 01:01:50.24	28.88	26.81	
2025-01-16 01:01:50.44	28.90	26.85	
2025-01-16 01:01:50.64	28.92	26.88	
2025-01-16 01:01:50.84	28.94	26.92	
2025-01-16 01:01:51.05	28.96	26.96	
2025-01-16 01:01:51.25	28.98	27.00	
2025-01-16 01:01:51.45	29.00	27.03	
2025-01-16 01:01:51.66	29.02	27.07	
2025-01-16 01:01:51.86	29.04	27.11	
2025-01-16 01:01:52.06	29.06	27.15	
2025-01-16 01:01:52.27	29.09	27.19	
2025-01-16 01:01:52.47	29.11	27.23	
2025-01-16 01:01:52.67	29.13	27.26	
2025-01-16 01:01:52.87	29.15	27.30	
2025-01-16 01:01:53.08	29.17	27.34	
2025-01-16 01:01:53.28	29.19	27.38	
2025-01-16 01:01:53.48	29.21	27.42	
2025-01-16 01:01:53.69	29.23	27.46	
2025-01-16 01:01:53.89	29.26	27.50	
2025-01-16 01:01:54.09	29.28	27.53	
2025-01-16 01:01:54.30	29.30	27.57	
2025-01-16 01:01:54.50	29.32	27.61	
2025-01-16 01:01:54.70	29.34	27.65	
2025-01-16 01:01:54.90	29.36	27.69	
2025-01-16 01:01:55.11	29.39	27.73	
2025-01-16 01:01:55.31	29.41	27.77	
2025-01-16 01:01:55.51	29.43	27.81	
2025-01-16 01:01:55.72	29.45	27.85	
2025-01-16 01:01:55.92	29.47	27.89	
2025-01-16 01:01:56.12	29.49	27.92	
2025-01-16 01:01:56.33	29.52	27.97	
2025-01-16 01:01:56.53	29.54	28.00	
2025-01-16 01:01:56.73	29.56	28.04	
2025-01-16 01:01:56.93	29.58	28.08	
2025-01-16 01:01:57.14	29.61	28.12	
2025-01-16 01:01:57.34	29.63	28.16	
2025-01-16 01:01:57.54	29.65	28.20	
2025-01-16 01:01:57.75	29.67	28.24	
2025-01-16 01:01:57.95	29.70	28.28	
2025-01-16 01:01:58.15	29.72	28.32	
2025-01-16 01:01:58.36	29.74	28.36	
2025-01-16 01:01:58.56	29.76	28.40	
2025-01-16 01:01:58.76	29.79	28.44	
2025-01-16 01:01:58.96	29.81	28.48	
2025-01-16 01:01:59.17	29.83	28.52	
2025-01-16 01:01:59.37	29.85	28.56	
2025-01-16 01:01:59.57	29.88	28.60	
2025-01-16 01:01:59.78	29.90	28.64	
2025-01-16 01:01:59.98	29.92	28.68	
2025-01-16 01:02:00.18	29.95	28.72	
2025-01-16 01:02:00.39	29.97	28.77	
2025-01-16 01:02:00.59	29.99	28.81	
2025-01-16 01:02:00.79	30.02	28.85	
2025-01-16 01:02:00.99	30.04	28.89	
2025-01-16 01:02:01.20	30.06	28.93	
2025-01-16 01:02:01.40	30.09	28.97	
2025-01-16 01:02:01.60	30.11	29.01	
2025-01-16 01:02:01.81	30.13	29.05	
2025-01-16 01:02:02.01	30.16	29.09	
2025-01-16 01:02:02.21	30.18	29.13	
2025-01-16 01:02:02.41	30.20	29.17	
2025-01-16 01:02:02.62	30.23	29.21	
2025-01-16 01:02:02.82	30.25	29.25	
2025-01-16 01:02:03.02	30.28	29.30	
2025-01-16 01:02:03.23	30.30	29.34	
2025-01-16 01:02:03.43	30.32	29.38	
2025-01-16 01:02:03.63	30.35	29.42	
2025-01-16 01:02:03.84	30.37	29.46	
2025-01-16 01:02:04.04	30.40	29.50	
2025-01-16 01:02:04.24	30.42	29.55	
2025-01-16 01:02:04.44	30.45	29.59	
2025-01-16 01:02:04.65	30.47	29.63	
2025-01-16 01:02:04.85	30.49	29.67	
2025-01-16 01:02:05.05	30.52	29.71	
2025-01-16 01:02:05.26	30.54	29.76	
2025-01-16 01:02:05.46	30.57	29.80	
2025-01-16 01:02:05.66	30.59	29.84	
2025-01-16 01:02:05.87	30.62	29.88	
2025-01-16 01:02:06.07	30.64	29.92	
2025-01-16 01:02:06.27	30.67	29.96	
2025-01-16 01:02:06.47	30.69	30.01	
2025-01-16 01:02:06.68	30.72	30.05	
2025-01-16 01:02:06.88	30.74	30.09	
2025-01-16 01:02:07.08	30.77	30.13	
2025-01-16 01:02:07.29	30.79	30.18	
2025-01-16 01:02:07.49	30.82	30.22	
2025-01-16 01:02:07.69	30.84	30.26	
2025-01-16 01:02:07.90	30.87	30.31	
2025-01-16 01:02:08.10	30.90	30.35	
2025-01-16 01:02:08.30	30.92	30.39	
2025-01-16 01:02:08.50	30.95	30.43	
2025-01-16 01:02:08.71	30.97	30.48	
2025-01-16 01:02:08.91	31.00	30.52	
2025-01-16 01:02:09.11	31.02	30.56	
2025-01-16 01:02:09.32	31.05	30.61	
2025-01-16 01:02:09.52	31.08	30.65	
2025-01-16 01:02:09.72	31.10	30.69	
2025-01-16 01:02:09.93	31.13	30.74	
2025-01-16 01:02:10.13	31.16	30.78	
2025-01-16 01:02:10.33	31.18	30.82	
2025-01-16 01:02:10.53	31.21	30.87	
2025-01-16 01:02:10.74	31.23	30.91	
2025-01-16 01:02:10.94	31.26	30.95	
2025-01-16 01:02:11.14	31.29	31.00	
2025-01-16 01:02:11.35	31.31	31.04	
2025-01-16 01:02:11.55	31.34	31.09	
2025-01-16 01:02:11.75	31.37	31.13	
2025-01-16 01:02:11.96	31.40	31.18	
2025-01-16 01:02:12.16	31.42	31.22	
2025-01-16 01:02:12.36	31.45	31.26	
2025-01-16 01:02:12.56	31.48	31.31	
2025-01-16 01:02:12.77	31.50	31.35	
2025-01-16 01:02:12.97	31.53	31.40	
2025-01-16 01:02:13.17	31.56	31.44	
2025-01-16 01:02:13.38	31.59	31.49	
2025-01-16 01:02:13.58	31.61	31.53	
2025-01-16 01:02:13.78	31.64	31.57	
2025-01-16 01:02:13.99	31.67	31.62	
2025-01-16 01:02:14.19	31.70	31.66	
2025-01-16 01:02:14.39	31.72	31.71	
2025-01-16 01:02:14.59	31.75	31.75	
2025-01-16 01:02:14.80	31.78	31.80	
2025-01-16 01:02:15.00	31.81	31.84	
2025-01-16 01:02:15.20	31.83	31.89	
2025-01-16 01:02:15.41	31.86	31.93	
2025-01-16 01:02:15.61	31.89	31.98	
2025-01-16 01:02:15.81	31.92	32.02	
2025-01-16 01:02:16.02	31.95	32.07	
2025-01-16 01:02:16.22	31.98	32.11	
2025-01-16 01:02:16.42	32.01	32.16	
2025-01-16 01:02:16.62	32.03	32.20	
2025-01-16 01:02:16.83	32.06	32.25	
2025-01-16 01:02:17.03	32.09	32.30	
2025-01-16 01:02:17.23	32.12	32.34	
2025-01-16 01:02:17.44	32.15	32.39	
2025-01-16 01:02:17.64	32.18	32.43	
2025-01-16 01:02:17.84	32.21	32.48	
2025-01-16 01:02:18.04	32.24	32.53	
2025-01-16 01:02:18.25	32.27	32.57	
2025-01-16 01:02:18.45	32.30	32.62	
2025-01-16 01:02:18.65	32.32	32.66	
2025-01-16 01:02:18.86	32.36	32.71	
2025-01-16 01:02:19.06	32.38	32.76	
2025-01-16 01:02:19.26	32.41	32.80	
2025-01-16 01:02:19.47	32.44	32.85	
2025-01-16 01:02:19.67	32.47	32.90	
2025-01-16 01:02:19.87	32.50	32.94	
2025-01-16 01:02:20.07	32.53	32.99	
2025-01-16 01:02:20.28	32.56	33.04	
2025-01-16 01:02:20.48	32.59	33.08	
2025-01-16 01:02:20.68	32.62	33.13	
2025-01-16 01:02:20.89	32.66	33.18	
2025-01-16 01:02:21.09	32.69	33.22	
2025-01-16 01:02:21.29	32.72	33.27	
2025-01-16 01:02:21.50	32.75	33.32	
2025-01-16 01:02:21.70	32.78	33.37	
2025-01-16 01:02:21.90	32.81	33.41	
2025-01-16 01:02:22.10	32.84	33.46	
2025-01-16 01:02:22.31	32.87	33.51	
2025-01-16 01:02:22.51	32.90	33.56	
2025-01-16 01:02:22.71	32.93	33.60	
2025-01-16 01:02:22.92	32.97	33.65	
2025-01-16 01:02:23.12	33.00	33.70	
2025-01-16 01:02:23.32	33.03	33.75	
2025-01-16 01:02:23.53	33.06	33.80	
2025-01-16 01:02:23.73	33.09	33.84	
2025-01-16 01:02:23.93	33.12	33.89	
2025-01-16 01:02:24.13	33.15	33.94	
2025-01-16 01:02:24.34	33.19	33.99	
2025-01-16 01:02:24.54	33.22	34.04	
2025-01-16 01:02:24.74	33.25	34.08	
2025-01-16 01:02:24.95	33.28	34.13	
2025-01-16 01:02:25.15	33.32	34.18	
2025-01-16 01:02:25.35	33.35	34.23	
2025-01-16 01:02:25.56	33.38	34.28	
2025-01-16 01:02:25.76	33.41	34.33	
2025-01-16 01:02:25.96	33.45	34.38	
2025-01-16 01:02:26.16	33.48	34.42	
2025-01-16 01:02:26.37	33.51	34.47	
2025-01-16 01:02:26.57	33.54	34.52	
2025-01-16 01:02:26.77	33.58	34.57	
2025-01-16 01:02:26.98	33.61	34.62	
2025-01-16 01:02:27.18	33.64	34.67	
2025-01-16 01:02:27.38	33.68	34.72	
2025-01-16 01:02:27.59	33.71	34.77	
2025-01-16 01:02:27.79	33.75	34.82	
2025-01-16 01:02:27.99	33.78	34.87	
2025-01-16 01:02:28.19	33.81	34.92	
2025-01-16 01:02:28.40	33.85	34.97	
2025-01-16 01:02:28.60	33.88	35.02	
2025-01-16 01:02:28.80	33.91	35.06	
2025-01-16 01:02:29.01	33.95	35.12	
2025-01-16 01:02:29.21	33.98	35.17	
2025-01-16 01:02:29.41	34.02	35.21	
2025-01-16 01:02:29.62	34.05	35.27	
2025-01-16 01:02:29.82	34.09	35.32	
2025-01-16 01:02:30.02	34.12	35.37	
2025-01-16 01:02:30.22	34.16	35.42	
2025-01-16 01:02:30.43	34.19	35.47	
2025-01-16 01:02:30.63	34.23	35.52	
2025-01-16 01:02:30.83	34.26	35.57	
2025-01-16 01:02:31.04	34.30	35.62	
2025-01-16 01:02:31.24	34.33	35.67	
2025-01-16 01:02:31.44	34.37	35.72	
2025-01-16 01:02:31.64	34.40	35.77	
2025-01-16 01:02:31.85	34.44	35.82	
2025-01-16 01:02:32.05	34.48	35.87	
2025-01-16 01:02:32.25	34.51	35.92	
2025-01-16 01:02:32.46	34.55	35.97	
2025-01-16 01:02:32.66	34.58	36.03	
2025-01-16 01:02:32.86	34.62	36.08	
2025-01-16 01:02:33.07	34.66	36.13	
2025-01-16 01:02:33.27	34.69	36.18	
2025-01-16 01:02:33.47	34.73	36.23	
2025-01-16 01:02:33.67	34.77	36.28	
2025-01-16 01:02:33.88	34.80	36.33	
2025-01-16 01:02:34.08	34.84	36.39	
2025-01-16 01:02:34.28	34.88	36.44	
2025-01-16 01:02:34.49	34.92	36.49	
2025-01-16 01:02:34.69	34.95	36.54	
2025-01-16 01:02:34.89	34.99	36.59	
2025-01-16 01:02:35.10	35.03	36.65	
2025-01-16 01:02:35.30	35.07	36.70	
2025-01-16 01:02:35.50	35.10	36.75	
2025-01-16 01:02:35.70	35.14	36.80	
2025-01-16 01:02:35.91	35.18	36.86	
2025-01-16 01:02:36.11	35.22	36.91	
2025-01-16 01:02:36.31	35.26	36.96	
2025-01-16 01:02:36.52	35.30	37.01	
2025-01-16 01:02:36.72	35.33	37.06	
2025-01-16 01:02:36.92	35.37	37.12	
2025-01-16 01:02:37.13	35.41	37.17	
2025-01-16 01:02:37.33	35.45	37.22	
2025-01-16 01:02:37.53	35.49	37.28	
2025-01-16 01:02:37.73	35.53	37.33	
2025-01-16 01:02:37.94	35.57	37.38	
2025-01-16 01:02:38.14	35.61	37.44	
2025-01-16 01:02:38.34	35.65	37.49	
2025-01-16 01:02:38.55	35.69	37.54	
2025-01-16 01:02:38.75	35.73	37.60	
2025-01-16 01:02:38.95	35.77	37.65	
2025-01-16 01:02:39.16	35.81	37.70	
2025-01-16 01:02:39.36	35.85	37.76	
2025-01-16 01:02:39.56	35.89	37.81	
2025-01-16 01:02:39.76	35.93	37.86	
2025-01-16 01:02:39.97	35.97	37.92	
2025-01-16 01:02:40.17	36.01	37.97	
2025-01-16 01:02:40.37	36.05	38.03	
2025-01-16 01:02:40.58	36.09	38.08	
2025-01-16 01:02:40.78	36.13	38.13	
2025-01-16 01:02:40.98	36.17	38.19	
2025-01-16 01:02:41.19	36.22	38.24	
2025-01-16 01:02:41.39	36.26	38.30	
2025-01-16 01:02:41.59	36.30	38.35	
2025-01-16 01:02:41.79	36.34	38.41	
2025-01-16 01:02:42.00	36.38	38.46	
2025-01-16 01:02:42.20	36.43	38.52	
2025-01-16 01:02:42.40	36.47	38.57	
2025-01-16 01:02:42.61	36.51	38.63	
2025-01-16 01:02:42.81	36.55	38.68	
2025-01-16 01:02:43.01	36.59	38.74	
2025-01-16 01:02:43.22	36.64	38.79	
2025-01-16 01:02:43.42	36.68	38.85	
2025-01-16 01:02:43.62	36.72	38.90	
2025-01-16 01:02:43.82	36.77	38.96	
2025-01-16 01:02:44.03	36.81	39.01	
2025-01-16 01:02:44.23	36.86	39.07	
2025-01-16 01:02:44.43	36.90	39.12	
2025-01-16 01:02:44.64	36.94	39.18	
2025-01-16 01:02:44.84	36.99	39.23	
2025-01-16 01:02:45.04	37.03	39.29	
2025-01-16 01:02:45.25	37.08	39.35	
2025-01-16 01:02:45.45	37.12	39.40	
2025-01-16 01:02:45.65	37.16	39.46	
2025-01-16 01:02:45.85	37.21	39.51	
2025-01-16 01:02:46.06	37.26	39.57	
2025-01-16 01:02:46.26	37.30	39.63	
2025-01-16 01:02:46.46	37.34	39.68	
2025-01-16 01:02:46.67	37.39	39.74	
2025-01-16 01:02:46.87	37.44	39.80	
2025-01-16 01:02:47.07	37.48	39.85	
2025-01-16 01:02:47.27	37.53	39.91	
2025-01-16 01:02:47.48	37.58	39.97	
2025-01-16 01:02:47.68	37.62	40.02	
2025-01-16 01:02:47.88	37.67	40.08	
2025-01-16 01:02:48.09	37.71	40.14	
2025-01-16 01:02:48.29	37.76	40.19	
2025-01-16 01:02:48.49	37.81	40.25	
2025-01-16 01:02:48.70	37.86	40.31	
2025-01-16 01:02:48.90	37.90	40.37	
2025-01-16 01:02:49.10	37.95	40.42	
2025-01-16 01:02:49.30	38.00	40.48	
2025-01-16 01:02:49.51	38.05	40.54	
2025-01-16 01:02:49.71	38.09	40.60	
2025-01-16 01:02:49.91	38.14	40.65	
2025-01-16 01:02:50.12	38.19	40.71	
2025-01-16 01:02:50.32	38.24	40.77	
2025-01-16 01:02:50.52	38.29	40.83	
2025-01-16 01:02:50.73	38.34	40.89	
2025-01-16 01:02:50.93	38.38	40.94	
2025-01-16 01:02:51.13	38.43	41.00	
2025-01-16 01:02:51.33	38.48	41.06	
2025-01-16 01:02:51.54	38.53	41.12	
2025-01-16 01:02:51.74	38.58	41.18	
2025-01-16 01:02:51.94	38.63	41.23	
2025-01-16 01:02:52.15	38.68	41.29	
2025-01-16 01:02:52.35	38.73	41.35	
2025-01-16 01:02:52.55	38.78	41.41	
2025-01-16 01:02:52.76	38.83	41.47	
2025-01-16 01:02:52.96	38.88	41.53	
2025-01-16 01:02:53.16	38.94	41.59	
2025-01-16 01:02:53.36	38.99	41.64	
2025-01-16 01:02:53.57	39.04	41.71	
2025-01-16 01:02:53.77	39.09	41.76	
2025-01-16 01:02:53.97	39.14	41.82	
2025-01-16 01:02:54.18	39.19	41.88	
2025-01-16 01:02:54.38	39.25	41.94	
2025-01-16 01:02:54.58	39.30	42.00	
2025-01-16 01:02:54.79	39.35	42.06	
2025-01-16 01:02:54.99	39.40	42.12	
2025-01-16 01:02:55.19	39.46	42.18	
2025-01-16 01:02:55.39	39.51	42.24	
2025-01-16 01:02:55.60	39.56	42.30	
2025-01-16 01:02:55.80	39.62	42.36	
2025-01-16 01:02:56.00	39.67	42.42	
2025-01-16 01:02:56.21	39.72	42.48	
2025-01-16 01:02:56.41	39.78	42.54	
2025-01-16 01:02:56.61	39.83	42.60	
2025-01-16 01:02:56.82	39.89	42.66	
2025-01-16 01:02:57.02	39.94	42.72	
2025-01-16 01:02:57.22	40.00	42.78	
2025-01-16 01:02:57.42	40.05	42.84	
2025-01-16 01:02:57.63	40.11	42.90	
2025-01-16 01:02:57.83	40.16	42.96	
2025-01-16 01:02:58.03	40.22	43.02	
2025-01-16 01:02:58.24	40.27	43.08	
2025-01-16 01:02:58.44	40.33	43.14	
2025-01-16 01:02:58.64	40.39	43.20	
2025-01-16 01:02:58.85	40.44	43.27	
2025-01-16 01:02:59.05	40.50	43.33	
2025-01-16 01:02:59.25	40.56	43.39	
2025-01-16 01:02:59.45	40.61	43.45	
2025-01-16 01:02:59.66	40.67	43.51	
2025-01-16 01:02:59.86	40.73	43.57	
2025-01-16 01:03:00.06	40.79	43.63	
2025-01-16 01:03:00.27	40.85	43.70	
2025-01-16 01:03:00.47	40.90	43.76	
2025-01-16 01:03:00.67	40.96	43.82	
2025-01-16 01:03:00.87	41.02	43.88	
2025-01-16 01:03:01.08	41.08	43.94	
2025-01-16 01:03:01.28	41.14	44.00	
2025-01-16 01:03:01.48	41.20	44.06	
2025-01-16 01:03:01.69	41.26	44.13	
2025-01-16 01:03:01.89	41.32	44.19	
2025-01-16 01:03:02.09	41.38	44.25	
2025-01-16 01:03:02.30	41.44	44.32	
2025-01-16 01:03:02.50	41.50	44.38	
2025-01-16 01:03:02.70	41.56	44.44	
2025-01-16 01:03:02.90	41.62	44.50	
2025-01-16 01:03:03.11	41.68	44.56	
2025-01-16 01:03:03.31	41.75	44.63	
2025-01-16 01:03:03.51	41.81	44.69	
2025-01-16 01:03:03.72	41.87	44.75	
2025-01-16 01:03:03.92	41.93	44.81	
2025-01-16 01:03:04.12	41.99	44.88	
2025-01-16 01:03:04.33	42.06	44.94	
2025-01-16 01:03:04.53	42.12	45.00	
2025-01-16 01:03:04.73	42.18	45.07	
2025-01-16 01:03:04.93	42.25	45.13	
2025-01-16 01:03:05.14	42.31	45.19	
2025-01-16 01:03:05.34	42.38	45.26	
2025-01-16 01:03:05.54	42.44	45.32	
2025-01-16 01:03:05.75	42.51	45.38	
2025-01-16 01:03:05.95	42.57	45.45	
2025-01-16 01:03:06.15	42.63	45.51	
2025-01-16 01:03:06.36	42.70	45.57	
2025-01-16 01:03:06.56	42.77	45.64	
2025-01-16 01:03:06.76	42.83	45.70	
2025-01-16 01:03:06.96	42.90	45.76	
2025-01-16 01:03:07.17	42.97	45.83	
2025-01-16 01:03:07.37	43.03	45.89	
2025-01-16 01:03:07.57	43.10	45.96	
2025-01-16 01:03:07.78	43.17	46.02	
2025-01-16 01:03:07.98	43.23	46.08	
2025-01-16 01:03:08.18	43.30	46.15	
2025-01-16 01:03:08.39	43.37	46.21	
2025-01-16 01:03:08.59	43.44	46.28	
2025-01-16 01:03:08.79	43.51	46.34	
2025-01-16 01:03:08.99	43.57	46.40	
2025-01-16 01:03:09.20	43.65	46.47	
2025-01-16 01:03:09.40	43.71	46.54	
2025-01-16 01:03:09.60	43.78	46.60	
2025-01-16 01:03:09.81	43.86	46.67	
2025-01-16 01:03:10.01	43.93	46.73	
2025-01-16 01:03:10.21	43.99	46.79	
2025-01-16 01:03:10.42	44.07	46.86	
2025-01-16 01:03:10.62	44.14	46.92	
2025-01-16 01:03:10.82	44.21	46.99	
2025-01-16 01:03:11.02	44.28	47.05	
2025-01-16 01:03:11.23	44.35	47.12	
2025-01-16 01:03:11.43	44.43	47.18	
2025-01-16 01:03:11.63	44.50	47.25	
2025-01-16 01:03:11.84	44.57	47.32	
2025-01-16 01:03:12.04	44.65	47.38	
2025-01-16 01:03:12.24	44.72	47.44	
2025-01-16 01:03:12.45	44.80	47.51	
2025-01-16 01:03:12.65	44.87	47.58	
2025-01-16 01:03:12.85	44.94	47.64	
2025-01-16 01:03:13.05	45.02	47.71	
2025-01-16 01:03:13.26	45.09	47.77	
2025-01-16 01:03:13.46	45.17	47.84	
2025-01-16 01:03:13.66	45.24	47.90	
2025-01-16 01:03:13.87	45.32	47.97	
2025-01-16 01:03:14.07	45.40	48.04	
2025-01-16 01:03:14.27	45.47	48.10	
2025-01-16 01:03:14.47	45.55	48.17	
2025-01-16 01:03:14.68	45.63	48.23	
2025-01-16 01:03:14.88	45.71	48.30	
2025-01-16 01:03:15.08	45.78	48.36	
2025-01-16 01:03:15.29	45.86	48.43	
2025-01-16 01:03:15.49	45.94	48.50	
2025-01-16 01:03:15.69	46.02	48.56	
2025-01-16 01:03:15.90	46.10	48.63	
2025-01-16 01:03:16.10	46.18	48.70	
2025-01-16 01:03:16.30	46.26	48.76	
2025-01-16 01:03:16.50	46.34	48.83	
2025-01-16 01:03:16.71	46.42	48.90	
2025-01-16 01:03:16.91	46.50	48.96	
2025-01-16 01:03:17.11	46.58	49.03	
2025-01-16 01:03:17.32	46.67	49.10	
2025-01-16 01:03:17.52	46.75	49.16	
2025-01-16 01:03:17.72	46.83	49.23	
2025-01-16 01:03:17.93	46.92	49.30	
2025-01-16 01:03:18.13	47.00	49.36	
2025-01-16 01:03:18.33	47.08	49.43	
2025-01-16 01:03:18.53	47.17	49.50	
2025-01-16 01:03:18.74	47.25	49.56	
2025-01-16 01:03:18.94	47.34	49.63	
2025-01-16 01:03:19.14	47.42	49.70	
2025-01-16 01:03:19.35	47.51	49.77	
2025-01-16 01:03:19.55	47.60	49.83	
2025-01-16 01:03:19.75	47.68	49.90	
2025-01-16 01:03:19.96	47.77	49.97	
2025-01-16 01:03:20.16	47.86	50.03	
2025-01-16 01:03:20.36	47.94	50.10	
2025-01-16 01:03:20.56	48.03	50.17	
2025-01-16 01:03:20.77	48.12	50.24	
2025-01-16 01:03:20.97	48.21	50.30	
2025-01-16 01:03:21.17	48.30	50.37	
2025-01-16 01:03:21.38	48.39	50.44	
2025-01-16 01:03:21.58	48.48	50.50	
2025-01-16 01:03:21.78	48.57	50.57	
2025-01-16 01:03:21.99	48.66	50.64	
2025-01-16 01:03:22.19	48.75	50.71	
2025-01-16 01:03:22.39	48.84	50.77	
2025-01-16 01:03:22.59	48.93	50.84	
2025-01-16 01:03:22.80	49.03	50.91	
2025-01-16 01:03:23.00	49.12	50.98	
2025-01-16 01:03:23.20	49.21	51.04	
2025-01-16 01:03:23.41	49.31	51.11	
2025-01-16 01:03:23.61	49.40	51.18	
2025-01-16 01:03:23.81	49.49	51.25	
2025-01-16 01:03:24.02	49.59	51.32	
2025-01-16 01:03:24.22	49.69	51.38	
2025-01-16 01:03:24.42	49.78	51.45	
2025-01-16 01:03:24.62	49.88	51.52	
2025-01-16 01:03:24.83	49.98	51.59	
2025-01-16 01:03:25.03	50.07	51.65	
2025-01-16 01:03:25.23	50.17	51.72	
2025-01-16 01:03:25.44	50.27	51.79	
2025-01-16 01:03:25.64	50.37	51.86	
2025-01-16 01:03:25.84	50.46	51.93	
2025-01-16 01:03:26.05	50.57	52.00	
2025-01-16 01:03:26.25	50.67	52.06	
2025-01-16 01:03:26.45	50.76	52.13	
2025-01-16 01:03:26.65	50.86	52.20	
2025-01-16 01:03:26.86	50.97	52.27	
2025-01-16 01:03:27.06	51.07	52.33	
2025-01-16 01:03:27.26	51.17	52.40	
2025-01-16 01:03:27.47	51.28	52.47	
2025-01-16 01:03:27.67	51.38	52.54	
2025-01-16 01:03:27.87	51.48	52.61	
2025-01-16 01:03:28.08	51.59	52.68	
2025-01-16 01:03:28.28	51.69	52.74	
2025-01-16 01:03:28.48	51.79	52.81	
2025-01-16 01:03:28.68	51.90	52.88	
2025-01-16 01:03:28.89	52.01	52.95	
2025-01-16 01:03:29.09	52.11	53.01	
2025-01-16 01:03:29.29	52.22	53.08	
2025-01-16 01:03:29.50	52.33	53.15	
2025-01-16 01:03:29.70	52.44	53.22	
2025-01-16 01:03:29.90	52.54	53.29	
2025-01-16 01:03:30.11	52.66	53.36	
2025-01-16 01:03:30.31	52.76	53.42	
2025-01-16 01:03:30.51	52.87	53.49	
2025-01-16 01:03:30.71	52.98	53.56	
2025-01-16 01:03:30.92	53.10	53.63	
2025-01-16 01:03:31.12	53.21	53.69	
2025-01-16 01:03:31.32	53.32	53.76	
2025-01-16 01:03:31.53	53.43	53.83	
2025-01-16 01:03:31.73	53.55	53.90	
2025-01-16 01:03:31.93	53.66	53.96	
2025-01-16 01:03:32.13	53.77	54.03	
2025-01-16 01:03:32.34	53.89	54.10	
2025-01-16 01:03:32.54	54.00	54.17	
2025-01-16 01:03:32.74	54.12	54.24	
2025-01-16 01:03:32.95	54.24	54.31	
2025-01-16 01:03:33.15	54.35	54.37	
2025-01-16 01:03:33.35	54.47	54.44	
2025-01-16 01:03:33.56	54.59	54.51	
2025-01-16 01:03:33.76	54.71	54.58	
2025-01-16 01:03:33.96	54.83	54.64	
2025-01-16 01:03:34.16	54.94	54.71	
2025-01-16 01:03:34.37	55.07	54.78	
2025-01-16 01:03:34.57	55.19	54.85	
2025-01-16 01:03:34.77	55.31	54.91	
2025-01-16 01:03:34.98	55.43	54.98	
2025-01-16 01:03:35.18	55.55	55.05	
2025-01-16 01:03:35.38	55.68	55.11	
2025-01-16 01:03:35.59	55.80	55.18	
2025-01-16 01:03:35.79	55.93	55.25	
2025-01-16 01:03:35.99	56.05	55.32	
2025-01-16 01:03:36.19	56.17	55.38	
2025-01-16 01:03:36.40	56.31	55.45	
2025-01-16 01:03:36.60	56.43	55.52	
2025-01-16 01:03:36.80	56.56	55.59	
2025-01-16 01:03:37.01	56.69	55.65	
2025-01-16 01:03:37.21	56.82	55.72	
2025-01-16 01:03:37.41	56.94	55.79	
2025-01-16 01:03:37.62	57.08	55.86	
2025-01-16 01:03:37.82	57.21	55.92	
2025-01-16 01:03:38.02	57.34	55.99	
2025-01-16 01:03:38.22	57.47	56.05	
2025-01-16 01:03:38.43	57.60	56.12	
2025-01-16 01:03:38.63	57.73	56.19	
2025-01-16 01:03:38.83	57.87	56.25	
2025-01-16 01:03:39.04	58.00	56.32	
2025-01-16 01:03:39.24	58.14	56.39	
2025-01-16 01:03:39.44	58.27	56.45	
2025-01-16 01:03:39.65	58.41	56.52	
2025-01-16 01:03:39.85	58.55	56.59	
2025-01-16 01:03:40.05	58.68	56.65	
2025-01-16 01:03:40.25	58.82	56.72	
2025-01-16 01:03:40.46	58.96	56.79	
2025-01-16 01:03:40.66	59.10	56.85	
2025-01-16 01:03:40.86	59.24	56.91	
2025-01-16 01:03:41.07	59.39	56.98	
2025-01-16 01:03:41.27	59.53	57.05	
2025-01-16 01:03:41.47	59.67	57.11	
2025-01-16 01:03:41.68	59.81	57.18	
2025-01-16 01:03:41.88	59.96	57.24	
2025-01-16 01:03:42.08	60.10	57.31	
2025-01-16 01:03:42.28	60.24	57.37	
2025-01-16 01:03:42.49	60.39	57.44	
2025-01-16 01:03:42.69	60.54	57.50	
2025-01-16 01:03:42.89	60.68	57.57	
2025-01-16 01:03:43.10	60.83	57.64	
2025-01-16 01:03:43.30	60.98	57.70	
2025-01-16 01:03:43.50	61.13	57.76	
2025-01-16 01:03:43.71	61.28	57.83	
2025-01-16 01:03:43.91	61.43	57.89	
2025-01-16 01:03:44.11	61.58	57.96	
2025-01-16 01:03:44.31	61.73	58.02	
2025-01-16 01:03:44.52	61.89	58.09	
2025-01-16 01:03:44.72	62.04	58.15	
2025-01-16 01:03:44.92	62.19	58.21	
2025-01-16 01:03:45.13	62.35	58.28	
2025-01-16 01:03:45.33	62.51	58.34	
2025-01-16 01:03:45.53	62.66	58.40	
2025-01-16 01:03:45.73	62.82	58.46	
2025-01-16 01:03:45.94	62.98	58.53	
2025-01-16 01:03:46.14	63.14	58.59	
2025-01-16 01:03:46.34	63.30	58.65	
2025-01-16 01:03:46.55	63.46	58.72	
2025-01-16 01:03:46.75	63.62	58.78	
2025-01-16 01:03:46.95	63.78	58.84	
2025-01-16 01:03:47.16	63.95	58.91	
2025-01-16 01:03:47.36	64.11	58.97	
2025-01-16 01:03:47.56	64.27	59.03	
2025-01-16 01:03:47.76	64.43	59.09	
2025-01-16 01:03:47.97	64.61	59.15	
2025-01-16 01:03:48.17	64.77	59.22	
2025-01-16 01:03:48.37	64.94	59.28	
2025-01-16 01:03:48.58	65.11	59.34	
2025-01-16 01:03:48.78	65.28	59.40	
2025-01-16 01:03:48.98	65.44	59.46	
2025-01-16 01:03:49.19	65.62	59.52	
2025-01-16 01:03:49.39	65.79	59.58	
2025-01-16 01:03:49.59	65.96	59.64	
2025-01-16 01:03:49.79	66.13	59.70	
2025-01-16 01:03:50.00	66.31	59.76	
2025-01-16 01:03:50.20	66.48	59.82	
2025-01-16 01:03:50.40	66.65	59.88	
2025-01-16 01:03:50.61	66.84	59.94	
2025-01-16 01:03:50.81	67.01	60.00	
2025-01-16 01:03:51.01	67.19	60.06	
2025-01-16 01:03:51.22	67.37	60.12	
2025-01-16 01:03:51.42	67.55	60.18	
2025-01-16 01:03:51.62	67.73	60.24	
2025-01-16 01:03:51.82	67.90	60.30	
2025-01-16 01:03:52.03	68.09	60.36	
2025-01-16 01:03:52.23	68.27	60.41	
2025-01-16 01:03:52.43	68.45	60.47	
2025-01-16 01:03:52.64	68.65	60.53	
2025-01-16 01:03:52.84	68.83	60.59	
2025-01-16 01:03:53.04	69.01	60.64	
2025-01-16 01:03:53.25	69.21	60.70	
2025-01-16 01:03:53.45	69.39	60.76	
2025-01-16 01:03:53.65	69.58	60.81	
2025-01-16 01:03:53.85	69.76	60.87	
2025-01-16 01:03:54.06	69.96	60.93	
2025-01-16 01:03:54.26	70.15	60.98	
2025-01-16 01:03:54.46	70.34	61.04	
2025-01-16 01:03:54.67	70.54	61.09	
2025-01-16 01:03:54.87	70.73	61.15	
2025-01-16 01:03:55.07	70.92	61.20	
2025-01-16 01:03:55.28	71.12	61.26	
2025-01-16 01:03:55.48	71.32	61.31	
2025-01-16 01:03:55.68	71.51	61.37	
2025-01-16 01:03:55.88	71.71	61.42	
2025-01-16 01:03:56.09	71.91	61.48	
2025-01-16 01:03:56.29	72.11	61.53	
2025-01-16 01:03:56.49	72.31	61.58	
2025-01-16 01:03:56.70	72.52	61.64	
2025-01-16 01:03:56.90	72.72	61.69	
2025-01-16 01:03:57.10	72.92	61.74	
2025-01-16 01:03:57.31	73.13	61.79	
2025-01-16 01:03:57.51	73.33	61.85	
2025-01-16 01:03:57.71	73.53	61.90	
2025-01-16 01:03:57.91	73.74	61.95	
2025-01-16 01:03:58.12	73.95	62.00	
2025-01-16 01:03:58.32	74.16	62.05	
2025-01-16 01:03:58.52	74.36	62.10	
2025-01-16 01:03:58.73	74.58	62.15	
2025-01-16 01:03:58.93	74.79	62.20	
2025-01-16 01:03:59.13	75.00	62.25	
2025-01-16 01:03:59.34	75.22	62.30	
2025-01-16 01:03:59.54	75.43	62.35	
2025-01-16 01:03:59.74	75.64	62.40	
2025-01-16 01:03:59.94	75.85	62.45	
2025-01-16 01:04:00.15	76.08	62.50	
2025-01-16 01:04:00.35	76.29	62.54	
2025-01-16 01:04:00.55	76.51	62.59	
2025-01-16 01:04:00.76	76.73	62.64	
2025-01-16 01:04:00.96	76.95	62.69	
2025-01-16 01:04:01.16	77.17	62.73	
2025-01-16 01:04:01.36	77.39	62.78	
2025-01-16 01:04:01.57	77.62	62.83	
2025-01-16 01:04:01.77	77.84	62.87	
2025-01-16 01:04:01.99	78.08	62.92	
2025-01-16 01:04:02.19	78.30	62.96	
2025-01-16 01:04:02.40	78.54	63.01	
2025-01-16 01:04:02.60	78.76	63.05	
2025-01-16 01:04:02.80	78.98	63.10	
2025-01-16 01:04:03.00	79.21	63.14	
