passes_logs/2025/01/16/SPB_Silybum_02/SPB_Silybum_02__20250116_112754_SUOMI_NPP_rec.log

#Pass ID: 20250116_112754_SUOMI NPP
#Satellite: SUOMI NPP
#Configuration: NPP
#Start time: 2025-01-16 11:27:53

#Version: 2.0.20230423
#Station: SPB_Silybum_02
#Location: 30.233357 lon 59.946436 lat
#TLE: 1 37849U 11061A   25015.83617422  .00000154  00000+0  93894-4 0  9992
#TLE: 2 37849  98.7447 316.8141 0001652  39.8884 320.2413 14.19538521685036

#Time	Az	El	Level	Level2	SNR	BER	Gain	Gain2
2025-01-16 11:27:55.33	194.78	4.04	
2025-01-16 11:27:55.53	194.79	4.05	
2025-01-16 11:27:55.73	194.80	4.06	
2025-01-16 11:27:55.93	194.81	4.08	
2025-01-16 11:27:56.14	194.82	4.09	
2025-01-16 11:27:56.34	194.84	4.10	
2025-01-16 11:27:56.54	194.85	4.12	
2025-01-16 11:27:56.75	194.86	4.13	
2025-01-16 11:27:56.95	194.87	4.14	
2025-01-16 11:27:57.15	194.88	4.16	
2025-01-16 11:27:57.36	194.90	4.17	
2025-01-16 11:27:57.56	194.91	4.18	
2025-01-16 11:27:57.76	194.92	4.19	
2025-01-16 11:27:57.96	194.93	4.21	
2025-01-16 11:27:58.17	194.94	4.22	
2025-01-16 11:27:58.37	194.95	4.23	
2025-01-16 11:27:58.57	194.97	4.25	
2025-01-16 11:27:58.78	194.98	4.26	
2025-01-16 11:27:58.98	194.99	4.27	
2025-01-16 11:27:59.18	195.00	4.29	
2025-01-16 11:27:59.38	195.01	4.30	
2025-01-16 11:27:59.59	195.03	4.31	
2025-01-16 11:27:59.79	195.04	4.32	
2025-01-16 11:27:59.99	195.05	4.34	
2025-01-16 11:28:00.20	195.06	4.35	
2025-01-16 11:28:00.40	195.07	4.36	
2025-01-16 11:28:00.60	195.09	4.38	
2025-01-16 11:28:00.81	195.10	4.39	
2025-01-16 11:28:01.01	195.11	4.40	
2025-01-16 11:28:01.21	195.12	4.42	
2025-01-16 11:28:01.41	195.13	4.43	
2025-01-16 11:28:01.62	195.15	4.44	
2025-01-16 11:28:01.82	195.16	4.46	
2025-01-16 11:28:02.02	195.17	4.47	
2025-01-16 11:28:02.23	195.18	4.48	
2025-01-16 11:28:02.43	195.19	4.49	
2025-01-16 11:28:02.63	195.21	4.51	
2025-01-16 11:28:02.84	195.22	4.52	
2025-01-16 11:28:03.04	195.23	4.53	
2025-01-16 11:28:03.24	195.24	4.55	
2025-01-16 11:28:03.44	195.25	4.56	
2025-01-16 11:28:03.65	195.27	4.57	
2025-01-16 11:28:03.85	195.28	4.59	
2025-01-16 11:28:04.05	195.29	4.60	
2025-01-16 11:28:04.26	195.30	4.61	
2025-01-16 11:28:04.46	195.32	4.63	
2025-01-16 11:28:04.66	195.33	4.64	
2025-01-16 11:28:04.87	195.34	4.65	
2025-01-16 11:28:05.07	195.35	4.67	
2025-01-16 11:28:05.27	195.36	4.68	
2025-01-16 11:28:05.47	195.38	4.69	
2025-01-16 11:28:05.68	195.39	4.71	
2025-01-16 11:28:05.88	195.40	4.72	
2025-01-16 11:28:06.08	195.41	4.73	
2025-01-16 11:28:06.29	195.43	4.75	
2025-01-16 11:28:06.49	195.44	4.76	
2025-01-16 11:28:06.69	195.45	4.77	
2025-01-16 11:28:06.90	195.46	4.78	
2025-01-16 11:28:07.10	195.48	4.80	
2025-01-16 11:28:07.30	195.49	4.81	
2025-01-16 11:28:07.50	195.50	4.82	
2025-01-16 11:28:07.71	195.51	4.84	
2025-01-16 11:28:07.91	195.53	4.85	
2025-01-16 11:28:08.11	195.54	4.86	
2025-01-16 11:28:08.32	195.55	4.88	
2025-01-16 11:28:08.52	195.56	4.89	
2025-01-16 11:28:08.72	195.57	4.90	
2025-01-16 11:28:08.92	195.59	4.92	
2025-01-16 11:28:09.13	195.60	4.93	
2025-01-16 11:28:09.33	195.61	4.94	
2025-01-16 11:28:09.53	195.62	4.96	
2025-01-16 11:28:09.74	195.64	4.97	
2025-01-16 11:28:09.94	195.65	4.98	
2025-01-16 11:28:10.14	195.66	5.00	
2025-01-16 11:28:10.35	195.67	5.01	
2025-01-16 11:28:10.55	195.69	5.02	
2025-01-16 11:28:10.75	195.70	5.04	
2025-01-16 11:28:10.95	195.71	5.05	
2025-01-16 11:28:11.16	195.72	5.06	
2025-01-16 11:28:11.36	195.74	5.08	
2025-01-16 11:28:11.56	195.75	5.09	
2025-01-16 11:28:11.77	195.76	5.10	
2025-01-16 11:28:11.97	195.77	5.12	
2025-01-16 11:28:12.17	195.79	5.13	
2025-01-16 11:28:12.38	195.80	5.14	
2025-01-16 11:28:12.58	195.81	5.16	
2025-01-16 11:28:12.78	195.83	5.17	
2025-01-16 11:28:12.98	195.84	5.18	
2025-01-16 11:28:13.19	195.85	5.20	
2025-01-16 11:28:13.39	195.86	5.21	
2025-01-16 11:28:13.59	195.88	5.22	
2025-01-16 11:28:13.80	195.89	5.24	
2025-01-16 11:28:14.00	195.90	5.25	
2025-01-16 11:28:14.20	195.91	5.26	
2025-01-16 11:28:14.41	195.93	5.28	
2025-01-16 11:28:14.61	195.94	5.29	
2025-01-16 11:28:14.81	195.95	5.31	
2025-01-16 11:28:15.01	195.96	5.32	
2025-01-16 11:28:15.22	195.98	5.33	
2025-01-16 11:28:15.42	195.99	5.35	
2025-01-16 11:28:15.62	196.00	5.36	
2025-01-16 11:28:15.83	196.02	5.37	
2025-01-16 11:28:16.03	196.03	5.39	
2025-01-16 11:28:16.23	196.04	5.40	
2025-01-16 11:28:16.44	196.06	5.41	
2025-01-16 11:28:16.64	196.07	5.43	
2025-01-16 11:28:16.84	196.08	5.44	
2025-01-16 11:28:17.04	196.09	5.45	
2025-01-16 11:28:17.25	196.11	5.47	
2025-01-16 11:28:17.45	196.12	5.48	
2025-01-16 11:28:17.65	196.13	5.49	
2025-01-16 11:28:17.86	196.15	5.51	
2025-01-16 11:28:18.06	196.16	5.52	
2025-01-16 11:28:18.26	196.17	5.53	
2025-01-16 11:28:18.46	196.18	5.55	
2025-01-16 11:28:18.67	196.20	5.56	
2025-01-16 11:28:18.87	196.21	5.58	
2025-01-16 11:28:19.07	196.22	5.59	
2025-01-16 11:28:19.28	196.24	5.60	
2025-01-16 11:28:19.48	196.25	5.62	
2025-01-16 11:28:19.68	196.26	5.63	
2025-01-16 11:28:19.89	196.28	5.64	
2025-01-16 11:28:20.09	196.29	5.66	
2025-01-16 11:28:20.29	196.30	5.67	
2025-01-16 11:28:20.49	196.31	5.68	
2025-01-16 11:28:20.70	196.33	5.70	
2025-01-16 11:28:20.90	196.34	5.71	
2025-01-16 11:28:21.10	196.35	5.73	
2025-01-16 11:28:21.31	196.37	5.74	
2025-01-16 11:28:21.51	196.38	5.75	
2025-01-16 11:28:21.71	196.39	5.77	
2025-01-16 11:28:21.92	196.41	5.78	
2025-01-16 11:28:22.12	196.42	5.79	
2025-01-16 11:28:22.32	196.43	5.81	
2025-01-16 11:28:22.52	196.45	5.82	
2025-01-16 11:28:22.73	196.46	5.83	
2025-01-16 11:28:22.93	196.47	5.85	
2025-01-16 11:28:23.13	196.48	5.86	
2025-01-16 11:28:23.34	196.50	5.88	
2025-01-16 11:28:23.54	196.51	5.89	
2025-01-16 11:28:23.74	196.52	5.90	
2025-01-16 11:28:23.95	196.54	5.92	
2025-01-16 11:28:24.15	196.55	5.93	
2025-01-16 11:28:24.35	196.56	5.94	
2025-01-16 11:28:24.55	196.58	5.96	
2025-01-16 11:28:24.76	196.59	5.97	
2025-01-16 11:28:24.96	196.60	5.99	
2025-01-16 11:28:25.16	196.62	6.00	
2025-01-16 11:28:25.37	196.63	6.01	
2025-01-16 11:28:25.57	196.64	6.03	
2025-01-16 11:28:25.77	196.66	6.04	
2025-01-16 11:28:25.98	196.67	6.05	
2025-01-16 11:28:26.18	196.68	6.07	
2025-01-16 11:28:26.38	196.70	6.08	
2025-01-16 11:28:26.58	196.71	6.10	
2025-01-16 11:28:26.79	196.73	6.11	
2025-01-16 11:28:26.99	196.74	6.12	
2025-01-16 11:28:27.19	196.75	6.14	
2025-01-16 11:28:27.40	196.77	6.15	
2025-01-16 11:28:27.60	196.78	6.16	
2025-01-16 11:28:27.80	196.79	6.18	
2025-01-16 11:28:28.00	196.81	6.19	
2025-01-16 11:28:28.21	196.82	6.21	
2025-01-16 11:28:28.41	196.83	6.22	
2025-01-16 11:28:28.61	196.85	6.23	
2025-01-16 11:28:28.82	196.86	6.25	
2025-01-16 11:28:29.02	196.87	6.26	
2025-01-16 11:28:29.22	196.89	6.28	
2025-01-16 11:28:29.43	196.90	6.29	
2025-01-16 11:28:29.63	196.91	6.30	
2025-01-16 11:28:29.83	196.93	6.32	
2025-01-16 11:28:30.03	196.94	6.33	
2025-01-16 11:28:30.24	196.96	6.35	
2025-01-16 11:28:30.44	196.97	6.36	
2025-01-16 11:28:30.64	196.98	6.37	
2025-01-16 11:28:30.85	197.00	6.39	
2025-01-16 11:28:31.05	197.01	6.40	
2025-01-16 11:28:31.25	197.02	6.41	
2025-01-16 11:28:31.46	197.04	6.43	
2025-01-16 11:28:31.66	197.05	6.44	
2025-01-16 11:28:31.86	197.06	6.46	
2025-01-16 11:28:32.06	197.08	6.47	
2025-01-16 11:28:32.27	197.09	6.48	
2025-01-16 11:28:32.47	197.11	6.50	
2025-01-16 11:28:32.67	197.12	6.51	
2025-01-16 11:28:32.88	197.13	6.53	
2025-01-16 11:28:33.08	197.15	6.54	
2025-01-16 11:28:33.28	197.16	6.55	
2025-01-16 11:28:33.49	197.18	6.57	
2025-01-16 11:28:33.69	197.19	6.58	
2025-01-16 11:28:33.89	197.20	6.60	
2025-01-16 11:28:34.09	197.22	6.61	
2025-01-16 11:28:34.30	197.23	6.62	
2025-01-16 11:28:34.50	197.24	6.64	
2025-01-16 11:28:34.70	197.26	6.65	
2025-01-16 11:28:34.91	197.27	6.67	
2025-01-16 11:28:35.11	197.29	6.68	
2025-01-16 11:28:35.31	197.30	6.69	
2025-01-16 11:28:35.52	197.31	6.71	
2025-01-16 11:28:35.72	197.33	6.72	
2025-01-16 11:28:35.92	197.34	6.74	
2025-01-16 11:28:36.12	197.36	6.75	
2025-01-16 11:28:36.33	197.37	6.77	
2025-01-16 11:28:36.53	197.38	6.78	
2025-01-16 11:28:36.73	197.40	6.79	
2025-01-16 11:28:36.94	197.41	6.81	
2025-01-16 11:28:37.14	197.43	6.82	
2025-01-16 11:28:37.34	197.44	6.84	
2025-01-16 11:28:37.55	197.46	6.85	
2025-01-16 11:28:37.75	197.47	6.86	
2025-01-16 11:28:37.95	197.48	6.88	
2025-01-16 11:28:38.15	197.50	6.89	
2025-01-16 11:28:38.36	197.51	6.91	
2025-01-16 11:28:38.56	197.53	6.92	
2025-01-16 11:28:38.76	197.54	6.93	
2025-01-16 11:28:38.97	197.55	6.95	
2025-01-16 11:28:39.17	197.57	6.96	
2025-01-16 11:28:39.37	197.58	6.98	
2025-01-16 11:28:39.57	197.60	6.99	
2025-01-16 11:28:39.78	197.61	7.01	
2025-01-16 11:28:39.98	197.63	7.02	
2025-01-16 11:28:40.18	197.64	7.03	
2025-01-16 11:28:40.39	197.65	7.05	
2025-01-16 11:28:40.59	197.67	7.06	
2025-01-16 11:28:40.79	197.68	7.08	
2025-01-16 11:28:41.00	197.70	7.09	
2025-01-16 11:28:41.20	197.71	7.11	
2025-01-16 11:28:41.40	197.73	7.12	
2025-01-16 11:28:41.60	197.74	7.13	
2025-01-16 11:28:41.81	197.75	7.15	
2025-01-16 11:28:42.01	197.77	7.16	
2025-01-16 11:28:42.21	197.78	7.18	
2025-01-16 11:28:42.42	197.80	7.19	
2025-01-16 11:28:42.62	197.81	7.21	
2025-01-16 11:28:42.82	197.83	7.22	
2025-01-16 11:28:43.03	197.84	7.23	
2025-01-16 11:28:43.23	197.86	7.25	
2025-01-16 11:28:43.43	197.87	7.26	
2025-01-16 11:28:43.63	197.88	7.28	
2025-01-16 11:28:43.84	197.90	7.29	
2025-01-16 11:28:44.04	197.91	7.31	
2025-01-16 11:28:44.24	197.93	7.32	
2025-01-16 11:28:44.45	197.94	7.33	
2025-01-16 11:28:44.65	197.96	7.35	
2025-01-16 11:28:44.85	197.97	7.36	
2025-01-16 11:28:45.06	197.99	7.38	
2025-01-16 11:28:45.26	198.00	7.39	
2025-01-16 11:28:45.46	198.02	7.41	
2025-01-16 11:28:45.66	198.03	7.42	
2025-01-16 11:28:45.87	198.04	7.44	
2025-01-16 11:28:46.07	198.06	7.45	
2025-01-16 11:28:46.27	198.07	7.46	
2025-01-16 11:28:46.48	198.09	7.48	
2025-01-16 11:28:46.68	198.10	7.49	
2025-01-16 11:28:46.88	198.12	7.51	
2025-01-16 11:28:47.09	198.13	7.52	
2025-01-16 11:28:47.29	198.15	7.54	
2025-01-16 11:28:47.49	198.16	7.55	
2025-01-16 11:28:47.69	198.18	7.57	
2025-01-16 11:28:47.90	198.19	7.58	
2025-01-16 11:28:48.10	198.21	7.59	
2025-01-16 11:28:48.30	198.22	7.61	
2025-01-16 11:28:48.51	198.24	7.62	
2025-01-16 11:28:48.71	198.25	7.64	
2025-01-16 11:28:48.91	198.27	7.65	
2025-01-16 11:28:49.11	198.28	7.67	
2025-01-16 11:28:49.32	198.30	7.68	
2025-01-16 11:28:49.52	198.31	7.70	
2025-01-16 11:28:49.72	198.33	7.71	
2025-01-16 11:28:49.93	198.34	7.73	
2025-01-16 11:28:50.13	198.36	7.74	
2025-01-16 11:28:50.33	198.37	7.75	
2025-01-16 11:28:50.54	198.39	7.77	
2025-01-16 11:28:50.74	198.40	7.78	
2025-01-16 11:28:50.94	198.42	7.80	
2025-01-16 11:28:51.14	198.43	7.81	
2025-01-16 11:28:51.35	198.45	7.83	
2025-01-16 11:28:51.55	198.46	7.84	
2025-01-16 11:28:51.75	198.48	7.86	
2025-01-16 11:28:51.96	198.49	7.87	
2025-01-16 11:28:52.16	198.51	7.89	
2025-01-16 11:28:52.36	198.52	7.90	
2025-01-16 11:28:52.57	198.54	7.91	
2025-01-16 11:28:52.77	198.55	7.93	
2025-01-16 11:28:52.97	198.57	7.94	
2025-01-16 11:28:53.17	198.58	7.96	
2025-01-16 11:28:53.38	198.60	7.97	
2025-01-16 11:28:53.58	198.61	7.99	
2025-01-16 11:28:53.78	198.63	8.00	
2025-01-16 11:28:53.99	198.64	8.02	
2025-01-16 11:28:54.19	198.66	8.03	
2025-01-16 11:28:54.39	198.67	8.05	
2025-01-16 11:28:54.60	198.69	8.06	
2025-01-16 11:28:54.80	198.70	8.08	
2025-01-16 11:28:55.00	198.72	8.09	
2025-01-16 11:28:55.20	198.73	8.10	
2025-01-16 11:28:55.41	198.75	8.12	
2025-01-16 11:28:55.61	198.76	8.13	
2025-01-16 11:28:55.81	198.78	8.15	
2025-01-16 11:28:56.02	198.80	8.16	
2025-01-16 11:28:56.22	198.81	8.18	
2025-01-16 11:28:56.42	198.83	8.19	
2025-01-16 11:28:56.63	198.84	8.21	
2025-01-16 11:28:56.83	198.86	8.22	
2025-01-16 11:28:57.03	198.87	8.24	
2025-01-16 11:28:57.23	198.89	8.25	
2025-01-16 11:28:57.44	198.90	8.27	
2025-01-16 11:28:57.64	198.92	8.28	
2025-01-16 11:28:57.84	198.93	8.30	
2025-01-16 11:28:58.05	198.95	8.31	
2025-01-16 11:28:58.25	198.97	8.33	
2025-01-16 11:28:58.45	198.98	8.34	
2025-01-16 11:28:58.66	199.00	8.36	
2025-01-16 11:28:58.86	199.01	8.37	
2025-01-16 11:28:59.06	199.03	8.39	
2025-01-16 11:28:59.26	199.04	8.40	
2025-01-16 11:28:59.47	199.06	8.42	
2025-01-16 11:28:59.67	199.07	8.43	
2025-01-16 11:28:59.87	199.09	8.45	
2025-01-16 11:29:00.08	199.11	8.46	
2025-01-16 11:29:00.28	199.12	8.48	
2025-01-16 11:29:00.48	199.14	8.49	
2025-01-16 11:29:00.68	199.15	8.50	
2025-01-16 11:29:00.89	199.17	8.52	
2025-01-16 11:29:01.09	199.18	8.53	
2025-01-16 11:29:01.29	199.20	8.55	
2025-01-16 11:29:01.50	199.22	8.57	
2025-01-16 11:29:01.70	199.23	8.58	
2025-01-16 11:29:01.90	199.25	8.59	
2025-01-16 11:29:02.11	199.26	8.61	
2025-01-16 11:29:02.31	199.28	8.62	
2025-01-16 11:29:02.51	199.29	8.64	
2025-01-16 11:29:02.71	199.31	8.65	
2025-01-16 11:29:02.92	199.33	8.67	
2025-01-16 11:29:03.12	199.34	8.68	
2025-01-16 11:29:03.32	199.36	8.70	
2025-01-16 11:29:03.53	199.37	8.71	
2025-01-16 11:29:03.73	199.39	8.73	
2025-01-16 11:29:03.93	199.41	8.74	
2025-01-16 11:29:04.14	199.42	8.76	
2025-01-16 11:29:04.34	199.44	8.77	
2025-01-16 11:29:04.54	199.45	8.79	
2025-01-16 11:29:04.74	199.47	8.80	
2025-01-16 11:29:04.95	199.49	8.82	
2025-01-16 11:29:05.15	199.50	8.83	
2025-01-16 11:29:05.35	199.52	8.85	
2025-01-16 11:29:05.56	199.53	8.87	
2025-01-16 11:29:05.76	199.55	8.88	
2025-01-16 11:29:05.96	199.57	8.90	
2025-01-16 11:29:06.17	199.58	8.91	
2025-01-16 11:29:06.37	199.60	8.93	
2025-01-16 11:29:06.57	199.62	8.94	
2025-01-16 11:29:06.77	199.63	8.96	
2025-01-16 11:29:06.98	199.65	8.97	
2025-01-16 11:29:07.18	199.66	8.99	
2025-01-16 11:29:07.38	199.68	9.00	
2025-01-16 11:29:07.59	199.70	9.02	
2025-01-16 11:29:07.79	199.71	9.03	
2025-01-16 11:29:07.99	199.73	9.05	
2025-01-16 11:29:08.20	199.75	9.06	
2025-01-16 11:29:08.40	199.76	9.08	
2025-01-16 11:29:08.60	199.78	9.09	
2025-01-16 11:29:08.80	199.79	9.11	
2025-01-16 11:29:09.01	199.81	9.12	
2025-01-16 11:29:09.21	199.83	9.14	
2025-01-16 11:29:09.41	199.84	9.15	
2025-01-16 11:29:09.62	199.86	9.17	
2025-01-16 11:29:09.82	199.88	9.18	
2025-01-16 11:29:10.02	199.89	9.20	
2025-01-16 11:29:10.22	199.91	9.21	
2025-01-16 11:29:10.43	199.93	9.23	
2025-01-16 11:29:10.63	199.94	9.24	
2025-01-16 11:29:10.83	199.96	9.26	
2025-01-16 11:29:11.04	199.98	9.28	
2025-01-16 11:29:11.24	199.99	9.29	
2025-01-16 11:29:11.44	200.01	9.31	
2025-01-16 11:29:11.65	200.02	9.32	
2025-01-16 11:29:11.85	200.04	9.34	
2025-01-16 11:29:12.05	200.06	9.35	
2025-01-16 11:29:12.25	200.07	9.37	
2025-01-16 11:29:12.46	200.09	9.38	
2025-01-16 11:29:12.66	200.11	9.40	
2025-01-16 11:29:12.86	200.12	9.41	
2025-01-16 11:29:13.07	200.14	9.43	
2025-01-16 11:29:13.27	200.16	9.44	
2025-01-16 11:29:13.47	200.17	9.46	
2025-01-16 11:29:13.68	200.19	9.47	
2025-01-16 11:29:13.88	200.21	9.49	
2025-01-16 11:29:14.08	200.22	9.50	
2025-01-16 11:29:14.28	200.24	9.52	
2025-01-16 11:29:14.49	200.26	9.54	
2025-01-16 11:29:14.69	200.28	9.55	
2025-01-16 11:29:14.89	200.29	9.57	
2025-01-16 11:29:15.10	200.31	9.58	
2025-01-16 11:29:15.30	200.33	9.60	
2025-01-16 11:29:15.50	200.34	9.61	
2025-01-16 11:29:15.71	200.36	9.63	
2025-01-16 11:29:15.91	200.38	9.64	
2025-01-16 11:29:16.11	200.39	9.66	
2025-01-16 11:29:16.31	200.41	9.67	
2025-01-16 11:29:16.52	200.43	9.69	
2025-01-16 11:29:16.72	200.44	9.71	
2025-01-16 11:29:16.92	200.46	9.72	
2025-01-16 11:29:17.13	200.48	9.74	
2025-01-16 11:29:17.33	200.50	9.75	
2025-01-16 11:29:17.53	200.51	9.77	
2025-01-16 11:29:17.74	200.53	9.78	
2025-01-16 11:29:17.94	200.55	9.80	
2025-01-16 11:29:18.14	200.56	9.81	
2025-01-16 11:29:18.34	200.58	9.83	
2025-01-16 11:29:18.55	200.60	9.85	
2025-01-16 11:29:18.75	200.62	9.86	
2025-01-16 11:29:18.95	200.63	9.88	
2025-01-16 11:29:19.16	200.65	9.89	
2025-01-16 11:29:19.36	200.67	9.91	
2025-01-16 11:29:19.56	200.68	9.92	
2025-01-16 11:29:19.76	200.70	9.94	
2025-01-16 11:29:19.97	200.72	9.95	
2025-01-16 11:29:20.17	200.74	9.97	
2025-01-16 11:29:20.37	200.75	9.99	
2025-01-16 11:29:20.58	200.77	10.00	
2025-01-16 11:29:20.78	200.79	10.02	
2025-01-16 11:29:20.98	200.81	10.03	
2025-01-16 11:29:21.19	200.82	10.05	
2025-01-16 11:29:21.39	200.84	10.06	
2025-01-16 11:29:21.59	200.86	10.08	
2025-01-16 11:29:21.79	200.87	10.09	
2025-01-16 11:29:22.00	200.89	10.11	
2025-01-16 11:29:22.20	200.91	10.13	
2025-01-16 11:29:22.40	200.93	10.14	
2025-01-16 11:29:22.61	200.95	10.16	
2025-01-16 11:29:22.81	200.96	10.17	
2025-01-16 11:29:23.01	200.98	10.19	
2025-01-16 11:29:23.22	201.00	10.21	
2025-01-16 11:29:23.42	201.02	10.22	
2025-01-16 11:29:23.62	201.03	10.24	
2025-01-16 11:29:23.82	201.05	10.25	
2025-01-16 11:29:24.03	201.07	10.27	
2025-01-16 11:29:24.23	201.09	10.28	
2025-01-16 11:29:24.43	201.10	10.30	
2025-01-16 11:29:24.64	201.12	10.32	
2025-01-16 11:29:24.84	201.14	10.33	
2025-01-16 11:29:25.04	201.16	10.35	
2025-01-16 11:29:25.25	201.17	10.36	
2025-01-16 11:29:25.45	201.19	10.38	
2025-01-16 11:29:25.65	201.21	10.39	
2025-01-16 11:29:25.85	201.23	10.41	
2025-01-16 11:29:26.06	201.25	10.43	
2025-01-16 11:29:26.26	201.26	10.44	
2025-01-16 11:29:26.46	201.28	10.46	
2025-01-16 11:29:26.67	201.30	10.47	
2025-01-16 11:29:26.87	201.32	10.49	
2025-01-16 11:29:27.07	201.33	10.51	
2025-01-16 11:29:27.28	201.35	10.52	
2025-01-16 11:29:27.48	201.37	10.54	
2025-01-16 11:29:27.68	201.39	10.55	
2025-01-16 11:29:27.88	201.41	10.57	
2025-01-16 11:29:28.09	201.42	10.58	
2025-01-16 11:29:28.29	201.44	10.60	
2025-01-16 11:29:28.49	201.46	10.62	
2025-01-16 11:29:28.70	201.48	10.63	
2025-01-16 11:29:28.90	201.50	10.65	
2025-01-16 11:29:29.10	201.51	10.66	
2025-01-16 11:29:29.30	201.53	10.68	
2025-01-16 11:29:29.51	201.55	10.70	
2025-01-16 11:29:29.71	201.57	10.71	
2025-01-16 11:29:29.91	201.59	10.73	
2025-01-16 11:29:30.12	201.61	10.74	
2025-01-16 11:29:30.32	201.62	10.76	
2025-01-16 11:29:30.52	201.64	10.78	
2025-01-16 11:29:30.73	201.66	10.79	
2025-01-16 11:29:30.93	201.68	10.81	
2025-01-16 11:29:31.13	201.70	10.82	
2025-01-16 11:29:31.33	201.71	10.84	
2025-01-16 11:29:31.54	201.73	10.86	
2025-01-16 11:29:31.74	201.75	10.87	
2025-01-16 11:29:31.94	201.77	10.89	
2025-01-16 11:29:32.15	201.79	10.90	
2025-01-16 11:29:32.35	201.81	10.92	
2025-01-16 11:29:32.55	201.83	10.94	
2025-01-16 11:29:32.76	201.84	10.95	
2025-01-16 11:29:32.96	201.86	10.97	
2025-01-16 11:29:33.16	201.88	10.98	
2025-01-16 11:29:33.36	201.90	11.00	
2025-01-16 11:29:33.57	201.92	11.02	
2025-01-16 11:29:33.77	201.94	11.03	
2025-01-16 11:29:33.97	201.95	11.05	
2025-01-16 11:29:34.18	201.97	11.07	
2025-01-16 11:29:34.38	201.99	11.08	
2025-01-16 11:29:34.58	202.01	11.10	
2025-01-16 11:29:34.79	202.03	11.11	
2025-01-16 11:29:34.99	202.05	11.13	
2025-01-16 11:29:35.19	202.07	11.15	
2025-01-16 11:29:35.39	202.08	11.16	
2025-01-16 11:29:35.60	202.10	11.18	
2025-01-16 11:29:35.80	202.12	11.20	
2025-01-16 11:29:36.00	202.14	11.21	
2025-01-16 11:29:36.21	202.16	11.23	
2025-01-16 11:29:36.41	202.18	11.24	
2025-01-16 11:29:36.61	202.20	11.26	
2025-01-16 11:29:36.82	202.22	11.28	
2025-01-16 11:29:37.02	202.24	11.29	
2025-01-16 11:29:37.22	202.25	11.31	
2025-01-16 11:29:37.42	202.27	11.32	
2025-01-16 11:29:37.63	202.29	11.34	
2025-01-16 11:29:37.83	202.31	11.36	
2025-01-16 11:29:38.03	202.33	11.37	
2025-01-16 11:29:38.24	202.35	11.39	
2025-01-16 11:29:38.44	202.37	11.41	
2025-01-16 11:29:38.64	202.39	11.42	
2025-01-16 11:29:38.85	202.41	11.44	
2025-01-16 11:29:39.05	202.43	11.46	
2025-01-16 11:29:39.25	202.44	11.47	
2025-01-16 11:29:39.45	202.46	11.49	
2025-01-16 11:29:39.66	202.48	11.51	
2025-01-16 11:29:39.86	202.50	11.52	
2025-01-16 11:29:40.06	202.52	11.54	
2025-01-16 11:29:40.27	202.54	11.55	
2025-01-16 11:29:40.47	202.56	11.57	
2025-01-16 11:29:40.67	202.58	11.59	
2025-01-16 11:29:40.87	202.60	11.60	
2025-01-16 11:29:41.08	202.62	11.62	
2025-01-16 11:29:41.28	202.64	11.64	
2025-01-16 11:29:41.48	202.66	11.65	
2025-01-16 11:29:41.69	202.68	11.67	
2025-01-16 11:29:41.89	202.69	11.69	
2025-01-16 11:29:42.09	202.71	11.70	
2025-01-16 11:29:42.30	202.73	11.72	
2025-01-16 11:29:42.50	202.75	11.74	
2025-01-16 11:29:42.70	202.77	11.75	
2025-01-16 11:29:42.90	202.79	11.77	
2025-01-16 11:29:43.11	202.81	11.78	
2025-01-16 11:29:43.31	202.83	11.80	
2025-01-16 11:29:43.51	202.85	11.82	
2025-01-16 11:29:43.72	202.87	11.83	
2025-01-16 11:29:43.92	202.89	11.85	
2025-01-16 11:29:44.12	202.91	11.87	
2025-01-16 11:29:44.33	202.93	11.88	
2025-01-16 11:29:44.53	202.95	11.90	
2025-01-16 11:29:44.73	202.97	11.92	
2025-01-16 11:29:44.93	202.99	11.93	
2025-01-16 11:29:45.14	203.01	11.95	
2025-01-16 11:29:45.34	203.03	11.97	
2025-01-16 11:29:45.54	203.05	11.98	
2025-01-16 11:29:45.75	203.07	12.00	
2025-01-16 11:29:45.95	203.09	12.02	
2025-01-16 11:29:46.15	203.11	12.03	
2025-01-16 11:29:46.36	203.13	12.05	
2025-01-16 11:29:46.56	203.15	12.07	
2025-01-16 11:29:46.76	203.16	12.08	
2025-01-16 11:29:46.96	203.18	12.10	
2025-01-16 11:29:47.17	203.20	12.12	
2025-01-16 11:29:47.37	203.22	12.13	
2025-01-16 11:29:47.57	203.24	12.15	
2025-01-16 11:29:47.78	203.26	12.17	
2025-01-16 11:29:47.98	203.28	12.18	
2025-01-16 11:29:48.18	203.30	12.20	
2025-01-16 11:29:48.39	203.32	12.22	
2025-01-16 11:29:48.59	203.34	12.23	
2025-01-16 11:29:48.79	203.36	12.25	
2025-01-16 11:29:48.99	203.38	12.27	
2025-01-16 11:29:49.20	203.41	12.28	
2025-01-16 11:29:49.40	203.42	12.30	
2025-01-16 11:29:49.60	203.44	12.32	
2025-01-16 11:29:49.81	203.47	12.33	
2025-01-16 11:29:50.01	203.49	12.35	
2025-01-16 11:29:50.21	203.51	12.37	
2025-01-16 11:29:50.41	203.53	12.38	
2025-01-16 11:29:50.62	203.55	12.40	
2025-01-16 11:29:50.82	203.57	12.42	
2025-01-16 11:29:51.02	203.59	12.43	
2025-01-16 11:29:51.23	203.61	12.45	
2025-01-16 11:29:51.43	203.63	12.47	
2025-01-16 11:29:51.63	203.65	12.49	
2025-01-16 11:29:51.84	203.67	12.50	
2025-01-16 11:29:52.04	203.69	12.52	
2025-01-16 11:29:52.24	203.71	12.54	
2025-01-16 11:29:52.44	203.73	12.55	
2025-01-16 11:29:52.65	203.75	12.57	
2025-01-16 11:29:52.85	203.77	12.59	
2025-01-16 11:29:53.05	203.79	12.60	
2025-01-16 11:29:53.26	203.81	12.62	
2025-01-16 11:29:53.46	203.83	12.64	
2025-01-16 11:29:53.66	203.85	12.65	
2025-01-16 11:29:53.87	203.87	12.67	
2025-01-16 11:29:54.07	203.89	12.69	
2025-01-16 11:29:54.27	203.91	12.71	
2025-01-16 11:29:54.47	203.94	12.72	
2025-01-16 11:29:54.68	203.96	12.74	
2025-01-16 11:29:54.88	203.98	12.76	
2025-01-16 11:29:55.08	204.00	12.77	
2025-01-16 11:29:55.29	204.02	12.79	
2025-01-16 11:29:55.49	204.04	12.81	
2025-01-16 11:29:55.69	204.06	12.82	
2025-01-16 11:29:55.90	204.08	12.84	
2025-01-16 11:29:56.10	204.10	12.86	
2025-01-16 11:29:56.30	204.12	12.88	
2025-01-16 11:29:56.50	204.14	12.89	
2025-01-16 11:29:56.71	204.17	12.91	
2025-01-16 11:29:56.91	204.19	12.93	
2025-01-16 11:29:57.11	204.21	12.94	
2025-01-16 11:29:57.32	204.23	12.96	
2025-01-16 11:29:57.52	204.25	12.98	
2025-01-16 11:29:57.72	204.27	13.00	
2025-01-16 11:29:57.93	204.29	13.01	
2025-01-16 11:29:58.13	204.31	13.03	
2025-01-16 11:29:58.33	204.33	13.05	
2025-01-16 11:29:58.53	204.35	13.06	
2025-01-16 11:29:58.74	204.38	13.08	
2025-01-16 11:29:58.94	204.40	13.10	
2025-01-16 11:29:59.14	204.42	13.12	
2025-01-16 11:29:59.35	204.44	13.13	
2025-01-16 11:29:59.55	204.46	13.15	
2025-01-16 11:29:59.75	204.48	13.17	
2025-01-16 11:29:59.95	204.50	13.18	
2025-01-16 11:30:00.16	204.53	13.20	
2025-01-16 11:30:00.36	204.55	13.22	
2025-01-16 11:30:00.56	204.57	13.24	
2025-01-16 11:30:00.77	204.59	13.25	
2025-01-16 11:30:00.97	204.61	13.27	
2025-01-16 11:30:01.17	204.63	13.29	
2025-01-16 11:30:01.38	204.65	13.31	
2025-01-16 11:30:01.58	204.68	13.32	
2025-01-16 11:30:01.78	204.70	13.34	
2025-01-16 11:30:01.98	204.72	13.36	
2025-01-16 11:30:02.19	204.74	13.37	
2025-01-16 11:30:02.39	204.76	13.39	
2025-01-16 11:30:02.59	204.78	13.41	
2025-01-16 11:30:02.80	204.80	13.43	
2025-01-16 11:30:03.00	204.83	13.44	
2025-01-16 11:30:03.20	204.85	13.46	
2025-01-16 11:30:03.41	204.87	13.48	
2025-01-16 11:30:03.61	204.89	13.50	
2025-01-16 11:30:03.81	204.91	13.51	
2025-01-16 11:30:04.01	204.93	13.53	
2025-01-16 11:30:04.22	204.96	13.55	
2025-01-16 11:30:04.42	204.98	13.57	
2025-01-16 11:30:04.62	205.00	13.58	
2025-01-16 11:30:04.83	205.02	13.60	
2025-01-16 11:30:05.03	205.04	13.62	
2025-01-16 11:30:05.23	205.07	13.63	
2025-01-16 11:30:05.44	205.09	13.65	
2025-01-16 11:30:05.64	205.11	13.67	
2025-01-16 11:30:05.84	205.13	13.69	
2025-01-16 11:30:06.04	205.15	13.70	
2025-01-16 11:30:06.25	205.18	13.72	
2025-01-16 11:30:06.45	205.20	13.74	
2025-01-16 11:30:06.65	205.22	13.76	
2025-01-16 11:30:06.86	205.24	13.78	
2025-01-16 11:30:07.06	205.27	13.79	
2025-01-16 11:30:07.26	205.29	13.81	
2025-01-16 11:30:07.47	205.31	13.83	
2025-01-16 11:30:07.67	205.33	13.85	
2025-01-16 11:30:07.87	205.35	13.86	
2025-01-16 11:30:08.07	205.38	13.88	
2025-01-16 11:30:08.28	205.40	13.90	
2025-01-16 11:30:08.48	205.42	13.92	
2025-01-16 11:30:08.68	205.44	13.93	
2025-01-16 11:30:08.89	205.47	13.95	
2025-01-16 11:30:09.09	205.49	13.97	
2025-01-16 11:30:09.29	205.51	13.99	
2025-01-16 11:30:09.49	205.53	14.00	
2025-01-16 11:30:09.70	205.56	14.02	
2025-01-16 11:30:09.90	205.58	14.04	
2025-01-16 11:30:10.10	205.60	14.06	
2025-01-16 11:30:10.31	205.62	14.07	
2025-01-16 11:30:10.51	205.65	14.09	
2025-01-16 11:30:10.71	205.67	14.11	
2025-01-16 11:30:10.92	205.69	14.13	
2025-01-16 11:30:11.12	205.71	14.14	
2025-01-16 11:30:11.32	205.74	14.16	
2025-01-16 11:30:11.52	205.76	14.18	
2025-01-16 11:30:11.73	205.78	14.20	
2025-01-16 11:30:11.93	205.81	14.22	
2025-01-16 11:30:12.13	205.83	14.23	
2025-01-16 11:30:12.34	205.85	14.25	
2025-01-16 11:30:12.54	205.87	14.27	
2025-01-16 11:30:12.74	205.90	14.29	
2025-01-16 11:30:12.95	205.92	14.30	
2025-01-16 11:30:13.15	205.94	14.32	
2025-01-16 11:30:13.35	205.97	14.34	
2025-01-16 11:30:13.55	205.99	14.36	
2025-01-16 11:30:13.76	206.01	14.38	
2025-01-16 11:30:13.96	206.04	14.39	
2025-01-16 11:30:14.16	206.06	14.41	
2025-01-16 11:30:14.37	206.08	14.43	
2025-01-16 11:30:14.57	206.10	14.45	
2025-01-16 11:30:14.77	206.13	14.46	
2025-01-16 11:30:14.98	206.15	14.48	
2025-01-16 11:30:15.18	206.17	14.50	
2025-01-16 11:30:15.38	206.20	14.52	
2025-01-16 11:30:15.58	206.22	14.54	
2025-01-16 11:30:15.79	206.24	14.55	
2025-01-16 11:30:15.99	206.27	14.57	
2025-01-16 11:30:16.19	206.29	14.59	
2025-01-16 11:30:16.40	206.31	14.61	
2025-01-16 11:30:16.60	206.34	14.63	
2025-01-16 11:30:16.80	206.36	14.64	
2025-01-16 11:30:17.01	206.39	14.66	
2025-01-16 11:30:17.21	206.41	14.68	
2025-01-16 11:30:17.41	206.43	14.70	
2025-01-16 11:30:17.61	206.45	14.72	
2025-01-16 11:30:17.82	206.48	14.73	
2025-01-16 11:30:18.02	206.50	14.75	
2025-01-16 11:30:18.22	206.53	14.77	
2025-01-16 11:30:18.43	206.55	14.79	
2025-01-16 11:30:18.63	206.57	14.81	
2025-01-16 11:30:18.83	206.60	14.82	
2025-01-16 11:30:19.04	206.62	14.84	
2025-01-16 11:30:19.24	206.65	14.86	
2025-01-16 11:30:19.44	206.67	14.88	
2025-01-16 11:30:19.64	206.69	14.90	
2025-01-16 11:30:19.85	206.72	14.91	
2025-01-16 11:30:20.05	206.74	14.93	
2025-01-16 11:30:20.25	206.76	14.95	
2025-01-16 11:30:20.46	206.79	14.97	
2025-01-16 11:30:20.66	206.81	14.99	
2025-01-16 11:30:20.86	206.84	15.00	
2025-01-16 11:30:21.06	206.86	15.02	
2025-01-16 11:30:21.27	206.88	15.04	
2025-01-16 11:30:21.47	206.91	15.06	
2025-01-16 11:30:21.67	206.93	15.08	
2025-01-16 11:30:21.88	206.96	15.10	
2025-01-16 11:30:22.08	206.98	15.11	
2025-01-16 11:30:22.28	207.00	15.13	
2025-01-16 11:30:22.49	207.03	15.15	
2025-01-16 11:30:22.69	207.05	15.17	
2025-01-16 11:30:22.89	207.08	15.19	
2025-01-16 11:30:23.09	207.10	15.20	
2025-01-16 11:30:23.30	207.13	15.22	
2025-01-16 11:30:23.50	207.15	15.24	
2025-01-16 11:30:23.70	207.17	15.26	
2025-01-16 11:30:23.91	207.20	15.28	
2025-01-16 11:30:24.11	207.22	15.30	
2025-01-16 11:30:24.31	207.25	15.31	
2025-01-16 11:30:24.52	207.27	15.33	
2025-01-16 11:30:24.72	207.30	15.35	
2025-01-16 11:30:24.92	207.32	15.37	
2025-01-16 11:30:25.12	207.35	15.39	
2025-01-16 11:30:25.33	207.37	15.41	
2025-01-16 11:30:25.53	207.40	15.42	
2025-01-16 11:30:25.73	207.42	15.44	
2025-01-16 11:30:25.94	207.45	15.46	
2025-01-16 11:30:26.14	207.47	15.48	
2025-01-16 11:30:26.34	207.49	15.50	
2025-01-16 11:30:26.55	207.52	15.52	
2025-01-16 11:30:26.75	207.55	15.53	
2025-01-16 11:30:26.95	207.57	15.55	
2025-01-16 11:30:27.15	207.59	15.57	
2025-01-16 11:30:27.36	207.62	15.59	
2025-01-16 11:30:27.56	207.64	15.61	
2025-01-16 11:30:27.76	207.67	15.63	
2025-01-16 11:30:27.97	207.69	15.64	
2025-01-16 11:30:28.17	207.72	15.66	
2025-01-16 11:30:28.37	207.74	15.68	
2025-01-16 11:30:28.58	207.77	15.70	
2025-01-16 11:30:28.78	207.80	15.72	
2025-01-16 11:30:28.98	207.82	15.74	
2025-01-16 11:30:29.18	207.84	15.75	
2025-01-16 11:30:29.39	207.87	15.77	
2025-01-16 11:30:29.59	207.90	15.79	
2025-01-16 11:30:29.79	207.92	15.81	
2025-01-16 11:30:30.00	207.95	15.83	
2025-01-16 11:30:30.20	207.97	15.85	
2025-01-16 11:30:30.40	208.00	15.87	
2025-01-16 11:30:30.60	208.02	15.88	
2025-01-16 11:30:30.81	208.05	15.90	
2025-01-16 11:30:31.01	208.07	15.92	
2025-01-16 11:30:31.21	208.10	15.94	
2025-01-16 11:30:31.42	208.12	15.96	
2025-01-16 11:30:31.62	208.15	15.98	
2025-01-16 11:30:31.82	208.18	16.00	
2025-01-16 11:30:32.03	208.20	16.02	
2025-01-16 11:30:32.23	208.23	16.03	
2025-01-16 11:30:32.43	208.25	16.05	
2025-01-16 11:30:32.63	208.28	16.07	
2025-01-16 11:30:32.84	208.30	16.09	
2025-01-16 11:30:33.04	208.33	16.11	
2025-01-16 11:30:33.24	208.36	16.13	
2025-01-16 11:30:33.45	208.38	16.15	
2025-01-16 11:30:33.65	208.41	16.16	
2025-01-16 11:30:33.85	208.43	16.18	
2025-01-16 11:30:34.06	208.46	16.20	
2025-01-16 11:30:34.26	208.49	16.22	
2025-01-16 11:30:34.46	208.51	16.24	
2025-01-16 11:30:34.66	208.54	16.26	
2025-01-16 11:30:34.87	208.56	16.28	
2025-01-16 11:30:35.07	208.59	16.30	
2025-01-16 11:30:35.27	208.62	16.31	
2025-01-16 11:30:35.48	208.64	16.33	
2025-01-16 11:30:35.68	208.67	16.35	
2025-01-16 11:30:35.88	208.69	16.37	
2025-01-16 11:30:36.09	208.72	16.39	
2025-01-16 11:30:36.29	208.75	16.41	
2025-01-16 11:30:36.49	208.77	16.43	
2025-01-16 11:30:36.69	208.80	16.44	
2025-01-16 11:30:36.90	208.83	16.46	
2025-01-16 11:30:37.10	208.85	16.48	
2025-01-16 11:30:37.30	208.88	16.50	
2025-01-16 11:30:37.51	208.91	16.52	
2025-01-16 11:30:37.71	208.93	16.54	
2025-01-16 11:30:37.91	208.96	16.56	
2025-01-16 11:30:38.12	208.99	16.58	
2025-01-16 11:30:38.32	209.01	16.60	
2025-01-16 11:30:38.52	209.04	16.62	
2025-01-16 11:30:38.72	209.06	16.63	
2025-01-16 11:30:38.93	209.09	16.65	
2025-01-16 11:30:39.13	209.12	16.67	
2025-01-16 11:30:39.33	209.14	16.69	
2025-01-16 11:30:39.54	209.17	16.71	
2025-01-16 11:30:39.74	209.20	16.73	
2025-01-16 11:30:39.94	209.23	16.75	
2025-01-16 11:30:40.14	209.25	16.77	
2025-01-16 11:30:40.35	209.28	16.79	
2025-01-16 11:30:40.55	209.31	16.80	
2025-01-16 11:30:40.75	209.33	16.82	
2025-01-16 11:30:40.96	209.36	16.84	
2025-01-16 11:30:41.16	209.39	16.86	
2025-01-16 11:30:41.36	209.41	16.88	
2025-01-16 11:30:41.57	209.44	16.90	
2025-01-16 11:30:41.77	209.47	16.92	
2025-01-16 11:30:41.97	209.50	16.94	
2025-01-16 11:30:42.17	209.52	16.96	
2025-01-16 11:30:42.38	209.55	16.98	
2025-01-16 11:30:42.58	209.58	16.99	
2025-01-16 11:30:42.78	209.60	17.01	
2025-01-16 11:30:42.99	209.63	17.03	
2025-01-16 11:30:43.19	209.66	17.05	
2025-01-16 11:30:43.39	209.69	17.07	
2025-01-16 11:30:43.60	209.72	17.09	
2025-01-16 11:30:43.80	209.74	17.11	
2025-01-16 11:30:44.00	209.77	17.13	
2025-01-16 11:30:44.20	209.80	17.15	
2025-01-16 11:30:44.41	209.83	17.17	
2025-01-16 11:30:44.61	209.85	17.19	
2025-01-16 11:30:44.81	209.88	17.21	
2025-01-16 11:30:45.02	209.91	17.22	
2025-01-16 11:30:45.22	209.94	17.24	
2025-01-16 11:30:45.42	209.96	17.26	
2025-01-16 11:30:45.63	209.99	17.28	
2025-01-16 11:30:45.83	210.02	17.30	
2025-01-16 11:30:46.03	210.05	17.32	
2025-01-16 11:30:46.23	210.07	17.34	
2025-01-16 11:30:46.44	210.10	17.36	
2025-01-16 11:30:46.64	210.13	17.38	
2025-01-16 11:30:46.84	210.16	17.40	
2025-01-16 11:30:47.05	210.19	17.42	
2025-01-16 11:30:47.25	210.21	17.44	
2025-01-16 11:30:47.45	210.24	17.46	
2025-01-16 11:30:47.66	210.27	17.48	
2025-01-16 11:30:47.86	210.30	17.49	
2025-01-16 11:30:48.06	210.33	17.51	
2025-01-16 11:30:48.26	210.36	17.53	
2025-01-16 11:30:48.47	210.38	17.55	
2025-01-16 11:30:48.67	210.41	17.57	
2025-01-16 11:30:48.87	210.44	17.59	
2025-01-16 11:30:49.08	210.47	17.61	
2025-01-16 11:30:49.28	210.50	17.63	
2025-01-16 11:30:49.48	210.53	17.65	
2025-01-16 11:30:49.68	210.55	17.67	
2025-01-16 11:30:49.89	210.58	17.69	
2025-01-16 11:30:50.09	210.61	17.71	
2025-01-16 11:30:50.29	210.64	17.73	
2025-01-16 11:30:50.50	210.67	17.75	
2025-01-16 11:30:50.70	210.70	17.77	
2025-01-16 11:30:50.90	210.73	17.78	
2025-01-16 11:30:51.11	210.76	17.80	
2025-01-16 11:30:51.31	210.78	17.82	
2025-01-16 11:30:51.51	210.81	17.84	
2025-01-16 11:30:51.71	210.84	17.86	
2025-01-16 11:30:51.92	210.87	17.88	
2025-01-16 11:30:52.12	210.90	17.90	
2025-01-16 11:30:52.32	210.93	17.92	
2025-01-16 11:30:52.53	210.96	17.94	
2025-01-16 11:30:52.73	210.99	17.96	
2025-01-16 11:30:52.93	211.01	17.98	
2025-01-16 11:30:53.14	211.04	18.00	
2025-01-16 11:30:53.34	211.07	18.02	
2025-01-16 11:30:53.54	211.10	18.04	
2025-01-16 11:30:53.74	211.13	18.06	
2025-01-16 11:30:53.95	211.16	18.08	
2025-01-16 11:30:54.15	211.19	18.10	
2025-01-16 11:30:54.35	211.22	18.12	
2025-01-16 11:30:54.56	211.25	18.14	
2025-01-16 11:30:54.76	211.28	18.16	
2025-01-16 11:30:54.96	211.31	18.17	
2025-01-16 11:30:55.17	211.34	18.19	
2025-01-16 11:30:55.37	211.37	18.21	
2025-01-16 11:30:55.57	211.40	18.23	
2025-01-16 11:30:55.77	211.43	18.25	
2025-01-16 11:30:55.98	211.46	18.27	
2025-01-16 11:30:56.18	211.49	18.29	
2025-01-16 11:30:56.38	211.51	18.31	
2025-01-16 11:30:56.59	211.55	18.33	
2025-01-16 11:30:56.79	211.57	18.35	
2025-01-16 11:30:56.99	211.60	18.37	
2025-01-16 11:30:57.20	211.63	18.39	
2025-01-16 11:30:57.40	211.66	18.41	
2025-01-16 11:30:57.60	211.69	18.43	
2025-01-16 11:30:57.80	211.72	18.45	
2025-01-16 11:30:58.01	211.75	18.47	
2025-01-16 11:30:58.21	211.78	18.49	
2025-01-16 11:30:58.41	211.81	18.51	
2025-01-16 11:30:58.62	211.84	18.53	
2025-01-16 11:30:58.82	211.87	18.55	
2025-01-16 11:30:59.02	211.90	18.57	
2025-01-16 11:30:59.23	211.94	18.59	
2025-01-16 11:30:59.43	211.97	18.61	
2025-01-16 11:30:59.63	212.00	18.63	
2025-01-16 11:30:59.83	212.03	18.65	
2025-01-16 11:31:00.04	212.06	18.67	
2025-01-16 11:31:00.24	212.09	18.69	
2025-01-16 11:31:00.44	212.12	18.71	
2025-01-16 11:31:00.65	212.15	18.73	
2025-01-16 11:31:00.85	212.18	18.75	
2025-01-16 11:31:01.05	212.21	18.77	
2025-01-16 11:31:01.25	212.24	18.79	
2025-01-16 11:31:01.46	212.27	18.81	
2025-01-16 11:31:01.66	212.30	18.83	
2025-01-16 11:31:01.86	212.33	18.85	
2025-01-16 11:31:02.07	212.36	18.87	
2025-01-16 11:31:02.27	212.39	18.89	
2025-01-16 11:31:02.47	212.42	18.91	
2025-01-16 11:31:02.68	212.46	18.93	
2025-01-16 11:31:02.88	212.49	18.95	
2025-01-16 11:31:03.08	212.52	18.97	
2025-01-16 11:31:03.28	212.55	18.99	
2025-01-16 11:31:03.49	212.58	19.01	
2025-01-16 11:31:03.69	212.61	19.03	
2025-01-16 11:31:03.89	212.64	19.05	
2025-01-16 11:31:04.10	212.67	19.07	
2025-01-16 11:31:04.30	212.70	19.09	
2025-01-16 11:31:04.50	212.73	19.11	
2025-01-16 11:31:04.71	212.77	19.13	
2025-01-16 11:31:04.91	212.80	19.15	
2025-01-16 11:31:05.11	212.83	19.17	
2025-01-16 11:31:05.31	212.86	19.18	
2025-01-16 11:31:05.52	212.89	19.21	
2025-01-16 11:31:05.72	212.92	19.23	
2025-01-16 11:31:05.92	212.95	19.25	
2025-01-16 11:31:06.13	212.99	19.27	
2025-01-16 11:31:06.33	213.02	19.29	
2025-01-16 11:31:06.53	213.05	19.31	
2025-01-16 11:31:06.74	213.08	19.33	
2025-01-16 11:31:06.94	213.11	19.35	
2025-01-16 11:31:07.14	213.14	19.37	
2025-01-16 11:31:07.34	213.18	19.39	
2025-01-16 11:31:07.55	213.21	19.41	
2025-01-16 11:31:07.75	213.24	19.43	
2025-01-16 11:31:07.95	213.27	19.45	
2025-01-16 11:31:08.16	213.30	19.47	
2025-01-16 11:31:08.36	213.34	19.49	
2025-01-16 11:31:08.56	213.37	19.51	
2025-01-16 11:31:08.77	213.40	19.53	
2025-01-16 11:31:08.97	213.43	19.55	
2025-01-16 11:31:09.17	213.46	19.57	
2025-01-16 11:31:09.37	213.50	19.59	
2025-01-16 11:31:09.58	213.53	19.61	
2025-01-16 11:31:09.78	213.56	19.63	
2025-01-16 11:31:09.98	213.59	19.65	
2025-01-16 11:31:10.19	213.63	19.67	
2025-01-16 11:31:10.39	213.66	19.69	
2025-01-16 11:31:10.59	213.69	19.71	
2025-01-16 11:31:10.79	213.72	19.73	
2025-01-16 11:31:11.00	213.76	19.75	
2025-01-16 11:31:11.20	213.79	19.77	
2025-01-16 11:31:11.40	213.82	19.79	
2025-01-16 11:31:11.61	213.85	19.81	
2025-01-16 11:31:11.81	213.89	19.83	
2025-01-16 11:31:12.01	213.92	19.85	
2025-01-16 11:31:12.22	213.95	19.87	
2025-01-16 11:31:12.42	213.98	19.89	
2025-01-16 11:31:12.62	214.02	19.91	
2025-01-16 11:31:12.82	214.05	19.93	
2025-01-16 11:31:13.03	214.08	19.95	
2025-01-16 11:31:13.23	214.12	19.97	
2025-01-16 11:31:13.43	214.15	19.99	
2025-01-16 11:31:13.64	214.18	20.01	
2025-01-16 11:31:13.84	214.22	20.03	
2025-01-16 11:31:14.04	214.25	20.05	
2025-01-16 11:31:14.25	214.28	20.07	
2025-01-16 11:31:14.45	214.31	20.09	
2025-01-16 11:31:14.65	214.35	20.11	
2025-01-16 11:31:14.85	214.38	20.13	
2025-01-16 11:31:15.06	214.42	20.16	
2025-01-16 11:31:15.26	214.45	20.18	
2025-01-16 11:31:15.46	214.48	20.20	
2025-01-16 11:31:15.67	214.52	20.22	
2025-01-16 11:31:15.87	214.55	20.24	
2025-01-16 11:31:16.07	214.58	20.26	
2025-01-16 11:31:16.28	214.62	20.28	
2025-01-16 11:31:16.48	214.65	20.30	
2025-01-16 11:31:16.68	214.68	20.32	
2025-01-16 11:31:16.88	214.72	20.34	
2025-01-16 11:31:17.09	214.75	20.36	
2025-01-16 11:31:17.29	214.78	20.38	
2025-01-16 11:31:17.49	214.82	20.40	
2025-01-16 11:31:17.70	214.85	20.42	
2025-01-16 11:31:17.90	214.89	20.44	
2025-01-16 11:31:18.10	214.92	20.46	
2025-01-16 11:31:18.31	214.96	20.48	
2025-01-16 11:31:18.51	214.99	20.50	
2025-01-16 11:31:18.71	215.02	20.52	
2025-01-16 11:31:18.91	215.06	20.54	
2025-01-16 11:31:19.12	215.09	20.56	
2025-01-16 11:31:19.32	215.13	20.58	
2025-01-16 11:31:19.52	215.16	20.60	
2025-01-16 11:31:19.73	215.20	20.63	
2025-01-16 11:31:19.93	215.23	20.65	
2025-01-16 11:31:20.13	215.26	20.67	
2025-01-16 11:31:20.33	215.30	20.69	
2025-01-16 11:31:20.54	215.33	20.71	
2025-01-16 11:31:20.74	215.37	20.73	
2025-01-16 11:31:20.94	215.40	20.75	
2025-01-16 11:31:21.15	215.44	20.77	
2025-01-16 11:31:21.35	215.47	20.79	
2025-01-16 11:31:21.55	215.51	20.81	
2025-01-16 11:31:21.76	215.54	20.83	
2025-01-16 11:31:21.96	215.58	20.85	
2025-01-16 11:31:22.16	215.61	20.87	
2025-01-16 11:31:22.36	215.65	20.89	
2025-01-16 11:31:22.57	215.68	20.91	
2025-01-16 11:31:22.77	215.72	20.93	
2025-01-16 11:31:22.97	215.75	20.95	
2025-01-16 11:31:23.18	215.79	20.98	
2025-01-16 11:31:23.38	215.82	21.00	
2025-01-16 11:31:23.58	215.86	21.02	
2025-01-16 11:31:23.79	215.89	21.04	
2025-01-16 11:31:23.99	215.93	21.06	
2025-01-16 11:31:24.19	215.96	21.08	
2025-01-16 11:31:24.39	216.00	21.10	
2025-01-16 11:31:24.60	216.03	21.12	
2025-01-16 11:31:24.80	216.07	21.14	
2025-01-16 11:31:25.00	216.10	21.16	
2025-01-16 11:31:25.21	216.14	21.18	
2025-01-16 11:31:25.41	216.18	21.20	
2025-01-16 11:31:25.61	216.21	21.22	
2025-01-16 11:31:25.82	216.25	21.24	
2025-01-16 11:31:26.02	216.28	21.27	
2025-01-16 11:31:26.22	216.32	21.29	
2025-01-16 11:31:26.42	216.35	21.31	
2025-01-16 11:31:26.63	216.39	21.33	
2025-01-16 11:31:26.83	216.43	21.35	
2025-01-16 11:31:27.03	216.46	21.37	
2025-01-16 11:31:27.24	216.50	21.39	
2025-01-16 11:31:27.44	216.54	21.41	
2025-01-16 11:31:27.64	216.57	21.43	
2025-01-16 11:31:27.85	216.61	21.45	
2025-01-16 11:31:28.05	216.64	21.47	
2025-01-16 11:31:28.25	216.68	21.49	
2025-01-16 11:31:28.45	216.72	21.51	
2025-01-16 11:31:28.66	216.75	21.54	
2025-01-16 11:31:28.86	216.79	21.56	
2025-01-16 11:31:29.06	216.83	21.58	
2025-01-16 11:31:29.27	216.86	21.60	
2025-01-16 11:31:29.47	216.90	21.62	
2025-01-16 11:31:29.67	216.94	21.64	
2025-01-16 11:31:29.87	216.97	21.66	
2025-01-16 11:31:30.08	217.01	21.68	
2025-01-16 11:31:30.28	217.05	21.70	
2025-01-16 11:31:30.48	217.08	21.72	
2025-01-16 11:31:30.69	217.12	21.74	
2025-01-16 11:31:30.89	217.16	21.76	
2025-01-16 11:31:31.09	217.19	21.78	
2025-01-16 11:31:31.30	217.23	21.81	
2025-01-16 11:31:31.50	217.27	21.83	
2025-01-16 11:31:31.70	217.31	21.85	
2025-01-16 11:31:31.90	217.34	21.87	
2025-01-16 11:31:32.11	217.38	21.89	
2025-01-16 11:31:32.31	217.42	21.91	
2025-01-16 11:31:32.51	217.45	21.93	
2025-01-16 11:31:32.72	217.49	21.95	
2025-01-16 11:31:32.92	217.53	21.97	
2025-01-16 11:31:33.12	217.57	21.99	
2025-01-16 11:31:33.33	217.61	22.02	
2025-01-16 11:31:33.53	217.64	22.04	
2025-01-16 11:31:33.73	217.68	22.06	
2025-01-16 11:31:33.93	217.72	22.08	
2025-01-16 11:31:34.14	217.76	22.10	
2025-01-16 11:31:34.34	217.79	22.12	
2025-01-16 11:31:34.54	217.83	22.14	
2025-01-16 11:31:34.75	217.87	22.16	
2025-01-16 11:31:34.95	217.91	22.18	
2025-01-16 11:31:35.15	217.94	22.20	
2025-01-16 11:31:35.36	217.98	22.23	
2025-01-16 11:31:35.56	218.02	22.25	
2025-01-16 11:31:35.76	218.06	22.27	
2025-01-16 11:31:35.96	218.10	22.29	
2025-01-16 11:31:36.17	218.14	22.31	
2025-01-16 11:31:36.37	218.17	22.33	
2025-01-16 11:31:36.57	218.21	22.35	
2025-01-16 11:31:36.78	218.25	22.37	
2025-01-16 11:31:36.98	218.29	22.39	
2025-01-16 11:31:37.18	218.33	22.41	
2025-01-16 11:31:37.39	218.37	22.44	
2025-01-16 11:31:37.59	218.40	22.46	
2025-01-16 11:31:37.79	218.44	22.48	
2025-01-16 11:31:37.99	218.48	22.50	
2025-01-16 11:31:38.20	218.52	22.52	
2025-01-16 11:31:38.40	218.56	22.54	
2025-01-16 11:31:38.60	218.60	22.56	
2025-01-16 11:31:38.81	218.64	22.58	
2025-01-16 11:31:39.01	218.68	22.60	
2025-01-16 11:31:39.21	218.71	22.62	
2025-01-16 11:31:39.42	218.75	22.65	
2025-01-16 11:31:39.62	218.79	22.67	
2025-01-16 11:31:39.82	218.83	22.69	
2025-01-16 11:31:40.02	218.87	22.71	
2025-01-16 11:31:40.23	218.91	22.73	
2025-01-16 11:31:40.43	218.95	22.75	
2025-01-16 11:31:40.63	218.99	22.77	
2025-01-16 11:31:40.84	219.03	22.79	
2025-01-16 11:31:41.04	219.07	22.81	
2025-01-16 11:31:41.24	219.11	22.83	
2025-01-16 11:31:41.44	219.15	22.86	
2025-01-16 11:31:41.65	219.19	22.88	
2025-01-16 11:31:41.85	219.23	22.90	
2025-01-16 11:31:42.05	219.27	22.92	
2025-01-16 11:31:42.26	219.31	22.94	
2025-01-16 11:31:42.46	219.35	22.96	
2025-01-16 11:31:42.66	219.38	22.98	
2025-01-16 11:31:42.87	219.43	23.00	
2025-01-16 11:31:43.07	219.47	23.02	
2025-01-16 11:31:43.27	219.51	23.05	
2025-01-16 11:31:43.47	219.54	23.07	
2025-01-16 11:31:43.68	219.59	23.09	
2025-01-16 11:31:43.88	219.63	23.11	
2025-01-16 11:31:44.08	219.67	23.13	
2025-01-16 11:31:44.29	219.71	23.15	
2025-01-16 11:31:44.49	219.75	23.17	
2025-01-16 11:31:44.69	219.79	23.19	
2025-01-16 11:31:44.90	219.83	23.22	
2025-01-16 11:31:45.10	219.87	23.24	
2025-01-16 11:31:45.30	219.91	23.26	
2025-01-16 11:31:45.50	219.95	23.28	
2025-01-16 11:31:45.71	219.99	23.30	
2025-01-16 11:31:45.91	220.03	23.32	
2025-01-16 11:31:46.11	220.07	23.34	
2025-01-16 11:31:46.32	220.11	23.36	
2025-01-16 11:31:46.52	220.15	23.38	
2025-01-16 11:31:46.72	220.19	23.40	
2025-01-16 11:31:46.93	220.24	23.43	
2025-01-16 11:31:47.13	220.28	23.45	
2025-01-16 11:31:47.33	220.32	23.47	
2025-01-16 11:31:47.53	220.36	23.49	
2025-01-16 11:31:47.74	220.40	23.51	
2025-01-16 11:31:47.94	220.44	23.53	
2025-01-16 11:31:48.14	220.48	23.55	
2025-01-16 11:31:48.35	220.52	23.58	
2025-01-16 11:31:48.55	220.57	23.60	
2025-01-16 11:31:48.75	220.61	23.62	
2025-01-16 11:31:48.95	220.65	23.64	
2025-01-16 11:31:49.16	220.69	23.66	
2025-01-16 11:31:49.36	220.73	23.68	
2025-01-16 11:31:49.56	220.77	23.70	
2025-01-16 11:31:49.77	220.82	23.72	
2025-01-16 11:31:49.97	220.86	23.74	
2025-01-16 11:31:50.17	220.90	23.77	
2025-01-16 11:31:50.38	220.94	23.79	
2025-01-16 11:31:50.58	220.98	23.81	
2025-01-16 11:31:50.78	221.02	23.83	
2025-01-16 11:31:50.98	221.07	23.85	
2025-01-16 11:31:51.19	221.11	23.87	
2025-01-16 11:31:51.39	221.15	23.89	
2025-01-16 11:31:51.59	221.19	23.91	
2025-01-16 11:31:51.80	221.24	23.94	
2025-01-16 11:31:52.00	221.28	23.96	
2025-01-16 11:31:52.20	221.32	23.98	
2025-01-16 11:31:52.41	221.36	24.00	
2025-01-16 11:31:52.61	221.41	24.02	
2025-01-16 11:31:52.81	221.45	24.04	
2025-01-16 11:31:53.01	221.49	24.06	
2025-01-16 11:31:53.22	221.53	24.08	
2025-01-16 11:31:53.42	221.58	24.10	
2025-01-16 11:31:53.62	221.62	24.13	
2025-01-16 11:31:53.83	221.66	24.15	
2025-01-16 11:31:54.03	221.70	24.17	
2025-01-16 11:31:54.23	221.75	24.19	
2025-01-16 11:31:54.44	221.79	24.21	
2025-01-16 11:31:54.64	221.83	24.23	
2025-01-16 11:31:54.84	221.88	24.25	
2025-01-16 11:31:55.04	221.92	24.27	
2025-01-16 11:31:55.25	221.96	24.30	
2025-01-16 11:31:55.45	222.01	24.32	
2025-01-16 11:31:55.65	222.05	24.34	
2025-01-16 11:31:55.86	222.09	24.36	
2025-01-16 11:31:56.06	222.14	24.38	
2025-01-16 11:31:56.26	222.18	24.40	
2025-01-16 11:31:56.47	222.23	24.42	
2025-01-16 11:31:56.67	222.27	24.44	
2025-01-16 11:31:56.87	222.31	24.47	
2025-01-16 11:31:57.07	222.35	24.49	
2025-01-16 11:31:57.28	222.40	24.51	
2025-01-16 11:31:57.48	222.44	24.53	
2025-01-16 11:31:57.68	222.49	24.55	
2025-01-16 11:31:57.89	222.53	24.57	
2025-01-16 11:31:58.09	222.58	24.59	
2025-01-16 11:31:58.29	222.62	24.61	
2025-01-16 11:31:58.50	222.67	24.64	
2025-01-16 11:31:58.70	222.71	24.66	
2025-01-16 11:31:58.90	222.75	24.68	
2025-01-16 11:31:59.10	222.80	24.70	
2025-01-16 11:31:59.31	222.84	24.72	
2025-01-16 11:31:59.51	222.89	24.74	
2025-01-16 11:31:59.71	222.93	24.76	
2025-01-16 11:31:59.92	222.98	24.78	
2025-01-16 11:32:00.12	223.02	24.81	
2025-01-16 11:32:00.32	223.06	24.83	
2025-01-16 11:32:00.52	223.11	24.85	
2025-01-16 11:32:00.73	223.15	24.87	
2025-01-16 11:32:00.93	223.20	24.89	
2025-01-16 11:32:01.13	223.24	24.91	
2025-01-16 11:32:01.34	223.29	24.93	
2025-01-16 11:32:01.54	223.33	24.95	
2025-01-16 11:32:01.74	223.38	24.98	
2025-01-16 11:32:01.95	223.43	25.00	
2025-01-16 11:32:02.15	223.47	25.02	
2025-01-16 11:32:02.35	223.51	25.04	
2025-01-16 11:32:02.55	223.56	25.06	
2025-01-16 11:32:02.76	223.61	25.08	
2025-01-16 11:32:02.96	223.65	25.10	
2025-01-16 11:32:03.16	223.70	25.12	
2025-01-16 11:32:03.37	223.74	25.15	
2025-01-16 11:32:03.57	223.79	25.17	
2025-01-16 11:32:03.77	223.83	25.19	
2025-01-16 11:32:03.98	223.88	25.21	
2025-01-16 11:32:04.18	223.93	25.23	
2025-01-16 11:32:04.38	223.97	25.25	
2025-01-16 11:32:04.58	224.02	25.27	
2025-01-16 11:32:04.79	224.06	25.29	
2025-01-16 11:32:04.99	224.11	25.31	
2025-01-16 11:32:05.19	224.15	25.34	
2025-01-16 11:32:05.40	224.20	25.36	
2025-01-16 11:32:05.60	224.25	25.38	
2025-01-16 11:32:05.80	224.29	25.40	
2025-01-16 11:32:06.01	224.34	25.42	
2025-01-16 11:32:06.21	224.39	25.44	
2025-01-16 11:32:06.41	224.43	25.46	
2025-01-16 11:32:06.61	224.48	25.48	
2025-01-16 11:32:06.82	224.53	25.51	
2025-01-16 11:32:07.02	224.57	25.53	
2025-01-16 11:32:07.22	224.62	25.55	
2025-01-16 11:32:07.43	224.67	25.57	
2025-01-16 11:32:07.63	224.71	25.59	
2025-01-16 11:32:07.83	224.76	25.61	
2025-01-16 11:32:08.04	224.81	25.63	
2025-01-16 11:32:08.24	224.86	25.65	
2025-01-16 11:32:08.44	224.90	25.67	
2025-01-16 11:32:08.64	224.95	25.70	
2025-01-16 11:32:08.85	225.00	25.72	
2025-01-16 11:32:09.05	225.04	25.74	
2025-01-16 11:32:09.25	225.09	25.76	
2025-01-16 11:32:09.46	225.14	25.78	
2025-01-16 11:32:09.66	225.19	25.80	
2025-01-16 11:32:09.86	225.23	25.82	
2025-01-16 11:32:10.06	225.28	25.84	
2025-01-16 11:32:10.27	225.33	25.87	
2025-01-16 11:32:10.47	225.38	25.89	
2025-01-16 11:32:10.67	225.42	25.91	
2025-01-16 11:32:10.88	225.47	25.93	
2025-01-16 11:32:11.08	225.52	25.95	
2025-01-16 11:32:11.28	225.57	25.97	
2025-01-16 11:32:11.49	225.62	25.99	
2025-01-16 11:32:11.69	225.67	26.01	
2025-01-16 11:32:11.89	225.71	26.03	
2025-01-16 11:32:12.09	225.76	26.05	
2025-01-16 11:32:12.30	225.81	26.08	
2025-01-16 11:32:12.50	225.86	26.10	
2025-01-16 11:32:12.70	225.91	26.12	
2025-01-16 11:32:12.91	225.96	26.14	
2025-01-16 11:32:13.11	226.00	26.16	
2025-01-16 11:32:13.31	226.05	26.18	
2025-01-16 11:32:13.52	226.10	26.20	
2025-01-16 11:32:13.72	226.15	26.22	
2025-01-16 11:32:13.92	226.20	26.24	
2025-01-16 11:32:14.12	226.25	26.26	
2025-01-16 11:32:14.33	226.30	26.29	
2025-01-16 11:32:14.53	226.35	26.31	
2025-01-16 11:32:14.73	226.39	26.33	
2025-01-16 11:32:14.94	226.44	26.35	
2025-01-16 11:32:15.14	226.49	26.37	
2025-01-16 11:32:15.34	226.54	26.39	
2025-01-16 11:32:15.55	226.59	26.41	
2025-01-16 11:32:15.75	226.64	26.43	
2025-01-16 11:32:15.95	226.69	26.45	
2025-01-16 11:32:16.15	226.74	26.47	
2025-01-16 11:32:16.36	226.79	26.50	
2025-01-16 11:32:16.56	226.84	26.52	
2025-01-16 11:32:16.76	226.89	26.54	
2025-01-16 11:32:16.97	226.94	26.56	
2025-01-16 11:32:17.17	226.99	26.58	
2025-01-16 11:32:17.37	227.04	26.60	
2025-01-16 11:32:17.58	227.09	26.62	
2025-01-16 11:32:17.78	227.14	26.64	
2025-01-16 11:32:17.98	227.19	26.66	
2025-01-16 11:32:18.18	227.24	26.68	
2025-01-16 11:32:18.39	227.29	26.71	
2025-01-16 11:32:18.59	227.34	26.73	
2025-01-16 11:32:18.79	227.39	26.75	
2025-01-16 11:32:19.00	227.44	26.77	
2025-01-16 11:32:19.20	227.49	26.79	
2025-01-16 11:32:19.40	227.54	26.81	
2025-01-16 11:32:19.61	227.59	26.83	
2025-01-16 11:32:19.81	227.64	26.85	
2025-01-16 11:32:20.01	227.69	26.87	
2025-01-16 11:32:20.21	227.74	26.89	
2025-01-16 11:32:20.42	227.79	26.91	
2025-01-16 11:32:20.62	227.85	26.93	
2025-01-16 11:32:20.82	227.90	26.96	
2025-01-16 11:32:21.03	227.95	26.98	
2025-01-16 11:32:21.23	228.00	27.00	
2025-01-16 11:32:21.43	228.05	27.02	
2025-01-16 11:32:21.63	228.10	27.04	
2025-01-16 11:32:21.84	228.15	27.06	
2025-01-16 11:32:22.04	228.20	27.08	
2025-01-16 11:32:22.24	228.25	27.10	
2025-01-16 11:32:22.45	228.31	27.12	
2025-01-16 11:32:22.65	228.36	27.14	
2025-01-16 11:32:22.85	228.41	27.16	
2025-01-16 11:32:23.06	228.46	27.18	
2025-01-16 11:32:23.26	228.51	27.20	
2025-01-16 11:32:23.46	228.56	27.23	
2025-01-16 11:32:23.66	228.62	27.25	
2025-01-16 11:32:23.87	228.67	27.27	
2025-01-16 11:32:24.07	228.72	27.29	
2025-01-16 11:32:24.27	228.77	27.31	
2025-01-16 11:32:24.48	228.83	27.33	
2025-01-16 11:32:24.68	228.88	27.35	
2025-01-16 11:32:24.88	228.93	27.37	
2025-01-16 11:32:25.09	228.98	27.39	
2025-01-16 11:32:25.29	229.03	27.41	
2025-01-16 11:32:25.49	229.09	27.43	
2025-01-16 11:32:25.69	229.14	27.45	
2025-01-16 11:32:25.90	229.19	27.47	
2025-01-16 11:32:26.10	229.24	27.49	
2025-01-16 11:32:26.30	229.30	27.51	
2025-01-16 11:32:26.51	229.35	27.54	
2025-01-16 11:32:26.71	229.40	27.56	
2025-01-16 11:32:26.91	229.46	27.58	
2025-01-16 11:32:27.12	229.51	27.60	
2025-01-16 11:32:27.32	229.56	27.62	
2025-01-16 11:32:27.52	229.62	27.64	
2025-01-16 11:32:27.72	229.67	27.66	
2025-01-16 11:32:27.93	229.72	27.68	
2025-01-16 11:32:28.13	229.78	27.70	
2025-01-16 11:32:28.33	229.83	27.72	
2025-01-16 11:32:28.54	229.88	27.74	
2025-01-16 11:32:28.74	229.94	27.76	
2025-01-16 11:32:28.94	229.99	27.78	
2025-01-16 11:32:29.15	230.04	27.80	
2025-01-16 11:32:29.35	230.10	27.82	
2025-01-16 11:32:29.55	230.15	27.84	
2025-01-16 11:32:29.75	230.20	27.86	
2025-01-16 11:32:29.96	230.26	27.88	
2025-01-16 11:32:30.16	230.31	27.90	
2025-01-16 11:32:30.36	230.37	27.92	
2025-01-16 11:32:30.57	230.42	27.94	
2025-01-16 11:32:30.77	230.48	27.96	
2025-01-16 11:32:30.97	230.53	27.98	
2025-01-16 11:32:31.17	230.58	28.00	
2025-01-16 11:32:31.38	230.64	28.02	
2025-01-16 11:32:31.58	230.69	28.04	
2025-01-16 11:32:31.78	230.75	28.06	
2025-01-16 11:32:31.99	230.80	28.09	
2025-01-16 11:32:32.19	230.86	28.11	
2025-01-16 11:32:32.39	230.91	28.13	
2025-01-16 11:32:32.60	230.97	28.15	
2025-01-16 11:32:32.80	231.02	28.17	
2025-01-16 11:32:33.00	231.08	28.19	
2025-01-16 11:32:33.20	231.13	28.21	
2025-01-16 11:32:33.41	231.19	28.23	
2025-01-16 11:32:33.61	231.24	28.25	
2025-01-16 11:32:33.81	231.30	28.27	
2025-01-16 11:32:34.02	231.35	28.29	
2025-01-16 11:32:34.22	231.41	28.31	
2025-01-16 11:32:34.42	231.46	28.33	
2025-01-16 11:32:34.63	231.52	28.35	
2025-01-16 11:32:34.83	231.58	28.37	
2025-01-16 11:32:35.03	231.63	28.39	
2025-01-16 11:32:35.23	231.68	28.41	
2025-01-16 11:32:35.44	231.74	28.43	
2025-01-16 11:32:35.64	231.80	28.45	
2025-01-16 11:32:35.84	231.85	28.47	
2025-01-16 11:32:36.05	231.91	28.49	
2025-01-16 11:32:36.25	231.97	28.51	
2025-01-16 11:32:36.45	232.02	28.53	
2025-01-16 11:32:36.66	232.08	28.55	
2025-01-16 11:32:36.86	232.14	28.57	
2025-01-16 11:32:37.06	232.19	28.59	
2025-01-16 11:32:37.26	232.25	28.61	
2025-01-16 11:32:37.47	232.30	28.63	
2025-01-16 11:32:37.67	232.36	28.65	
2025-01-16 11:32:37.87	232.42	28.67	
2025-01-16 11:32:38.08	232.47	28.69	
2025-01-16 11:32:38.28	232.53	28.71	
2025-01-16 11:32:38.48	232.59	28.73	
2025-01-16 11:32:38.69	232.65	28.75	
2025-01-16 11:32:38.89	232.70	28.77	
2025-01-16 11:32:39.09	232.76	28.79	
2025-01-16 11:32:39.29	232.81	28.80	
2025-01-16 11:32:39.50	232.87	28.82	
2025-01-16 11:32:39.70	232.93	28.84	
2025-01-16 11:32:39.90	232.99	28.86	
2025-01-16 11:32:40.11	233.05	28.88	
2025-01-16 11:32:40.31	233.10	28.90	
2025-01-16 11:32:40.51	233.16	28.92	
2025-01-16 11:32:40.71	233.22	28.94	
2025-01-16 11:32:40.92	233.28	28.96	
2025-01-16 11:32:41.12	233.33	28.98	
2025-01-16 11:32:41.32	233.39	29.00	
2025-01-16 11:32:41.53	233.45	29.02	
2025-01-16 11:32:41.73	233.51	29.04	
2025-01-16 11:32:41.93	233.56	29.06	
2025-01-16 11:32:42.14	233.62	29.08	
2025-01-16 11:32:42.34	233.68	29.10	
2025-01-16 11:32:42.54	233.74	29.12	
2025-01-16 11:32:42.74	233.80	29.14	
2025-01-16 11:32:42.95	233.86	29.16	
2025-01-16 11:32:43.15	233.91	29.18	
2025-01-16 11:32:43.35	233.97	29.20	
2025-01-16 11:32:43.56	234.03	29.22	
2025-01-16 11:32:43.76	234.09	29.23	
2025-01-16 11:32:43.96	234.15	29.25	
2025-01-16 11:32:44.17	234.21	29.27	
2025-01-16 11:32:44.37	234.27	29.29	
2025-01-16 11:32:44.57	234.32	29.31	
2025-01-16 11:32:44.77	234.38	29.33	
2025-01-16 11:32:44.98	234.44	29.35	
2025-01-16 11:32:45.18	234.50	29.37	
2025-01-16 11:32:45.38	234.56	29.39	
2025-01-16 11:32:45.59	234.62	29.41	
2025-01-16 11:32:45.79	234.68	29.43	
2025-01-16 11:32:45.99	234.74	29.45	
2025-01-16 11:32:46.20	234.80	29.47	
2025-01-16 11:32:46.40	234.86	29.48	
2025-01-16 11:32:46.60	234.92	29.50	
2025-01-16 11:32:46.80	234.98	29.52	
2025-01-16 11:32:47.01	235.04	29.54	
2025-01-16 11:32:47.21	235.10	29.56	
2025-01-16 11:32:47.41	235.15	29.58	
2025-01-16 11:32:47.62	235.22	29.60	
2025-01-16 11:32:47.82	235.28	29.62	
2025-01-16 11:32:48.02	235.34	29.64	
2025-01-16 11:32:48.23	235.40	29.66	
2025-01-16 11:32:48.43	235.46	29.67	
2025-01-16 11:32:48.63	235.52	29.69	
2025-01-16 11:32:48.83	235.58	29.71	
2025-01-16 11:32:49.04	235.64	29.73	
2025-01-16 11:32:49.24	235.70	29.75	
2025-01-16 11:32:49.44	235.76	29.77	
2025-01-16 11:32:49.65	235.82	29.79	
2025-01-16 11:32:49.85	235.88	29.81	
2025-01-16 11:32:50.05	235.94	29.82	
2025-01-16 11:32:50.25	236.00	29.84	
2025-01-16 11:32:50.46	236.06	29.86	
2025-01-16 11:32:50.66	236.12	29.88	
2025-01-16 11:32:50.86	236.18	29.90	
2025-01-16 11:32:51.07	236.25	29.92	
2025-01-16 11:32:51.27	236.31	29.94	
2025-01-16 11:32:51.47	236.37	29.95	
2025-01-16 11:32:51.68	236.43	29.97	
2025-01-16 11:32:51.88	236.49	29.99	
2025-01-16 11:32:52.08	236.55	30.01	
2025-01-16 11:32:52.28	236.61	30.03	
2025-01-16 11:32:52.49	236.68	30.05	
2025-01-16 11:32:52.69	236.74	30.06	
2025-01-16 11:32:52.89	236.80	30.08	
2025-01-16 11:32:53.10	236.86	30.10	
2025-01-16 11:32:53.30	236.92	30.12	
2025-01-16 11:32:53.50	236.98	30.14	
2025-01-16 11:32:53.71	237.05	30.16	
2025-01-16 11:32:53.91	237.11	30.17	
2025-01-16 11:32:54.11	237.17	30.19	
2025-01-16 11:32:54.31	237.23	30.21	
2025-01-16 11:32:54.52	237.30	30.23	
2025-01-16 11:32:54.72	237.36	30.25	
2025-01-16 11:32:54.92	237.42	30.26	
2025-01-16 11:32:55.13	237.48	30.28	
2025-01-16 11:32:55.33	237.54	30.30	
2025-01-16 11:32:55.53	237.61	30.32	
2025-01-16 11:32:55.74	237.67	30.34	
2025-01-16 11:32:55.94	237.73	30.36	
2025-01-16 11:32:56.14	237.79	30.37	
2025-01-16 11:32:56.34	237.86	30.39	
2025-01-16 11:32:56.55	237.92	30.41	
2025-01-16 11:32:56.75	237.98	30.43	
2025-01-16 11:32:56.95	238.05	30.44	
2025-01-16 11:32:57.16	238.11	30.46	
2025-01-16 11:32:57.36	238.17	30.48	
2025-01-16 11:32:57.56	238.24	30.50	
2025-01-16 11:32:57.77	238.30	30.52	
2025-01-16 11:32:57.97	238.36	30.53	
2025-01-16 11:32:58.17	238.43	30.55	
2025-01-16 11:32:58.37	238.49	30.57	
2025-01-16 11:32:58.58	238.56	30.59	
2025-01-16 11:32:58.78	238.62	30.60	
2025-01-16 11:32:58.98	238.68	30.62	
2025-01-16 11:32:59.19	238.75	30.64	
2025-01-16 11:32:59.39	238.81	30.66	
2025-01-16 11:32:59.59	238.87	30.67	
2025-01-16 11:32:59.79	238.94	30.69	
2025-01-16 11:33:00.00	239.00	30.71	
2025-01-16 11:33:00.20	239.07	30.73	
2025-01-16 11:33:00.40	239.13	30.74	
2025-01-16 11:33:00.61	239.20	30.76	
2025-01-16 11:33:00.81	239.26	30.78	
2025-01-16 11:33:01.01	239.32	30.80	
2025-01-16 11:33:01.22	239.39	30.81	
2025-01-16 11:33:01.42	239.45	30.83	
2025-01-16 11:33:01.62	239.52	30.85	
2025-01-16 11:33:01.82	239.58	30.87	
2025-01-16 11:33:02.03	239.65	30.88	
2025-01-16 11:33:02.23	239.71	30.90	
2025-01-16 11:33:02.43	239.77	30.92	
2025-01-16 11:33:02.64	239.84	30.93	
2025-01-16 11:33:02.84	239.91	30.95	
2025-01-16 11:33:03.04	239.97	30.97	
2025-01-16 11:33:03.25	240.04	30.99	
2025-01-16 11:33:03.45	240.10	31.00	
2025-01-16 11:33:03.65	240.17	31.02	
2025-01-16 11:33:03.85	240.23	31.04	
2025-01-16 11:33:04.06	240.30	31.05	
2025-01-16 11:33:04.26	240.36	31.07	
2025-01-16 11:33:04.46	240.43	31.09	
2025-01-16 11:33:04.67	240.50	31.10	
2025-01-16 11:33:04.87	240.56	31.12	
2025-01-16 11:33:05.07	240.63	31.14	
2025-01-16 11:33:05.28	240.69	31.15	
2025-01-16 11:33:05.48	240.76	31.17	
2025-01-16 11:33:05.68	240.82	31.19	
2025-01-16 11:33:05.88	240.89	31.20	
2025-01-16 11:33:06.09	240.96	31.22	
2025-01-16 11:33:06.29	241.02	31.24	
2025-01-16 11:33:06.49	241.09	31.25	
2025-01-16 11:33:06.70	241.16	31.27	
2025-01-16 11:33:06.90	241.22	31.29	
2025-01-16 11:33:07.10	241.29	31.30	
2025-01-16 11:33:07.31	241.36	31.32	
2025-01-16 11:33:07.51	241.42	31.34	
2025-01-16 11:33:07.71	241.49	31.35	
2025-01-16 11:33:07.91	241.55	31.37	
2025-01-16 11:33:08.12	241.62	31.38	
2025-01-16 11:33:08.32	241.69	31.40	
2025-01-16 11:33:08.52	241.75	31.42	
2025-01-16 11:33:08.73	241.82	31.43	
2025-01-16 11:33:08.93	241.89	31.45	
2025-01-16 11:33:09.13	241.96	31.46	
2025-01-16 11:33:09.34	242.02	31.48	
2025-01-16 11:33:09.54	242.09	31.50	
2025-01-16 11:33:09.74	242.16	31.51	
2025-01-16 11:33:09.94	242.22	31.53	
2025-01-16 11:33:10.15	242.29	31.54	
2025-01-16 11:33:10.35	242.36	31.56	
2025-01-16 11:33:10.55	242.43	31.58	
2025-01-16 11:33:10.76	242.50	31.59	
2025-01-16 11:33:10.96	242.56	31.61	
2025-01-16 11:33:11.16	242.63	31.62	
2025-01-16 11:33:11.36	242.70	31.64	
2025-01-16 11:33:11.57	242.77	31.65	
2025-01-16 11:33:11.77	242.83	31.67	
2025-01-16 11:33:11.97	242.90	31.69	
2025-01-16 11:33:12.18	242.97	31.70	
2025-01-16 11:33:12.38	243.04	31.72	
2025-01-16 11:33:12.58	243.11	31.73	
2025-01-16 11:33:12.79	243.18	31.75	
2025-01-16 11:33:12.99	243.24	31.76	
2025-01-16 11:33:13.19	243.31	31.78	
2025-01-16 11:33:13.39	243.38	31.79	
2025-01-16 11:33:13.60	243.45	31.81	
2025-01-16 11:33:13.80	243.52	31.82	
2025-01-16 11:33:14.00	243.58	31.84	
2025-01-16 11:33:14.21	243.66	31.85	
2025-01-16 11:33:14.41	243.72	31.87	
2025-01-16 11:33:14.61	243.79	31.88	
2025-01-16 11:33:14.82	243.86	31.90	
2025-01-16 11:33:15.02	243.93	31.92	
2025-01-16 11:33:15.22	244.00	31.93	
2025-01-16 11:33:15.42	244.07	31.94	
2025-01-16 11:33:15.63	244.14	31.96	
2025-01-16 11:33:15.83	244.21	31.97	
2025-01-16 11:33:16.03	244.27	31.99	
2025-01-16 11:33:16.24	244.35	32.00	
2025-01-16 11:33:16.44	244.42	32.02	
2025-01-16 11:33:16.64	244.48	32.03	
2025-01-16 11:33:16.85	244.56	32.05	
2025-01-16 11:33:17.05	244.62	32.06	
2025-01-16 11:33:17.25	244.69	32.08	
2025-01-16 11:33:17.45	244.76	32.09	
2025-01-16 11:33:17.66	244.83	32.11	
2025-01-16 11:33:17.86	244.90	32.12	
2025-01-16 11:33:18.06	244.97	32.14	
2025-01-16 11:33:18.27	245.04	32.15	
2025-01-16 11:33:18.47	245.11	32.16	
2025-01-16 11:33:18.67	245.18	32.18	
2025-01-16 11:33:18.88	245.25	32.19	
2025-01-16 11:33:19.08	245.32	32.21	
2025-01-16 11:33:19.28	245.39	32.22	
2025-01-16 11:33:19.48	245.46	32.24	
2025-01-16 11:33:19.69	245.53	32.25	
2025-01-16 11:33:19.89	245.60	32.26	
2025-01-16 11:33:20.09	245.67	32.28	
2025-01-16 11:33:20.30	245.75	32.29	
2025-01-16 11:33:20.50	245.82	32.31	
2025-01-16 11:33:20.70	245.89	32.32	
2025-01-16 11:33:20.90	245.96	32.33	
2025-01-16 11:33:21.11	246.03	32.35	
2025-01-16 11:33:21.31	246.10	32.36	
2025-01-16 11:33:21.51	246.17	32.38	
2025-01-16 11:33:21.72	246.24	32.39	
2025-01-16 11:33:21.92	246.31	32.40	
2025-01-16 11:33:22.12	246.38	32.42	
2025-01-16 11:33:22.33	246.46	32.43	
2025-01-16 11:33:22.53	246.53	32.44	
2025-01-16 11:33:22.73	246.60	32.46	
2025-01-16 11:33:22.93	246.67	32.47	
2025-01-16 11:33:23.14	246.74	32.48	
2025-01-16 11:33:23.34	246.81	32.50	
2025-01-16 11:33:23.54	246.88	32.51	
2025-01-16 11:33:23.75	246.95	32.52	
2025-01-16 11:33:23.95	247.03	32.54	
2025-01-16 11:33:24.15	247.10	32.55	
2025-01-16 11:33:24.36	247.17	32.56	
