passes_logs/2025/01/16/SPB_Silybum_02/SPB_Silybum_02__20250116_233519_SUOMI_NPP_rec.log

#Pass ID: 20250116_233519_SUOMI NPP
#Satellite: SUOMI NPP
#Configuration: NPP
#Start time: 2025-01-16 23:35:19

#Version: 2.0.20230423
#Station: SPB_Silybum_02
#Location: 30.233357 lon 59.946436 lat
#TLE: 1 37849U 11061A   25016.11811449  .00000162  00000+0  97827-4 0  9998
#TLE: 2 37849  98.7448 317.0925 0001640  39.6134 320.5162 14.19538688685075

#Time	Az	El	Level	Level2	SNR	BER	Gain	Gain2
2025-01-16 23:35:21.85	20.75	4.14	
2025-01-16 23:35:22.05	20.76	4.15	
2025-01-16 23:35:22.26	20.77	4.17	
2025-01-16 23:35:22.46	20.77	4.18	
2025-01-16 23:35:22.66	20.78	4.19	
2025-01-16 23:35:22.87	20.79	4.21	
2025-01-16 23:35:23.07	20.80	4.22	
2025-01-16 23:35:23.27	20.80	4.23	
2025-01-16 23:35:23.47	20.81	4.25	
2025-01-16 23:35:23.68	20.82	4.26	
2025-01-16 23:35:23.88	20.83	4.27	
2025-01-16 23:35:24.08	20.83	4.29	
2025-01-16 23:35:24.29	20.84	4.30	
2025-01-16 23:35:24.49	20.85	4.32	
2025-01-16 23:35:24.69	20.86	4.33	
2025-01-16 23:35:24.90	20.87	4.34	
2025-01-16 23:35:25.10	20.87	4.36	
2025-01-16 23:35:25.30	20.88	4.37	
2025-01-16 23:35:25.50	20.89	4.38	
2025-01-16 23:35:25.71	20.90	4.40	
2025-01-16 23:35:25.91	20.90	4.41	
2025-01-16 23:35:26.11	20.91	4.42	
2025-01-16 23:35:26.32	20.92	4.44	
2025-01-16 23:35:26.52	20.93	4.45	
2025-01-16 23:35:26.72	20.93	4.47	
2025-01-16 23:35:26.92	20.94	4.48	
2025-01-16 23:35:27.13	20.95	4.49	
2025-01-16 23:35:27.33	20.96	4.51	
2025-01-16 23:35:27.53	20.96	4.52	
2025-01-16 23:35:27.74	20.97	4.53	
2025-01-16 23:35:27.94	20.98	4.55	
2025-01-16 23:35:28.14	20.99	4.56	
2025-01-16 23:35:28.35	21.00	4.58	
2025-01-16 23:35:28.55	21.00	4.59	
2025-01-16 23:35:28.75	21.01	4.60	
2025-01-16 23:35:28.95	21.02	4.62	
2025-01-16 23:35:29.16	21.03	4.63	
2025-01-16 23:35:29.36	21.03	4.64	
2025-01-16 23:35:29.56	21.04	4.66	
2025-01-16 23:35:29.77	21.05	4.67	
2025-01-16 23:35:29.97	21.06	4.69	
2025-01-16 23:35:30.17	21.07	4.70	
2025-01-16 23:35:30.38	21.07	4.71	
2025-01-16 23:35:30.58	21.08	4.73	
2025-01-16 23:35:30.78	21.09	4.74	
2025-01-16 23:35:30.98	21.10	4.75	
2025-01-16 23:35:31.19	21.11	4.77	
2025-01-16 23:35:31.39	21.11	4.78	
2025-01-16 23:35:31.59	21.12	4.80	
2025-01-16 23:35:31.80	21.13	4.81	
2025-01-16 23:35:32.00	21.14	4.82	
2025-01-16 23:35:32.20	21.14	4.84	
2025-01-16 23:35:32.40	21.15	4.85	
2025-01-16 23:35:32.61	21.16	4.86	
2025-01-16 23:35:32.81	21.17	4.88	
2025-01-16 23:35:33.01	21.18	4.89	
2025-01-16 23:35:33.22	21.18	4.91	
2025-01-16 23:35:33.42	21.19	4.92	
2025-01-16 23:35:33.62	21.20	4.93	
2025-01-16 23:35:33.83	21.21	4.95	
2025-01-16 23:35:34.03	21.22	4.96	
2025-01-16 23:35:34.23	21.22	4.98	
2025-01-16 23:35:34.43	21.23	4.99	
2025-01-16 23:35:34.64	21.24	5.00	
2025-01-16 23:35:34.84	21.25	5.02	
2025-01-16 23:35:35.04	21.26	5.03	
2025-01-16 23:35:35.25	21.26	5.05	
2025-01-16 23:35:35.45	21.27	5.06	
2025-01-16 23:35:35.65	21.28	5.07	
2025-01-16 23:35:35.86	21.29	5.09	
2025-01-16 23:35:36.06	21.30	5.10	
2025-01-16 23:35:36.26	21.30	5.12	
2025-01-16 23:35:36.46	21.31	5.13	
2025-01-16 23:35:36.67	21.32	5.14	
2025-01-16 23:35:36.87	21.33	5.16	
2025-01-16 23:35:37.07	21.34	5.17	
2025-01-16 23:35:37.28	21.34	5.19	
2025-01-16 23:35:37.48	21.35	5.20	
2025-01-16 23:35:37.68	21.36	5.21	
2025-01-16 23:35:37.88	21.37	5.23	
2025-01-16 23:35:38.09	21.38	5.24	
2025-01-16 23:35:38.29	21.38	5.26	
2025-01-16 23:35:38.49	21.39	5.27	
2025-01-16 23:35:38.70	21.40	5.28	
2025-01-16 23:35:38.90	21.41	5.30	
2025-01-16 23:35:39.10	21.42	5.31	
2025-01-16 23:35:39.31	21.43	5.33	
2025-01-16 23:35:39.51	21.43	5.34	
2025-01-16 23:35:39.71	21.44	5.35	
2025-01-16 23:35:39.91	21.45	5.37	
2025-01-16 23:35:40.12	21.46	5.38	
2025-01-16 23:35:40.32	21.47	5.40	
2025-01-16 23:35:40.52	21.47	5.41	
2025-01-16 23:35:40.73	21.48	5.43	
2025-01-16 23:35:40.93	21.49	5.44	
2025-01-16 23:35:41.13	21.50	5.45	
2025-01-16 23:35:41.34	21.51	5.47	
2025-01-16 23:35:41.54	21.51	5.48	
2025-01-16 23:35:41.74	21.52	5.50	
2025-01-16 23:35:41.94	21.53	5.51	
2025-01-16 23:35:42.15	21.54	5.52	
2025-01-16 23:35:42.35	21.55	5.54	
2025-01-16 23:35:42.55	21.56	5.55	
2025-01-16 23:35:42.76	21.56	5.57	
2025-01-16 23:35:42.96	21.57	5.58	
2025-01-16 23:35:43.16	21.58	5.59	
2025-01-16 23:35:43.37	21.59	5.61	
2025-01-16 23:35:43.57	21.60	5.62	
2025-01-16 23:35:43.77	21.61	5.64	
2025-01-16 23:35:43.97	21.61	5.65	
2025-01-16 23:35:44.18	21.62	5.67	
2025-01-16 23:35:44.38	21.63	5.68	
2025-01-16 23:35:44.58	21.64	5.69	
2025-01-16 23:35:44.79	21.65	5.71	
2025-01-16 23:35:44.99	21.66	5.72	
2025-01-16 23:35:45.19	21.66	5.74	
2025-01-16 23:35:45.39	21.67	5.75	
2025-01-16 23:35:45.60	21.68	5.77	
2025-01-16 23:35:45.80	21.69	5.78	
2025-01-16 23:35:46.00	21.70	5.79	
2025-01-16 23:35:46.21	21.71	5.81	
2025-01-16 23:35:46.41	21.71	5.82	
2025-01-16 23:35:46.61	21.72	5.84	
2025-01-16 23:35:46.82	21.73	5.85	
2025-01-16 23:35:47.02	21.74	5.87	
2025-01-16 23:35:47.22	21.75	5.88	
2025-01-16 23:35:47.42	21.76	5.90	
2025-01-16 23:35:47.63	21.76	5.91	
2025-01-16 23:35:47.83	21.77	5.92	
2025-01-16 23:35:48.03	21.78	5.94	
2025-01-16 23:35:48.24	21.79	5.95	
2025-01-16 23:35:48.44	21.80	5.97	
2025-01-16 23:35:48.64	21.81	5.98	
2025-01-16 23:35:48.85	21.81	6.00	
2025-01-16 23:35:49.05	21.82	6.01	
2025-01-16 23:35:49.25	21.83	6.03	
2025-01-16 23:35:49.45	21.84	6.04	
2025-01-16 23:35:49.66	21.85	6.05	
2025-01-16 23:35:49.86	21.86	6.07	
2025-01-16 23:35:50.06	21.87	6.08	
2025-01-16 23:35:50.27	21.87	6.10	
2025-01-16 23:35:50.47	21.88	6.11	
2025-01-16 23:35:50.67	21.89	6.13	
2025-01-16 23:35:50.87	21.90	6.14	
2025-01-16 23:35:51.08	21.91	6.16	
2025-01-16 23:35:51.28	21.92	6.17	
2025-01-16 23:35:51.48	21.93	6.18	
2025-01-16 23:35:51.69	21.93	6.20	
2025-01-16 23:35:51.89	21.94	6.21	
2025-01-16 23:35:52.09	21.95	6.23	
2025-01-16 23:35:52.30	21.96	6.24	
2025-01-16 23:35:52.50	21.97	6.26	
2025-01-16 23:35:52.70	21.98	6.27	
2025-01-16 23:35:52.90	21.99	6.29	
2025-01-16 23:35:53.11	21.99	6.30	
2025-01-16 23:35:53.31	22.00	6.32	
2025-01-16 23:35:53.51	22.01	6.33	
2025-01-16 23:35:53.72	22.02	6.35	
2025-01-16 23:35:53.92	22.03	6.36	
2025-01-16 23:35:54.12	22.04	6.37	
2025-01-16 23:35:54.33	22.05	6.39	
2025-01-16 23:35:54.53	22.05	6.40	
2025-01-16 23:35:54.73	22.06	6.42	
2025-01-16 23:35:54.93	22.07	6.43	
2025-01-16 23:35:55.14	22.08	6.45	
2025-01-16 23:35:55.34	22.09	6.46	
2025-01-16 23:35:55.54	22.10	6.48	
2025-01-16 23:35:55.75	22.11	6.49	
2025-01-16 23:35:55.95	22.12	6.51	
2025-01-16 23:35:56.15	22.12	6.52	
2025-01-16 23:35:56.35	22.13	6.54	
2025-01-16 23:35:56.56	22.14	6.55	
2025-01-16 23:35:56.76	22.15	6.57	
2025-01-16 23:35:56.96	22.16	6.58	
2025-01-16 23:35:57.17	22.17	6.60	
2025-01-16 23:35:57.37	22.18	6.61	
2025-01-16 23:35:57.57	22.19	6.62	
2025-01-16 23:35:57.78	22.19	6.64	
2025-01-16 23:35:57.98	22.20	6.65	
2025-01-16 23:35:58.18	22.21	6.67	
2025-01-16 23:35:58.38	22.22	6.68	
2025-01-16 23:35:58.59	22.23	6.70	
2025-01-16 23:35:58.79	22.24	6.71	
2025-01-16 23:35:58.99	22.25	6.73	
2025-01-16 23:35:59.20	22.26	6.74	
2025-01-16 23:35:59.40	22.27	6.76	
2025-01-16 23:35:59.60	22.27	6.77	
2025-01-16 23:35:59.81	22.28	6.79	
2025-01-16 23:36:00.01	22.29	6.80	
2025-01-16 23:36:00.21	22.30	6.82	
2025-01-16 23:36:00.41	22.31	6.83	
2025-01-16 23:36:00.62	22.32	6.85	
2025-01-16 23:36:00.82	22.33	6.86	
2025-01-16 23:36:01.02	22.34	6.88	
2025-01-16 23:36:01.23	22.35	6.89	
2025-01-16 23:36:01.43	22.35	6.91	
2025-01-16 23:36:01.63	22.36	6.92	
2025-01-16 23:36:01.84	22.37	6.94	
2025-01-16 23:36:02.04	22.38	6.95	
2025-01-16 23:36:02.24	22.39	6.97	
2025-01-16 23:36:02.44	22.40	6.98	
2025-01-16 23:36:02.65	22.41	7.00	
2025-01-16 23:36:02.85	22.42	7.01	
2025-01-16 23:36:03.05	22.43	7.03	
2025-01-16 23:36:03.26	22.44	7.04	
2025-01-16 23:36:03.46	22.44	7.06	
2025-01-16 23:36:03.66	22.45	7.07	
2025-01-16 23:36:03.86	22.46	7.09	
2025-01-16 23:36:04.07	22.47	7.10	
2025-01-16 23:36:04.27	22.48	7.12	
2025-01-16 23:36:04.47	22.49	7.13	
2025-01-16 23:36:04.68	22.50	7.15	
2025-01-16 23:36:04.88	22.51	7.16	
2025-01-16 23:36:05.08	22.52	7.18	
2025-01-16 23:36:05.29	22.53	7.19	
2025-01-16 23:36:05.49	22.53	7.21	
2025-01-16 23:36:05.69	22.54	7.22	
2025-01-16 23:36:05.89	22.55	7.24	
2025-01-16 23:36:06.10	22.56	7.25	
2025-01-16 23:36:06.30	22.57	7.27	
2025-01-16 23:36:06.50	22.58	7.28	
2025-01-16 23:36:06.71	22.59	7.30	
2025-01-16 23:36:06.91	22.60	7.31	
2025-01-16 23:36:07.11	22.61	7.33	
2025-01-16 23:36:07.32	22.62	7.34	
2025-01-16 23:36:07.52	22.63	7.36	
2025-01-16 23:36:07.72	22.64	7.37	
2025-01-16 23:36:07.92	22.64	7.39	
2025-01-16 23:36:08.13	22.65	7.40	
2025-01-16 23:36:08.33	22.66	7.42	
2025-01-16 23:36:08.53	22.67	7.43	
2025-01-16 23:36:08.74	22.68	7.45	
2025-01-16 23:36:08.94	22.69	7.46	
2025-01-16 23:36:09.14	22.70	7.48	
2025-01-16 23:36:09.34	22.71	7.50	
2025-01-16 23:36:09.55	22.72	7.51	
2025-01-16 23:36:09.75	22.73	7.53	
2025-01-16 23:36:09.95	22.74	7.54	
2025-01-16 23:36:10.16	22.75	7.56	
2025-01-16 23:36:10.36	22.76	7.57	
2025-01-16 23:36:10.56	22.77	7.59	
2025-01-16 23:36:10.77	22.77	7.60	
2025-01-16 23:36:10.97	22.78	7.62	
2025-01-16 23:36:11.17	22.79	7.63	
2025-01-16 23:36:11.37	22.80	7.65	
2025-01-16 23:36:11.58	22.81	7.66	
2025-01-16 23:36:11.78	22.82	7.68	
2025-01-16 23:36:11.98	22.83	7.69	
2025-01-16 23:36:12.19	22.84	7.71	
2025-01-16 23:36:12.39	22.85	7.73	
2025-01-16 23:36:12.59	22.86	7.74	
2025-01-16 23:36:12.80	22.87	7.76	
2025-01-16 23:36:13.00	22.88	7.77	
2025-01-16 23:36:13.20	22.89	7.79	
2025-01-16 23:36:13.40	22.90	7.80	
2025-01-16 23:36:13.61	22.91	7.82	
2025-01-16 23:36:13.81	22.92	7.83	
2025-01-16 23:36:14.01	22.93	7.85	
2025-01-16 23:36:14.22	22.93	7.86	
2025-01-16 23:36:14.42	22.94	7.88	
2025-01-16 23:36:14.62	22.95	7.89	
2025-01-16 23:36:14.82	22.96	7.91	
2025-01-16 23:36:15.03	22.97	7.93	
2025-01-16 23:36:15.23	22.98	7.94	
2025-01-16 23:36:15.43	22.99	7.96	
2025-01-16 23:36:15.64	23.00	7.97	
2025-01-16 23:36:15.84	23.01	7.99	
2025-01-16 23:36:16.04	23.02	8.00	
2025-01-16 23:36:16.25	23.03	8.02	
2025-01-16 23:36:16.45	23.04	8.03	
2025-01-16 23:36:16.65	23.05	8.05	
2025-01-16 23:36:16.85	23.06	8.07	
2025-01-16 23:36:17.06	23.07	8.08	
2025-01-16 23:36:17.26	23.08	8.10	
2025-01-16 23:36:17.46	23.09	8.11	
2025-01-16 23:36:17.67	23.10	8.13	
2025-01-16 23:36:17.87	23.11	8.14	
2025-01-16 23:36:18.07	23.12	8.16	
2025-01-16 23:36:18.28	23.13	8.18	
2025-01-16 23:36:18.48	23.14	8.19	
2025-01-16 23:36:18.68	23.15	8.21	
2025-01-16 23:36:18.88	23.16	8.22	
2025-01-16 23:36:19.09	23.17	8.24	
2025-01-16 23:36:19.29	23.17	8.25	
2025-01-16 23:36:19.49	23.18	8.27	
2025-01-16 23:36:19.70	23.19	8.29	
2025-01-16 23:36:19.90	23.20	8.30	
2025-01-16 23:36:20.10	23.21	8.32	
2025-01-16 23:36:20.31	23.22	8.33	
2025-01-16 23:36:20.51	23.23	8.35	
2025-01-16 23:36:20.71	23.24	8.36	
2025-01-16 23:36:20.91	23.25	8.38	
2025-01-16 23:36:21.12	23.26	8.40	
2025-01-16 23:36:21.32	23.27	8.41	
2025-01-16 23:36:21.52	23.28	8.43	
2025-01-16 23:36:21.73	23.29	8.44	
2025-01-16 23:36:21.93	23.30	8.46	
2025-01-16 23:36:22.13	23.31	8.47	
2025-01-16 23:36:22.33	23.32	8.49	
2025-01-16 23:36:22.54	23.33	8.51	
2025-01-16 23:36:22.74	23.34	8.52	
2025-01-16 23:36:22.94	23.35	8.54	
2025-01-16 23:36:23.15	23.36	8.55	
2025-01-16 23:36:23.35	23.37	8.57	
2025-01-16 23:36:23.55	23.38	8.58	
2025-01-16 23:36:23.76	23.39	8.60	
2025-01-16 23:36:23.96	23.40	8.62	
2025-01-16 23:36:24.16	23.41	8.63	
2025-01-16 23:36:24.36	23.42	8.65	
2025-01-16 23:36:24.57	23.43	8.66	
2025-01-16 23:36:24.77	23.44	8.68	
2025-01-16 23:36:24.97	23.45	8.70	
2025-01-16 23:36:25.18	23.46	8.71	
2025-01-16 23:36:25.38	23.47	8.73	
2025-01-16 23:36:25.58	23.48	8.74	
2025-01-16 23:36:25.79	23.49	8.76	
2025-01-16 23:36:25.99	23.50	8.78	
2025-01-16 23:36:26.19	23.51	8.79	
2025-01-16 23:36:26.39	23.52	8.81	
2025-01-16 23:36:26.60	23.53	8.82	
2025-01-16 23:36:26.80	23.54	8.84	
2025-01-16 23:36:27.00	23.55	8.86	
2025-01-16 23:36:27.21	23.56	8.87	
2025-01-16 23:36:27.41	23.57	8.89	
2025-01-16 23:36:27.61	23.58	8.90	
2025-01-16 23:36:27.81	23.59	8.92	
2025-01-16 23:36:28.02	23.60	8.94	
2025-01-16 23:36:28.22	23.61	8.95	
2025-01-16 23:36:28.42	23.62	8.97	
2025-01-16 23:36:28.63	23.63	8.99	
2025-01-16 23:36:28.83	23.64	9.00	
2025-01-16 23:36:29.03	23.65	9.02	
2025-01-16 23:36:29.24	23.66	9.03	
2025-01-16 23:36:29.44	23.67	9.05	
2025-01-16 23:36:29.64	23.68	9.07	
2025-01-16 23:36:29.84	23.69	9.08	
2025-01-16 23:36:30.05	23.70	9.10	
2025-01-16 23:36:30.25	23.71	9.11	
2025-01-16 23:36:30.45	23.72	9.13	
2025-01-16 23:36:30.66	23.73	9.15	
2025-01-16 23:36:30.86	23.75	9.16	
2025-01-16 23:36:31.06	23.76	9.18	
2025-01-16 23:36:31.27	23.77	9.20	
2025-01-16 23:36:31.47	23.78	9.21	
2025-01-16 23:36:31.67	23.79	9.23	
2025-01-16 23:36:31.87	23.80	9.24	
2025-01-16 23:36:32.08	23.81	9.26	
2025-01-16 23:36:32.28	23.82	9.28	
2025-01-16 23:36:32.48	23.83	9.29	
2025-01-16 23:36:32.69	23.84	9.31	
2025-01-16 23:36:32.89	23.85	9.33	
2025-01-16 23:36:33.09	23.86	9.34	
2025-01-16 23:36:33.29	23.87	9.36	
2025-01-16 23:36:33.50	23.88	9.38	
2025-01-16 23:36:33.70	23.89	9.39	
2025-01-16 23:36:33.90	23.90	9.41	
2025-01-16 23:36:34.11	23.91	9.42	
2025-01-16 23:36:34.31	23.92	9.44	
2025-01-16 23:36:34.51	23.93	9.46	
2025-01-16 23:36:34.72	23.94	9.47	
2025-01-16 23:36:34.92	23.95	9.49	
2025-01-16 23:36:35.12	23.96	9.51	
2025-01-16 23:36:35.32	23.97	9.52	
2025-01-16 23:36:35.53	23.98	9.54	
2025-01-16 23:36:35.73	23.99	9.56	
2025-01-16 23:36:35.93	24.01	9.57	
2025-01-16 23:36:36.14	24.02	9.59	
2025-01-16 23:36:36.34	24.03	9.61	
2025-01-16 23:36:36.54	24.04	9.62	
2025-01-16 23:36:36.75	24.05	9.64	
2025-01-16 23:36:36.95	24.06	9.66	
2025-01-16 23:36:37.15	24.07	9.67	
2025-01-16 23:36:37.35	24.08	9.69	
2025-01-16 23:36:37.56	24.09	9.70	
2025-01-16 23:36:37.76	24.10	9.72	
2025-01-16 23:36:37.96	24.11	9.74	
2025-01-16 23:36:38.17	24.12	9.75	
2025-01-16 23:36:38.37	24.13	9.77	
2025-01-16 23:36:38.57	24.14	9.79	
2025-01-16 23:36:38.78	24.15	9.80	
2025-01-16 23:36:38.98	24.17	9.82	
2025-01-16 23:36:39.18	24.18	9.84	
2025-01-16 23:36:39.38	24.19	9.85	
2025-01-16 23:36:39.59	24.20	9.87	
2025-01-16 23:36:39.79	24.21	9.89	
2025-01-16 23:36:39.99	24.22	9.90	
2025-01-16 23:36:40.20	24.23	9.92	
2025-01-16 23:36:40.40	24.24	9.94	
2025-01-16 23:36:40.60	24.25	9.95	
2025-01-16 23:36:40.80	24.26	9.97	
2025-01-16 23:36:41.01	24.27	9.99	
2025-01-16 23:36:41.21	24.28	10.00	
2025-01-16 23:36:41.41	24.29	10.02	
2025-01-16 23:36:41.62	24.31	10.04	
2025-01-16 23:36:41.82	24.32	10.05	
2025-01-16 23:36:42.02	24.33	10.07	
2025-01-16 23:36:42.23	24.34	10.09	
2025-01-16 23:36:42.43	24.35	10.11	
2025-01-16 23:36:42.63	24.36	10.12	
2025-01-16 23:36:42.83	24.37	10.14	
2025-01-16 23:36:43.04	24.38	10.16	
2025-01-16 23:36:43.24	24.39	10.17	
2025-01-16 23:36:43.44	24.40	10.19	
2025-01-16 23:36:43.65	24.41	10.21	
2025-01-16 23:36:43.85	24.43	10.22	
2025-01-16 23:36:44.05	24.44	10.24	
2025-01-16 23:36:44.26	24.45	10.26	
2025-01-16 23:36:44.46	24.46	10.27	
2025-01-16 23:36:44.66	24.47	10.29	
2025-01-16 23:36:44.86	24.48	10.31	
2025-01-16 23:36:45.07	24.49	10.33	
2025-01-16 23:36:45.27	24.50	10.34	
2025-01-16 23:36:45.47	24.51	10.36	
2025-01-16 23:36:45.68	24.53	10.38	
2025-01-16 23:36:45.88	24.54	10.39	
2025-01-16 23:36:46.08	24.55	10.41	
2025-01-16 23:36:46.28	24.56	10.43	
2025-01-16 23:36:46.49	24.57	10.44	
2025-01-16 23:36:46.69	24.58	10.46	
2025-01-16 23:36:46.89	24.59	10.48	
2025-01-16 23:36:47.10	24.60	10.50	
2025-01-16 23:36:47.30	24.61	10.51	
2025-01-16 23:36:47.50	24.63	10.53	
2025-01-16 23:36:47.71	24.64	10.55	
2025-01-16 23:36:47.91	24.65	10.56	
2025-01-16 23:36:48.11	24.66	10.58	
2025-01-16 23:36:48.31	24.67	10.60	
2025-01-16 23:36:48.52	24.68	10.61	
2025-01-16 23:36:48.72	24.69	10.63	
2025-01-16 23:36:48.92	24.70	10.65	
2025-01-16 23:36:49.13	24.72	10.67	
2025-01-16 23:36:49.33	24.73	10.68	
2025-01-16 23:36:49.53	24.74	10.70	
2025-01-16 23:36:49.74	24.75	10.72	
2025-01-16 23:36:49.94	24.76	10.74	
2025-01-16 23:36:50.14	24.77	10.75	
2025-01-16 23:36:50.34	24.78	10.77	
2025-01-16 23:36:50.55	24.80	10.79	
2025-01-16 23:36:50.75	24.81	10.80	
2025-01-16 23:36:50.95	24.82	10.82	
2025-01-16 23:36:51.16	24.83	10.84	
2025-01-16 23:36:51.36	24.84	10.86	
2025-01-16 23:36:51.56	24.85	10.87	
2025-01-16 23:36:51.76	24.86	10.89	
2025-01-16 23:36:51.97	24.88	10.91	
2025-01-16 23:36:52.17	24.89	10.93	
2025-01-16 23:36:52.37	24.90	10.94	
2025-01-16 23:36:52.58	24.91	10.96	
2025-01-16 23:36:52.78	24.92	10.98	
2025-01-16 23:36:52.98	24.93	10.99	
2025-01-16 23:36:53.19	24.94	11.01	
2025-01-16 23:36:53.39	24.96	11.03	
2025-01-16 23:36:53.59	24.97	11.05	
2025-01-16 23:36:53.79	24.98	11.06	
2025-01-16 23:36:54.00	24.99	11.08	
2025-01-16 23:36:54.20	25.00	11.10	
2025-01-16 23:36:54.40	25.01	11.12	
2025-01-16 23:36:54.61	25.03	11.13	
2025-01-16 23:36:54.81	25.04	11.15	
2025-01-16 23:36:55.01	25.05	11.17	
2025-01-16 23:36:55.22	25.06	11.19	
2025-01-16 23:36:55.42	25.07	11.20	
2025-01-16 23:36:55.62	25.08	11.22	
2025-01-16 23:36:55.82	25.09	11.24	
2025-01-16 23:36:56.03	25.11	11.26	
2025-01-16 23:36:56.23	25.12	11.27	
2025-01-16 23:36:56.43	25.13	11.29	
2025-01-16 23:36:56.64	25.14	11.31	
2025-01-16 23:36:56.84	25.15	11.33	
2025-01-16 23:36:57.04	25.17	11.34	
2025-01-16 23:36:57.25	25.18	11.36	
2025-01-16 23:36:57.45	25.19	11.38	
2025-01-16 23:36:57.65	25.20	11.40	
2025-01-16 23:36:57.85	25.21	11.42	
2025-01-16 23:36:58.06	25.23	11.43	
2025-01-16 23:36:58.26	25.24	11.45	
2025-01-16 23:36:58.46	25.25	11.47	
2025-01-16 23:36:58.67	25.26	11.49	
2025-01-16 23:36:58.87	25.27	11.50	
2025-01-16 23:36:59.07	25.28	11.52	
2025-01-16 23:36:59.27	25.30	11.54	
2025-01-16 23:36:59.48	25.31	11.56	
2025-01-16 23:36:59.68	25.32	11.58	
2025-01-16 23:36:59.88	25.33	11.59	
2025-01-16 23:37:00.09	25.34	11.61	
2025-01-16 23:37:00.29	25.36	11.63	
2025-01-16 23:37:00.49	25.37	11.65	
2025-01-16 23:37:00.70	25.38	11.66	
2025-01-16 23:37:00.90	25.39	11.68	
2025-01-16 23:37:01.10	25.40	11.70	
2025-01-16 23:37:01.30	25.42	11.72	
2025-01-16 23:37:01.51	25.43	11.74	
2025-01-16 23:37:01.71	25.44	11.75	
2025-01-16 23:37:01.91	25.45	11.77	
2025-01-16 23:37:02.12	25.46	11.79	
2025-01-16 23:37:02.32	25.48	11.81	
2025-01-16 23:37:02.52	25.49	11.83	
2025-01-16 23:37:02.73	25.50	11.84	
2025-01-16 23:37:02.93	25.51	11.86	
2025-01-16 23:37:03.13	25.53	11.88	
2025-01-16 23:37:03.33	25.54	11.90	
2025-01-16 23:37:03.54	25.55	11.92	
2025-01-16 23:37:03.74	25.56	11.93	
2025-01-16 23:37:03.94	25.57	11.95	
2025-01-16 23:37:04.15	25.59	11.97	
2025-01-16 23:37:04.35	25.60	11.99	
2025-01-16 23:37:04.55	25.61	12.01	
2025-01-16 23:37:04.75	25.62	12.02	
2025-01-16 23:37:04.96	25.64	12.04	
2025-01-16 23:37:05.16	25.65	12.06	
2025-01-16 23:37:05.36	25.66	12.08	
2025-01-16 23:37:05.57	25.67	12.10	
2025-01-16 23:37:05.77	25.69	12.11	
2025-01-16 23:37:05.97	25.70	12.13	
2025-01-16 23:37:06.18	25.71	12.15	
2025-01-16 23:37:06.38	25.72	12.17	
2025-01-16 23:37:06.58	25.73	12.19	
2025-01-16 23:37:06.78	25.75	12.20	
2025-01-16 23:37:06.99	25.76	12.22	
2025-01-16 23:37:07.19	25.77	12.24	
2025-01-16 23:37:07.39	25.78	12.26	
2025-01-16 23:37:07.60	25.80	12.28	
2025-01-16 23:37:07.80	25.81	12.30	
2025-01-16 23:37:08.00	25.82	12.31	
2025-01-16 23:37:08.21	25.84	12.33	
2025-01-16 23:37:08.41	25.85	12.35	
2025-01-16 23:37:08.61	25.86	12.37	
2025-01-16 23:37:08.81	25.87	12.39	
2025-01-16 23:37:09.02	25.89	12.41	
2025-01-16 23:37:09.22	25.90	12.42	
2025-01-16 23:37:09.42	25.91	12.44	
2025-01-16 23:37:09.63	25.92	12.46	
2025-01-16 23:37:09.83	25.94	12.48	
2025-01-16 23:37:10.03	25.95	12.50	
2025-01-16 23:37:10.23	25.96	12.52	
2025-01-16 23:37:10.44	25.97	12.53	
2025-01-16 23:37:10.64	25.99	12.55	
2025-01-16 23:37:10.84	26.00	12.57	
2025-01-16 23:37:11.05	26.01	12.59	
2025-01-16 23:37:11.25	26.02	12.61	
2025-01-16 23:37:11.45	26.04	12.63	
2025-01-16 23:37:11.66	26.05	12.65	
2025-01-16 23:37:11.86	26.06	12.66	
2025-01-16 23:37:12.06	26.08	12.68	
2025-01-16 23:37:12.26	26.09	12.70	
2025-01-16 23:37:12.47	26.10	12.72	
2025-01-16 23:37:12.67	26.11	12.74	
2025-01-16 23:37:12.87	26.13	12.76	
2025-01-16 23:37:13.08	26.14	12.78	
2025-01-16 23:37:13.28	26.15	12.79	
2025-01-16 23:37:13.48	26.17	12.81	
2025-01-16 23:37:13.69	26.18	12.83	
2025-01-16 23:37:13.89	26.19	12.85	
2025-01-16 23:37:14.09	26.20	12.87	
2025-01-16 23:37:14.29	26.22	12.89	
2025-01-16 23:37:14.50	26.23	12.91	
2025-01-16 23:37:14.70	26.24	12.92	
2025-01-16 23:37:14.90	26.26	12.94	
2025-01-16 23:37:15.11	26.27	12.96	
2025-01-16 23:37:15.31	26.28	12.98	
2025-01-16 23:37:15.51	26.30	13.00	
2025-01-16 23:37:15.71	26.31	13.02	
2025-01-16 23:37:15.92	26.32	13.04	
2025-01-16 23:37:16.12	26.34	13.06	
2025-01-16 23:37:16.32	26.35	13.07	
2025-01-16 23:37:16.53	26.36	13.09	
2025-01-16 23:37:16.73	26.38	13.11	
2025-01-16 23:37:16.93	26.39	13.13	
2025-01-16 23:37:17.14	26.40	13.15	
2025-01-16 23:37:17.34	26.41	13.17	
2025-01-16 23:37:17.54	26.43	13.19	
2025-01-16 23:37:17.74	26.44	13.21	
2025-01-16 23:37:17.95	26.45	13.23	
2025-01-16 23:37:18.15	26.47	13.24	
2025-01-16 23:37:18.35	26.48	13.26	
2025-01-16 23:37:18.56	26.49	13.28	
2025-01-16 23:37:18.76	26.51	13.30	
2025-01-16 23:37:18.96	26.52	13.32	
2025-01-16 23:37:19.17	26.53	13.34	
2025-01-16 23:37:19.37	26.55	13.36	
2025-01-16 23:37:19.57	26.56	13.38	
2025-01-16 23:37:19.77	26.57	13.40	
2025-01-16 23:37:19.98	26.59	13.42	
2025-01-16 23:37:20.18	26.60	13.43	
2025-01-16 23:37:20.38	26.61	13.45	
2025-01-16 23:37:20.59	26.63	13.47	
2025-01-16 23:37:20.79	26.64	13.49	
2025-01-16 23:37:20.99	26.66	13.51	
2025-01-16 23:37:21.20	26.67	13.53	
2025-01-16 23:37:21.40	26.68	13.55	
2025-01-16 23:37:21.60	26.70	13.57	
2025-01-16 23:37:21.80	26.71	13.59	
2025-01-16 23:37:22.01	26.72	13.61	
2025-01-16 23:37:22.21	26.74	13.63	
2025-01-16 23:37:22.41	26.75	13.65	
2025-01-16 23:37:22.62	26.76	13.67	
2025-01-16 23:37:22.82	26.78	13.68	
2025-01-16 23:37:23.02	26.79	13.70	
2025-01-16 23:37:23.22	26.80	13.72	
2025-01-16 23:37:23.43	26.82	13.74	
2025-01-16 23:37:23.63	26.83	13.76	
2025-01-16 23:37:23.83	26.85	13.78	
2025-01-16 23:37:24.04	26.86	13.80	
2025-01-16 23:37:24.24	26.87	13.82	
2025-01-16 23:37:24.44	26.89	13.84	
2025-01-16 23:37:24.65	26.90	13.86	
2025-01-16 23:37:24.85	26.92	13.88	
2025-01-16 23:37:25.05	26.93	13.90	
2025-01-16 23:37:25.25	26.94	13.92	
2025-01-16 23:37:25.46	26.96	13.94	
2025-01-16 23:37:25.66	26.97	13.95	
2025-01-16 23:37:25.86	26.98	13.97	
2025-01-16 23:37:26.07	27.00	13.99	
2025-01-16 23:37:26.27	27.01	14.01	
2025-01-16 23:37:26.47	27.03	14.03	
2025-01-16 23:37:26.68	27.04	14.05	
2025-01-16 23:37:26.88	27.05	14.07	
2025-01-16 23:37:27.08	27.07	14.09	
2025-01-16 23:37:27.28	27.08	14.11	
2025-01-16 23:37:27.49	27.10	14.13	
2025-01-16 23:37:27.69	27.11	14.15	
2025-01-16 23:37:27.89	27.12	14.17	
2025-01-16 23:37:28.10	27.14	14.19	
2025-01-16 23:37:28.30	27.15	14.21	
2025-01-16 23:37:28.50	27.17	14.23	
2025-01-16 23:37:28.70	27.18	14.25	
2025-01-16 23:37:28.91	27.20	14.27	
2025-01-16 23:37:29.11	27.21	14.29	
2025-01-16 23:37:29.31	27.22	14.31	
2025-01-16 23:37:29.52	27.24	14.33	
2025-01-16 23:37:29.72	27.25	14.35	
2025-01-16 23:37:29.92	27.27	14.37	
2025-01-16 23:37:30.13	27.28	14.39	
2025-01-16 23:37:30.33	27.29	14.41	
2025-01-16 23:37:30.53	27.31	14.43	
2025-01-16 23:37:30.73	27.32	14.45	
2025-01-16 23:37:30.94	27.34	14.47	
2025-01-16 23:37:31.14	27.35	14.49	
2025-01-16 23:37:31.34	27.37	14.50	
2025-01-16 23:37:31.55	27.38	14.53	
2025-01-16 23:37:31.75	27.40	14.54	
2025-01-16 23:37:31.95	27.41	14.56	
2025-01-16 23:37:32.16	27.42	14.59	
2025-01-16 23:37:32.36	27.44	14.60	
2025-01-16 23:37:32.56	27.45	14.62	
2025-01-16 23:37:32.76	27.47	14.64	
2025-01-16 23:37:32.97	27.48	14.66	
2025-01-16 23:37:33.17	27.50	14.68	
2025-01-16 23:37:33.37	27.51	14.70	
2025-01-16 23:37:33.58	27.53	14.72	
2025-01-16 23:37:33.78	27.54	14.74	
2025-01-16 23:37:33.98	27.56	14.76	
2025-01-16 23:37:34.19	27.57	14.79	
2025-01-16 23:37:34.39	27.58	14.80	
2025-01-16 23:37:34.59	27.60	14.82	
2025-01-16 23:37:34.79	27.61	14.84	
2025-01-16 23:37:35.00	27.63	14.87	
2025-01-16 23:37:35.20	27.64	14.89	
2025-01-16 23:37:35.40	27.66	14.91	
2025-01-16 23:37:35.61	27.67	14.93	
2025-01-16 23:37:35.81	27.69	14.95	
2025-01-16 23:37:36.01	27.70	14.97	
2025-01-16 23:37:36.21	27.72	14.99	
2025-01-16 23:37:36.42	27.73	15.01	
2025-01-16 23:37:36.62	27.75	15.03	
2025-01-16 23:37:36.82	27.76	15.05	
2025-01-16 23:37:37.03	27.78	15.07	
2025-01-16 23:37:37.23	27.79	15.09	
2025-01-16 23:37:37.43	27.81	15.11	
2025-01-16 23:37:37.64	27.82	15.13	
2025-01-16 23:37:37.84	27.84	15.15	
2025-01-16 23:37:38.04	27.85	15.17	
2025-01-16 23:37:38.24	27.87	15.19	
2025-01-16 23:37:38.45	27.88	15.21	
2025-01-16 23:37:38.65	27.90	15.23	
2025-01-16 23:37:38.85	27.91	15.25	
2025-01-16 23:37:39.06	27.93	15.27	
2025-01-16 23:37:39.26	27.94	15.29	
2025-01-16 23:37:39.46	27.96	15.31	
2025-01-16 23:37:39.67	27.97	15.33	
2025-01-16 23:37:39.87	27.99	15.35	
2025-01-16 23:37:40.07	28.00	15.37	
2025-01-16 23:37:40.27	28.02	15.39	
2025-01-16 23:37:40.48	28.03	15.41	
2025-01-16 23:37:40.68	28.05	15.43	
2025-01-16 23:37:40.88	28.06	15.45	
2025-01-16 23:37:41.09	28.08	15.48	
2025-01-16 23:37:41.29	28.09	15.50	
2025-01-16 23:37:41.49	28.11	15.52	
2025-01-16 23:37:41.69	28.12	15.54	
2025-01-16 23:37:41.90	28.14	15.56	
2025-01-16 23:37:42.10	28.16	15.58	
2025-01-16 23:37:42.30	28.17	15.60	
2025-01-16 23:37:42.51	28.19	15.62	
2025-01-16 23:37:42.71	28.20	15.64	
2025-01-16 23:37:42.91	28.22	15.66	
2025-01-16 23:37:43.12	28.23	15.68	
2025-01-16 23:37:43.32	28.25	15.70	
2025-01-16 23:37:43.52	28.26	15.72	
2025-01-16 23:37:43.72	28.28	15.74	
2025-01-16 23:37:43.93	28.29	15.77	
2025-01-16 23:37:44.13	28.31	15.79	
2025-01-16 23:37:44.33	28.33	15.81	
2025-01-16 23:37:44.54	28.34	15.83	
2025-01-16 23:37:44.74	28.36	15.85	
2025-01-16 23:37:44.94	28.37	15.87	
2025-01-16 23:37:45.15	28.39	15.89	
2025-01-16 23:37:45.35	28.40	15.91	
2025-01-16 23:37:45.55	28.42	15.93	
2025-01-16 23:37:45.75	28.44	15.95	
2025-01-16 23:37:45.96	28.45	15.97	
2025-01-16 23:37:46.16	28.47	16.00	
2025-01-16 23:37:46.36	28.48	16.02	
2025-01-16 23:37:46.57	28.50	16.04	
2025-01-16 23:37:46.77	28.51	16.06	
2025-01-16 23:37:46.97	28.53	16.08	
2025-01-16 23:37:47.17	28.55	16.10	
2025-01-16 23:37:47.38	28.56	16.12	
2025-01-16 23:37:47.58	28.58	16.14	
2025-01-16 23:37:47.78	28.59	16.16	
2025-01-16 23:37:47.99	28.61	16.19	
2025-01-16 23:37:48.19	28.63	16.21	
2025-01-16 23:37:48.39	28.64	16.23	
2025-01-16 23:37:48.60	28.66	16.25	
2025-01-16 23:37:48.80	28.67	16.27	
2025-01-16 23:37:49.00	28.69	16.29	
2025-01-16 23:37:49.20	28.71	16.31	
2025-01-16 23:37:49.41	28.72	16.33	
2025-01-16 23:37:49.61	28.74	16.35	
2025-01-16 23:37:49.81	28.75	16.38	
2025-01-16 23:37:50.02	28.77	16.40	
2025-01-16 23:37:50.22	28.79	16.42	
2025-01-16 23:37:50.42	28.80	16.44	
2025-01-16 23:37:50.63	28.82	16.46	
2025-01-16 23:37:50.83	28.84	16.48	
2025-01-16 23:37:51.03	28.85	16.50	
2025-01-16 23:37:51.23	28.87	16.52	
2025-01-16 23:37:51.44	28.89	16.55	
2025-01-16 23:37:51.64	28.90	16.57	
2025-01-16 23:37:51.84	28.92	16.59	
2025-01-16 23:37:52.05	28.93	16.61	
2025-01-16 23:37:52.25	28.95	16.63	
2025-01-16 23:37:52.45	28.97	16.65	
2025-01-16 23:37:52.66	28.98	16.68	
2025-01-16 23:37:52.86	29.00	16.70	
2025-01-16 23:37:53.06	29.02	16.72	
2025-01-16 23:37:53.26	29.03	16.74	
2025-01-16 23:37:53.47	29.05	16.76	
2025-01-16 23:37:53.67	29.07	16.78	
2025-01-16 23:37:53.87	29.08	16.80	
2025-01-16 23:37:54.08	29.10	16.83	
2025-01-16 23:37:54.28	29.12	16.85	
2025-01-16 23:37:54.48	29.13	16.87	
2025-01-16 23:37:54.68	29.15	16.89	
2025-01-16 23:37:54.89	29.17	16.91	
2025-01-16 23:37:55.09	29.18	16.93	
2025-01-16 23:37:55.29	29.20	16.96	
2025-01-16 23:37:55.50	29.22	16.98	
2025-01-16 23:37:55.70	29.23	17.00	
2025-01-16 23:37:55.90	29.25	17.02	
2025-01-16 23:37:56.11	29.27	17.04	
2025-01-16 23:37:56.31	29.28	17.07	
2025-01-16 23:37:56.51	29.30	17.09	
2025-01-16 23:37:56.71	29.32	17.11	
2025-01-16 23:37:56.92	29.34	17.13	
2025-01-16 23:37:57.12	29.35	17.15	
2025-01-16 23:37:57.32	29.37	17.17	
2025-01-16 23:37:57.53	29.39	17.20	
2025-01-16 23:37:57.73	29.40	17.22	
2025-01-16 23:37:57.93	29.42	17.24	
2025-01-16 23:37:58.14	29.44	17.26	
2025-01-16 23:37:58.34	29.45	17.28	
2025-01-16 23:37:58.54	29.47	17.31	
2025-01-16 23:37:58.74	29.49	17.33	
2025-01-16 23:37:58.95	29.51	17.35	
2025-01-16 23:37:59.15	29.52	17.37	
2025-01-16 23:37:59.35	29.54	17.39	
2025-01-16 23:37:59.56	29.56	17.42	
2025-01-16 23:37:59.76	29.58	17.44	
2025-01-16 23:37:59.96	29.59	17.46	
2025-01-16 23:38:00.16	29.61	17.48	
2025-01-16 23:38:00.37	29.63	17.51	
2025-01-16 23:38:00.57	29.64	17.53	
2025-01-16 23:38:00.77	29.66	17.55	
2025-01-16 23:38:00.98	29.68	17.57	
2025-01-16 23:38:01.18	29.70	17.59	
2025-01-16 23:38:01.38	29.71	17.62	
2025-01-16 23:38:01.59	29.73	17.64	
2025-01-16 23:38:01.79	29.75	17.66	
2025-01-16 23:38:01.99	29.77	17.68	
2025-01-16 23:38:02.19	29.78	17.70	
2025-01-16 23:38:02.40	29.80	17.73	
2025-01-16 23:38:02.60	29.82	17.75	
2025-01-16 23:38:02.80	29.84	17.77	
2025-01-16 23:38:03.01	29.86	17.80	
2025-01-16 23:38:03.21	29.87	17.82	
2025-01-16 23:38:03.41	29.89	17.84	
2025-01-16 23:38:03.62	29.91	17.86	
2025-01-16 23:38:03.82	29.93	17.88	
2025-01-16 23:38:04.02	29.94	17.91	
2025-01-16 23:38:04.22	29.96	17.93	
2025-01-16 23:38:04.43	29.98	17.95	
2025-01-16 23:38:04.63	30.00	17.97	
2025-01-16 23:38:04.83	30.02	18.00	
2025-01-16 23:38:05.04	30.03	18.02	
2025-01-16 23:38:05.24	30.05	18.04	
2025-01-16 23:38:05.44	30.07	18.06	
2025-01-16 23:38:05.64	30.09	18.09	
2025-01-16 23:38:05.85	30.11	18.11	
2025-01-16 23:38:06.05	30.12	18.13	
2025-01-16 23:38:06.25	30.14	18.16	
2025-01-16 23:38:06.46	30.16	18.18	
2025-01-16 23:38:06.66	30.18	18.20	
2025-01-16 23:38:06.86	30.20	18.22	
2025-01-16 23:38:07.07	30.21	18.25	
2025-01-16 23:38:07.27	30.23	18.27	
2025-01-16 23:38:07.47	30.25	18.29	
2025-01-16 23:38:07.67	30.27	18.31	
2025-01-16 23:38:07.88	30.29	18.34	
2025-01-16 23:38:08.08	30.31	18.36	
2025-01-16 23:38:08.28	30.32	18.38	
2025-01-16 23:38:08.49	30.34	18.41	
2025-01-16 23:38:08.69	30.36	18.43	
2025-01-16 23:38:08.89	30.38	18.45	
2025-01-16 23:38:09.10	30.40	18.48	
2025-01-16 23:38:09.30	30.42	18.50	
2025-01-16 23:38:09.50	30.43	18.52	
2025-01-16 23:38:09.70	30.45	18.54	
2025-01-16 23:38:09.91	30.47	18.57	
2025-01-16 23:38:10.11	30.49	18.59	
2025-01-16 23:38:10.31	30.51	18.61	
2025-01-16 23:38:10.52	30.53	18.64	
2025-01-16 23:38:10.72	30.55	18.66	
2025-01-16 23:38:10.92	30.56	18.68	
2025-01-16 23:38:11.12	30.58	18.71	
2025-01-16 23:38:11.33	30.60	18.73	
2025-01-16 23:38:11.53	30.62	18.75	
2025-01-16 23:38:11.73	30.64	18.77	
2025-01-16 23:38:11.94	30.66	18.80	
2025-01-16 23:38:12.14	30.68	18.82	
2025-01-16 23:38:12.34	30.70	18.84	
2025-01-16 23:38:12.55	30.72	18.87	
2025-01-16 23:38:12.75	30.73	18.89	
2025-01-16 23:38:12.95	30.75	18.91	
2025-01-16 23:38:13.15	30.77	18.94	
2025-01-16 23:38:13.36	30.79	18.96	
2025-01-16 23:38:13.56	30.81	18.98	
2025-01-16 23:38:13.76	30.83	19.01	
2025-01-16 23:38:13.97	30.85	19.03	
2025-01-16 23:38:14.17	30.87	19.06	
2025-01-16 23:38:14.37	30.89	19.08	
2025-01-16 23:38:14.58	30.91	19.10	
2025-01-16 23:38:14.78	30.93	19.13	
2025-01-16 23:38:14.98	30.94	19.15	
2025-01-16 23:38:15.18	30.96	19.17	
2025-01-16 23:38:15.39	30.98	19.20	
2025-01-16 23:38:15.59	31.00	19.22	
2025-01-16 23:38:15.79	31.02	19.24	
2025-01-16 23:38:16.00	31.04	19.27	
2025-01-16 23:38:16.20	31.06	19.29	
2025-01-16 23:38:16.40	31.08	19.31	
2025-01-16 23:38:16.61	31.10	19.34	
2025-01-16 23:38:16.81	31.12	19.36	
2025-01-16 23:38:17.01	31.14	19.38	
2025-01-16 23:38:17.21	31.16	19.41	
2025-01-16 23:38:17.42	31.18	19.43	
2025-01-16 23:38:17.62	31.20	19.46	
2025-01-16 23:38:17.82	31.22	19.48	
2025-01-16 23:38:18.03	31.24	19.50	
2025-01-16 23:38:18.23	31.26	19.53	
2025-01-16 23:38:18.43	31.28	19.55	
2025-01-16 23:38:18.63	31.30	19.57	
2025-01-16 23:38:18.84	31.32	19.60	
2025-01-16 23:38:19.04	31.34	19.62	
2025-01-16 23:38:19.24	31.35	19.65	
2025-01-16 23:38:19.45	31.38	19.67	
2025-01-16 23:38:19.65	31.39	19.69	
2025-01-16 23:38:19.85	31.41	19.72	
2025-01-16 23:38:20.06	31.44	19.74	
2025-01-16 23:38:20.26	31.45	19.77	
2025-01-16 23:38:20.46	31.47	19.79	
2025-01-16 23:38:20.66	31.49	19.81	
2025-01-16 23:38:20.87	31.52	19.84	
2025-01-16 23:38:21.07	31.54	19.86	
2025-01-16 23:38:21.27	31.55	19.89	
2025-01-16 23:38:21.48	31.58	19.91	
2025-01-16 23:38:21.68	31.60	19.94	
2025-01-16 23:38:21.88	31.62	19.96	
2025-01-16 23:38:22.09	31.64	19.98	
2025-01-16 23:38:22.29	31.66	20.01	
2025-01-16 23:38:22.49	31.68	20.03	
2025-01-16 23:38:22.69	31.70	20.06	
2025-01-16 23:38:22.90	31.72	20.08	
2025-01-16 23:38:23.10	31.74	20.11	
2025-01-16 23:38:23.30	31.76	20.13	
2025-01-16 23:38:23.51	31.78	20.15	
2025-01-16 23:38:23.71	31.80	20.18	
2025-01-16 23:38:23.91	31.82	20.20	
2025-01-16 23:38:24.11	31.84	20.23	
2025-01-16 23:38:24.32	31.86	20.25	
2025-01-16 23:38:24.52	31.88	20.28	
2025-01-16 23:38:24.72	31.90	20.30	
2025-01-16 23:38:24.93	31.92	20.33	
2025-01-16 23:38:25.13	31.94	20.35	
2025-01-16 23:38:25.33	31.96	20.37	
2025-01-16 23:38:25.54	31.99	20.40	
2025-01-16 23:38:25.74	32.01	20.42	
2025-01-16 23:38:25.94	32.03	20.45	
2025-01-16 23:38:26.14	32.05	20.47	
2025-01-16 23:38:26.35	32.07	20.50	
2025-01-16 23:38:26.55	32.09	20.52	
2025-01-16 23:38:26.75	32.11	20.55	
2025-01-16 23:38:26.96	32.13	20.57	
2025-01-16 23:38:27.16	32.15	20.60	
2025-01-16 23:38:27.36	32.17	20.62	
2025-01-16 23:38:27.57	32.20	20.65	
2025-01-16 23:38:27.77	32.22	20.67	
2025-01-16 23:38:27.97	32.24	20.69	
2025-01-16 23:38:28.17	32.26	20.72	
2025-01-16 23:38:28.38	32.28	20.74	
2025-01-16 23:38:28.58	32.30	20.77	
2025-01-16 23:38:28.78	32.32	20.79	
2025-01-16 23:38:28.99	32.34	20.82	
2025-01-16 23:38:29.19	32.37	20.84	
2025-01-16 23:38:29.39	32.39	20.87	
2025-01-16 23:38:29.59	32.41	20.89	
2025-01-16 23:38:29.80	32.43	20.92	
2025-01-16 23:38:30.00	32.45	20.94	
2025-01-16 23:38:30.20	32.47	20.97	
2025-01-16 23:38:30.41	32.49	20.99	
2025-01-16 23:38:30.61	32.52	21.02	
2025-01-16 23:38:30.81	32.54	21.04	
2025-01-16 23:38:31.02	32.56	21.07	
2025-01-16 23:38:31.22	32.58	21.09	
2025-01-16 23:38:31.42	32.60	21.12	
2025-01-16 23:38:31.62	32.62	21.14	
2025-01-16 23:38:31.83	32.65	21.17	
2025-01-16 23:38:32.03	32.67	21.19	
2025-01-16 23:38:32.23	32.69	21.22	
2025-01-16 23:38:32.44	32.71	21.25	
2025-01-16 23:38:32.64	32.73	21.27	
2025-01-16 23:38:32.84	32.76	21.30	
2025-01-16 23:38:33.05	32.78	21.32	
2025-01-16 23:38:33.25	32.80	21.35	
2025-01-16 23:38:33.45	32.82	21.37	
2025-01-16 23:38:33.65	32.84	21.40	
2025-01-16 23:38:33.86	32.87	21.42	
2025-01-16 23:38:34.06	32.89	21.45	
2025-01-16 23:38:34.26	32.91	21.47	
2025-01-16 23:38:34.47	32.93	21.50	
2025-01-16 23:38:34.67	32.96	21.52	
2025-01-16 23:38:34.87	32.98	21.55	
2025-01-16 23:38:35.08	33.00	21.58	
2025-01-16 23:38:35.28	33.02	21.60	
2025-01-16 23:38:35.48	33.05	21.63	
2025-01-16 23:38:35.68	33.07	21.65	
2025-01-16 23:38:35.89	33.09	21.68	
2025-01-16 23:38:36.09	33.11	21.70	
2025-01-16 23:38:36.29	33.14	21.73	
2025-01-16 23:38:36.50	33.16	21.76	
2025-01-16 23:38:36.70	33.18	21.78	
2025-01-16 23:38:36.90	33.20	21.81	
2025-01-16 23:38:37.10	33.23	21.83	
2025-01-16 23:38:37.31	33.25	21.86	
2025-01-16 23:38:37.51	33.27	21.88	
2025-01-16 23:38:37.71	33.29	21.91	
2025-01-16 23:38:37.92	33.32	21.94	
2025-01-16 23:38:38.12	33.34	21.96	
2025-01-16 23:38:38.32	33.36	21.99	
2025-01-16 23:38:38.53	33.39	22.01	
2025-01-16 23:38:38.73	33.41	22.04	
2025-01-16 23:38:38.93	33.43	22.06	
2025-01-16 23:38:39.13	33.45	22.09	
2025-01-16 23:38:39.34	33.48	22.12	
2025-01-16 23:38:39.54	33.50	22.14	
2025-01-16 23:38:39.74	33.52	22.17	
2025-01-16 23:38:39.95	33.55	22.20	
2025-01-16 23:38:40.15	33.57	22.22	
2025-01-16 23:38:40.35	33.59	22.25	
2025-01-16 23:38:40.55	33.62	22.27	
2025-01-16 23:38:40.76	33.64	22.30	
2025-01-16 23:38:40.96	33.66	22.33	
2025-01-16 23:38:41.16	33.69	22.35	
2025-01-16 23:38:41.37	33.71	22.38	
2025-01-16 23:38:41.57	33.74	22.40	
2025-01-16 23:38:41.77	33.76	22.43	
2025-01-16 23:38:41.98	33.78	22.46	
2025-01-16 23:38:42.18	33.81	22.48	
2025-01-16 23:38:42.38	33.83	22.51	
2025-01-16 23:38:42.58	33.85	22.53	
2025-01-16 23:38:42.79	33.88	22.56	
2025-01-16 23:38:42.99	33.90	22.59	
2025-01-16 23:38:43.19	33.93	22.61	
2025-01-16 23:38:43.40	33.95	22.64	
2025-01-16 23:38:43.60	33.97	22.67	
2025-01-16 23:38:43.80	34.00	22.69	
2025-01-16 23:38:44.01	34.02	22.72	
2025-01-16 23:38:44.21	34.05	22.75	
2025-01-16 23:38:44.41	34.07	22.77	
2025-01-16 23:38:44.61	34.09	22.80	
2025-01-16 23:38:44.82	34.12	22.83	
2025-01-16 23:38:45.02	34.14	22.85	
2025-01-16 23:38:45.22	34.17	22.88	
2025-01-16 23:38:45.43	34.19	22.91	
2025-01-16 23:38:45.63	34.21	22.93	
2025-01-16 23:38:45.83	34.24	22.96	
2025-01-16 23:38:46.04	34.26	22.99	
2025-01-16 23:38:46.24	34.29	23.01	
2025-01-16 23:38:46.44	34.31	23.04	
2025-01-16 23:38:46.64	34.34	23.07	
2025-01-16 23:38:46.85	34.36	23.09	
2025-01-16 23:38:47.05	34.39	23.12	
2025-01-16 23:38:47.25	34.41	23.15	
2025-01-16 23:38:47.46	34.44	23.18	
2025-01-16 23:38:47.66	34.46	23.20	
2025-01-16 23:38:47.86	34.49	23.23	
2025-01-16 23:38:48.06	34.51	23.25	
2025-01-16 23:38:48.27	34.54	23.28	
2025-01-16 23:38:48.47	34.56	23.31	
2025-01-16 23:38:48.67	34.58	23.34	
2025-01-16 23:38:48.88	34.61	23.36	
2025-01-16 23:38:49.08	34.63	23.39	
2025-01-16 23:38:49.28	34.66	23.42	
2025-01-16 23:38:49.49	34.69	23.45	
2025-01-16 23:38:49.69	34.71	23.47	
2025-01-16 23:38:49.89	34.74	23.50	
2025-01-16 23:38:50.09	34.76	23.53	
2025-01-16 23:38:50.30	34.79	23.55	
2025-01-16 23:38:50.50	34.81	23.58	
2025-01-16 23:38:50.70	34.84	23.61	
2025-01-16 23:38:50.91	34.86	23.64	
2025-01-16 23:38:51.11	34.89	23.66	
2025-01-16 23:38:51.31	34.91	23.69	
2025-01-16 23:38:51.52	34.94	23.72	
2025-01-16 23:38:51.72	34.96	23.75	
2025-01-16 23:38:51.92	34.99	23.77	
2025-01-16 23:38:52.12	35.01	23.80	
2025-01-16 23:38:52.33	35.04	23.83	
2025-01-16 23:38:52.53	35.07	23.85	
2025-01-16 23:38:52.73	35.09	23.88	
2025-01-16 23:38:52.94	35.12	23.91	
2025-01-16 23:38:53.14	35.14	23.94	
2025-01-16 23:38:53.34	35.17	23.96	
2025-01-16 23:38:53.55	35.20	23.99	
2025-01-16 23:38:53.75	35.22	24.02	
2025-01-16 23:38:53.95	35.25	24.05	
2025-01-16 23:38:54.15	35.27	24.07	
2025-01-16 23:38:54.36	35.30	24.10	
2025-01-16 23:38:54.56	35.33	24.13	
2025-01-16 23:38:54.76	35.35	24.16	
2025-01-16 23:38:54.97	35.38	24.19	
2025-01-16 23:38:55.17	35.41	24.21	
2025-01-16 23:38:55.37	35.43	24.24	
2025-01-16 23:38:55.57	35.46	24.27	
2025-01-16 23:38:55.78	35.49	24.30	
2025-01-16 23:38:55.98	35.51	24.33	
2025-01-16 23:38:56.18	35.54	24.35	
2025-01-16 23:38:56.39	35.57	24.38	
2025-01-16 23:38:56.59	35.59	24.41	
2025-01-16 23:38:56.79	35.62	24.44	
2025-01-16 23:38:57.00	35.65	24.47	
2025-01-16 23:38:57.20	35.67	24.49	
2025-01-16 23:38:57.40	35.70	24.52	
2025-01-16 23:38:57.60	35.72	24.55	
2025-01-16 23:38:57.81	35.75	24.58	
2025-01-16 23:38:58.01	35.78	24.61	
2025-01-16 23:38:58.21	35.81	24.63	
2025-01-16 23:38:58.42	35.83	24.66	
2025-01-16 23:38:58.62	35.86	24.69	
2025-01-16 23:38:58.82	35.89	24.72	
2025-01-16 23:38:59.03	35.92	24.75	
2025-01-16 23:38:59.23	35.94	24.77	
2025-01-16 23:38:59.43	35.97	24.80	
2025-01-16 23:38:59.63	36.00	24.83	
2025-01-16 23:38:59.84	36.02	24.86	
2025-01-16 23:39:00.04	36.05	24.89	
2025-01-16 23:39:00.24	36.08	24.92	
2025-01-16 23:39:00.45	36.11	24.95	
2025-01-16 23:39:00.65	36.13	24.97	
2025-01-16 23:39:00.85	36.16	25.00	
2025-01-16 23:39:01.05	36.19	25.03	
2025-01-16 23:39:01.26	36.22	25.06	
2025-01-16 23:39:01.46	36.24	25.09	
2025-01-16 23:39:01.66	36.27	25.12	
2025-01-16 23:39:01.87	36.30	25.14	
2025-01-16 23:39:02.07	36.33	25.17	
2025-01-16 23:39:02.27	36.36	25.20	
2025-01-16 23:39:02.48	36.39	25.23	
2025-01-16 23:39:02.68	36.41	25.26	
2025-01-16 23:39:02.88	36.44	25.29	
2025-01-16 23:39:03.08	36.47	25.32	
2025-01-16 23:39:03.29	36.50	25.35	
2025-01-16 23:39:03.49	36.53	25.37	
2025-01-16 23:39:03.69	36.55	25.40	
2025-01-16 23:39:03.90	36.58	25.43	
2025-01-16 23:39:04.10	36.61	25.46	
2025-01-16 23:39:04.30	36.64	25.49	
2025-01-16 23:39:04.51	36.67	25.52	
2025-01-16 23:39:04.71	36.70	25.55	
2025-01-16 23:39:04.91	36.72	25.58	
2025-01-16 23:39:05.11	36.75	25.60	
2025-01-16 23:39:05.32	36.78	25.63	
2025-01-16 23:39:05.52	36.81	25.66	
2025-01-16 23:39:05.72	36.84	25.69	
2025-01-16 23:39:05.93	36.87	25.72	
2025-01-16 23:39:06.13	36.90	25.75	
2025-01-16 23:39:06.33	36.93	25.78	
2025-01-16 23:39:06.53	36.96	25.81	
2025-01-16 23:39:06.74	36.99	25.84	
2025-01-16 23:39:06.94	37.01	25.87	
2025-01-16 23:39:07.14	37.04	25.90	
2025-01-16 23:39:07.35	37.07	25.93	
2025-01-16 23:39:07.55	37.10	25.95	
2025-01-16 23:39:07.75	37.13	25.98	
2025-01-16 23:39:07.96	37.16	26.01	
2025-01-16 23:39:08.16	37.19	26.04	
2025-01-16 23:39:08.36	37.22	26.07	
2025-01-16 23:39:08.56	37.25	26.10	
2025-01-16 23:39:08.77	37.28	26.13	
2025-01-16 23:39:08.97	37.31	26.16	
2025-01-16 23:39:09.17	37.34	26.19	
2025-01-16 23:39:09.38	37.37	26.22	
2025-01-16 23:39:09.58	37.40	26.25	
2025-01-16 23:39:09.78	37.43	26.28	
2025-01-16 23:39:09.99	37.46	26.31	
2025-01-16 23:39:10.19	37.49	26.34	
2025-01-16 23:39:10.39	37.52	26.37	
2025-01-16 23:39:10.59	37.55	26.40	
2025-01-16 23:39:10.80	37.58	26.43	
2025-01-16 23:39:11.00	37.61	26.46	
2025-01-16 23:39:11.20	37.64	26.48	
2025-01-16 23:39:11.41	37.67	26.52	
2025-01-16 23:39:11.61	37.70	26.54	
2025-01-16 23:39:11.81	37.73	26.57	
2025-01-16 23:39:12.02	37.76	26.60	
2025-01-16 23:39:12.22	37.79	26.63	
2025-01-16 23:39:12.42	37.82	26.66	
2025-01-16 23:39:12.62	37.85	26.69	
2025-01-16 23:39:12.83	37.88	26.72	
2025-01-16 23:39:13.03	37.91	26.75	
2025-01-16 23:39:13.23	37.94	26.78	
2025-01-16 23:39:13.44	37.98	26.81	
2025-01-16 23:39:13.64	38.01	26.84	
2025-01-16 23:39:13.84	38.04	26.87	
2025-01-16 23:39:14.04	38.07	26.90	
2025-01-16 23:39:14.25	38.10	26.93	
2025-01-16 23:39:14.45	38.13	26.96	
2025-01-16 23:39:14.65	38.16	26.99	
2025-01-16 23:39:14.86	38.19	27.02	
2025-01-16 23:39:15.06	38.22	27.05	
2025-01-16 23:39:15.26	38.25	27.08	
2025-01-16 23:39:15.47	38.29	27.11	
2025-01-16 23:39:15.67	38.32	27.14	
2025-01-16 23:39:15.87	38.35	27.17	
2025-01-16 23:39:16.07	38.38	27.20	
2025-01-16 23:39:16.28	38.41	27.24	
2025-01-16 23:39:16.48	38.44	27.27	
2025-01-16 23:39:16.68	38.48	27.30	
2025-01-16 23:39:16.89	38.51	27.33	
2025-01-16 23:39:17.09	38.54	27.36	
2025-01-16 23:39:17.29	38.57	27.39	
2025-01-16 23:39:17.50	38.60	27.42	
2025-01-16 23:39:17.70	38.64	27.45	
2025-01-16 23:39:17.90	38.67	27.48	
2025-01-16 23:39:18.10	38.70	27.51	
2025-01-16 23:39:18.31	38.73	27.54	
2025-01-16 23:39:18.51	38.77	27.57	
2025-01-16 23:39:18.71	38.80	27.60	
2025-01-16 23:39:18.92	38.83	27.63	
2025-01-16 23:39:19.12	38.86	27.66	
2025-01-16 23:39:19.32	38.89	27.69	
2025-01-16 23:39:19.52	38.93	27.72	
2025-01-16 23:39:19.73	38.96	27.75	
2025-01-16 23:39:19.93	38.99	27.79	
2025-01-16 23:39:20.13	39.03	27.82	
2025-01-16 23:39:20.34	39.06	27.85	
2025-01-16 23:39:20.54	39.09	27.88	
2025-01-16 23:39:20.74	39.12	27.91	
2025-01-16 23:39:20.95	39.16	27.94	
2025-01-16 23:39:21.15	39.19	27.97	
2025-01-16 23:39:21.35	39.22	28.00	
2025-01-16 23:39:21.55	39.26	28.03	
2025-01-16 23:39:21.76	39.29	28.06	
2025-01-16 23:39:21.96	39.32	28.09	
2025-01-16 23:39:22.16	39.36	28.12	
2025-01-16 23:39:22.37	39.39	28.16	
2025-01-16 23:39:22.57	39.42	28.19	
2025-01-16 23:39:22.77	39.46	28.22	
2025-01-16 23:39:22.98	39.49	28.25	
2025-01-16 23:39:23.18	39.53	28.28	
2025-01-16 23:39:23.38	39.56	28.31	
2025-01-16 23:39:23.58	39.59	28.34	
2025-01-16 23:39:23.79	39.63	28.38	
2025-01-16 23:39:23.99	39.66	28.41	
2025-01-16 23:39:24.19	39.70	28.44	
2025-01-16 23:39:24.40	39.73	28.47	
2025-01-16 23:39:24.60	39.76	28.50	
2025-01-16 23:39:24.80	39.80	28.53	
2025-01-16 23:39:25.00	39.83	28.56	
2025-01-16 23:39:25.21	39.87	28.59	
2025-01-16 23:39:25.41	39.90	28.63	
2025-01-16 23:39:25.61	39.94	28.66	
2025-01-16 23:39:25.82	39.97	28.69	
2025-01-16 23:39:26.02	40.01	28.72	
2025-01-16 23:39:26.22	40.04	28.75	
2025-01-16 23:39:26.43	40.08	28.78	
2025-01-16 23:39:26.63	40.11	28.81	
2025-01-16 23:39:26.83	40.14	28.85	
2025-01-16 23:39:27.03	40.18	28.88	
2025-01-16 23:39:27.24	40.22	28.91	
2025-01-16 23:39:27.44	40.25	28.94	
2025-01-16 23:39:27.64	40.28	28.97	
2025-01-16 23:39:27.85	40.32	29.01	
2025-01-16 23:39:28.05	40.36	29.04	
2025-01-16 23:39:28.25	40.39	29.07	
2025-01-16 23:39:28.46	40.43	29.10	
2025-01-16 23:39:28.66	40.46	29.13	
2025-01-16 23:39:28.86	40.50	29.16	
2025-01-16 23:39:29.06	40.53	29.19	
2025-01-16 23:39:29.27	40.57	29.23	
2025-01-16 23:39:29.47	40.60	29.26	
2025-01-16 23:39:29.67	40.64	29.29	
2025-01-16 23:39:29.88	40.68	29.32	
2025-01-16 23:39:30.08	40.71	29.36	
2025-01-16 23:39:30.28	40.75	29.39	
2025-01-16 23:39:30.49	40.79	29.42	
2025-01-16 23:39:30.69	40.82	29.45	
2025-01-16 23:39:30.89	40.86	29.48	
2025-01-16 23:39:31.09	40.89	29.52	
2025-01-16 23:39:31.30	40.93	29.55	
2025-01-16 23:39:31.50	40.97	29.58	
2025-01-16 23:39:31.70	41.00	29.61	
2025-01-16 23:39:31.91	41.04	29.65	
2025-01-16 23:39:32.11	41.08	29.68	
2025-01-16 23:39:32.31	41.11	29.71	
2025-01-16 23:39:32.51	41.15	29.74	
2025-01-16 23:39:32.72	41.19	29.77	
2025-01-16 23:39:32.92	41.22	29.81	
2025-01-16 23:39:33.12	41.26	29.84	
2025-01-16 23:39:33.33	41.30	29.87	
2025-01-16 23:39:33.53	41.34	29.90	
2025-01-16 23:39:33.73	41.37	29.94	
2025-01-16 23:39:33.94	41.41	29.97	
2025-01-16 23:39:34.14	41.45	30.00	
2025-01-16 23:39:34.34	41.49	30.03	
2025-01-16 23:39:34.54	41.52	30.06	
2025-01-16 23:39:34.75	41.56	30.10	
2025-01-16 23:39:34.95	41.60	30.13	
2025-01-16 23:39:35.15	41.64	30.16	
2025-01-16 23:39:35.36	41.68	30.20	
2025-01-16 23:39:35.56	41.71	30.23	
2025-01-16 23:39:35.76	41.75	30.26	
2025-01-16 23:39:35.96	41.79	30.29	
2025-01-16 23:39:36.17	41.83	30.33	
2025-01-16 23:39:36.37	41.87	30.36	
2025-01-16 23:39:36.57	41.90	30.39	
2025-01-16 23:39:36.78	41.94	30.43	
2025-01-16 23:39:36.98	41.98	30.46	
2025-01-16 23:39:37.18	42.02	30.49	
2025-01-16 23:39:37.39	42.06	30.52	
2025-01-16 23:39:37.59	42.10	30.56	
2025-01-16 23:39:37.79	42.14	30.59	
2025-01-16 23:39:37.99	42.17	30.62	
2025-01-16 23:39:38.20	42.21	30.66	
2025-01-16 23:39:38.40	42.25	30.69	
2025-01-16 23:39:38.60	42.29	30.72	
2025-01-16 23:39:38.81	42.33	30.75	
2025-01-16 23:39:39.01	42.37	30.79	
2025-01-16 23:39:39.21	42.41	30.82	
2025-01-16 23:39:39.42	42.45	30.85	
2025-01-16 23:39:39.62	42.49	30.89	
2025-01-16 23:39:39.82	42.53	30.92	
2025-01-16 23:39:40.02	42.57	30.95	
2025-01-16 23:39:40.23	42.61	30.99	
2025-01-16 23:39:40.43	42.65	31.02	
2025-01-16 23:39:40.63	42.69	31.05	
2025-01-16 23:39:40.84	42.73	31.09	
2025-01-16 23:39:41.04	42.77	31.12	
2025-01-16 23:39:41.24	42.81	31.15	
2025-01-16 23:39:41.45	42.85	31.19	
2025-01-16 23:39:41.65	42.89	31.22	
2025-01-16 23:39:41.87	42.93	31.26	
2025-01-16 23:39:42.07	42.97	31.29	
2025-01-16 23:39:42.27	43.01	31.32	
2025-01-16 23:39:42.47	43.05	31.35	
2025-01-16 23:39:42.68	43.09	31.39	
2025-01-16 23:39:42.88	43.13	31.42	
2025-01-16 23:39:43.08	43.17	31.46	
2025-01-16 23:39:43.29	43.22	31.49	
2025-01-16 23:39:43.49	43.26	31.52	
2025-01-16 23:39:43.69	43.30	31.56	
2025-01-16 23:39:43.90	43.34	31.59	
2025-01-16 23:39:44.10	43.38	31.62	
2025-01-16 23:39:44.30	43.42	31.66	
2025-01-16 23:39:44.50	43.46	31.69	
2025-01-16 23:39:44.71	43.51	31.73	
2025-01-16 23:39:44.91	43.55	31.76	
2025-01-16 23:39:45.11	43.59	31.79	
2025-01-16 23:39:45.32	43.63	31.83	
2025-01-16 23:39:45.52	43.67	31.86	
2025-01-16 23:39:45.72	43.71	31.89	
2025-01-16 23:39:45.92	43.76	31.93	
2025-01-16 23:39:46.13	43.80	31.96	
2025-01-16 23:39:46.33	43.84	32.00	
2025-01-16 23:39:46.53	43.88	32.03	
2025-01-16 23:39:46.74	43.93	32.06	
2025-01-16 23:39:46.94	43.97	32.10	
2025-01-16 23:39:47.14	44.01	32.13	
2025-01-16 23:39:47.35	44.05	32.17	
2025-01-16 23:39:47.55	44.10	32.20	
2025-01-16 23:39:47.75	44.14	32.23	
2025-01-16 23:39:47.95	44.18	32.27	
2025-01-16 23:39:48.16	44.23	32.30	
2025-01-16 23:39:48.36	44.27	32.34	
2025-01-16 23:39:48.56	44.31	32.37	
2025-01-16 23:39:48.77	44.36	32.40	
2025-01-16 23:39:48.97	44.40	32.44	
2025-01-16 23:39:49.17	44.44	32.47	
2025-01-16 23:39:49.38	44.49	32.51	
2025-01-16 23:39:49.58	44.53	32.54	
2025-01-16 23:39:49.78	44.57	32.58	
2025-01-16 23:39:49.98	44.62	32.61	
2025-01-16 23:39:50.19	44.66	32.64	
2025-01-16 23:39:50.39	44.71	32.68	
2025-01-16 23:39:50.59	44.75	32.71	
2025-01-16 23:39:50.80	44.79	32.75	
2025-01-16 23:39:51.00	44.84	32.78	
2025-01-16 23:39:51.20	44.88	32.82	
2025-01-16 23:39:51.40	44.93	32.85	
2025-01-16 23:39:51.61	44.97	32.88	
2025-01-16 23:39:51.81	45.02	32.92	
2025-01-16 23:39:52.01	45.06	32.95	
2025-01-16 23:39:52.22	45.11	32.99	
2025-01-16 23:39:52.42	45.15	33.02	
2025-01-16 23:39:52.62	45.20	33.06	
2025-01-16 23:39:52.83	45.24	33.09	
2025-01-16 23:39:53.03	45.29	33.13	
2025-01-16 23:39:53.23	45.33	33.16	
2025-01-16 23:39:53.43	45.38	33.19	
2025-01-16 23:39:53.64	45.42	33.23	
2025-01-16 23:39:53.84	45.47	33.26	
2025-01-16 23:39:54.04	45.51	33.30	
2025-01-16 23:39:54.25	45.56	33.34	
2025-01-16 23:39:54.45	45.61	33.37	
2025-01-16 23:39:54.65	45.65	33.40	
2025-01-16 23:39:54.86	45.70	33.44	
2025-01-16 23:39:55.06	45.74	33.47	
2025-01-16 23:39:55.26	45.79	33.51	
2025-01-16 23:39:55.46	45.84	33.54	
2025-01-16 23:39:55.67	45.88	33.58	
2025-01-16 23:39:55.87	45.93	33.61	
2025-01-16 23:39:56.07	45.98	33.65	
2025-01-16 23:39:56.28	46.02	33.68	
2025-01-16 23:39:56.48	46.07	33.72	
2025-01-16 23:39:56.68	46.12	33.75	
2025-01-16 23:39:56.88	46.16	33.79	
2025-01-16 23:39:57.09	46.21	33.82	
2025-01-16 23:39:57.29	46.26	33.86	
2025-01-16 23:39:57.49	46.30	33.89	
2025-01-16 23:39:57.70	46.35	33.93	
2025-01-16 23:39:57.90	46.40	33.96	
2025-01-16 23:39:58.10	46.45	34.00	
2025-01-16 23:39:58.31	46.50	34.03	
2025-01-16 23:39:58.51	46.54	34.07	
2025-01-16 23:39:58.71	46.59	34.10	
2025-01-16 23:39:58.91	46.64	34.14	
2025-01-16 23:39:59.12	46.69	34.17	
2025-01-16 23:39:59.32	46.74	34.21	
2025-01-16 23:39:59.52	46.78	34.24	
2025-01-16 23:39:59.73	46.83	34.28	
2025-01-16 23:39:59.93	46.88	34.31	
2025-01-16 23:40:00.13	46.93	34.35	
2025-01-16 23:40:00.34	46.98	34.39	
2025-01-16 23:40:00.54	47.03	34.42	
2025-01-16 23:40:00.74	47.08	34.46	
2025-01-16 23:40:00.94	47.13	34.49	
2025-01-16 23:40:01.15	47.18	34.53	
2025-01-16 23:40:01.35	47.23	34.56	
2025-01-16 23:40:01.55	47.27	34.60	
2025-01-16 23:40:01.76	47.33	34.63	
2025-01-16 23:40:01.96	47.37	34.67	
2025-01-16 23:40:02.16	47.42	34.70	
2025-01-16 23:40:02.36	47.47	34.74	
2025-01-16 23:40:02.57	47.52	34.77	
2025-01-16 23:40:02.77	47.57	34.81	
2025-01-16 23:40:02.97	47.62	34.84	
2025-01-16 23:40:03.18	47.67	34.88	
2025-01-16 23:40:03.38	47.72	34.92	
2025-01-16 23:40:03.58	47.77	34.95	
2025-01-16 23:40:03.79	47.83	34.99	
2025-01-16 23:40:03.99	47.88	35.02	
2025-01-16 23:40:04.19	47.93	35.06	
2025-01-16 23:40:04.39	47.98	35.09	
2025-01-16 23:40:04.60	48.03	35.13	
2025-01-16 23:40:04.80	48.08	35.17	
2025-01-16 23:40:05.00	48.13	35.20	
2025-01-16 23:40:05.21	48.18	35.24	
2025-01-16 23:40:05.41	48.23	35.27	
2025-01-16 23:40:05.61	48.29	35.31	
2025-01-16 23:40:05.82	48.34	35.35	
2025-01-16 23:40:06.02	48.39	35.38	
2025-01-16 23:40:06.22	48.44	35.42	
2025-01-16 23:40:06.42	48.49	35.45	
2025-01-16 23:40:06.63	48.55	35.49	
2025-01-16 23:40:06.83	48.60	35.52	
2025-01-16 23:40:07.03	48.65	35.56	
2025-01-16 23:40:07.24	48.70	35.60	
2025-01-16 23:40:07.44	48.76	35.63	
2025-01-16 23:40:07.64	48.81	35.67	
2025-01-16 23:40:07.85	48.86	35.70	
2025-01-16 23:40:08.05	48.91	35.74	
2025-01-16 23:40:08.25	48.97	35.77	
2025-01-16 23:40:08.45	49.02	35.81	
2025-01-16 23:40:08.66	49.07	35.85	
2025-01-16 23:40:08.86	49.13	35.88	
2025-01-16 23:40:09.06	49.18	35.92	
2025-01-16 23:40:09.27	49.24	35.96	
2025-01-16 23:40:09.47	49.29	35.99	
2025-01-16 23:40:09.67	49.34	36.03	
2025-01-16 23:40:09.87	49.39	36.06	
2025-01-16 23:40:10.08	49.45	36.10	
2025-01-16 23:40:10.28	49.50	36.13	
2025-01-16 23:40:10.48	49.56	36.17	
2025-01-16 23:40:10.69	49.61	36.21	
2025-01-16 23:40:10.89	49.67	36.24	
2025-01-16 23:40:11.09	49.72	36.28	
2025-01-16 23:40:11.30	49.78	36.32	
2025-01-16 23:40:11.50	49.83	36.35	
2025-01-16 23:40:11.70	49.89	36.39	
2025-01-16 23:40:11.90	49.94	36.42	
2025-01-16 23:40:12.11	50.00	36.46	
2025-01-16 23:40:12.31	50.05	36.50	
2025-01-16 23:40:12.51	50.11	36.53	
2025-01-16 23:40:12.72	50.17	36.57	
2025-01-16 23:40:12.92	50.22	36.60	
2025-01-16 23:40:13.12	50.28	36.64	
2025-01-16 23:40:13.33	50.33	36.68	
2025-01-16 23:40:13.53	50.39	36.71	
2025-01-16 23:40:13.73	50.44	36.75	
2025-01-16 23:40:13.93	50.50	36.78	
2025-01-16 23:40:14.14	50.56	36.82	
2025-01-16 23:40:14.34	50.61	36.86	
2025-01-16 23:40:14.54	50.67	36.89	
2025-01-16 23:40:14.75	50.73	36.93	
2025-01-16 23:40:14.95	50.79	36.97	
2025-01-16 23:40:15.15	50.84	37.00	
2025-01-16 23:40:15.35	50.90	37.04	
2025-01-16 23:40:15.56	50.96	37.08	
2025-01-16 23:40:15.76	51.01	37.11	
2025-01-16 23:40:15.96	51.07	37.15	
2025-01-16 23:40:16.17	51.13	37.19	
2025-01-16 23:40:16.37	51.19	37.22	
2025-01-16 23:40:16.57	51.24	37.26	
2025-01-16 23:40:16.78	51.31	37.29	
2025-01-16 23:40:16.98	51.36	37.33	
2025-01-16 23:40:17.18	51.42	37.37	
2025-01-16 23:40:17.38	51.48	37.40	
2025-01-16 23:40:17.59	51.54	37.44	
2025-01-16 23:40:17.79	51.60	37.48	
2025-01-16 23:40:17.99	51.65	37.51	
2025-01-16 23:40:18.20	51.72	37.55	
2025-01-16 23:40:18.40	51.77	37.59	
2025-01-16 23:40:18.60	51.83	37.62	
2025-01-16 23:40:18.81	51.89	37.66	
2025-01-16 23:40:19.01	51.95	37.69	
2025-01-16 23:40:19.21	52.01	37.73	
2025-01-16 23:40:19.41	52.07	37.77	
2025-01-16 23:40:19.62	52.13	37.80	
2025-01-16 23:40:19.82	52.19	37.84	
2025-01-16 23:40:20.02	52.25	37.88	
2025-01-16 23:40:20.23	52.31	37.91	
2025-01-16 23:40:20.43	52.37	37.95	
2025-01-16 23:40:20.63	52.43	37.99	
2025-01-16 23:40:20.83	52.49	38.02	
2025-01-16 23:40:21.04	52.56	38.06	
2025-01-16 23:40:21.24	52.62	38.10	
2025-01-16 23:40:21.44	52.68	38.13	
2025-01-16 23:40:21.65	52.74	38.17	
2025-01-16 23:40:21.85	52.80	38.21	
2025-01-16 23:40:22.05	52.86	38.24	
2025-01-16 23:40:22.26	52.93	38.28	
2025-01-16 23:40:22.46	52.99	38.32	
2025-01-16 23:40:22.66	53.05	38.35	
2025-01-16 23:40:22.86	53.11	38.39	
2025-01-16 23:40:23.07	53.17	38.42	
2025-01-16 23:40:23.27	53.23	38.46	
2025-01-16 23:40:23.47	53.30	38.50	
2025-01-16 23:40:23.68	53.36	38.53	
2025-01-16 23:40:23.88	53.42	38.57	
2025-01-16 23:40:24.08	53.48	38.61	
2025-01-16 23:40:24.29	53.55	38.64	
2025-01-16 23:40:24.49	53.61	38.68	
2025-01-16 23:40:24.69	53.68	38.72	
2025-01-16 23:40:24.89	53.74	38.75	
2025-01-16 23:40:25.10	53.80	38.79	
2025-01-16 23:40:25.30	53.87	38.83	
2025-01-16 23:40:25.50	53.93	38.86	
2025-01-16 23:40:25.71	54.00	38.90	
2025-01-16 23:40:25.91	54.06	38.94	
2025-01-16 23:40:26.11	54.12	38.97	
2025-01-16 23:40:26.32	54.19	39.01	
2025-01-16 23:40:26.52	54.25	39.05	
2025-01-16 23:40:26.72	54.32	39.08	
2025-01-16 23:40:26.92	54.38	39.12	
2025-01-16 23:40:27.13	54.45	39.16	
2025-01-16 23:40:27.33	54.51	39.19	
2025-01-16 23:40:27.53	54.58	39.23	
2025-01-16 23:40:27.74	54.64	39.27	
2025-01-16 23:40:27.94	54.71	39.30	
2025-01-16 23:40:28.14	54.77	39.34	
2025-01-16 23:40:28.34	54.84	39.37	
2025-01-16 23:40:28.55	54.91	39.41	
2025-01-16 23:40:28.75	54.97	39.45	
2025-01-16 23:40:28.95	55.04	39.48	
2025-01-16 23:40:29.16	55.11	39.52	
2025-01-16 23:40:29.36	55.17	39.56	
2025-01-16 23:40:29.56	55.24	39.59	
2025-01-16 23:40:29.77	55.31	39.63	
2025-01-16 23:40:29.97	55.37	39.67	
2025-01-16 23:40:30.17	55.44	39.70	
2025-01-16 23:40:30.37	55.51	39.74	
2025-01-16 23:40:30.58	55.58	39.78	
2025-01-16 23:40:30.78	55.64	39.81	
2025-01-16 23:40:30.98	55.71	39.85	
2025-01-16 23:40:31.19	55.78	39.89	
2025-01-16 23:40:31.39	55.85	39.92	
2025-01-16 23:40:31.59	55.92	39.96	
2025-01-16 23:40:31.80	55.99	40.00	
2025-01-16 23:40:32.00	56.05	40.03	
2025-01-16 23:40:32.20	56.12	40.07	
2025-01-16 23:40:32.40	56.19	40.10	
2025-01-16 23:40:32.61	56.26	40.14	
2025-01-16 23:40:32.81	56.33	40.18	
2025-01-16 23:40:33.01	56.40	40.21	
2025-01-16 23:40:33.22	56.47	40.25	
2025-01-16 23:40:33.42	56.54	40.29	
2025-01-16 23:40:33.62	56.61	40.32	
2025-01-16 23:40:33.82	56.68	40.36	
2025-01-16 23:40:34.03	56.75	40.40	
2025-01-16 23:40:34.23	56.82	40.43	
2025-01-16 23:40:34.43	56.89	40.47	
2025-01-16 23:40:34.64	56.96	40.51	
2025-01-16 23:40:34.84	57.03	40.54	
2025-01-16 23:40:35.04	57.10	40.58	
2025-01-16 23:40:35.25	57.18	40.61	
2025-01-16 23:40:35.45	57.25	40.65	
2025-01-16 23:40:35.65	57.32	40.69	
2025-01-16 23:40:35.85	57.39	40.72	
2025-01-16 23:40:36.06	57.46	40.76	
2025-01-16 23:40:36.26	57.53	40.80	
2025-01-16 23:40:36.46	57.60	40.83	
2025-01-16 23:40:36.67	57.68	40.87	
2025-01-16 23:40:36.87	57.75	40.90	
2025-01-16 23:40:37.07	57.82	40.94	
2025-01-16 23:40:37.28	57.90	40.98	
2025-01-16 23:40:37.48	57.97	41.01	
2025-01-16 23:40:37.68	58.04	41.05	
2025-01-16 23:40:37.88	58.11	41.08	
2025-01-16 23:40:38.09	58.19	41.12	
2025-01-16 23:40:38.29	58.26	41.16	
2025-01-16 23:40:38.49	58.33	41.19	
2025-01-16 23:40:38.70	58.41	41.23	
2025-01-16 23:40:38.90	58.48	41.27	
2025-01-16 23:40:39.10	58.56	41.30	
2025-01-16 23:40:39.30	58.63	41.34	
2025-01-16 23:40:39.51	58.71	41.37	
2025-01-16 23:40:39.71	58.78	41.41	
2025-01-16 23:40:39.91	58.85	41.44	
2025-01-16 23:40:40.12	58.93	41.48	
2025-01-16 23:40:40.32	59.00	41.52	
2025-01-16 23:40:40.52	59.08	41.55	
2025-01-16 23:40:40.73	59.16	41.59	
2025-01-16 23:40:40.93	59.23	41.63	
2025-01-16 23:40:41.13	59.31	41.66	
2025-01-16 23:40:41.33	59.38	41.70	
2025-01-16 23:40:41.54	59.46	41.73	
2025-01-16 23:40:41.74	59.54	41.77	
2025-01-16 23:40:41.94	59.61	41.80	
2025-01-16 23:40:42.15	59.69	41.84	
2025-01-16 23:40:42.35	59.77	41.88	
2025-01-16 23:40:42.55	59.84	41.91	
2025-01-16 23:40:42.76	59.92	41.95	
2025-01-16 23:40:42.96	60.00	41.98	
2025-01-16 23:40:43.16	60.07	42.02	
2025-01-16 23:40:43.36	60.15	42.05	
2025-01-16 23:40:43.57	60.23	42.09	
2025-01-16 23:40:43.77	60.31	42.13	
2025-01-16 23:40:43.97	60.39	42.16	
2025-01-16 23:40:44.18	60.47	42.20	
2025-01-16 23:40:44.38	60.54	42.23	
2025-01-16 23:40:44.58	60.62	42.27	
2025-01-16 23:40:44.79	60.70	42.30	
2025-01-16 23:40:44.99	60.78	42.34	
2025-01-16 23:40:45.19	60.86	42.37	
2025-01-16 23:40:45.39	60.94	42.41	
2025-01-16 23:40:45.60	61.02	42.45	
2025-01-16 23:40:45.80	61.10	42.48	
2025-01-16 23:40:46.00	61.18	42.51	
2025-01-16 23:40:46.21	61.26	42.55	
2025-01-16 23:40:46.41	61.34	42.59	
2025-01-16 23:40:46.61	61.42	42.62	
2025-01-16 23:40:46.81	61.50	42.66	
2025-01-16 23:40:47.02	61.58	42.69	
2025-01-16 23:40:47.22	61.66	42.73	
2025-01-16 23:40:47.42	61.74	42.76	
2025-01-16 23:40:47.63	61.83	42.80	
2025-01-16 23:40:47.83	61.91	42.83	
2025-01-16 23:40:48.03	61.99	42.87	
2025-01-16 23:40:48.24	62.07	42.90	
2025-01-16 23:40:48.44	62.15	42.94	
2025-01-16 23:40:48.64	62.23	42.97	
2025-01-16 23:40:48.84	62.31	43.01	
2025-01-16 23:40:49.05	62.40	43.04	
2025-01-16 23:40:49.25	62.48	43.08	
2025-01-16 23:40:49.45	62.56	43.11	
2025-01-16 23:40:49.66	62.65	43.15	
2025-01-16 23:40:49.86	62.73	43.18	
2025-01-16 23:40:50.06	62.81	43.22	
2025-01-16 23:40:50.27	62.90	43.25	
2025-01-16 23:40:50.47	62.98	43.29	
2025-01-16 23:40:50.67	63.07	43.32	
2025-01-16 23:40:50.87	63.15	43.35	
2025-01-16 23:40:51.08	63.24	43.39	
2025-01-16 23:40:51.28	63.32	43.42	
2025-01-16 23:40:51.48	63.40	43.46	
2025-01-16 23:40:51.69	63.49	43.49	
2025-01-16 23:40:51.89	63.57	43.53	
2025-01-16 23:40:52.09	63.66	43.56	
2025-01-16 23:40:52.29	63.74	43.59	
2025-01-16 23:40:52.50	63.83	43.63	
2025-01-16 23:40:52.70	63.92	43.66	
2025-01-16 23:40:52.90	64.00	43.70	
2025-01-16 23:40:53.11	64.09	43.73	
2025-01-16 23:40:53.31	64.17	43.77	
2025-01-16 23:40:53.51	64.26	43.80	
2025-01-16 23:40:53.72	64.35	43.83	
2025-01-16 23:40:53.92	64.44	43.87	
2025-01-16 23:40:54.12	64.52	43.90	
2025-01-16 23:40:54.32	64.61	43.93	
2025-01-16 23:40:54.53	64.70	43.97	
2025-01-16 23:40:54.73	64.78	44.00	
2025-01-16 23:40:54.93	64.87	44.04	
2025-01-16 23:40:55.14	64.96	44.07	
2025-01-16 23:40:55.34	65.05	44.10	
2025-01-16 23:40:55.54	65.14	44.14	
2025-01-16 23:40:55.75	65.23	44.17	
2025-01-16 23:40:55.95	65.31	44.21	
2025-01-16 23:40:56.15	65.40	44.24	
2025-01-16 23:40:56.35	65.49	44.27	
2025-01-16 23:40:56.56	65.58	44.31	
2025-01-16 23:40:56.76	65.67	44.34	
2025-01-16 23:40:56.96	65.76	44.37	
2025-01-16 23:40:57.17	65.85	44.41	
2025-01-16 23:40:57.37	65.94	44.44	
2025-01-16 23:40:57.57	66.03	44.47	
2025-01-16 23:40:57.77	66.12	44.50	
2025-01-16 23:40:57.98	66.21	44.54	
2025-01-16 23:40:58.18	66.30	44.57	
2025-01-16 23:40:58.38	66.39	44.60	
2025-01-16 23:40:58.59	66.49	44.64	
2025-01-16 23:40:58.79	66.58	44.67	
2025-01-16 23:40:58.99	66.67	44.70	
2025-01-16 23:40:59.20	66.76	44.74	
2025-01-16 23:40:59.40	66.85	44.77	
2025-01-16 23:40:59.60	66.94	44.80	
2025-01-16 23:40:59.80	67.03	44.83	
