passes_logs/2025/01/16/SPB_Silybum_02/SPB_Silybum_02__20250116_085953_AQUA_rec.log

#Pass ID: 20250116_085953_AQUA
#Satellite: AQUA
#Configuration: AQUA
#Start time: 2025-01-16 08:59:53

#Version: 2.0.20230423
#Station: SPB_Silybum_02
#Location: 30.233357 lon 59.946436 lat
#TLE: 1 27424U 02022A   25015.89755826  .00001635  00000+0  34564-3 0  9997
#TLE: 2 27424  98.3590 332.5696 0001753 110.3458 316.1758 14.60685220207753

#Time	Az	El	Level	Level2	SNR	BER	Gain	Gain2
2025-01-16 08:59:55.11	86.40	4.07	
2025-01-16 08:59:55.32	86.37	4.08	
2025-01-16 08:59:55.52	86.35	4.09	
2025-01-16 08:59:55.72	86.33	4.10	
2025-01-16 08:59:55.93	86.30	4.11	
2025-01-16 08:59:56.13	86.28	4.12	
2025-01-16 08:59:56.33	86.26	4.13	
2025-01-16 08:59:56.54	86.23	4.14	
2025-01-16 08:59:56.74	86.21	4.15	
2025-01-16 08:59:56.94	86.19	4.16	
2025-01-16 08:59:57.15	86.17	4.17	
2025-01-16 08:59:57.35	86.14	4.18	
2025-01-16 08:59:57.55	86.12	4.20	
2025-01-16 08:59:57.75	86.10	4.21	
2025-01-16 08:59:57.96	86.07	4.22	
2025-01-16 08:59:58.16	86.05	4.23	
2025-01-16 08:59:58.36	86.03	4.24	
2025-01-16 08:59:58.57	86.01	4.25	
2025-01-16 08:59:58.77	85.98	4.26	
2025-01-16 08:59:58.97	85.96	4.27	
2025-01-16 08:59:59.18	85.94	4.28	
2025-01-16 08:59:59.38	85.91	4.29	
2025-01-16 08:59:59.58	85.89	4.30	
2025-01-16 08:59:59.79	85.87	4.31	
2025-01-16 08:59:59.99	85.84	4.32	
2025-01-16 09:00:00.19	85.82	4.33	
2025-01-16 09:00:00.40	85.80	4.35	
2025-01-16 09:00:00.60	85.77	4.36	
2025-01-16 09:00:00.80	85.75	4.37	
2025-01-16 09:00:01.00	85.73	4.38	
2025-01-16 09:00:01.22	85.70	4.39	
2025-01-16 09:00:01.42	85.68	4.40	
2025-01-16 09:00:01.62	85.66	4.41	
2025-01-16 09:00:01.83	85.63	4.42	
2025-01-16 09:00:02.03	85.61	4.43	
2025-01-16 09:00:02.23	85.59	4.44	
2025-01-16 09:00:02.44	85.56	4.45	
2025-01-16 09:00:02.64	85.54	4.46	
2025-01-16 09:00:02.84	85.52	4.48	
2025-01-16 09:00:03.05	85.49	4.49	
2025-01-16 09:00:03.25	85.47	4.50	
2025-01-16 09:00:03.45	85.45	4.51	
2025-01-16 09:00:03.66	85.42	4.52	
2025-01-16 09:00:03.86	85.40	4.53	
2025-01-16 09:00:04.06	85.37	4.54	
2025-01-16 09:00:04.27	85.35	4.55	
2025-01-16 09:00:04.47	85.33	4.56	
2025-01-16 09:00:04.67	85.30	4.57	
2025-01-16 09:00:04.87	85.28	4.58	
2025-01-16 09:00:05.08	85.26	4.59	
2025-01-16 09:00:05.28	85.23	4.60	
2025-01-16 09:00:05.48	85.21	4.62	
2025-01-16 09:00:05.69	85.18	4.63	
2025-01-16 09:00:05.89	85.16	4.64	
2025-01-16 09:00:06.09	85.14	4.65	
2025-01-16 09:00:06.30	85.11	4.66	
2025-01-16 09:00:06.50	85.09	4.67	
2025-01-16 09:00:06.70	85.07	4.68	
2025-01-16 09:00:06.91	85.04	4.69	
2025-01-16 09:00:07.11	85.02	4.70	
2025-01-16 09:00:07.31	84.99	4.71	
2025-01-16 09:00:07.51	84.97	4.72	
2025-01-16 09:00:07.72	84.95	4.73	
2025-01-16 09:00:07.92	84.92	4.74	
2025-01-16 09:00:08.12	84.90	4.76	
2025-01-16 09:00:08.33	84.87	4.77	
2025-01-16 09:00:08.53	84.85	4.78	
2025-01-16 09:00:08.73	84.83	4.79	
2025-01-16 09:00:08.94	84.80	4.80	
2025-01-16 09:00:09.14	84.78	4.81	
2025-01-16 09:00:09.34	84.75	4.82	
2025-01-16 09:00:09.55	84.73	4.83	
2025-01-16 09:00:09.75	84.71	4.84	
2025-01-16 09:00:09.95	84.68	4.85	
2025-01-16 09:00:10.16	84.66	4.86	
2025-01-16 09:00:10.36	84.63	4.87	
2025-01-16 09:00:10.56	84.61	4.88	
2025-01-16 09:00:10.76	84.59	4.90	
2025-01-16 09:00:10.97	84.56	4.91	
2025-01-16 09:00:11.17	84.54	4.92	
2025-01-16 09:00:11.37	84.51	4.93	
2025-01-16 09:00:11.58	84.49	4.94	
2025-01-16 09:00:11.78	84.46	4.95	
2025-01-16 09:00:11.98	84.44	4.96	
2025-01-16 09:00:12.19	84.41	4.97	
2025-01-16 09:00:12.39	84.39	4.98	
2025-01-16 09:00:12.59	84.37	4.99	
2025-01-16 09:00:12.80	84.34	5.00	
2025-01-16 09:00:13.00	84.32	5.01	
2025-01-16 09:00:13.20	84.29	5.02	
2025-01-16 09:00:13.41	84.27	5.04	
2025-01-16 09:00:13.61	84.24	5.05	
2025-01-16 09:00:13.81	84.22	5.06	
2025-01-16 09:00:14.01	84.19	5.07	
2025-01-16 09:00:14.22	84.17	5.08	
2025-01-16 09:00:14.42	84.15	5.09	
2025-01-16 09:00:14.62	84.12	5.10	
2025-01-16 09:00:14.83	84.10	5.11	
2025-01-16 09:00:15.03	84.07	5.12	
2025-01-16 09:00:15.23	84.05	5.13	
2025-01-16 09:00:15.44	84.02	5.14	
2025-01-16 09:00:15.64	84.00	5.15	
2025-01-16 09:00:15.84	83.97	5.17	
2025-01-16 09:00:16.05	83.95	5.18	
2025-01-16 09:00:16.25	83.92	5.19	
2025-01-16 09:00:16.45	83.90	5.20	
2025-01-16 09:00:16.65	83.87	5.21	
2025-01-16 09:00:16.86	83.85	5.22	
2025-01-16 09:00:17.06	83.82	5.23	
2025-01-16 09:00:17.26	83.80	5.24	
2025-01-16 09:00:17.47	83.77	5.25	
2025-01-16 09:00:17.67	83.75	5.26	
2025-01-16 09:00:17.87	83.72	5.27	
2025-01-16 09:00:18.08	83.70	5.28	
2025-01-16 09:00:18.28	83.67	5.29	
2025-01-16 09:00:18.48	83.65	5.31	
2025-01-16 09:00:18.69	83.62	5.32	
2025-01-16 09:00:18.89	83.60	5.33	
2025-01-16 09:00:19.09	83.57	5.34	
2025-01-16 09:00:19.30	83.55	5.35	
2025-01-16 09:00:19.50	83.52	5.36	
2025-01-16 09:00:19.70	83.50	5.37	
2025-01-16 09:00:19.90	83.47	5.38	
2025-01-16 09:00:20.11	83.45	5.39	
2025-01-16 09:00:20.31	83.42	5.40	
2025-01-16 09:00:20.51	83.40	5.41	
2025-01-16 09:00:20.72	83.37	5.42	
2025-01-16 09:00:20.92	83.35	5.43	
2025-01-16 09:00:21.12	83.32	5.45	
2025-01-16 09:00:21.33	83.30	5.46	
2025-01-16 09:00:21.53	83.27	5.47	
2025-01-16 09:00:21.73	83.25	5.48	
2025-01-16 09:00:21.94	83.22	5.49	
2025-01-16 09:00:22.14	83.20	5.50	
2025-01-16 09:00:22.34	83.17	5.51	
2025-01-16 09:00:22.55	83.14	5.52	
2025-01-16 09:00:22.75	83.12	5.53	
2025-01-16 09:00:22.95	83.09	5.54	
2025-01-16 09:00:23.15	83.07	5.55	
2025-01-16 09:00:23.36	83.04	5.56	
2025-01-16 09:00:23.56	83.02	5.58	
2025-01-16 09:00:23.76	82.99	5.59	
2025-01-16 09:00:23.97	82.97	5.60	
2025-01-16 09:00:24.17	82.94	5.61	
2025-01-16 09:00:24.37	82.92	5.62	
2025-01-16 09:00:24.58	82.89	5.63	
2025-01-16 09:00:24.78	82.86	5.64	
2025-01-16 09:00:24.98	82.84	5.65	
2025-01-16 09:00:25.19	82.81	5.66	
2025-01-16 09:00:25.39	82.79	5.67	
2025-01-16 09:00:25.59	82.76	5.68	
2025-01-16 09:00:25.79	82.74	5.69	
2025-01-16 09:00:26.00	82.71	5.70	
2025-01-16 09:00:26.20	82.68	5.72	
2025-01-16 09:00:26.40	82.66	5.73	
2025-01-16 09:00:26.61	82.63	5.74	
2025-01-16 09:00:26.81	82.61	5.75	
2025-01-16 09:00:27.01	82.58	5.76	
2025-01-16 09:00:27.22	82.55	5.77	
2025-01-16 09:00:27.42	82.53	5.78	
2025-01-16 09:00:27.62	82.50	5.79	
2025-01-16 09:00:27.83	82.48	5.80	
2025-01-16 09:00:28.03	82.45	5.81	
2025-01-16 09:00:28.23	82.42	5.82	
2025-01-16 09:00:28.44	82.40	5.83	
2025-01-16 09:00:28.65	82.37	5.85	
2025-01-16 09:00:28.86	82.34	5.86	
2025-01-16 09:00:29.06	82.32	5.87	
2025-01-16 09:00:29.26	82.29	5.88	
2025-01-16 09:00:29.47	82.27	5.89	
2025-01-16 09:00:29.67	82.24	5.90	
2025-01-16 09:00:29.87	82.21	5.91	
2025-01-16 09:00:30.08	82.19	5.92	
2025-01-16 09:00:30.28	82.16	5.93	
2025-01-16 09:00:30.48	82.14	5.94	
2025-01-16 09:00:30.69	82.11	5.95	
2025-01-16 09:00:30.89	82.08	5.96	
2025-01-16 09:00:31.09	82.06	5.98	
2025-01-16 09:00:31.29	82.03	5.99	
2025-01-16 09:00:31.50	82.00	6.00	
2025-01-16 09:00:31.70	81.98	6.01	
2025-01-16 09:00:31.90	81.95	6.02	
2025-01-16 09:00:32.11	81.92	6.03	
2025-01-16 09:00:32.32	81.90	6.04	
2025-01-16 09:00:32.52	81.87	6.05	
2025-01-16 09:00:32.73	81.84	6.06	
2025-01-16 09:00:32.93	81.82	6.07	
2025-01-16 09:00:33.13	81.79	6.08	
2025-01-16 09:00:33.34	81.76	6.09	
2025-01-16 09:00:33.54	81.74	6.11	
2025-01-16 09:00:33.74	81.71	6.12	
2025-01-16 09:00:33.95	81.68	6.13	
2025-01-16 09:00:34.15	81.66	6.14	
2025-01-16 09:00:34.35	81.63	6.15	
2025-01-16 09:00:34.55	81.60	6.16	
2025-01-16 09:00:34.76	81.58	6.17	
2025-01-16 09:00:34.96	81.55	6.18	
2025-01-16 09:00:35.16	81.52	6.19	
2025-01-16 09:00:35.37	81.50	6.20	
2025-01-16 09:00:35.57	81.47	6.21	
2025-01-16 09:00:35.77	81.44	6.22	
2025-01-16 09:00:35.98	81.42	6.23	
2025-01-16 09:00:36.18	81.39	6.25	
2025-01-16 09:00:36.38	81.36	6.26	
2025-01-16 09:00:36.59	81.34	6.27	
2025-01-16 09:00:36.79	81.31	6.28	
2025-01-16 09:00:36.99	81.28	6.29	
2025-01-16 09:00:37.19	81.26	6.30	
2025-01-16 09:00:37.40	81.23	6.31	
2025-01-16 09:00:37.60	81.20	6.32	
2025-01-16 09:00:37.80	81.18	6.33	
2025-01-16 09:00:38.01	81.15	6.34	
2025-01-16 09:00:38.21	81.12	6.35	
2025-01-16 09:00:38.41	81.09	6.36	
2025-01-16 09:00:38.62	81.07	6.37	
2025-01-16 09:00:38.82	81.04	6.39	
2025-01-16 09:00:39.02	81.01	6.40	
2025-01-16 09:00:39.23	80.98	6.41	
2025-01-16 09:00:39.43	80.96	6.42	
2025-01-16 09:00:39.63	80.93	6.43	
2025-01-16 09:00:39.84	80.90	6.44	
2025-01-16 09:00:40.04	80.88	6.45	
2025-01-16 09:00:40.24	80.85	6.46	
2025-01-16 09:00:40.44	80.82	6.47	
2025-01-16 09:00:40.65	80.79	6.48	
2025-01-16 09:00:40.85	80.77	6.49	
2025-01-16 09:00:41.05	80.74	6.50	
2025-01-16 09:00:41.26	80.71	6.51	
2025-01-16 09:00:41.46	80.68	6.53	
2025-01-16 09:00:41.66	80.66	6.54	
2025-01-16 09:00:41.87	80.63	6.55	
2025-01-16 09:00:42.07	80.60	6.56	
2025-01-16 09:00:42.27	80.57	6.57	
2025-01-16 09:00:42.48	80.55	6.58	
2025-01-16 09:00:42.68	80.52	6.59	
2025-01-16 09:00:42.88	80.49	6.60	
2025-01-16 09:00:43.09	80.46	6.61	
2025-01-16 09:00:43.29	80.44	6.62	
2025-01-16 09:00:43.49	80.41	6.63	
2025-01-16 09:00:43.69	80.38	6.64	
2025-01-16 09:00:43.90	80.35	6.65	
2025-01-16 09:00:44.10	80.33	6.66	
2025-01-16 09:00:44.30	80.30	6.68	
2025-01-16 09:00:44.51	80.27	6.69	
2025-01-16 09:00:44.71	80.24	6.70	
2025-01-16 09:00:44.91	80.21	6.71	
2025-01-16 09:00:45.12	80.19	6.72	
2025-01-16 09:00:45.32	80.16	6.73	
2025-01-16 09:00:45.52	80.13	6.74	
2025-01-16 09:00:45.73	80.10	6.75	
2025-01-16 09:00:45.93	80.07	6.76	
2025-01-16 09:00:46.13	80.05	6.77	
2025-01-16 09:00:46.33	80.02	6.78	
2025-01-16 09:00:46.54	79.99	6.79	
2025-01-16 09:00:46.74	79.96	6.80	
2025-01-16 09:00:46.94	79.94	6.81	
2025-01-16 09:00:47.15	79.91	6.83	
2025-01-16 09:00:47.35	79.88	6.84	
2025-01-16 09:00:47.55	79.85	6.85	
2025-01-16 09:00:47.76	79.82	6.86	
2025-01-16 09:00:47.96	79.79	6.87	
2025-01-16 09:00:48.16	79.77	6.88	
2025-01-16 09:00:48.37	79.74	6.89	
2025-01-16 09:00:48.57	79.71	6.90	
2025-01-16 09:00:48.77	79.68	6.91	
2025-01-16 09:00:48.98	79.65	6.92	
2025-01-16 09:00:49.18	79.63	6.93	
2025-01-16 09:00:49.38	79.60	6.94	
2025-01-16 09:00:49.58	79.57	6.95	
2025-01-16 09:00:49.79	79.54	6.97	
2025-01-16 09:00:49.99	79.51	6.98	
2025-01-16 09:00:50.19	79.48	6.99	
2025-01-16 09:00:50.40	79.45	7.00	
2025-01-16 09:00:50.60	79.43	7.01	
2025-01-16 09:00:50.80	79.40	7.02	
2025-01-16 09:00:51.01	79.37	7.03	
2025-01-16 09:00:51.21	79.34	7.04	
2025-01-16 09:00:51.41	79.31	7.05	
2025-01-16 09:00:51.62	79.28	7.06	
2025-01-16 09:00:51.82	79.26	7.07	
2025-01-16 09:00:52.02	79.23	7.08	
2025-01-16 09:00:52.23	79.20	7.09	
2025-01-16 09:00:52.43	79.17	7.10	
2025-01-16 09:00:52.63	79.14	7.12	
2025-01-16 09:00:52.83	79.11	7.13	
2025-01-16 09:00:53.04	79.08	7.14	
2025-01-16 09:00:53.24	79.05	7.15	
2025-01-16 09:00:53.44	79.03	7.16	
2025-01-16 09:00:53.65	79.00	7.17	
2025-01-16 09:00:53.85	78.97	7.18	
2025-01-16 09:00:54.05	78.94	7.19	
2025-01-16 09:00:54.26	78.91	7.20	
2025-01-16 09:00:54.46	78.88	7.21	
2025-01-16 09:00:54.66	78.85	7.22	
2025-01-16 09:00:54.87	78.82	7.23	
2025-01-16 09:00:55.07	78.79	7.24	
2025-01-16 09:00:55.27	78.77	7.25	
2025-01-16 09:00:55.47	78.74	7.26	
2025-01-16 09:00:55.68	78.71	7.28	
2025-01-16 09:00:55.88	78.68	7.29	
2025-01-16 09:00:56.08	78.65	7.30	
2025-01-16 09:00:56.29	78.62	7.31	
2025-01-16 09:00:56.49	78.59	7.32	
2025-01-16 09:00:56.69	78.56	7.33	
2025-01-16 09:00:56.90	78.53	7.34	
2025-01-16 09:00:57.10	78.50	7.35	
2025-01-16 09:00:57.30	78.48	7.36	
2025-01-16 09:00:57.51	78.44	7.37	
2025-01-16 09:00:57.71	78.42	7.38	
2025-01-16 09:00:57.91	78.39	7.39	
2025-01-16 09:00:58.12	78.36	7.40	
2025-01-16 09:00:58.32	78.33	7.41	
2025-01-16 09:00:58.52	78.30	7.42	
2025-01-16 09:00:58.72	78.27	7.44	
2025-01-16 09:00:58.93	78.24	7.45	
2025-01-16 09:00:59.13	78.21	7.46	
2025-01-16 09:00:59.33	78.18	7.47	
2025-01-16 09:00:59.54	78.15	7.48	
2025-01-16 09:00:59.74	78.12	7.49	
2025-01-16 09:00:59.94	78.09	7.50	
2025-01-16 09:01:00.15	78.06	7.51	
2025-01-16 09:01:00.35	78.03	7.52	
2025-01-16 09:01:00.55	78.00	7.53	
2025-01-16 09:01:00.76	77.97	7.54	
2025-01-16 09:01:00.96	77.94	7.55	
2025-01-16 09:01:01.16	77.92	7.56	
2025-01-16 09:01:01.37	77.88	7.57	
2025-01-16 09:01:01.57	77.86	7.58	
2025-01-16 09:01:01.77	77.83	7.59	
2025-01-16 09:01:01.97	77.80	7.61	
2025-01-16 09:01:02.18	77.77	7.62	
2025-01-16 09:01:02.38	77.74	7.63	
2025-01-16 09:01:02.58	77.71	7.64	
2025-01-16 09:01:02.79	77.68	7.65	
2025-01-16 09:01:02.99	77.65	7.66	
2025-01-16 09:01:03.19	77.62	7.67	
2025-01-16 09:01:03.40	77.59	7.68	
2025-01-16 09:01:03.60	77.56	7.69	
2025-01-16 09:01:03.80	77.53	7.70	
2025-01-16 09:01:04.01	77.50	7.71	
2025-01-16 09:01:04.21	77.47	7.72	
2025-01-16 09:01:04.41	77.44	7.73	
2025-01-16 09:01:04.61	77.41	7.74	
2025-01-16 09:01:04.82	77.38	7.75	
2025-01-16 09:01:05.02	77.35	7.76	
2025-01-16 09:01:05.22	77.32	7.77	
2025-01-16 09:01:05.43	77.29	7.79	
2025-01-16 09:01:05.63	77.26	7.80	
2025-01-16 09:01:05.83	77.23	7.81	
2025-01-16 09:01:06.04	77.20	7.82	
2025-01-16 09:01:06.24	77.17	7.83	
2025-01-16 09:01:06.44	77.14	7.84	
2025-01-16 09:01:06.65	77.10	7.85	
2025-01-16 09:01:06.85	77.07	7.86	
2025-01-16 09:01:07.05	77.04	7.87	
2025-01-16 09:01:07.26	77.01	7.88	
2025-01-16 09:01:07.46	76.98	7.89	
2025-01-16 09:01:07.66	76.95	7.90	
2025-01-16 09:01:07.86	76.92	7.91	
2025-01-16 09:01:08.07	76.89	7.92	
2025-01-16 09:01:08.27	76.86	7.93	
2025-01-16 09:01:08.47	76.83	7.94	
2025-01-16 09:01:08.68	76.80	7.95	
2025-01-16 09:01:08.88	76.77	7.97	
2025-01-16 09:01:09.08	76.74	7.98	
2025-01-16 09:01:09.29	76.71	7.99	
2025-01-16 09:01:09.49	76.68	8.00	
2025-01-16 09:01:09.69	76.65	8.01	
2025-01-16 09:01:09.90	76.62	8.02	
2025-01-16 09:01:10.10	76.59	8.03	
2025-01-16 09:01:10.30	76.56	8.04	
2025-01-16 09:01:10.50	76.53	8.05	
2025-01-16 09:01:10.71	76.49	8.06	
2025-01-16 09:01:10.91	76.46	8.07	
2025-01-16 09:01:11.11	76.43	8.08	
2025-01-16 09:01:11.32	76.40	8.09	
2025-01-16 09:01:11.52	76.37	8.10	
2025-01-16 09:01:11.72	76.34	8.11	
2025-01-16 09:01:11.93	76.31	8.12	
2025-01-16 09:01:12.13	76.28	8.13	
2025-01-16 09:01:12.33	76.25	8.14	
2025-01-16 09:01:12.54	76.21	8.15	
2025-01-16 09:01:12.74	76.18	8.17	
2025-01-16 09:01:12.94	76.15	8.18	
2025-01-16 09:01:13.15	76.12	8.19	
2025-01-16 09:01:13.35	76.09	8.20	
2025-01-16 09:01:13.55	76.06	8.21	
2025-01-16 09:01:13.75	76.03	8.22	
2025-01-16 09:01:13.96	76.00	8.23	
2025-01-16 09:01:14.16	75.97	8.24	
2025-01-16 09:01:14.36	75.94	8.25	
2025-01-16 09:01:14.57	75.90	8.26	
2025-01-16 09:01:14.77	75.87	8.27	
2025-01-16 09:01:14.97	75.84	8.28	
2025-01-16 09:01:15.18	75.81	8.29	
2025-01-16 09:01:15.38	75.78	8.30	
2025-01-16 09:01:15.58	75.75	8.31	
2025-01-16 09:01:15.79	75.71	8.32	
2025-01-16 09:01:15.99	75.68	8.33	
2025-01-16 09:01:16.19	75.65	8.34	
2025-01-16 09:01:16.40	75.62	8.35	
2025-01-16 09:01:16.60	75.59	8.36	
2025-01-16 09:01:16.80	75.56	8.37	
2025-01-16 09:01:17.00	75.53	8.38	
2025-01-16 09:01:17.21	75.49	8.40	
2025-01-16 09:01:17.41	75.46	8.41	
2025-01-16 09:01:17.61	75.43	8.42	
2025-01-16 09:01:17.82	75.40	8.43	
2025-01-16 09:01:18.02	75.37	8.44	
2025-01-16 09:01:18.22	75.34	8.45	
2025-01-16 09:01:18.43	75.30	8.46	
2025-01-16 09:01:18.63	75.27	8.47	
2025-01-16 09:01:18.83	75.24	8.48	
2025-01-16 09:01:19.04	75.21	8.49	
2025-01-16 09:01:19.24	75.18	8.50	
2025-01-16 09:01:19.44	75.15	8.51	
2025-01-16 09:01:19.64	75.11	8.52	
2025-01-16 09:01:19.85	75.08	8.53	
2025-01-16 09:01:20.05	75.05	8.54	
2025-01-16 09:01:20.25	75.02	8.55	
2025-01-16 09:01:20.46	74.99	8.56	
2025-01-16 09:01:20.66	74.95	8.57	
2025-01-16 09:01:20.86	74.92	8.58	
2025-01-16 09:01:21.07	74.89	8.59	
2025-01-16 09:01:21.27	74.86	8.60	
2025-01-16 09:01:21.47	74.83	8.61	
2025-01-16 09:01:21.68	74.79	8.62	
2025-01-16 09:01:21.88	74.76	8.63	
2025-01-16 09:01:22.08	74.73	8.64	
2025-01-16 09:01:22.29	74.70	8.66	
2025-01-16 09:01:22.49	74.66	8.67	
2025-01-16 09:01:22.69	74.63	8.68	
2025-01-16 09:01:22.89	74.60	8.69	
2025-01-16 09:01:23.10	74.57	8.70	
2025-01-16 09:01:23.30	74.54	8.71	
2025-01-16 09:01:23.50	74.50	8.72	
2025-01-16 09:01:23.71	74.47	8.73	
2025-01-16 09:01:23.91	74.44	8.74	
2025-01-16 09:01:24.11	74.41	8.75	
2025-01-16 09:01:24.32	74.37	8.76	
2025-01-16 09:01:24.52	74.34	8.77	
2025-01-16 09:01:24.72	74.31	8.78	
2025-01-16 09:01:24.93	74.28	8.79	
2025-01-16 09:01:25.13	74.24	8.80	
2025-01-16 09:01:25.33	74.21	8.81	
2025-01-16 09:01:25.54	74.18	8.82	
2025-01-16 09:01:25.74	74.15	8.83	
2025-01-16 09:01:25.94	74.11	8.84	
2025-01-16 09:01:26.14	74.08	8.85	
2025-01-16 09:01:26.35	74.05	8.86	
2025-01-16 09:01:26.55	74.01	8.87	
2025-01-16 09:01:26.75	73.98	8.88	
2025-01-16 09:01:26.96	73.95	8.89	
2025-01-16 09:01:27.16	73.92	8.90	
2025-01-16 09:01:27.36	73.88	8.91	
2025-01-16 09:01:27.57	73.85	8.92	
2025-01-16 09:01:27.77	73.82	8.93	
2025-01-16 09:01:27.97	73.79	8.94	
2025-01-16 09:01:28.18	73.75	8.95	
2025-01-16 09:01:28.38	73.72	8.96	
2025-01-16 09:01:28.58	73.69	8.97	
2025-01-16 09:01:28.78	73.65	8.98	
2025-01-16 09:01:28.99	73.62	9.00	
2025-01-16 09:01:29.19	73.59	9.01	
2025-01-16 09:01:29.39	73.55	9.02	
2025-01-16 09:01:29.60	73.52	9.03	
2025-01-16 09:01:29.80	73.49	9.04	
2025-01-16 09:01:30.00	73.45	9.05	
2025-01-16 09:01:30.21	73.42	9.06	
2025-01-16 09:01:30.41	73.39	9.07	
2025-01-16 09:01:30.61	73.35	9.08	
2025-01-16 09:01:30.82	73.32	9.09	
2025-01-16 09:01:31.02	73.29	9.10	
2025-01-16 09:01:31.22	73.25	9.11	
2025-01-16 09:01:31.43	73.22	9.12	
2025-01-16 09:01:31.63	73.19	9.13	
2025-01-16 09:01:31.83	73.15	9.14	
2025-01-16 09:01:32.03	73.12	9.15	
2025-01-16 09:01:32.24	73.09	9.16	
2025-01-16 09:01:32.44	73.05	9.17	
2025-01-16 09:01:32.64	73.02	9.18	
2025-01-16 09:01:32.85	72.99	9.19	
2025-01-16 09:01:33.05	72.95	9.20	
2025-01-16 09:01:33.25	72.92	9.21	
2025-01-16 09:01:33.46	72.89	9.22	
2025-01-16 09:01:33.66	72.85	9.23	
2025-01-16 09:01:33.86	72.82	9.24	
2025-01-16 09:01:34.07	72.78	9.25	
2025-01-16 09:01:34.27	72.75	9.26	
2025-01-16 09:01:34.47	72.72	9.27	
2025-01-16 09:01:34.67	72.68	9.28	
2025-01-16 09:01:34.88	72.65	9.29	
2025-01-16 09:01:35.08	72.62	9.30	
2025-01-16 09:01:35.28	72.58	9.31	
2025-01-16 09:01:35.49	72.55	9.32	
2025-01-16 09:01:35.69	72.51	9.33	
2025-01-16 09:01:35.89	72.48	9.34	
2025-01-16 09:01:36.10	72.45	9.35	
2025-01-16 09:01:36.30	72.41	9.36	
2025-01-16 09:01:36.50	72.38	9.37	
2025-01-16 09:01:36.71	72.34	9.38	
2025-01-16 09:01:36.91	72.31	9.39	
2025-01-16 09:01:37.11	72.28	9.40	
2025-01-16 09:01:37.32	72.24	9.41	
2025-01-16 09:01:37.52	72.21	9.42	
2025-01-16 09:01:37.72	72.17	9.43	
2025-01-16 09:01:37.92	72.14	9.44	
2025-01-16 09:01:38.13	72.11	9.45	
2025-01-16 09:01:38.33	72.07	9.46	
2025-01-16 09:01:38.53	72.04	9.47	
2025-01-16 09:01:38.74	72.00	9.48	
2025-01-16 09:01:38.94	71.97	9.49	
2025-01-16 09:01:39.14	71.94	9.50	
2025-01-16 09:01:39.35	71.90	9.51	
2025-01-16 09:01:39.55	71.87	9.52	
2025-01-16 09:01:39.75	71.83	9.53	
2025-01-16 09:01:39.96	71.80	9.54	
2025-01-16 09:01:40.16	71.76	9.55	
2025-01-16 09:01:40.36	71.73	9.56	
2025-01-16 09:01:40.57	71.69	9.57	
2025-01-16 09:01:40.77	71.66	9.58	
2025-01-16 09:01:40.97	71.62	9.59	
2025-01-16 09:01:41.17	71.59	9.60	
2025-01-16 09:01:41.38	71.56	9.61	
2025-01-16 09:01:41.58	71.52	9.62	
2025-01-16 09:01:41.78	71.49	9.63	
2025-01-16 09:01:41.99	71.45	9.64	
2025-01-16 09:01:42.19	71.42	9.65	
2025-01-16 09:01:42.39	71.38	9.66	
2025-01-16 09:01:42.60	71.35	9.67	
2025-01-16 09:01:42.80	71.31	9.68	
2025-01-16 09:01:43.00	71.28	9.69	
2025-01-16 09:01:43.21	71.24	9.70	
2025-01-16 09:01:43.41	71.21	9.71	
2025-01-16 09:01:43.61	71.17	9.72	
2025-01-16 09:01:43.81	71.14	9.73	
2025-01-16 09:01:44.02	71.10	9.74	
2025-01-16 09:01:44.22	71.07	9.75	
2025-01-16 09:01:44.42	71.03	9.76	
2025-01-16 09:01:44.63	71.00	9.77	
2025-01-16 09:01:44.83	70.96	9.78	
2025-01-16 09:01:45.03	70.93	9.79	
2025-01-16 09:01:45.24	70.89	9.80	
2025-01-16 09:01:45.44	70.86	9.81	
2025-01-16 09:01:45.64	70.82	9.82	
2025-01-16 09:01:45.85	70.79	9.83	
2025-01-16 09:01:46.05	70.75	9.84	
2025-01-16 09:01:46.25	70.72	9.85	
2025-01-16 09:01:46.46	70.68	9.86	
2025-01-16 09:01:46.66	70.65	9.87	
2025-01-16 09:01:46.86	70.61	9.88	
2025-01-16 09:01:47.06	70.58	9.89	
2025-01-16 09:01:47.27	70.54	9.90	
2025-01-16 09:01:47.47	70.51	9.91	
2025-01-16 09:01:47.67	70.47	9.92	
2025-01-16 09:01:47.88	70.43	9.93	
2025-01-16 09:01:48.08	70.40	9.94	
2025-01-16 09:01:48.28	70.36	9.95	
2025-01-16 09:01:48.49	70.33	9.96	
2025-01-16 09:01:48.69	70.29	9.97	
2025-01-16 09:01:48.89	70.26	9.98	
2025-01-16 09:01:49.10	70.22	9.99	
2025-01-16 09:01:49.30	70.19	10.00	
2025-01-16 09:01:49.50	70.15	10.01	
2025-01-16 09:01:49.71	70.11	10.02	
2025-01-16 09:01:49.91	70.08	10.03	
2025-01-16 09:01:50.11	70.04	10.04	
2025-01-16 09:01:50.31	70.01	10.04	
2025-01-16 09:01:50.52	69.97	10.06	
2025-01-16 09:01:50.72	69.94	10.06	
2025-01-16 09:01:50.92	69.90	10.07	
2025-01-16 09:01:51.13	69.86	10.08	
2025-01-16 09:01:51.33	69.83	10.09	
2025-01-16 09:01:51.53	69.79	10.10	
2025-01-16 09:01:51.74	69.76	10.11	
2025-01-16 09:01:51.94	69.72	10.12	
2025-01-16 09:01:52.14	69.68	10.13	
2025-01-16 09:01:52.35	69.65	10.14	
2025-01-16 09:01:52.55	69.61	10.15	
2025-01-16 09:01:52.75	69.58	10.16	
2025-01-16 09:01:52.95	69.54	10.17	
2025-01-16 09:01:53.16	69.50	10.18	
2025-01-16 09:01:53.36	69.47	10.19	
2025-01-16 09:01:53.56	69.43	10.20	
2025-01-16 09:01:53.77	69.39	10.21	
2025-01-16 09:01:53.97	69.36	10.22	
2025-01-16 09:01:54.17	69.32	10.23	
2025-01-16 09:01:54.38	69.29	10.24	
2025-01-16 09:01:54.58	69.25	10.25	
2025-01-16 09:01:54.78	69.21	10.26	
2025-01-16 09:01:54.99	69.18	10.27	
2025-01-16 09:01:55.19	69.14	10.28	
2025-01-16 09:01:55.39	69.11	10.29	
2025-01-16 09:01:55.60	69.07	10.30	
2025-01-16 09:01:55.80	69.03	10.31	
2025-01-16 09:01:56.00	69.00	10.32	
2025-01-16 09:01:56.20	68.96	10.32	
2025-01-16 09:01:56.41	68.92	10.33	
2025-01-16 09:01:56.61	68.89	10.34	
2025-01-16 09:01:56.81	68.85	10.35	
2025-01-16 09:01:57.02	68.81	10.36	
2025-01-16 09:01:57.22	68.78	10.37	
2025-01-16 09:01:57.42	68.74	10.38	
2025-01-16 09:01:57.63	68.70	10.39	
2025-01-16 09:01:57.83	68.67	10.40	
2025-01-16 09:01:58.03	68.63	10.41	
2025-01-16 09:01:58.24	68.59	10.42	
2025-01-16 09:01:58.44	68.56	10.43	
2025-01-16 09:01:58.64	68.52	10.44	
2025-01-16 09:01:58.85	68.48	10.45	
2025-01-16 09:01:59.05	68.45	10.46	
2025-01-16 09:01:59.25	68.41	10.47	
2025-01-16 09:01:59.45	68.37	10.48	
2025-01-16 09:01:59.66	68.33	10.49	
2025-01-16 09:01:59.86	68.30	10.50	
2025-01-16 09:02:00.06	68.26	10.50	
2025-01-16 09:02:00.27	68.22	10.51	
2025-01-16 09:02:00.47	68.19	10.52	
2025-01-16 09:02:00.67	68.15	10.53	
2025-01-16 09:02:00.88	68.11	10.54	
2025-01-16 09:02:01.08	68.08	10.55	
2025-01-16 09:02:01.28	68.04	10.56	
2025-01-16 09:02:01.49	68.00	10.57	
2025-01-16 09:02:01.69	67.96	10.58	
2025-01-16 09:02:01.89	67.93	10.59	
2025-01-16 09:02:02.09	67.89	10.60	
2025-01-16 09:02:02.30	67.85	10.61	
2025-01-16 09:02:02.50	67.82	10.62	
2025-01-16 09:02:02.70	67.78	10.63	
2025-01-16 09:02:02.91	67.74	10.64	
2025-01-16 09:02:03.11	67.70	10.65	
2025-01-16 09:02:03.31	67.67	10.65	
2025-01-16 09:02:03.52	67.63	10.66	
2025-01-16 09:02:03.72	67.59	10.67	
2025-01-16 09:02:03.92	67.55	10.68	
2025-01-16 09:02:04.13	67.51	10.69	
2025-01-16 09:02:04.33	67.48	10.70	
2025-01-16 09:02:04.53	67.44	10.71	
2025-01-16 09:02:04.74	67.40	10.72	
2025-01-16 09:02:04.94	67.36	10.73	
2025-01-16 09:02:05.14	67.33	10.74	
2025-01-16 09:02:05.34	67.29	10.75	
2025-01-16 09:02:05.55	67.25	10.76	
2025-01-16 09:02:05.75	67.21	10.77	
2025-01-16 09:02:05.95	67.18	10.77	
2025-01-16 09:02:06.16	67.14	10.78	
2025-01-16 09:02:06.36	67.10	10.79	
2025-01-16 09:02:06.56	67.06	10.80	
2025-01-16 09:02:06.77	67.02	10.81	
2025-01-16 09:02:06.97	66.99	10.82	
2025-01-16 09:02:07.17	66.95	10.83	
2025-01-16 09:02:07.38	66.91	10.84	
2025-01-16 09:02:07.58	66.87	10.85	
2025-01-16 09:02:07.78	66.84	10.86	
2025-01-16 09:02:07.99	66.80	10.87	
2025-01-16 09:02:08.19	66.76	10.88	
2025-01-16 09:02:08.39	66.72	10.89	
2025-01-16 09:02:08.59	66.68	10.89	
2025-01-16 09:02:08.80	66.65	10.90	
2025-01-16 09:02:09.00	66.61	10.91	
2025-01-16 09:02:09.20	66.57	10.92	
2025-01-16 09:02:09.41	66.53	10.93	
2025-01-16 09:02:09.61	66.49	10.94	
2025-01-16 09:02:09.81	66.46	10.95	
2025-01-16 09:02:10.02	66.42	10.96	
2025-01-16 09:02:10.22	66.38	10.97	
2025-01-16 09:02:10.42	66.34	10.98	
2025-01-16 09:02:10.63	66.30	10.99	
2025-01-16 09:02:10.83	66.26	10.99	
2025-01-16 09:02:11.03	66.23	11.00	
2025-01-16 09:02:11.23	66.19	11.01	
2025-01-16 09:02:11.44	66.15	11.02	
2025-01-16 09:02:11.64	66.11	11.03	
2025-01-16 09:02:11.84	66.07	11.04	
2025-01-16 09:02:12.05	66.03	11.05	
2025-01-16 09:02:12.25	65.99	11.06	
2025-01-16 09:02:12.45	65.96	11.07	
2025-01-16 09:02:12.66	65.92	11.08	
2025-01-16 09:02:12.86	65.88	11.08	
2025-01-16 09:02:13.06	65.84	11.09	
2025-01-16 09:02:13.27	65.80	11.10	
2025-01-16 09:02:13.47	65.76	11.11	
2025-01-16 09:02:13.67	65.72	11.12	
2025-01-16 09:02:13.88	65.68	11.13	
2025-01-16 09:02:14.08	65.65	11.14	
2025-01-16 09:02:14.28	65.61	11.15	
2025-01-16 09:02:14.48	65.57	11.15	
2025-01-16 09:02:14.69	65.53	11.16	
2025-01-16 09:02:14.89	65.49	11.17	
2025-01-16 09:02:15.09	65.45	11.18	
2025-01-16 09:02:15.30	65.41	11.19	
2025-01-16 09:02:15.50	65.37	11.20	
2025-01-16 09:02:15.70	65.34	11.21	
2025-01-16 09:02:15.91	65.30	11.22	
2025-01-16 09:02:16.11	65.26	11.23	
2025-01-16 09:02:16.31	65.22	11.23	
2025-01-16 09:02:16.52	65.18	11.24	
2025-01-16 09:02:16.72	65.14	11.25	
2025-01-16 09:02:16.92	65.10	11.26	
2025-01-16 09:02:17.12	65.06	11.27	
2025-01-16 09:02:17.33	65.02	11.28	
2025-01-16 09:02:17.53	64.98	11.29	
2025-01-16 09:02:17.73	64.94	11.30	
2025-01-16 09:02:17.94	64.90	11.30	
2025-01-16 09:02:18.14	64.87	11.31	
2025-01-16 09:02:18.34	64.83	11.32	
2025-01-16 09:02:18.55	64.79	11.33	
2025-01-16 09:02:18.75	64.75	11.34	
2025-01-16 09:02:18.95	64.71	11.35	
2025-01-16 09:02:19.16	64.67	11.36	
2025-01-16 09:02:19.36	64.63	11.37	
2025-01-16 09:02:19.56	64.59	11.37	
2025-01-16 09:02:19.77	64.55	11.38	
2025-01-16 09:02:19.97	64.51	11.39	
2025-01-16 09:02:20.17	64.47	11.40	
2025-01-16 09:02:20.37	64.43	11.41	
2025-01-16 09:02:20.58	64.39	11.42	
2025-01-16 09:02:20.78	64.35	11.43	
2025-01-16 09:02:20.98	64.31	11.43	
2025-01-16 09:02:21.19	64.27	11.44	
2025-01-16 09:02:21.39	64.23	11.45	
2025-01-16 09:02:21.59	64.19	11.46	
2025-01-16 09:02:21.80	64.15	11.47	
2025-01-16 09:02:22.00	64.11	11.48	
2025-01-16 09:02:22.20	64.08	11.49	
2025-01-16 09:02:22.41	64.03	11.49	
2025-01-16 09:02:22.61	63.99	11.50	
2025-01-16 09:02:22.81	63.96	11.51	
2025-01-16 09:02:23.02	63.91	11.52	
2025-01-16 09:02:23.22	63.87	11.53	
2025-01-16 09:02:23.42	63.84	11.54	
2025-01-16 09:02:23.62	63.80	11.55	
2025-01-16 09:02:23.83	63.75	11.55	
2025-01-16 09:02:24.03	63.72	11.56	
2025-01-16 09:02:24.23	63.68	11.57	
2025-01-16 09:02:24.44	63.63	11.58	
2025-01-16 09:02:24.64	63.60	11.59	
2025-01-16 09:02:24.84	63.56	11.60	
2025-01-16 09:02:25.05	63.51	11.60	
2025-01-16 09:02:25.25	63.47	11.61	
2025-01-16 09:02:25.45	63.44	11.62	
2025-01-16 09:02:25.66	63.39	11.63	
2025-01-16 09:02:25.86	63.35	11.64	
2025-01-16 09:02:26.06	63.31	11.65	
2025-01-16 09:02:26.26	63.27	11.65	
2025-01-16 09:02:26.47	63.23	11.66	
2025-01-16 09:02:26.67	63.19	11.67	
2025-01-16 09:02:26.87	63.15	11.68	
2025-01-16 09:02:27.08	63.11	11.69	
2025-01-16 09:02:27.28	63.07	11.70	
2025-01-16 09:02:27.48	63.03	11.70	
2025-01-16 09:02:27.69	62.99	11.71	
2025-01-16 09:02:27.89	62.95	11.72	
2025-01-16 09:02:28.09	62.91	11.73	
2025-01-16 09:02:28.30	62.87	11.74	
2025-01-16 09:02:28.50	62.83	11.75	
2025-01-16 09:02:28.70	62.79	11.75	
2025-01-16 09:02:28.91	62.75	11.76	
2025-01-16 09:02:29.11	62.71	11.77	
2025-01-16 09:02:29.31	62.67	11.78	
2025-01-16 09:02:29.51	62.63	11.79	
2025-01-16 09:02:29.72	62.58	11.80	
2025-01-16 09:02:29.92	62.54	11.80	
2025-01-16 09:02:30.12	62.50	11.81	
2025-01-16 09:02:30.33	62.46	11.82	
2025-01-16 09:02:30.53	62.42	11.83	
2025-01-16 09:02:30.73	62.38	11.84	
2025-01-16 09:02:30.94	62.34	11.84	
2025-01-16 09:02:31.14	62.30	11.85	
2025-01-16 09:02:31.34	62.26	11.86	
2025-01-16 09:02:31.55	62.22	11.87	
2025-01-16 09:02:31.75	62.18	11.88	
2025-01-16 09:02:31.95	62.14	11.88	
2025-01-16 09:02:32.16	62.09	11.89	
2025-01-16 09:02:32.36	62.05	11.90	
2025-01-16 09:02:32.56	62.01	11.91	
2025-01-16 09:02:32.76	61.97	11.92	
2025-01-16 09:02:32.97	61.93	11.92	
2025-01-16 09:02:33.17	61.89	11.93	
2025-01-16 09:02:33.37	61.85	11.94	
2025-01-16 09:02:33.58	61.81	11.95	
2025-01-16 09:02:33.78	61.77	11.96	
2025-01-16 09:02:33.98	61.73	11.96	
2025-01-16 09:02:34.19	61.68	11.97	
2025-01-16 09:02:34.39	61.64	11.98	
2025-01-16 09:02:34.59	61.60	11.99	
2025-01-16 09:02:34.80	61.56	12.00	
2025-01-16 09:02:35.00	61.52	12.00	
2025-01-16 09:02:35.20	61.48	12.01	
2025-01-16 09:02:35.40	61.44	12.02	
2025-01-16 09:02:35.61	61.39	12.03	
2025-01-16 09:02:35.81	61.35	12.04	
2025-01-16 09:02:36.01	61.31	12.04	
2025-01-16 09:02:36.22	61.27	12.05	
2025-01-16 09:02:36.42	61.23	12.06	
2025-01-16 09:02:36.62	61.19	12.07	
2025-01-16 09:02:36.83	61.14	12.07	
2025-01-16 09:02:37.03	61.10	12.08	
2025-01-16 09:02:37.23	61.06	12.09	
2025-01-16 09:02:37.44	61.02	12.10	
2025-01-16 09:02:37.64	60.98	12.11	
2025-01-16 09:02:37.84	60.94	12.11	
2025-01-16 09:02:38.05	60.89	12.12	
2025-01-16 09:02:38.25	60.85	12.13	
2025-01-16 09:02:38.45	60.81	12.14	
2025-01-16 09:02:38.65	60.77	12.14	
2025-01-16 09:02:38.86	60.73	12.15	
2025-01-16 09:02:39.06	60.69	12.16	
2025-01-16 09:02:39.26	60.65	12.17	
2025-01-16 09:02:39.47	60.60	12.18	
2025-01-16 09:02:39.67	60.56	12.18	
2025-01-16 09:02:39.87	60.52	12.19	
2025-01-16 09:02:40.08	60.48	12.20	
2025-01-16 09:02:40.28	60.44	12.21	
2025-01-16 09:02:40.48	60.39	12.21	
2025-01-16 09:02:40.69	60.35	12.22	
2025-01-16 09:02:40.89	60.31	12.23	
2025-01-16 09:02:41.09	60.27	12.24	
2025-01-16 09:02:41.30	60.22	12.24	
2025-01-16 09:02:41.50	60.18	12.25	
2025-01-16 09:02:41.70	60.14	12.26	
2025-01-16 09:02:41.90	60.10	12.27	
2025-01-16 09:02:42.11	60.06	12.27	
2025-01-16 09:02:42.31	60.02	12.28	
2025-01-16 09:02:42.51	59.97	12.29	
2025-01-16 09:02:42.72	59.93	12.30	
2025-01-16 09:02:42.92	59.89	12.30	
2025-01-16 09:02:43.12	59.85	12.31	
2025-01-16 09:02:43.33	59.80	12.32	
2025-01-16 09:02:43.53	59.76	12.33	
2025-01-16 09:02:43.73	59.72	12.33	
2025-01-16 09:02:43.94	59.68	12.34	
2025-01-16 09:02:44.14	59.63	12.35	
2025-01-16 09:02:44.34	59.59	12.36	
2025-01-16 09:02:44.54	59.55	12.36	
2025-01-16 09:02:44.75	59.51	12.37	
2025-01-16 09:02:44.95	59.46	12.38	
2025-01-16 09:02:45.15	59.42	12.38	
2025-01-16 09:02:45.36	59.38	12.39	
2025-01-16 09:02:45.56	59.34	12.40	
2025-01-16 09:02:45.76	59.30	12.41	
2025-01-16 09:02:45.97	59.25	12.41	
2025-01-16 09:02:46.17	59.21	12.42	
2025-01-16 09:02:46.37	59.17	12.43	
2025-01-16 09:02:46.58	59.12	12.44	
2025-01-16 09:02:46.78	59.08	12.44	
2025-01-16 09:02:46.98	59.04	12.45	
2025-01-16 09:02:47.19	59.00	12.46	
2025-01-16 09:02:47.39	58.95	12.46	
2025-01-16 09:02:47.59	58.91	12.47	
2025-01-16 09:02:47.79	58.87	12.48	
2025-01-16 09:02:48.00	58.82	12.49	
2025-01-16 09:02:48.20	58.78	12.49	
2025-01-16 09:02:48.40	58.74	12.50	
2025-01-16 09:02:48.61	58.70	12.51	
2025-01-16 09:02:48.81	58.65	12.51	
2025-01-16 09:02:49.01	58.61	12.52	
2025-01-16 09:02:49.22	58.57	12.53	
2025-01-16 09:02:49.42	58.52	12.54	
2025-01-16 09:02:49.62	58.48	12.54	
2025-01-16 09:02:49.83	58.44	12.55	
2025-01-16 09:02:50.03	58.40	12.56	
2025-01-16 09:02:50.23	58.35	12.56	
2025-01-16 09:02:50.44	58.31	12.57	
2025-01-16 09:02:50.64	58.27	12.58	
2025-01-16 09:02:50.84	58.22	12.58	
2025-01-16 09:02:51.04	58.18	12.59	
2025-01-16 09:02:51.25	58.14	12.60	
2025-01-16 09:02:51.45	58.09	12.61	
2025-01-16 09:02:51.65	58.05	12.61	
2025-01-16 09:02:51.86	58.01	12.62	
2025-01-16 09:02:52.06	57.96	12.63	
2025-01-16 09:02:52.26	57.92	12.63	
2025-01-16 09:02:52.47	57.88	12.64	
2025-01-16 09:02:52.67	57.83	12.65	
2025-01-16 09:02:52.87	57.79	12.65	
2025-01-16 09:02:53.08	57.75	12.66	
2025-01-16 09:02:53.28	57.70	12.67	
2025-01-16 09:02:53.48	57.66	12.67	
2025-01-16 09:02:53.68	57.62	12.68	
2025-01-16 09:02:53.89	57.57	12.69	
2025-01-16 09:02:54.09	57.53	12.69	
2025-01-16 09:02:54.29	57.49	12.70	
2025-01-16 09:02:54.50	57.44	12.71	
2025-01-16 09:02:54.70	57.40	12.71	
2025-01-16 09:02:54.90	57.36	12.72	
2025-01-16 09:02:55.11	57.31	12.73	
2025-01-16 09:02:55.31	57.27	12.73	
2025-01-16 09:02:55.51	57.23	12.74	
2025-01-16 09:02:55.72	57.18	12.75	
2025-01-16 09:02:55.92	57.14	12.75	
2025-01-16 09:02:56.12	57.09	12.76	
2025-01-16 09:02:56.33	57.05	12.77	
2025-01-16 09:02:56.53	57.01	12.77	
2025-01-16 09:02:56.73	56.96	12.78	
2025-01-16 09:02:56.93	56.92	12.79	
2025-01-16 09:02:57.14	56.88	12.79	
2025-01-16 09:02:57.34	56.83	12.80	
2025-01-16 09:02:57.54	56.79	12.81	
2025-01-16 09:02:57.75	56.74	12.81	
2025-01-16 09:02:57.95	56.70	12.82	
2025-01-16 09:02:58.15	56.66	12.83	
2025-01-16 09:02:58.36	56.61	12.83	
2025-01-16 09:02:58.56	56.57	12.84	
2025-01-16 09:02:58.76	56.53	12.85	
2025-01-16 09:02:58.97	56.48	12.85	
2025-01-16 09:02:59.17	56.44	12.86	
2025-01-16 09:02:59.37	56.39	12.87	
2025-01-16 09:02:59.57	56.35	12.87	
2025-01-16 09:02:59.78	56.30	12.88	
2025-01-16 09:02:59.98	56.26	12.88	
2025-01-16 09:03:00.18	56.22	12.89	
2025-01-16 09:03:00.39	56.17	12.90	
2025-01-16 09:03:00.59	56.13	12.90	
2025-01-16 09:03:00.79	56.08	12.91	
2025-01-16 09:03:01.00	56.04	12.92	
2025-01-16 09:03:01.20	56.00	12.92	
2025-01-16 09:03:01.40	55.95	12.93	
2025-01-16 09:03:01.61	55.91	12.94	
2025-01-16 09:03:01.81	55.86	12.94	
2025-01-16 09:03:02.01	55.82	12.95	
2025-01-16 09:03:02.22	55.77	12.95	
2025-01-16 09:03:02.42	55.73	12.96	
2025-01-16 09:03:02.62	55.69	12.97	
2025-01-16 09:03:02.82	55.64	12.97	
2025-01-16 09:03:03.03	55.60	12.98	
2025-01-16 09:03:03.23	55.55	12.98	
2025-01-16 09:03:03.43	55.51	12.99	
2025-01-16 09:03:03.64	55.46	13.00	
2025-01-16 09:03:03.84	55.42	13.00	
2025-01-16 09:03:04.04	55.38	13.01	
2025-01-16 09:03:04.25	55.33	13.02	
2025-01-16 09:03:04.45	55.29	13.02	
2025-01-16 09:03:04.65	55.24	13.03	
2025-01-16 09:03:04.86	55.20	13.03	
2025-01-16 09:03:05.06	55.15	13.04	
2025-01-16 09:03:05.26	55.11	13.05	
2025-01-16 09:03:05.47	55.06	13.05	
2025-01-16 09:03:05.67	55.02	13.06	
2025-01-16 09:03:05.87	54.97	13.06	
2025-01-16 09:03:06.07	54.93	13.07	
2025-01-16 09:03:06.28	54.88	13.08	
2025-01-16 09:03:06.48	54.84	13.08	
2025-01-16 09:03:06.68	54.80	13.09	
2025-01-16 09:03:06.89	54.75	13.09	
2025-01-16 09:03:07.09	54.71	13.10	
2025-01-16 09:03:07.29	54.66	13.10	
2025-01-16 09:03:07.50	54.61	13.11	
2025-01-16 09:03:07.70	54.57	13.12	
2025-01-16 09:03:07.90	54.53	13.12	
2025-01-16 09:03:08.11	54.48	13.13	
2025-01-16 09:03:08.31	54.44	13.13	
2025-01-16 09:03:08.51	54.39	13.14	
2025-01-16 09:03:08.71	54.35	13.15	
2025-01-16 09:03:08.92	54.30	13.15	
2025-01-16 09:03:09.12	54.26	13.16	
2025-01-16 09:03:09.32	54.21	13.16	
2025-01-16 09:03:09.53	54.17	13.17	
2025-01-16 09:03:09.73	54.12	13.17	
2025-01-16 09:03:09.93	54.08	13.18	
2025-01-16 09:03:10.14	54.03	13.19	
2025-01-16 09:03:10.34	53.99	13.19	
2025-01-16 09:03:10.54	53.94	13.20	
2025-01-16 09:03:10.75	53.90	13.20	
2025-01-16 09:03:10.95	53.85	13.21	
2025-01-16 09:03:11.15	53.81	13.21	
2025-01-16 09:03:11.36	53.76	13.22	
2025-01-16 09:03:11.56	53.72	13.22	
2025-01-16 09:03:11.76	53.67	13.23	
2025-01-16 09:03:11.96	53.63	13.24	
2025-01-16 09:03:12.17	53.58	13.24	
2025-01-16 09:03:12.37	53.53	13.25	
2025-01-16 09:03:12.57	53.49	13.25	
2025-01-16 09:03:12.78	53.44	13.26	
2025-01-16 09:03:12.98	53.40	13.26	
2025-01-16 09:03:13.18	53.35	13.27	
2025-01-16 09:03:13.39	53.31	13.27	
2025-01-16 09:03:13.59	53.26	13.28	
2025-01-16 09:03:13.79	53.22	13.28	
2025-01-16 09:03:14.00	53.17	13.29	
2025-01-16 09:03:14.20	53.13	13.29	
2025-01-16 09:03:14.40	53.08	13.30	
2025-01-16 09:03:14.61	53.03	13.31	
2025-01-16 09:03:14.81	52.99	13.31	
2025-01-16 09:03:15.01	52.94	13.32	
2025-01-16 09:03:15.21	52.90	13.32	
2025-01-16 09:03:15.42	52.85	13.33	
2025-01-16 09:03:15.62	52.81	13.33	
2025-01-16 09:03:15.82	52.76	13.34	
2025-01-16 09:03:16.03	52.72	13.34	
2025-01-16 09:03:16.23	52.67	13.35	
2025-01-16 09:03:16.43	52.63	13.35	
2025-01-16 09:03:16.64	52.58	13.36	
2025-01-16 09:03:16.84	52.53	13.36	
2025-01-16 09:03:17.04	52.49	13.37	
2025-01-16 09:03:17.25	52.44	13.37	
2025-01-16 09:03:17.45	52.40	13.38	
2025-01-16 09:03:17.65	52.35	13.38	
2025-01-16 09:03:17.85	52.31	13.39	
2025-01-16 09:03:18.06	52.26	13.39	
2025-01-16 09:03:18.26	52.21	13.40	
2025-01-16 09:03:18.46	52.17	13.40	
2025-01-16 09:03:18.67	52.12	13.41	
2025-01-16 09:03:18.87	52.08	13.41	
2025-01-16 09:03:19.07	52.03	13.42	
2025-01-16 09:03:19.28	51.98	13.42	
2025-01-16 09:03:19.48	51.94	13.43	
2025-01-16 09:03:19.68	51.89	13.43	
2025-01-16 09:03:19.89	51.85	13.44	
2025-01-16 09:03:20.09	51.80	13.44	
2025-01-16 09:03:20.29	51.76	13.45	
2025-01-16 09:03:20.50	51.71	13.45	
2025-01-16 09:03:20.70	51.66	13.46	
2025-01-16 09:03:20.90	51.62	13.46	
2025-01-16 09:03:21.10	51.57	13.47	
2025-01-16 09:03:21.31	51.53	13.47	
2025-01-16 09:03:21.51	51.48	13.48	
2025-01-16 09:03:21.71	51.44	13.48	
2025-01-16 09:03:21.92	51.39	13.49	
2025-01-16 09:03:22.12	51.34	13.49	
2025-01-16 09:03:22.32	51.30	13.50	
2025-01-16 09:03:22.53	51.25	13.50	
2025-01-16 09:03:22.73	51.20	13.50	
2025-01-16 09:03:22.93	51.16	13.51	
2025-01-16 09:03:23.14	51.11	13.51	
2025-01-16 09:03:23.34	51.07	13.52	
2025-01-16 09:03:23.54	51.02	13.52	
2025-01-16 09:03:23.75	50.97	13.53	
2025-01-16 09:03:23.95	50.93	13.53	
2025-01-16 09:03:24.15	50.88	13.54	
2025-01-16 09:03:24.35	50.84	13.54	
2025-01-16 09:03:24.56	50.79	13.55	
2025-01-16 09:03:24.76	50.74	13.55	
2025-01-16 09:03:24.96	50.70	13.55	
2025-01-16 09:03:25.17	50.65	13.56	
2025-01-16 09:03:25.37	50.60	13.56	
2025-01-16 09:03:25.57	50.56	13.57	
2025-01-16 09:03:25.78	50.51	13.57	
2025-01-16 09:03:25.98	50.46	13.58	
2025-01-16 09:03:26.18	50.42	13.58	
2025-01-16 09:03:26.39	50.37	13.59	
2025-01-16 09:03:26.59	50.32	13.59	
2025-01-16 09:03:26.79	50.28	13.59	
2025-01-16 09:03:26.99	50.23	13.60	
2025-01-16 09:03:27.20	50.19	13.60	
2025-01-16 09:03:27.40	50.14	13.61	
2025-01-16 09:03:27.60	50.09	13.61	
2025-01-16 09:03:27.81	50.05	13.62	
2025-01-16 09:03:28.01	50.00	13.62	
2025-01-16 09:03:28.21	49.95	13.62	
2025-01-16 09:03:28.42	49.91	13.63	
2025-01-16 09:03:28.62	49.86	13.63	
2025-01-16 09:03:28.82	49.81	13.64	
2025-01-16 09:03:29.03	49.77	13.64	
2025-01-16 09:03:29.23	49.72	13.65	
2025-01-16 09:03:29.43	49.67	13.65	
2025-01-16 09:03:29.64	49.63	13.65	
2025-01-16 09:03:29.84	49.58	13.66	
2025-01-16 09:03:30.04	49.53	13.66	
2025-01-16 09:03:30.24	49.49	13.67	
2025-01-16 09:03:30.45	49.44	13.67	
2025-01-16 09:03:30.65	49.39	13.67	
2025-01-16 09:03:30.85	49.35	13.68	
2025-01-16 09:03:31.06	49.30	13.68	
2025-01-16 09:03:31.26	49.25	13.69	
2025-01-16 09:03:31.46	49.21	13.69	
2025-01-16 09:03:31.67	49.16	13.69	
2025-01-16 09:03:31.87	49.11	13.70	
2025-01-16 09:03:32.07	49.07	13.70	
2025-01-16 09:03:32.28	49.02	13.71	
2025-01-16 09:03:32.48	48.97	13.71	
2025-01-16 09:03:32.68	48.93	13.71	
2025-01-16 09:03:32.88	48.88	13.72	
2025-01-16 09:03:33.09	48.83	13.72	
2025-01-16 09:03:33.29	48.79	13.72	
2025-01-16 09:03:33.49	48.74	13.73	
2025-01-16 09:03:33.70	48.69	13.73	
2025-01-16 09:03:33.90	48.65	13.74	
2025-01-16 09:03:34.10	48.60	13.74	
2025-01-16 09:03:34.31	48.55	13.74	
2025-01-16 09:03:34.51	48.50	13.75	
2025-01-16 09:03:34.71	48.46	13.75	
2025-01-16 09:03:34.92	48.41	13.75	
2025-01-16 09:03:35.12	48.36	13.76	
2025-01-16 09:03:35.32	48.32	13.76	
2025-01-16 09:03:35.53	48.27	13.76	
2025-01-16 09:03:35.73	48.22	13.77	
2025-01-16 09:03:35.93	48.18	13.77	
2025-01-16 09:03:36.13	48.13	13.78	
2025-01-16 09:03:36.34	48.08	13.78	
2025-01-16 09:03:36.54	48.04	13.78	
2025-01-16 09:03:36.74	47.99	13.79	
2025-01-16 09:03:36.95	47.94	13.79	
2025-01-16 09:03:37.15	47.89	13.79	
2025-01-16 09:03:37.35	47.85	13.80	
2025-01-16 09:03:37.56	47.80	13.80	
2025-01-16 09:03:37.76	47.75	13.80	
2025-01-16 09:03:37.96	47.71	13.81	
2025-01-16 09:03:38.17	47.66	13.81	
2025-01-16 09:03:38.37	47.61	13.81	
2025-01-16 09:03:38.57	47.56	13.82	
2025-01-16 09:03:38.78	47.52	13.82	
2025-01-16 09:03:38.98	47.47	13.82	
2025-01-16 09:03:39.18	47.42	13.83	
2025-01-16 09:03:39.38	47.38	13.83	
2025-01-16 09:03:39.59	47.33	13.83	
2025-01-16 09:03:39.79	47.28	13.84	
2025-01-16 09:03:39.99	47.23	13.84	
2025-01-16 09:03:40.20	47.19	13.84	
2025-01-16 09:03:40.40	47.14	13.85	
2025-01-16 09:03:40.60	47.09	13.85	
2025-01-16 09:03:40.81	47.04	13.85	
2025-01-16 09:03:41.01	47.00	13.86	
2025-01-16 09:03:41.21	46.95	13.86	
2025-01-16 09:03:41.42	46.90	13.86	
2025-01-16 09:03:41.62	46.85	13.86	
2025-01-16 09:03:41.82	46.81	13.87	
2025-01-16 09:03:42.02	46.76	13.87	
2025-01-16 09:03:42.23	46.71	13.87	
2025-01-16 09:03:42.43	46.67	13.88	
2025-01-16 09:03:42.63	46.62	13.88	
2025-01-16 09:03:42.84	46.57	13.88	
2025-01-16 09:03:43.04	46.52	13.89	
2025-01-16 09:03:43.24	46.48	13.89	
2025-01-16 09:03:43.45	46.43	13.89	
2025-01-16 09:03:43.65	46.38	13.89	
2025-01-16 09:03:43.85	46.33	13.90	
2025-01-16 09:03:44.06	46.29	13.90	
2025-01-16 09:03:44.26	46.24	13.90	
2025-01-16 09:03:44.46	46.19	13.91	
2025-01-16 09:03:44.67	46.14	13.91	
2025-01-16 09:03:44.87	46.10	13.91	
2025-01-16 09:03:45.07	46.05	13.91	
2025-01-16 09:03:45.27	46.00	13.92	
2025-01-16 09:03:45.48	45.95	13.92	
2025-01-16 09:03:45.68	45.91	13.92	
2025-01-16 09:03:45.88	45.86	13.92	
2025-01-16 09:03:46.09	45.81	13.93	
2025-01-16 09:03:46.29	45.76	13.93	
2025-01-16 09:03:46.49	45.72	13.93	
2025-01-16 09:03:46.70	45.67	13.94	
2025-01-16 09:03:46.90	45.62	13.94	
2025-01-16 09:03:47.10	45.57	13.94	
2025-01-16 09:03:47.31	45.53	13.94	
2025-01-16 09:03:47.51	45.48	13.95	
2025-01-16 09:03:47.71	45.43	13.95	
2025-01-16 09:03:47.92	45.38	13.95	
2025-01-16 09:03:48.12	45.34	13.95	
2025-01-16 09:03:48.32	45.29	13.96	
2025-01-16 09:03:48.52	45.24	13.96	
2025-01-16 09:03:48.73	45.19	13.96	
2025-01-16 09:03:48.93	45.15	13.96	
2025-01-16 09:03:49.13	45.10	13.96	
2025-01-16 09:03:49.34	45.05	13.97	
2025-01-16 09:03:49.54	45.00	13.97	
2025-01-16 09:03:49.74	44.96	13.97	
2025-01-16 09:03:49.95	44.91	13.97	
2025-01-16 09:03:50.15	44.86	13.98	
2025-01-16 09:03:50.35	44.81	13.98	
2025-01-16 09:03:50.56	44.76	13.98	
2025-01-16 09:03:50.76	44.72	13.98	
2025-01-16 09:03:50.96	44.67	13.99	
2025-01-16 09:03:51.16	44.62	13.99	
2025-01-16 09:03:51.37	44.57	13.99	
2025-01-16 09:03:51.57	44.52	13.99	
2025-01-16 09:03:51.77	44.48	13.99	
2025-01-16 09:03:51.98	44.43	14.00	
2025-01-16 09:03:52.18	44.38	14.00	
2025-01-16 09:03:52.38	44.33	14.00	
2025-01-16 09:03:52.59	44.29	14.00	
2025-01-16 09:03:52.79	44.24	14.00	
2025-01-16 09:03:52.99	44.19	14.01	
2025-01-16 09:03:53.20	44.14	14.01	
2025-01-16 09:03:53.40	44.09	14.01	
2025-01-16 09:03:53.60	44.05	14.01	
2025-01-16 09:03:53.81	44.00	14.01	
2025-01-16 09:03:54.01	43.95	14.02	
2025-01-16 09:03:54.21	43.90	14.02	
2025-01-16 09:03:54.41	43.86	14.02	
2025-01-16 09:03:54.62	43.81	14.02	
2025-01-16 09:03:54.82	43.76	14.02	
2025-01-16 09:03:55.02	43.71	14.03	
2025-01-16 09:03:55.23	43.66	14.03	
2025-01-16 09:03:55.43	43.62	14.03	
2025-01-16 09:03:55.63	43.57	14.03	
2025-01-16 09:03:55.84	43.52	14.03	
2025-01-16 09:03:56.04	43.47	14.04	
2025-01-16 09:03:56.24	43.43	14.04	
2025-01-16 09:03:56.45	43.38	14.04	
2025-01-16 09:03:56.65	43.33	14.04	
2025-01-16 09:03:56.85	43.28	14.04	
2025-01-16 09:03:57.06	43.23	14.04	
2025-01-16 09:03:57.26	43.18	14.05	
2025-01-16 09:03:57.46	43.14	14.05	
2025-01-16 09:03:57.66	43.09	14.05	
2025-01-16 09:03:57.87	43.04	14.05	
2025-01-16 09:03:58.07	42.99	14.05	
2025-01-16 09:03:58.27	42.95	14.05	
2025-01-16 09:03:58.48	42.90	14.05	
2025-01-16 09:03:58.68	42.85	14.06	
2025-01-16 09:03:58.88	42.80	14.06	
2025-01-16 09:03:59.09	42.75	14.06	
2025-01-16 09:03:59.29	42.70	14.06	
2025-01-16 09:03:59.49	42.66	14.06	
2025-01-16 09:03:59.70	42.61	14.06	
2025-01-16 09:03:59.90	42.56	14.07	
2025-01-16 09:04:00.10	42.51	14.07	
2025-01-16 09:04:00.30	42.47	14.07	
2025-01-16 09:04:00.51	42.42	14.07	
2025-01-16 09:04:00.71	42.37	14.07	
2025-01-16 09:04:00.91	42.32	14.07	
2025-01-16 09:04:01.12	42.27	14.07	
2025-01-16 09:04:01.32	42.23	14.07	
2025-01-16 09:04:01.52	42.18	14.08	
2025-01-16 09:04:01.73	42.13	14.08	
2025-01-16 09:04:01.93	42.08	14.08	
2025-01-16 09:04:02.13	42.03	14.08	
2025-01-16 09:04:02.34	41.98	14.08	
2025-01-16 09:04:02.54	41.94	14.08	
2025-01-16 09:04:02.74	41.89	14.08	
2025-01-16 09:04:02.95	41.84	14.08	
2025-01-16 09:04:03.15	41.79	14.08	
2025-01-16 09:04:03.35	41.74	14.09	
2025-01-16 09:04:03.55	41.70	14.09	
2025-01-16 09:04:03.76	41.65	14.09	
2025-01-16 09:04:03.96	41.60	14.09	
2025-01-16 09:04:04.16	41.55	14.09	
2025-01-16 09:04:04.37	41.50	14.09	
2025-01-16 09:04:04.57	41.46	14.09	
2025-01-16 09:04:04.77	41.41	14.09	
2025-01-16 09:04:04.98	41.36	14.09	
2025-01-16 09:04:05.18	41.31	14.09	
2025-01-16 09:04:05.38	41.26	14.10	
2025-01-16 09:04:05.59	41.21	14.10	
2025-01-16 09:04:05.79	41.17	14.10	
2025-01-16 09:04:05.99	41.12	14.10	
2025-01-16 09:04:06.19	41.07	14.10	
2025-01-16 09:04:06.40	41.02	14.10	
2025-01-16 09:04:06.60	40.97	14.10	
2025-01-16 09:04:06.80	40.93	14.10	
2025-01-16 09:04:07.01	40.88	14.10	
2025-01-16 09:04:07.21	40.83	14.10	
2025-01-16 09:04:07.41	40.78	14.10	
2025-01-16 09:04:07.62	40.73	14.10	
2025-01-16 09:04:07.82	40.69	14.11	
2025-01-16 09:04:08.02	40.64	14.11	
2025-01-16 09:04:08.23	40.59	14.11	
2025-01-16 09:04:08.43	40.54	14.11	
2025-01-16 09:04:08.63	40.49	14.11	
2025-01-16 09:04:08.84	40.44	14.11	
2025-01-16 09:04:09.04	40.40	14.11	
2025-01-16 09:04:09.24	40.35	14.11	
2025-01-16 09:04:09.44	40.30	14.11	
2025-01-16 09:04:09.65	40.25	14.11	
2025-01-16 09:04:09.85	40.20	14.11	
2025-01-16 09:04:10.05	40.16	14.11	
2025-01-16 09:04:10.26	40.11	14.11	
2025-01-16 09:04:10.46	40.06	14.11	
2025-01-16 09:04:10.66	40.01	14.11	
2025-01-16 09:04:10.87	39.96	14.11	
2025-01-16 09:04:11.07	39.92	14.11	
2025-01-16 09:04:11.27	39.87	14.11	
2025-01-16 09:04:11.48	39.82	14.11	
2025-01-16 09:04:11.68	39.77	14.11	
2025-01-16 09:04:11.88	39.72	14.11	
2025-01-16 09:04:12.09	39.67	14.11	
2025-01-16 09:04:12.29	39.63	14.11	
2025-01-16 09:04:12.49	39.58	14.11	
2025-01-16 09:04:12.69	39.53	14.12	
2025-01-16 09:04:12.90	39.48	14.12	
2025-01-16 09:04:13.10	39.43	14.12	
2025-01-16 09:04:13.30	39.39	14.12	
2025-01-16 09:04:13.51	39.34	14.12	
2025-01-16 09:04:13.71	39.29	14.12	
2025-01-16 09:04:13.91	39.24	14.12	
2025-01-16 09:04:14.12	39.19	14.12	
2025-01-16 09:04:14.32	39.14	14.12	
2025-01-16 09:04:14.52	39.10	14.12	
2025-01-16 09:04:14.73	39.05	14.12	
2025-01-16 09:04:14.93	39.00	14.12	
2025-01-16 09:04:15.13	38.95	14.12	
2025-01-16 09:04:15.33	38.90	14.12	
2025-01-16 09:04:15.54	38.86	14.12	
2025-01-16 09:04:15.74	38.81	14.12	
2025-01-16 09:04:15.94	38.76	14.12	
2025-01-16 09:04:16.15	38.71	14.12	
2025-01-16 09:04:16.35	38.66	14.12	
2025-01-16 09:04:16.55	38.62	14.12	
2025-01-16 09:04:16.76	38.57	14.12	
2025-01-16 09:04:16.96	38.52	14.12	
2025-01-16 09:04:17.16	38.47	14.11	
2025-01-16 09:04:17.37	38.42	14.11	
2025-01-16 09:04:17.57	38.37	14.11	
2025-01-16 09:04:17.77	38.33	14.11	
2025-01-16 09:04:17.98	38.28	14.11	
2025-01-16 09:04:18.18	38.23	14.11	
2025-01-16 09:04:18.38	38.18	14.11	
2025-01-16 09:04:18.58	38.13	14.11	
2025-01-16 09:04:18.79	38.08	14.11	
2025-01-16 09:04:18.99	38.04	14.11	
2025-01-16 09:04:19.19	37.99	14.11	
2025-01-16 09:04:19.40	37.94	14.11	
2025-01-16 09:04:19.60	37.89	14.11	
2025-01-16 09:04:19.80	37.84	14.11	
2025-01-16 09:04:20.01	37.80	14.11	
2025-01-16 09:04:20.21	37.75	14.11	
2025-01-16 09:04:20.41	37.70	14.11	
2025-01-16 09:04:20.62	37.65	14.11	
2025-01-16 09:04:20.82	37.60	14.11	
2025-01-16 09:04:21.02	37.56	14.11	
2025-01-16 09:04:21.23	37.51	14.11	
2025-01-16 09:04:21.43	37.46	14.11	
2025-01-16 09:04:21.63	37.41	14.11	
2025-01-16 09:04:21.83	37.36	14.10	
2025-01-16 09:04:22.04	37.31	14.10	
2025-01-16 09:04:22.24	37.27	14.10	
2025-01-16 09:04:22.44	37.22	14.10	
2025-01-16 09:04:22.65	37.17	14.10	
2025-01-16 09:04:22.85	37.12	14.10	
2025-01-16 09:04:23.05	37.07	14.10	
2025-01-16 09:04:23.26	37.02	14.10	
2025-01-16 09:04:23.46	36.98	14.10	
2025-01-16 09:04:23.66	36.93	14.10	
2025-01-16 09:04:23.87	36.88	14.10	
2025-01-16 09:04:24.07	36.83	14.10	
2025-01-16 09:04:24.27	36.79	14.10	
2025-01-16 09:04:24.47	36.74	14.09	
2025-01-16 09:04:24.68	36.69	14.09	
2025-01-16 09:04:24.88	36.64	14.09	
2025-01-16 09:04:25.08	36.59	14.09	
2025-01-16 09:04:25.29	36.54	14.09	
2025-01-16 09:04:25.49	36.50	14.09	
2025-01-16 09:04:25.69	36.45	14.09	
2025-01-16 09:04:25.90	36.40	14.09	
2025-01-16 09:04:26.10	36.35	14.09	
2025-01-16 09:04:26.30	36.31	14.09	
2025-01-16 09:04:26.51	36.26	14.08	
2025-01-16 09:04:26.71	36.21	14.08	
2025-01-16 09:04:26.91	36.16	14.08	
2025-01-16 09:04:27.12	36.11	14.08	
2025-01-16 09:04:27.32	36.06	14.08	
2025-01-16 09:04:27.52	36.02	14.08	
2025-01-16 09:04:27.72	35.97	14.08	
2025-01-16 09:04:27.93	35.92	14.08	
2025-01-16 09:04:28.13	35.87	14.07	
2025-01-16 09:04:28.33	35.83	14.07	
2025-01-16 09:04:28.54	35.78	14.07	
2025-01-16 09:04:28.74	35.73	14.07	
2025-01-16 09:04:28.94	35.68	14.07	
2025-01-16 09:04:29.15	35.63	14.07	
2025-01-16 09:04:29.35	35.58	14.07	
2025-01-16 09:04:29.55	35.54	14.07	
2025-01-16 09:04:29.76	35.49	14.06	
2025-01-16 09:04:29.96	35.44	14.06	
2025-01-16 09:04:30.16	35.39	14.06	
2025-01-16 09:04:30.37	35.34	14.06	
2025-01-16 09:04:30.57	35.30	14.06	
2025-01-16 09:04:30.77	35.25	14.06	
2025-01-16 09:04:30.97	35.20	14.06	
2025-01-16 09:04:31.18	35.15	14.05	
2025-01-16 09:04:31.38	35.10	14.05	
2025-01-16 09:04:31.58	35.06	14.05	
2025-01-16 09:04:31.79	35.01	14.05	
2025-01-16 09:04:31.99	34.96	14.05	
2025-01-16 09:04:32.19	34.91	14.05	
2025-01-16 09:04:32.40	34.86	14.04	
2025-01-16 09:04:32.60	34.82	14.04	
2025-01-16 09:04:32.80	34.77	14.04	
2025-01-16 09:04:33.01	34.72	14.04	
2025-01-16 09:04:33.21	34.67	14.04	
2025-01-16 09:04:33.41	34.63	14.04	
2025-01-16 09:04:33.61	34.58	14.03	
2025-01-16 09:04:33.82	34.53	14.03	
2025-01-16 09:04:34.02	34.48	14.03	
2025-01-16 09:04:34.22	34.43	14.03	
2025-01-16 09:04:34.43	34.39	14.03	
2025-01-16 09:04:34.63	34.34	14.03	
2025-01-16 09:04:34.83	34.29	14.02	
2025-01-16 09:04:35.04	34.24	14.02	
2025-01-16 09:04:35.24	34.19	14.02	
2025-01-16 09:04:35.44	34.15	14.02	
2025-01-16 09:04:35.65	34.10	14.02	
2025-01-16 09:04:35.85	34.05	14.01	
2025-01-16 09:04:36.05	34.00	14.01	
2025-01-16 09:04:36.26	33.95	14.01	
2025-01-16 09:04:36.46	33.91	14.01	
2025-01-16 09:04:36.66	33.86	14.01	
2025-01-16 09:04:36.86	33.81	14.00	
2025-01-16 09:04:37.07	33.76	14.00	
2025-01-16 09:04:37.27	33.72	14.00	
2025-01-16 09:04:37.47	33.67	14.00	
2025-01-16 09:04:37.68	33.62	14.00	
2025-01-16 09:04:37.88	33.57	13.99	
2025-01-16 09:04:38.08	33.53	13.99	
2025-01-16 09:04:38.29	33.48	13.99	
2025-01-16 09:04:38.49	33.43	13.99	
2025-01-16 09:04:38.69	33.38	13.98	
2025-01-16 09:04:38.90	33.33	13.98	
2025-01-16 09:04:39.10	33.29	13.98	
2025-01-16 09:04:39.30	33.24	13.98	
2025-01-16 09:04:39.50	33.19	13.98	
2025-01-16 09:04:39.71	33.14	13.97	
2025-01-16 09:04:39.91	33.10	13.97	
2025-01-16 09:04:40.11	33.05	13.97	
2025-01-16 09:04:40.32	33.00	13.97	
2025-01-16 09:04:40.52	32.95	13.96	
2025-01-16 09:04:40.72	32.91	13.96	
2025-01-16 09:04:40.93	32.86	13.96	
2025-01-16 09:04:41.13	32.81	13.96	
2025-01-16 09:04:41.33	32.76	13.95	
2025-01-16 09:04:41.54	32.71	13.95	
2025-01-16 09:04:41.74	32.67	13.95	
2025-01-16 09:04:41.94	32.62	13.95	
2025-01-16 09:04:42.15	32.57	13.94	
2025-01-16 09:04:42.35	32.53	13.94	
2025-01-16 09:04:42.55	32.48	13.94	
2025-01-16 09:04:42.75	32.43	13.94	
2025-01-16 09:04:42.96	32.38	13.93	
2025-01-16 09:04:43.16	32.34	13.93	
2025-01-16 09:04:43.36	32.29	13.93	
2025-01-16 09:04:43.57	32.24	13.93	
2025-01-16 09:04:43.77	32.19	13.92	
2025-01-16 09:04:43.97	32.15	13.92	
2025-01-16 09:04:44.18	32.10	13.92	
2025-01-16 09:04:44.38	32.05	13.91	
2025-01-16 09:04:44.58	32.00	13.91	
2025-01-16 09:04:44.79	31.95	13.91	
2025-01-16 09:04:44.99	31.91	13.91	
2025-01-16 09:04:45.19	31.86	13.90	
2025-01-16 09:04:45.40	31.81	13.90	
2025-01-16 09:04:45.60	31.77	13.90	
2025-01-16 09:04:45.80	31.72	13.90	
2025-01-16 09:04:46.00	31.67	13.89	
2025-01-16 09:04:46.21	31.62	13.89	
2025-01-16 09:04:46.41	31.58	13.89	
2025-01-16 09:04:46.61	31.53	13.88	
2025-01-16 09:04:46.82	31.48	13.88	
2025-01-16 09:04:47.02	31.43	13.88	
2025-01-16 09:04:47.22	31.39	13.87	
2025-01-16 09:04:47.43	31.34	13.87	
2025-01-16 09:04:47.63	31.29	13.87	
2025-01-16 09:04:47.83	31.25	13.87	
2025-01-16 09:04:48.04	31.20	13.86	
2025-01-16 09:04:48.24	31.15	13.86	
2025-01-16 09:04:48.44	31.10	13.86	
2025-01-16 09:04:48.64	31.06	13.85	
2025-01-16 09:04:48.85	31.01	13.85	
2025-01-16 09:04:49.05	30.96	13.85	
2025-01-16 09:04:49.25	30.92	13.84	
2025-01-16 09:04:49.46	30.87	13.84	
2025-01-16 09:04:49.66	30.82	13.84	
2025-01-16 09:04:49.86	30.77	13.83	
2025-01-16 09:04:50.07	30.73	13.83	
2025-01-16 09:04:50.27	30.68	13.83	
2025-01-16 09:04:50.47	30.63	13.82	
2025-01-16 09:04:50.68	30.58	13.82	
2025-01-16 09:04:50.88	30.54	13.82	
2025-01-16 09:04:51.08	30.49	13.81	
2025-01-16 09:04:51.29	30.44	13.81	
2025-01-16 09:04:51.49	30.40	13.81	
2025-01-16 09:04:51.69	30.35	13.80	
2025-01-16 09:04:51.89	30.30	13.80	
2025-01-16 09:04:52.10	30.25	13.80	
2025-01-16 09:04:52.30	30.21	13.79	
2025-01-16 09:04:52.50	30.16	13.79	
2025-01-16 09:04:52.71	30.11	13.79	
2025-01-16 09:04:52.91	30.07	13.78	
2025-01-16 09:04:53.11	30.02	13.78	
2025-01-16 09:04:53.32	29.97	13.78	
2025-01-16 09:04:53.52	29.93	13.77	
2025-01-16 09:04:53.72	29.88	13.77	
2025-01-16 09:04:53.93	29.83	13.77	
2025-01-16 09:04:54.13	29.78	13.76	
2025-01-16 09:04:54.33	29.74	13.76	
2025-01-16 09:04:54.54	29.69	13.76	
2025-01-16 09:04:54.74	29.64	13.75	
2025-01-16 09:04:54.94	29.60	13.75	
2025-01-16 09:04:55.14	29.55	13.74	
2025-01-16 09:04:55.35	29.50	13.74	
2025-01-16 09:04:55.55	29.46	13.74	
2025-01-16 09:04:55.75	29.41	13.73	
2025-01-16 09:04:55.96	29.36	13.73	
2025-01-16 09:04:56.16	29.32	13.73	
2025-01-16 09:04:56.36	29.27	13.72	
2025-01-16 09:04:56.57	29.22	13.72	
2025-01-16 09:04:56.77	29.18	13.71	
2025-01-16 09:04:56.97	29.13	13.71	
2025-01-16 09:04:57.18	29.08	13.71	
2025-01-16 09:04:57.38	29.04	13.70	
2025-01-16 09:04:57.58	28.99	13.70	
2025-01-16 09:04:57.78	28.94	13.70	
2025-01-16 09:04:57.99	28.90	13.69	
2025-01-16 09:04:58.19	28.85	13.69	
2025-01-16 09:04:58.39	28.80	13.68	
2025-01-16 09:04:58.60	28.76	13.68	
2025-01-16 09:04:58.80	28.71	13.68	
2025-01-16 09:04:59.00	28.66	13.67	
2025-01-16 09:04:59.21	28.62	13.67	
2025-01-16 09:04:59.41	28.57	13.66	
2025-01-16 09:04:59.61	28.52	13.66	
2025-01-16 09:04:59.82	28.48	13.66	
2025-01-16 09:05:00.02	28.43	13.65	
2025-01-16 09:05:00.24	28.38	13.65	
2025-01-16 09:05:00.44	28.33	13.64	
2025-01-16 09:05:00.64	28.29	13.64	
2025-01-16 09:05:00.85	28.24	13.63	
2025-01-16 09:05:01.05	28.19	13.63	
2025-01-16 09:05:01.25	28.15	13.63	
2025-01-16 09:05:01.46	28.10	13.62	
2025-01-16 09:05:01.66	28.05	13.62	
2025-01-16 09:05:01.86	28.01	13.61	
2025-01-16 09:05:02.07	27.96	13.61	
2025-01-16 09:05:02.27	27.92	13.60	
2025-01-16 09:05:02.47	27.87	13.60	
2025-01-16 09:05:02.68	27.82	13.60	
2025-01-16 09:05:02.88	27.78	13.59	
2025-01-16 09:05:03.08	27.73	13.59	
2025-01-16 09:05:03.28	27.68	13.58	
2025-01-16 09:05:03.49	27.64	13.58	
2025-01-16 09:05:03.69	27.59	13.57	
2025-01-16 09:05:03.89	27.55	13.57	
2025-01-16 09:05:04.10	27.50	13.57	
2025-01-16 09:05:04.30	27.45	13.56	
2025-01-16 09:05:04.50	27.41	13.56	
2025-01-16 09:05:04.71	27.36	13.55	
2025-01-16 09:05:04.91	27.31	13.55	
2025-01-16 09:05:05.11	27.27	13.54	
2025-01-16 09:05:05.32	27.22	13.54	
2025-01-16 09:05:05.52	27.17	13.53	
2025-01-16 09:05:05.72	27.13	13.53	
2025-01-16 09:05:05.92	27.08	13.53	
2025-01-16 09:05:06.13	27.04	13.52	
2025-01-16 09:05:06.33	26.99	13.52	
2025-01-16 09:05:06.53	26.95	13.51	
2025-01-16 09:05:06.74	26.90	13.51	
2025-01-16 09:05:06.94	26.85	13.50	
2025-01-16 09:05:07.14	26.81	13.50	
2025-01-16 09:05:07.35	26.76	13.49	
2025-01-16 09:05:07.55	26.71	13.49	
2025-01-16 09:05:07.75	26.67	13.48	
2025-01-16 09:05:07.96	26.62	13.48	
2025-01-16 09:05:08.16	26.58	13.47	
2025-01-16 09:05:08.36	26.53	13.47	
2025-01-16 09:05:08.57	26.48	13.46	
2025-01-16 09:05:08.77	26.44	13.46	
2025-01-16 09:05:08.97	26.39	13.45	
2025-01-16 09:05:09.17	26.35	13.45	
2025-01-16 09:05:09.38	26.30	13.44	
2025-01-16 09:05:09.58	26.26	13.44	
2025-01-16 09:05:09.78	26.21	13.44	
2025-01-16 09:05:09.99	26.16	13.43	
2025-01-16 09:05:10.19	26.12	13.43	
2025-01-16 09:05:10.39	26.07	13.42	
2025-01-16 09:05:10.60	26.03	13.42	
2025-01-16 09:05:10.80	25.98	13.41	
2025-01-16 09:05:11.00	25.94	13.41	
2025-01-16 09:05:11.21	25.89	13.40	
2025-01-16 09:05:11.41	25.84	13.40	
2025-01-16 09:05:11.61	25.80	13.39	
2025-01-16 09:05:11.82	25.75	13.39	
2025-01-16 09:05:12.02	25.71	13.38	
2025-01-16 09:05:12.22	25.66	13.38	
2025-01-16 09:05:12.42	25.62	13.37	
2025-01-16 09:05:12.63	25.57	13.36	
2025-01-16 09:05:12.83	25.52	13.36	
2025-01-16 09:05:13.03	25.48	13.35	
2025-01-16 09:05:13.24	25.43	13.35	
2025-01-16 09:05:13.44	25.39	13.34	
2025-01-16 09:05:13.64	25.34	13.34	
2025-01-16 09:05:13.85	25.30	13.33	
2025-01-16 09:05:14.05	25.25	13.33	
2025-01-16 09:05:14.25	25.21	13.32	
2025-01-16 09:05:14.46	25.16	13.32	
2025-01-16 09:05:14.66	25.12	13.31	
2025-01-16 09:05:14.86	25.07	13.31	
2025-01-16 09:05:15.06	25.03	13.30	
2025-01-16 09:05:15.27	24.98	13.30	
2025-01-16 09:05:15.47	24.93	13.29	
2025-01-16 09:05:15.67	24.89	13.29	
2025-01-16 09:05:15.88	24.84	13.28	
2025-01-16 09:05:16.08	24.80	13.28	
2025-01-16 09:05:16.28	24.75	13.27	
2025-01-16 09:05:16.49	24.71	13.26	
2025-01-16 09:05:16.69	24.66	13.26	
2025-01-16 09:05:16.89	24.62	13.25	
2025-01-16 09:05:17.10	24.57	13.25	
2025-01-16 09:05:17.30	24.53	13.24	
2025-01-16 09:05:17.50	24.48	13.24	
2025-01-16 09:05:17.71	24.44	13.23	
2025-01-16 09:05:17.91	24.39	13.23	
2025-01-16 09:05:18.11	24.35	13.22	
2025-01-16 09:05:18.31	24.30	13.22	
2025-01-16 09:05:18.52	24.26	13.21	
2025-01-16 09:05:18.72	24.21	13.20	
2025-01-16 09:05:18.92	24.17	13.20	
2025-01-16 09:05:19.13	24.12	13.19	
2025-01-16 09:05:19.33	24.08	13.19	
2025-01-16 09:05:19.53	24.03	13.18	
2025-01-16 09:05:19.74	23.99	13.18	
2025-01-16 09:05:19.94	23.94	13.17	
2025-01-16 09:05:20.14	23.90	13.17	
2025-01-16 09:05:20.35	23.85	13.16	
2025-01-16 09:05:20.55	23.81	13.15	
2025-01-16 09:05:20.75	23.76	13.15	
2025-01-16 09:05:20.95	23.72	13.14	
2025-01-16 09:05:21.16	23.67	13.14	
2025-01-16 09:05:21.36	23.63	13.13	
2025-01-16 09:05:21.56	23.58	13.13	
2025-01-16 09:05:21.77	23.54	13.12	
2025-01-16 09:05:21.97	23.49	13.11	
2025-01-16 09:05:22.17	23.45	13.11	
2025-01-16 09:05:22.38	23.40	13.10	
2025-01-16 09:05:22.58	23.36	13.10	
2025-01-16 09:05:22.78	23.31	13.09	
2025-01-16 09:05:22.99	23.27	13.08	
2025-01-16 09:05:23.19	23.22	13.08	
2025-01-16 09:05:23.39	23.18	13.07	
2025-01-16 09:05:23.60	23.13	13.07	
2025-01-16 09:05:23.80	23.09	13.06	
2025-01-16 09:05:24.00	23.05	13.05	
2025-01-16 09:05:24.20	23.00	13.05	
2025-01-16 09:05:24.41	22.96	13.04	
2025-01-16 09:05:24.61	22.91	13.04	
2025-01-16 09:05:24.81	22.87	13.03	
2025-01-16 09:05:25.02	22.82	13.02	
2025-01-16 09:05:25.22	22.78	13.02	
2025-01-16 09:05:25.42	22.74	13.01	
2025-01-16 09:05:25.63	22.69	13.01	
2025-01-16 09:05:25.83	22.65	13.00	
2025-01-16 09:05:26.03	22.60	12.99	
2025-01-16 09:05:26.24	22.56	12.99	
2025-01-16 09:05:26.44	22.51	12.98	
2025-01-16 09:05:26.64	22.47	12.98	
2025-01-16 09:05:26.85	22.42	12.97	
2025-01-16 09:05:27.05	22.38	12.96	
2025-01-16 09:05:27.25	22.34	12.96	
2025-01-16 09:05:27.45	22.29	12.95	
2025-01-16 09:05:27.66	22.25	12.94	
2025-01-16 09:05:27.86	22.20	12.94	
2025-01-16 09:05:28.06	22.16	12.93	
2025-01-16 09:05:28.27	22.12	12.93	
2025-01-16 09:05:28.47	22.07	12.92	
2025-01-16 09:05:28.67	22.03	12.91	
2025-01-16 09:05:28.88	21.98	12.91	
2025-01-16 09:05:29.08	21.94	12.90	
2025-01-16 09:05:29.28	21.90	12.89	
2025-01-16 09:05:29.49	21.85	12.89	
2025-01-16 09:05:29.69	21.81	12.88	
2025-01-16 09:05:29.89	21.76	12.88	
2025-01-16 09:05:30.09	21.72	12.87	
2025-01-16 09:05:30.30	21.68	12.86	
2025-01-16 09:05:30.50	21.63	12.86	
2025-01-16 09:05:30.70	21.59	12.85	
2025-01-16 09:05:30.91	21.54	12.84	
2025-01-16 09:05:31.11	21.50	12.84	
2025-01-16 09:05:31.31	21.46	12.83	
2025-01-16 09:05:31.52	21.41	12.82	
2025-01-16 09:05:31.72	21.37	12.82	
2025-01-16 09:05:31.92	21.33	12.81	
2025-01-16 09:05:32.13	21.28	12.80	
2025-01-16 09:05:32.33	21.24	12.80	
2025-01-16 09:05:32.53	21.19	12.79	
2025-01-16 09:05:32.74	21.15	12.78	
2025-01-16 09:05:32.94	21.11	12.78	
2025-01-16 09:05:33.14	21.06	12.77	
2025-01-16 09:05:33.34	21.02	12.77	
2025-01-16 09:05:33.55	20.98	12.76	
2025-01-16 09:05:33.75	20.93	12.75	
2025-01-16 09:05:33.95	20.89	12.75	
2025-01-16 09:05:34.16	20.84	12.74	
2025-01-16 09:05:34.36	20.80	12.73	
