passes_logs/2025/01/16/SPB_Silybum_02/SPB_Silybum_02__20250116_135346_AQUA_rec.log

#Pass ID: 20250116_135346_AQUA
#Satellite: AQUA
#Configuration: AQUA
#Start time: 2025-01-16 13:53:45

#Version: 2.0.20230423
#Station: SPB_Silybum_02
#Location: 30.233357 lon 59.946436 lat
#TLE: 1 27424U 02022A   25015.89755826  .00001635  00000+0  34564-3 0  9997
#TLE: 2 27424  98.3590 332.5696 0001753 110.3458 316.1758 14.60685220207753

#Time	Az	El	Level	Level2	SNR	BER	Gain	Gain2
2025-01-16 13:53:47.85	248.63	4.04	
2025-01-16 13:53:48.06	248.66	4.05	
2025-01-16 13:53:48.26	248.69	4.06	
2025-01-16 13:53:48.46	248.71	4.06	
2025-01-16 13:53:48.66	248.74	4.07	
2025-01-16 13:53:48.87	248.77	4.08	
2025-01-16 13:53:49.07	248.80	4.09	
2025-01-16 13:53:49.27	248.83	4.09	
2025-01-16 13:53:49.48	248.86	4.10	
2025-01-16 13:53:49.68	248.89	4.11	
2025-01-16 13:53:49.88	248.91	4.12	
2025-01-16 13:53:50.09	248.94	4.13	
2025-01-16 13:53:50.29	248.97	4.13	
2025-01-16 13:53:50.49	249.00	4.14	
2025-01-16 13:53:50.69	249.03	4.15	
2025-01-16 13:53:50.90	249.06	4.16	
2025-01-16 13:53:51.10	249.09	4.16	
2025-01-16 13:53:51.30	249.12	4.17	
2025-01-16 13:53:51.51	249.15	4.18	
2025-01-16 13:53:51.71	249.17	4.19	
2025-01-16 13:53:51.91	249.20	4.19	
2025-01-16 13:53:52.11	249.23	4.20	
2025-01-16 13:53:52.32	249.26	4.21	
2025-01-16 13:53:52.52	249.29	4.22	
2025-01-16 13:53:52.72	249.32	4.22	
2025-01-16 13:53:52.93	249.35	4.23	
2025-01-16 13:53:53.13	249.38	4.24	
2025-01-16 13:53:53.33	249.40	4.25	
2025-01-16 13:53:53.54	249.43	4.25	
2025-01-16 13:53:53.74	249.46	4.26	
2025-01-16 13:53:53.94	249.49	4.27	
2025-01-16 13:53:54.14	249.52	4.28	
2025-01-16 13:53:54.35	249.55	4.29	
2025-01-16 13:53:54.55	249.58	4.29	
2025-01-16 13:53:54.75	249.61	4.30	
2025-01-16 13:53:54.96	249.64	4.31	
2025-01-16 13:53:55.16	249.66	4.32	
2025-01-16 13:53:55.36	249.69	4.32	
2025-01-16 13:53:55.57	249.72	4.33	
2025-01-16 13:53:55.77	249.75	4.34	
2025-01-16 13:53:55.97	249.78	4.35	
2025-01-16 13:53:56.17	249.81	4.35	
2025-01-16 13:53:56.38	249.84	4.36	
2025-01-16 13:53:56.58	249.87	4.37	
2025-01-16 13:53:56.78	249.90	4.38	
2025-01-16 13:53:56.99	249.93	4.38	
2025-01-16 13:53:57.19	249.96	4.39	
2025-01-16 13:53:57.39	249.98	4.40	
2025-01-16 13:53:57.60	250.01	4.41	
2025-01-16 13:53:57.80	250.04	4.41	
2025-01-16 13:53:58.00	250.07	4.42	
2025-01-16 13:53:58.20	250.10	4.43	
2025-01-16 13:53:58.41	250.13	4.44	
2025-01-16 13:53:58.61	250.16	4.44	
2025-01-16 13:53:58.81	250.19	4.45	
2025-01-16 13:53:59.02	250.22	4.46	
2025-01-16 13:53:59.22	250.25	4.47	
2025-01-16 13:53:59.42	250.28	4.47	
2025-01-16 13:53:59.63	250.31	4.48	
2025-01-16 13:53:59.83	250.34	4.49	
2025-01-16 13:54:00.03	250.37	4.50	
2025-01-16 13:54:00.23	250.39	4.50	
2025-01-16 13:54:00.44	250.43	4.51	
2025-01-16 13:54:00.64	250.45	4.52	
2025-01-16 13:54:00.84	250.48	4.53	
2025-01-16 13:54:01.05	250.51	4.53	
2025-01-16 13:54:01.25	250.54	4.54	
2025-01-16 13:54:01.45	250.57	4.55	
2025-01-16 13:54:01.65	250.60	4.56	
2025-01-16 13:54:01.86	250.63	4.56	
2025-01-16 13:54:02.06	250.66	4.57	
2025-01-16 13:54:02.26	250.69	4.58	
2025-01-16 13:54:02.47	250.72	4.59	
2025-01-16 13:54:02.67	250.75	4.59	
2025-01-16 13:54:02.87	250.78	4.60	
2025-01-16 13:54:03.08	250.81	4.61	
2025-01-16 13:54:03.28	250.84	4.62	
2025-01-16 13:54:03.48	250.87	4.62	
2025-01-16 13:54:03.68	250.90	4.63	
2025-01-16 13:54:03.89	250.93	4.64	
2025-01-16 13:54:04.09	250.96	4.65	
2025-01-16 13:54:04.29	250.99	4.65	
2025-01-16 13:54:04.50	251.02	4.66	
2025-01-16 13:54:04.70	251.05	4.67	
2025-01-16 13:54:04.90	251.08	4.68	
2025-01-16 13:54:05.11	251.11	4.68	
2025-01-16 13:54:05.31	251.14	4.69	
2025-01-16 13:54:05.51	251.17	4.70	
2025-01-16 13:54:05.71	251.20	4.71	
2025-01-16 13:54:05.92	251.23	4.71	
2025-01-16 13:54:06.12	251.26	4.72	
2025-01-16 13:54:06.32	251.29	4.73	
2025-01-16 13:54:06.53	251.32	4.74	
2025-01-16 13:54:06.73	251.35	4.74	
2025-01-16 13:54:06.93	251.38	4.75	
2025-01-16 13:54:07.14	251.41	4.76	
2025-01-16 13:54:07.34	251.44	4.76	
2025-01-16 13:54:07.54	251.47	4.77	
2025-01-16 13:54:07.74	251.49	4.78	
2025-01-16 13:54:07.95	251.53	4.79	
2025-01-16 13:54:08.15	251.56	4.79	
2025-01-16 13:54:08.35	251.59	4.80	
2025-01-16 13:54:08.56	251.62	4.81	
2025-01-16 13:54:08.76	251.65	4.82	
2025-01-16 13:54:08.96	251.68	4.82	
2025-01-16 13:54:09.17	251.71	4.83	
2025-01-16 13:54:09.37	251.74	4.84	
2025-01-16 13:54:09.57	251.77	4.85	
2025-01-16 13:54:09.77	251.80	4.85	
2025-01-16 13:54:09.98	251.83	4.86	
2025-01-16 13:54:10.18	251.86	4.87	
2025-01-16 13:54:10.38	251.89	4.87	
2025-01-16 13:54:10.59	251.92	4.88	
2025-01-16 13:54:10.79	251.95	4.89	
2025-01-16 13:54:10.99	251.98	4.90	
2025-01-16 13:54:11.19	252.01	4.90	
2025-01-16 13:54:11.40	252.04	4.91	
2025-01-16 13:54:11.60	252.07	4.92	
2025-01-16 13:54:11.80	252.10	4.93	
2025-01-16 13:54:12.01	252.13	4.93	
2025-01-16 13:54:12.21	252.16	4.94	
2025-01-16 13:54:12.41	252.19	4.95	
2025-01-16 13:54:12.62	252.22	4.95	
2025-01-16 13:54:12.82	252.25	4.96	
2025-01-16 13:54:13.02	252.28	4.97	
2025-01-16 13:54:13.22	252.31	4.98	
2025-01-16 13:54:13.43	252.34	4.98	
2025-01-16 13:54:13.63	252.37	4.99	
2025-01-16 13:54:13.83	252.40	5.00	
2025-01-16 13:54:14.04	252.43	5.01	
2025-01-16 13:54:14.24	252.46	5.01	
2025-01-16 13:54:14.44	252.49	5.02	
2025-01-16 13:54:14.65	252.53	5.03	
2025-01-16 13:54:14.85	252.56	5.03	
2025-01-16 13:54:15.05	252.59	5.04	
2025-01-16 13:54:15.25	252.62	5.05	
2025-01-16 13:54:15.46	252.65	5.06	
2025-01-16 13:54:15.66	252.68	5.06	
2025-01-16 13:54:15.86	252.71	5.07	
2025-01-16 13:54:16.07	252.74	5.08	
2025-01-16 13:54:16.27	252.77	5.08	
2025-01-16 13:54:16.47	252.80	5.09	
2025-01-16 13:54:16.68	252.83	5.10	
2025-01-16 13:54:16.88	252.86	5.11	
2025-01-16 13:54:17.08	252.89	5.11	
2025-01-16 13:54:17.28	252.92	5.12	
2025-01-16 13:54:17.49	252.96	5.13	
2025-01-16 13:54:17.69	252.99	5.14	
2025-01-16 13:54:17.89	253.02	5.14	
2025-01-16 13:54:18.10	253.05	5.15	
2025-01-16 13:54:18.30	253.08	5.16	
2025-01-16 13:54:18.50	253.11	5.16	
2025-01-16 13:54:18.71	253.14	5.17	
2025-01-16 13:54:18.91	253.17	5.18	
2025-01-16 13:54:19.11	253.20	5.19	
2025-01-16 13:54:19.31	253.23	5.19	
2025-01-16 13:54:19.52	253.26	5.20	
2025-01-16 13:54:19.72	253.29	5.21	
2025-01-16 13:54:19.92	253.32	5.21	
2025-01-16 13:54:20.13	253.36	5.22	
2025-01-16 13:54:20.33	253.39	5.23	
2025-01-16 13:54:20.53	253.42	5.23	
2025-01-16 13:54:20.73	253.45	5.24	
2025-01-16 13:54:20.94	253.48	5.25	
2025-01-16 13:54:21.14	253.51	5.26	
2025-01-16 13:54:21.34	253.54	5.26	
2025-01-16 13:54:21.55	253.57	5.27	
2025-01-16 13:54:21.75	253.60	5.28	
2025-01-16 13:54:21.95	253.64	5.28	
2025-01-16 13:54:22.16	253.67	5.29	
2025-01-16 13:54:22.36	253.70	5.30	
2025-01-16 13:54:22.56	253.73	5.31	
2025-01-16 13:54:22.76	253.76	5.31	
2025-01-16 13:54:22.97	253.79	5.32	
2025-01-16 13:54:23.17	253.82	5.33	
2025-01-16 13:54:23.37	253.85	5.33	
2025-01-16 13:54:23.58	253.89	5.34	
2025-01-16 13:54:23.78	253.92	5.35	
2025-01-16 13:54:23.98	253.95	5.35	
2025-01-16 13:54:24.19	253.98	5.36	
2025-01-16 13:54:24.39	254.01	5.37	
2025-01-16 13:54:24.59	254.04	5.38	
2025-01-16 13:54:24.79	254.07	5.38	
2025-01-16 13:54:25.00	254.11	5.39	
2025-01-16 13:54:25.20	254.14	5.40	
2025-01-16 13:54:25.40	254.17	5.40	
2025-01-16 13:54:25.61	254.20	5.41	
2025-01-16 13:54:25.81	254.23	5.42	
2025-01-16 13:54:26.01	254.26	5.42	
2025-01-16 13:54:26.22	254.29	5.43	
2025-01-16 13:54:26.42	254.33	5.44	
2025-01-16 13:54:26.62	254.36	5.45	
2025-01-16 13:54:26.82	254.39	5.45	
2025-01-16 13:54:27.03	254.42	5.46	
2025-01-16 13:54:27.23	254.45	5.47	
2025-01-16 13:54:27.43	254.48	5.47	
2025-01-16 13:54:27.64	254.51	5.48	
2025-01-16 13:54:27.84	254.55	5.49	
2025-01-16 13:54:28.04	254.58	5.49	
2025-01-16 13:54:28.25	254.61	5.50	
2025-01-16 13:54:28.45	254.64	5.51	
2025-01-16 13:54:28.65	254.67	5.52	
2025-01-16 13:54:28.85	254.70	5.52	
2025-01-16 13:54:29.06	254.74	5.53	
2025-01-16 13:54:29.26	254.77	5.54	
2025-01-16 13:54:29.46	254.80	5.54	
2025-01-16 13:54:29.67	254.83	5.55	
2025-01-16 13:54:29.87	254.86	5.56	
2025-01-16 13:54:30.07	254.89	5.56	
2025-01-16 13:54:30.28	254.93	5.57	
2025-01-16 13:54:30.48	254.96	5.58	
2025-01-16 13:54:30.68	254.99	5.58	
2025-01-16 13:54:30.88	255.02	5.59	
2025-01-16 13:54:31.09	255.05	5.60	
2025-01-16 13:54:31.29	255.08	5.60	
2025-01-16 13:54:31.49	255.12	5.61	
2025-01-16 13:54:31.70	255.15	5.62	
2025-01-16 13:54:31.90	255.18	5.63	
2025-01-16 13:54:32.10	255.21	5.63	
2025-01-16 13:54:32.30	255.24	5.64	
2025-01-16 13:54:32.51	255.28	5.65	
2025-01-16 13:54:32.71	255.31	5.65	
2025-01-16 13:54:32.91	255.34	5.66	
2025-01-16 13:54:33.12	255.37	5.67	
2025-01-16 13:54:33.32	255.40	5.67	
2025-01-16 13:54:33.52	255.44	5.68	
2025-01-16 13:54:33.73	255.47	5.69	
2025-01-16 13:54:33.93	255.50	5.69	
2025-01-16 13:54:34.13	255.53	5.70	
2025-01-16 13:54:34.33	255.56	5.71	
2025-01-16 13:54:34.54	255.60	5.71	
2025-01-16 13:54:34.74	255.63	5.72	
2025-01-16 13:54:34.94	255.66	5.73	
2025-01-16 13:54:35.15	255.69	5.73	
2025-01-16 13:54:35.35	255.73	5.74	
2025-01-16 13:54:35.55	255.76	5.75	
2025-01-16 13:54:35.76	255.79	5.75	
2025-01-16 13:54:35.96	255.82	5.76	
2025-01-16 13:54:36.16	255.85	5.77	
2025-01-16 13:54:36.36	255.89	5.77	
2025-01-16 13:54:36.57	255.92	5.78	
2025-01-16 13:54:36.77	255.95	5.79	
2025-01-16 13:54:36.97	255.98	5.79	
2025-01-16 13:54:37.18	256.02	5.80	
2025-01-16 13:54:37.38	256.05	5.81	
2025-01-16 13:54:37.58	256.08	5.81	
2025-01-16 13:54:37.79	256.11	5.82	
2025-01-16 13:54:37.99	256.15	5.83	
2025-01-16 13:54:38.19	256.18	5.83	
2025-01-16 13:54:38.39	256.21	5.84	
2025-01-16 13:54:38.60	256.24	5.85	
2025-01-16 13:54:38.80	256.27	5.85	
2025-01-16 13:54:39.00	256.31	5.86	
2025-01-16 13:54:39.21	256.34	5.87	
2025-01-16 13:54:39.41	256.37	5.87	
2025-01-16 13:54:39.61	256.40	5.88	
2025-01-16 13:54:39.82	256.44	5.89	
2025-01-16 13:54:40.02	256.47	5.89	
2025-01-16 13:54:40.22	256.50	5.90	
2025-01-16 13:54:40.42	256.53	5.91	
2025-01-16 13:54:40.63	256.57	5.91	
2025-01-16 13:54:40.83	256.60	5.92	
2025-01-16 13:54:41.03	256.63	5.93	
2025-01-16 13:54:41.24	256.67	5.93	
2025-01-16 13:54:41.44	256.70	5.94	
2025-01-16 13:54:41.64	256.73	5.95	
2025-01-16 13:54:41.84	256.76	5.95	
2025-01-16 13:54:42.05	256.80	5.96	
2025-01-16 13:54:42.25	256.83	5.97	
2025-01-16 13:54:42.45	256.86	5.97	
2025-01-16 13:54:42.66	256.89	5.98	
2025-01-16 13:54:42.86	256.93	5.99	
2025-01-16 13:54:43.06	256.96	5.99	
2025-01-16 13:54:43.27	256.99	6.00	
2025-01-16 13:54:43.47	257.02	6.01	
2025-01-16 13:54:43.67	257.06	6.01	
2025-01-16 13:54:43.87	257.09	6.02	
2025-01-16 13:54:44.08	257.12	6.03	
2025-01-16 13:54:44.28	257.16	6.03	
2025-01-16 13:54:44.48	257.19	6.04	
2025-01-16 13:54:44.69	257.22	6.05	
2025-01-16 13:54:44.89	257.25	6.05	
2025-01-16 13:54:45.09	257.29	6.06	
2025-01-16 13:54:45.30	257.32	6.06	
2025-01-16 13:54:45.50	257.35	6.07	
2025-01-16 13:54:45.70	257.39	6.08	
2025-01-16 13:54:45.90	257.42	6.08	
2025-01-16 13:54:46.11	257.45	6.09	
2025-01-16 13:54:46.31	257.49	6.10	
2025-01-16 13:54:46.51	257.52	6.10	
2025-01-16 13:54:46.72	257.55	6.11	
2025-01-16 13:54:46.92	257.58	6.12	
2025-01-16 13:54:47.12	257.62	6.12	
2025-01-16 13:54:47.33	257.65	6.13	
2025-01-16 13:54:47.53	257.68	6.14	
2025-01-16 13:54:47.73	257.72	6.14	
2025-01-16 13:54:47.93	257.75	6.15	
2025-01-16 13:54:48.14	257.78	6.15	
2025-01-16 13:54:48.34	257.82	6.16	
2025-01-16 13:54:48.54	257.85	6.17	
2025-01-16 13:54:48.75	257.88	6.17	
2025-01-16 13:54:48.95	257.92	6.18	
2025-01-16 13:54:49.15	257.95	6.19	
2025-01-16 13:54:49.36	257.98	6.19	
2025-01-16 13:54:49.56	258.02	6.20	
2025-01-16 13:54:49.76	258.05	6.21	
2025-01-16 13:54:49.96	258.08	6.21	
2025-01-16 13:54:50.17	258.12	6.22	
2025-01-16 13:54:50.37	258.15	6.22	
2025-01-16 13:54:50.57	258.18	6.23	
2025-01-16 13:54:50.78	258.22	6.24	
2025-01-16 13:54:50.98	258.25	6.24	
2025-01-16 13:54:51.18	258.28	6.25	
2025-01-16 13:54:51.38	258.31	6.26	
2025-01-16 13:54:51.59	258.35	6.26	
2025-01-16 13:54:51.79	258.38	6.27	
2025-01-16 13:54:51.99	258.41	6.28	
2025-01-16 13:54:52.20	258.45	6.28	
2025-01-16 13:54:52.40	258.48	6.29	
2025-01-16 13:54:52.60	258.52	6.29	
2025-01-16 13:54:52.81	258.55	6.30	
2025-01-16 13:54:53.01	258.58	6.31	
2025-01-16 13:54:53.21	258.62	6.31	
2025-01-16 13:54:53.41	258.65	6.32	
2025-01-16 13:54:53.62	258.68	6.33	
2025-01-16 13:54:53.82	258.72	6.33	
2025-01-16 13:54:54.02	258.75	6.34	
2025-01-16 13:54:54.23	258.78	6.34	
2025-01-16 13:54:54.43	258.82	6.35	
2025-01-16 13:54:54.63	258.85	6.36	
2025-01-16 13:54:54.84	258.89	6.36	
2025-01-16 13:54:55.04	258.92	6.37	
2025-01-16 13:54:55.24	258.95	6.37	
2025-01-16 13:54:55.44	258.99	6.38	
2025-01-16 13:54:55.65	259.02	6.39	
2025-01-16 13:54:55.85	259.05	6.39	
2025-01-16 13:54:56.05	259.09	6.40	
2025-01-16 13:54:56.26	259.12	6.41	
2025-01-16 13:54:56.46	259.15	6.41	
2025-01-16 13:54:56.66	259.19	6.42	
2025-01-16 13:54:56.87	259.22	6.42	
2025-01-16 13:54:57.07	259.26	6.43	
2025-01-16 13:54:57.27	259.29	6.44	
2025-01-16 13:54:57.47	259.32	6.44	
2025-01-16 13:54:57.68	259.36	6.45	
2025-01-16 13:54:57.88	259.39	6.45	
2025-01-16 13:54:58.08	259.42	6.46	
2025-01-16 13:54:58.29	259.46	6.47	
2025-01-16 13:54:58.49	259.49	6.47	
2025-01-16 13:54:58.69	259.53	6.48	
2025-01-16 13:54:58.90	259.56	6.49	
2025-01-16 13:54:59.10	259.59	6.49	
2025-01-16 13:54:59.30	259.63	6.50	
2025-01-16 13:54:59.50	259.66	6.50	
2025-01-16 13:54:59.71	259.70	6.51	
2025-01-16 13:54:59.91	259.73	6.52	
2025-01-16 13:55:00.11	259.76	6.52	
2025-01-16 13:55:00.32	259.80	6.53	
2025-01-16 13:55:00.52	259.83	6.53	
2025-01-16 13:55:00.72	259.87	6.54	
2025-01-16 13:55:00.92	259.90	6.55	
2025-01-16 13:55:01.13	259.94	6.55	
2025-01-16 13:55:01.33	259.97	6.56	
2025-01-16 13:55:01.53	260.00	6.56	
2025-01-16 13:55:01.74	260.04	6.57	
2025-01-16 13:55:01.94	260.07	6.58	
2025-01-16 13:55:02.14	260.11	6.58	
2025-01-16 13:55:02.35	260.14	6.59	
2025-01-16 13:55:02.55	260.17	6.59	
2025-01-16 13:55:02.75	260.21	6.60	
2025-01-16 13:55:02.95	260.24	6.61	
2025-01-16 13:55:03.16	260.28	6.61	
2025-01-16 13:55:03.36	260.31	6.62	
2025-01-16 13:55:03.56	260.34	6.62	
2025-01-16 13:55:03.77	260.38	6.63	
2025-01-16 13:55:03.97	260.41	6.64	
2025-01-16 13:55:04.17	260.45	6.64	
2025-01-16 13:55:04.38	260.48	6.65	
2025-01-16 13:55:04.58	260.52	6.65	
2025-01-16 13:55:04.78	260.55	6.66	
2025-01-16 13:55:04.98	260.58	6.66	
2025-01-16 13:55:05.19	260.62	6.67	
2025-01-16 13:55:05.39	260.65	6.68	
2025-01-16 13:55:05.59	260.69	6.68	
2025-01-16 13:55:05.80	260.72	6.69	
2025-01-16 13:55:06.00	260.76	6.69	
2025-01-16 13:55:06.20	260.79	6.70	
2025-01-16 13:55:06.41	260.83	6.71	
2025-01-16 13:55:06.61	260.86	6.71	
2025-01-16 13:55:06.81	260.90	6.72	
2025-01-16 13:55:07.01	260.93	6.72	
2025-01-16 13:55:07.22	260.97	6.73	
2025-01-16 13:55:07.42	261.00	6.73	
2025-01-16 13:55:07.62	261.03	6.74	
2025-01-16 13:55:07.83	261.07	6.75	
2025-01-16 13:55:08.03	261.10	6.75	
2025-01-16 13:55:08.23	261.14	6.76	
2025-01-16 13:55:08.44	261.17	6.76	
2025-01-16 13:55:08.64	261.21	6.77	
2025-01-16 13:55:08.84	261.24	6.77	
2025-01-16 13:55:09.04	261.28	6.78	
2025-01-16 13:55:09.25	261.31	6.79	
2025-01-16 13:55:09.45	261.35	6.79	
2025-01-16 13:55:09.65	261.38	6.80	
2025-01-16 13:55:09.86	261.42	6.80	
2025-01-16 13:55:10.06	261.45	6.81	
2025-01-16 13:55:10.26	261.48	6.81	
2025-01-16 13:55:10.47	261.52	6.82	
2025-01-16 13:55:10.67	261.55	6.83	
2025-01-16 13:55:10.87	261.59	6.83	
2025-01-16 13:55:11.07	261.62	6.84	
2025-01-16 13:55:11.28	261.66	6.84	
2025-01-16 13:55:11.48	261.69	6.85	
2025-01-16 13:55:11.68	261.73	6.85	
2025-01-16 13:55:11.89	261.76	6.86	
2025-01-16 13:55:12.09	261.80	6.87	
2025-01-16 13:55:12.29	261.83	6.87	
2025-01-16 13:55:12.49	261.87	6.88	
2025-01-16 13:55:12.70	261.90	6.88	
2025-01-16 13:55:12.90	261.94	6.89	
2025-01-16 13:55:13.10	261.97	6.89	
2025-01-16 13:55:13.31	262.01	6.90	
2025-01-16 13:55:13.51	262.04	6.90	
2025-01-16 13:55:13.71	262.08	6.91	
2025-01-16 13:55:13.92	262.11	6.92	
2025-01-16 13:55:14.12	262.15	6.92	
2025-01-16 13:55:14.32	262.18	6.93	
2025-01-16 13:55:14.52	262.22	6.93	
2025-01-16 13:55:14.73	262.25	6.94	
2025-01-16 13:55:14.93	262.29	6.94	
2025-01-16 13:55:15.13	262.32	6.95	
2025-01-16 13:55:15.34	262.36	6.95	
2025-01-16 13:55:15.54	262.39	6.96	
2025-01-16 13:55:15.74	262.43	6.97	
2025-01-16 13:55:15.95	262.46	6.97	
2025-01-16 13:55:16.15	262.50	6.98	
2025-01-16 13:55:16.35	262.53	6.98	
2025-01-16 13:55:16.55	262.57	6.99	
2025-01-16 13:55:16.76	262.60	6.99	
2025-01-16 13:55:16.96	262.64	7.00	
2025-01-16 13:55:17.16	262.67	7.00	
2025-01-16 13:55:17.37	262.71	7.01	
2025-01-16 13:55:17.57	262.74	7.02	
2025-01-16 13:55:17.77	262.78	7.02	
2025-01-16 13:55:17.98	262.82	7.03	
2025-01-16 13:55:18.18	262.85	7.03	
2025-01-16 13:55:18.38	262.89	7.04	
2025-01-16 13:55:18.58	262.92	7.04	
2025-01-16 13:55:18.79	262.96	7.05	
2025-01-16 13:55:18.99	262.99	7.05	
2025-01-16 13:55:19.19	263.03	7.06	
2025-01-16 13:55:19.40	263.06	7.06	
2025-01-16 13:55:19.60	263.10	7.07	
2025-01-16 13:55:19.80	263.13	7.07	
2025-01-16 13:55:20.00	263.17	7.08	
2025-01-16 13:55:20.21	263.20	7.09	
2025-01-16 13:55:20.41	263.24	7.09	
2025-01-16 13:55:20.61	263.27	7.10	
2025-01-16 13:55:20.82	263.31	7.10	
2025-01-16 13:55:21.02	263.35	7.11	
2025-01-16 13:55:21.22	263.38	7.11	
2025-01-16 13:55:21.43	263.42	7.12	
2025-01-16 13:55:21.63	263.45	7.12	
2025-01-16 13:55:21.83	263.49	7.13	
2025-01-16 13:55:22.03	263.52	7.13	
2025-01-16 13:55:22.24	263.56	7.14	
2025-01-16 13:55:22.44	263.59	7.14	
2025-01-16 13:55:22.64	263.63	7.15	
2025-01-16 13:55:22.85	263.67	7.15	
2025-01-16 13:55:23.05	263.70	7.16	
2025-01-16 13:55:23.25	263.74	7.16	
2025-01-16 13:55:23.46	263.77	7.17	
2025-01-16 13:55:23.66	263.81	7.17	
2025-01-16 13:55:23.86	263.84	7.18	
2025-01-16 13:55:24.06	263.88	7.18	
2025-01-16 13:55:24.27	263.92	7.19	
2025-01-16 13:55:24.47	263.95	7.20	
2025-01-16 13:55:24.67	263.99	7.20	
2025-01-16 13:55:24.88	264.02	7.21	
2025-01-16 13:55:25.08	264.06	7.21	
2025-01-16 13:55:25.28	264.09	7.22	
2025-01-16 13:55:25.49	264.13	7.22	
2025-01-16 13:55:25.69	264.17	7.23	
2025-01-16 13:55:25.89	264.20	7.23	
2025-01-16 13:55:26.09	264.24	7.24	
2025-01-16 13:55:26.30	264.27	7.24	
2025-01-16 13:55:26.50	264.31	7.25	
2025-01-16 13:55:26.70	264.34	7.25	
2025-01-16 13:55:26.91	264.38	7.26	
2025-01-16 13:55:27.11	264.42	7.26	
2025-01-16 13:55:27.31	264.45	7.27	
2025-01-16 13:55:27.52	264.49	7.27	
2025-01-16 13:55:27.72	264.52	7.28	
2025-01-16 13:55:27.92	264.56	7.28	
2025-01-16 13:55:28.12	264.60	7.29	
2025-01-16 13:55:28.33	264.63	7.29	
2025-01-16 13:55:28.53	264.67	7.30	
2025-01-16 13:55:28.73	264.70	7.30	
2025-01-16 13:55:28.94	264.74	7.31	
2025-01-16 13:55:29.14	264.78	7.31	
2025-01-16 13:55:29.34	264.81	7.32	
2025-01-16 13:55:29.54	264.85	7.32	
2025-01-16 13:55:29.75	264.88	7.33	
2025-01-16 13:55:29.95	264.92	7.33	
2025-01-16 13:55:30.15	264.96	7.34	
2025-01-16 13:55:30.36	264.99	7.34	
2025-01-16 13:55:30.56	265.03	7.35	
2025-01-16 13:55:30.76	265.06	7.35	
2025-01-16 13:55:30.97	265.10	7.36	
2025-01-16 13:55:31.17	265.14	7.36	
2025-01-16 13:55:31.37	265.17	7.37	
2025-01-16 13:55:31.57	265.21	7.37	
2025-01-16 13:55:31.78	265.25	7.38	
2025-01-16 13:55:31.98	265.28	7.38	
2025-01-16 13:55:32.18	265.32	7.39	
2025-01-16 13:55:32.39	265.35	7.39	
2025-01-16 13:55:32.59	265.39	7.40	
2025-01-16 13:55:32.79	265.43	7.40	
2025-01-16 13:55:33.00	265.46	7.41	
2025-01-16 13:55:33.20	265.50	7.41	
2025-01-16 13:55:33.40	265.54	7.42	
2025-01-16 13:55:33.60	265.57	7.42	
2025-01-16 13:55:33.81	265.61	7.42	
2025-01-16 13:55:34.01	265.64	7.43	
2025-01-16 13:55:34.21	265.68	7.43	
2025-01-16 13:55:34.42	265.72	7.44	
2025-01-16 13:55:34.62	265.75	7.44	
2025-01-16 13:55:34.82	265.79	7.45	
2025-01-16 13:55:35.03	265.83	7.45	
2025-01-16 13:55:35.23	265.86	7.46	
2025-01-16 13:55:35.43	265.90	7.46	
2025-01-16 13:55:35.63	265.93	7.47	
2025-01-16 13:55:35.84	265.97	7.47	
2025-01-16 13:55:36.04	266.01	7.48	
2025-01-16 13:55:36.24	266.04	7.48	
2025-01-16 13:55:36.45	266.08	7.49	
2025-01-16 13:55:36.65	266.12	7.49	
2025-01-16 13:55:36.85	266.15	7.50	
2025-01-16 13:55:37.06	266.19	7.50	
2025-01-16 13:55:37.26	266.23	7.51	
2025-01-16 13:55:37.46	266.26	7.51	
2025-01-16 13:55:37.66	266.30	7.51	
2025-01-16 13:55:37.87	266.34	7.52	
2025-01-16 13:55:38.07	266.37	7.52	
2025-01-16 13:55:38.27	266.41	7.53	
2025-01-16 13:55:38.48	266.45	7.53	
2025-01-16 13:55:38.68	266.48	7.54	
2025-01-16 13:55:38.88	266.52	7.54	
2025-01-16 13:55:39.09	266.56	7.55	
2025-01-16 13:55:39.29	266.59	7.55	
2025-01-16 13:55:39.49	266.63	7.56	
2025-01-16 13:55:39.69	266.67	7.56	
2025-01-16 13:55:39.90	266.70	7.57	
2025-01-16 13:55:40.10	266.74	7.57	
2025-01-16 13:55:40.30	266.78	7.57	
2025-01-16 13:55:40.51	266.81	7.58	
2025-01-16 13:55:40.71	266.85	7.58	
2025-01-16 13:55:40.91	266.89	7.59	
2025-01-16 13:55:41.11	266.92	7.59	
2025-01-16 13:55:41.32	266.96	7.60	
2025-01-16 13:55:41.52	267.00	7.60	
2025-01-16 13:55:41.72	267.03	7.61	
2025-01-16 13:55:41.93	267.07	7.61	
2025-01-16 13:55:42.13	267.11	7.61	
2025-01-16 13:55:42.33	267.14	7.62	
2025-01-16 13:55:42.54	267.18	7.62	
2025-01-16 13:55:42.74	267.22	7.63	
2025-01-16 13:55:42.94	267.25	7.63	
2025-01-16 13:55:43.14	267.29	7.64	
2025-01-16 13:55:43.35	267.33	7.64	
2025-01-16 13:55:43.55	267.36	7.65	
2025-01-16 13:55:43.75	267.40	7.65	
2025-01-16 13:55:43.96	267.44	7.65	
2025-01-16 13:55:44.16	267.48	7.66	
2025-01-16 13:55:44.36	267.51	7.66	
2025-01-16 13:55:44.57	267.55	7.67	
2025-01-16 13:55:44.77	267.59	7.67	
2025-01-16 13:55:44.97	267.62	7.68	
2025-01-16 13:55:45.17	267.66	7.68	
2025-01-16 13:55:45.38	267.70	7.68	
2025-01-16 13:55:45.58	267.73	7.69	
2025-01-16 13:55:45.78	267.77	7.69	
2025-01-16 13:55:45.99	267.81	7.70	
2025-01-16 13:55:46.19	267.85	7.70	
2025-01-16 13:55:46.39	267.88	7.71	
2025-01-16 13:55:46.60	267.92	7.71	
2025-01-16 13:55:46.80	267.96	7.71	
2025-01-16 13:55:47.00	267.99	7.72	
2025-01-16 13:55:47.20	268.03	7.72	
2025-01-16 13:55:47.41	268.07	7.73	
2025-01-16 13:55:47.61	268.10	7.73	
2025-01-16 13:55:47.81	268.14	7.74	
2025-01-16 13:55:48.02	268.18	7.74	
2025-01-16 13:55:48.22	268.22	7.74	
2025-01-16 13:55:48.42	268.25	7.75	
2025-01-16 13:55:48.63	268.29	7.75	
2025-01-16 13:55:48.83	268.33	7.76	
2025-01-16 13:55:49.03	268.36	7.76	
2025-01-16 13:55:49.23	268.40	7.76	
2025-01-16 13:55:49.44	268.44	7.77	
2025-01-16 13:55:49.64	268.48	7.77	
2025-01-16 13:55:49.84	268.51	7.78	
2025-01-16 13:55:50.05	268.55	7.78	
2025-01-16 13:55:50.25	268.59	7.79	
2025-01-16 13:55:50.45	268.63	7.79	
2025-01-16 13:55:50.66	268.66	7.79	
2025-01-16 13:55:50.86	268.70	7.80	
2025-01-16 13:55:51.06	268.74	7.80	
2025-01-16 13:55:51.26	268.77	7.81	
2025-01-16 13:55:51.47	268.81	7.81	
2025-01-16 13:55:51.67	268.85	7.81	
2025-01-16 13:55:51.87	268.89	7.82	
2025-01-16 13:55:52.08	268.92	7.82	
2025-01-16 13:55:52.28	268.96	7.83	
2025-01-16 13:55:52.48	269.00	7.83	
2025-01-16 13:55:52.68	269.04	7.83	
2025-01-16 13:55:52.89	269.07	7.84	
2025-01-16 13:55:53.09	269.11	7.84	
2025-01-16 13:55:53.29	269.15	7.85	
2025-01-16 13:55:53.50	269.19	7.85	
2025-01-16 13:55:53.70	269.22	7.85	
2025-01-16 13:55:53.90	269.26	7.86	
2025-01-16 13:55:54.11	269.30	7.86	
2025-01-16 13:55:54.31	269.34	7.87	
2025-01-16 13:55:54.51	269.37	7.87	
2025-01-16 13:55:54.71	269.41	7.87	
2025-01-16 13:55:54.92	269.45	7.88	
2025-01-16 13:55:55.12	269.49	7.88	
2025-01-16 13:55:55.32	269.52	7.89	
2025-01-16 13:55:55.53	269.56	7.89	
2025-01-16 13:55:55.73	269.60	7.89	
2025-01-16 13:55:55.93	269.64	7.90	
2025-01-16 13:55:56.14	269.67	7.90	
2025-01-16 13:55:56.34	269.71	7.90	
2025-01-16 13:55:56.54	269.75	7.91	
2025-01-16 13:55:56.74	269.79	7.91	
2025-01-16 13:55:56.95	269.82	7.92	
2025-01-16 13:55:57.15	269.86	7.92	
2025-01-16 13:55:57.35	269.90	7.92	
2025-01-16 13:55:57.56	269.94	7.93	
2025-01-16 13:55:57.76	269.97	7.93	
2025-01-16 13:55:57.96	270.01	7.93	
2025-01-16 13:55:58.17	270.05	7.94	
2025-01-16 13:55:58.37	270.09	7.94	
2025-01-16 13:55:58.57	270.12	7.95	
2025-01-16 13:55:58.77	270.16	7.95	
2025-01-16 13:55:58.98	270.20	7.95	
2025-01-16 13:55:59.18	270.24	7.96	
2025-01-16 13:55:59.38	270.27	7.96	
2025-01-16 13:55:59.59	270.31	7.96	
2025-01-16 13:55:59.79	270.35	7.97	
2025-01-16 13:55:59.99	270.39	7.97	
2025-01-16 13:56:00.20	270.43	7.98	
2025-01-16 13:56:00.40	270.46	7.98	
2025-01-16 13:56:00.60	270.50	7.98	
2025-01-16 13:56:00.80	270.54	7.99	
2025-01-16 13:56:01.01	270.58	7.99	
2025-01-16 13:56:01.21	270.62	7.99	
2025-01-16 13:56:01.41	270.65	8.00	
2025-01-16 13:56:01.62	270.69	8.00	
2025-01-16 13:56:01.82	270.73	8.00	
2025-01-16 13:56:02.02	270.77	8.01	
2025-01-16 13:56:02.22	270.80	8.01	
2025-01-16 13:56:02.43	270.84	8.01	
2025-01-16 13:56:02.63	270.88	8.02	
2025-01-16 13:56:02.83	270.92	8.02	
2025-01-16 13:56:03.04	270.96	8.03	
2025-01-16 13:56:03.24	270.99	8.03	
2025-01-16 13:56:03.44	271.03	8.03	
2025-01-16 13:56:03.65	271.07	8.04	
2025-01-16 13:56:03.85	271.11	8.04	
2025-01-16 13:56:04.05	271.15	8.04	
2025-01-16 13:56:04.25	271.18	8.05	
2025-01-16 13:56:04.46	271.22	8.05	
2025-01-16 13:56:04.66	271.26	8.05	
2025-01-16 13:56:04.86	271.30	8.06	
2025-01-16 13:56:05.07	271.34	8.06	
2025-01-16 13:56:05.27	271.37	8.06	
2025-01-16 13:56:05.47	271.41	8.07	
2025-01-16 13:56:05.68	271.45	8.07	
2025-01-16 13:56:05.88	271.49	8.07	
2025-01-16 13:56:06.08	271.53	8.08	
2025-01-16 13:56:06.28	271.56	8.08	
2025-01-16 13:56:06.49	271.60	8.08	
2025-01-16 13:56:06.69	271.64	8.09	
2025-01-16 13:56:06.89	271.68	8.09	
2025-01-16 13:56:07.10	271.72	8.09	
2025-01-16 13:56:07.30	271.75	8.10	
2025-01-16 13:56:07.50	271.79	8.10	
2025-01-16 13:56:07.71	271.83	8.10	
2025-01-16 13:56:07.91	271.87	8.11	
2025-01-16 13:56:08.11	271.91	8.11	
2025-01-16 13:56:08.31	271.94	8.11	
2025-01-16 13:56:08.52	271.98	8.12	
2025-01-16 13:56:08.72	272.02	8.12	
2025-01-16 13:56:08.92	272.06	8.12	
2025-01-16 13:56:09.13	272.10	8.13	
2025-01-16 13:56:09.33	272.14	8.13	
2025-01-16 13:56:09.53	272.17	8.13	
2025-01-16 13:56:09.74	272.21	8.14	
2025-01-16 13:56:09.94	272.25	8.14	
2025-01-16 13:56:10.14	272.29	8.14	
2025-01-16 13:56:10.34	272.33	8.14	
2025-01-16 13:56:10.55	272.37	8.15	
2025-01-16 13:56:10.75	272.40	8.15	
2025-01-16 13:56:10.95	272.44	8.15	
2025-01-16 13:56:11.16	272.48	8.16	
2025-01-16 13:56:11.36	272.52	8.16	
2025-01-16 13:56:11.56	272.56	8.16	
2025-01-16 13:56:11.76	272.59	8.17	
2025-01-16 13:56:11.97	272.63	8.17	
2025-01-16 13:56:12.17	272.67	8.17	
2025-01-16 13:56:12.37	272.71	8.18	
2025-01-16 13:56:12.58	272.75	8.18	
2025-01-16 13:56:12.78	272.79	8.18	
2025-01-16 13:56:12.98	272.82	8.19	
2025-01-16 13:56:13.19	272.86	8.19	
2025-01-16 13:56:13.39	272.90	8.19	
2025-01-16 13:56:13.59	272.94	8.19	
2025-01-16 13:56:13.79	272.98	8.20	
2025-01-16 13:56:14.00	273.02	8.20	
2025-01-16 13:56:14.20	273.05	8.20	
2025-01-16 13:56:14.40	273.09	8.21	
2025-01-16 13:56:14.61	273.13	8.21	
2025-01-16 13:56:14.81	273.17	8.21	
2025-01-16 13:56:15.01	273.21	8.21	
2025-01-16 13:56:15.22	273.25	8.22	
2025-01-16 13:56:15.42	273.28	8.22	
2025-01-16 13:56:15.62	273.32	8.22	
2025-01-16 13:56:15.82	273.36	8.23	
2025-01-16 13:56:16.03	273.40	8.23	
2025-01-16 13:56:16.23	273.44	8.23	
2025-01-16 13:56:16.43	273.48	8.23	
2025-01-16 13:56:16.64	273.52	8.24	
2025-01-16 13:56:16.84	273.55	8.24	
2025-01-16 13:56:17.04	273.59	8.24	
2025-01-16 13:56:17.25	273.63	8.25	
2025-01-16 13:56:17.45	273.67	8.25	
2025-01-16 13:56:17.65	273.71	8.25	
2025-01-16 13:56:17.85	273.75	8.25	
2025-01-16 13:56:18.06	273.79	8.26	
2025-01-16 13:56:18.26	273.82	8.26	
2025-01-16 13:56:18.46	273.86	8.26	
2025-01-16 13:56:18.67	273.90	8.27	
2025-01-16 13:56:18.87	273.94	8.27	
2025-01-16 13:56:19.07	273.98	8.27	
2025-01-16 13:56:19.28	274.02	8.27	
2025-01-16 13:56:19.48	274.06	8.28	
2025-01-16 13:56:19.68	274.09	8.28	
2025-01-16 13:56:19.88	274.13	8.28	
2025-01-16 13:56:20.09	274.17	8.28	
2025-01-16 13:56:20.29	274.21	8.29	
2025-01-16 13:56:20.49	274.25	8.29	
2025-01-16 13:56:20.70	274.29	8.29	
2025-01-16 13:56:20.90	274.33	8.30	
2025-01-16 13:56:21.10	274.36	8.30	
2025-01-16 13:56:21.30	274.40	8.30	
2025-01-16 13:56:21.51	274.44	8.30	
2025-01-16 13:56:21.71	274.48	8.31	
2025-01-16 13:56:21.91	274.52	8.31	
2025-01-16 13:56:22.12	274.56	8.31	
2025-01-16 13:56:22.32	274.60	8.31	
2025-01-16 13:56:22.52	274.63	8.32	
2025-01-16 13:56:22.73	274.67	8.32	
2025-01-16 13:56:22.93	274.71	8.32	
2025-01-16 13:56:23.13	274.75	8.32	
2025-01-16 13:56:23.33	274.79	8.33	
2025-01-16 13:56:23.54	274.83	8.33	
2025-01-16 13:56:23.74	274.87	8.33	
2025-01-16 13:56:23.94	274.90	8.33	
2025-01-16 13:56:24.15	274.94	8.34	
2025-01-16 13:56:24.35	274.98	8.34	
2025-01-16 13:56:24.55	275.02	8.34	
2025-01-16 13:56:24.76	275.06	8.34	
2025-01-16 13:56:24.96	275.10	8.35	
2025-01-16 13:56:25.16	275.14	8.35	
2025-01-16 13:56:25.36	275.18	8.35	
2025-01-16 13:56:25.57	275.22	8.35	
2025-01-16 13:56:25.77	275.25	8.36	
2025-01-16 13:56:25.97	275.29	8.36	
2025-01-16 13:56:26.18	275.33	8.36	
2025-01-16 13:56:26.38	275.37	8.36	
2025-01-16 13:56:26.58	275.41	8.36	
2025-01-16 13:56:26.79	275.45	8.37	
2025-01-16 13:56:26.99	275.49	8.37	
2025-01-16 13:56:27.19	275.53	8.37	
2025-01-16 13:56:27.39	275.56	8.37	
2025-01-16 13:56:27.60	275.60	8.38	
2025-01-16 13:56:27.80	275.64	8.38	
2025-01-16 13:56:28.00	275.68	8.38	
2025-01-16 13:56:28.21	275.72	8.38	
2025-01-16 13:56:28.41	275.76	8.39	
2025-01-16 13:56:28.61	275.80	8.39	
2025-01-16 13:56:28.82	275.84	8.39	
2025-01-16 13:56:29.02	275.88	8.39	
2025-01-16 13:56:29.22	275.91	8.39	
2025-01-16 13:56:29.42	275.95	8.40	
2025-01-16 13:56:29.63	275.99	8.40	
2025-01-16 13:56:29.83	276.03	8.40	
2025-01-16 13:56:30.03	276.07	8.40	
2025-01-16 13:56:30.24	276.11	8.40	
2025-01-16 13:56:30.44	276.15	8.41	
2025-01-16 13:56:30.64	276.19	8.41	
2025-01-16 13:56:30.84	276.22	8.41	
2025-01-16 13:56:31.05	276.27	8.41	
2025-01-16 13:56:31.25	276.30	8.42	
2025-01-16 13:56:31.45	276.34	8.42	
2025-01-16 13:56:31.66	276.38	8.42	
2025-01-16 13:56:31.86	276.42	8.42	
2025-01-16 13:56:32.06	276.46	8.42	
2025-01-16 13:56:32.27	276.50	8.43	
2025-01-16 13:56:32.47	276.54	8.43	
2025-01-16 13:56:32.67	276.58	8.43	
2025-01-16 13:56:32.87	276.61	8.43	
2025-01-16 13:56:33.08	276.66	8.43	
2025-01-16 13:56:33.28	276.69	8.44	
2025-01-16 13:56:33.48	276.73	8.44	
2025-01-16 13:56:33.69	276.77	8.44	
2025-01-16 13:56:33.89	276.81	8.44	
2025-01-16 13:56:34.09	276.85	8.44	
2025-01-16 13:56:34.30	276.89	8.45	
2025-01-16 13:56:34.50	276.93	8.45	
2025-01-16 13:56:34.70	276.97	8.45	
2025-01-16 13:56:34.90	277.01	8.45	
2025-01-16 13:56:35.11	277.05	8.45	
2025-01-16 13:56:35.31	277.08	8.45	
2025-01-16 13:56:35.51	277.12	8.46	
2025-01-16 13:56:35.72	277.16	8.46	
2025-01-16 13:56:35.92	277.20	8.46	
2025-01-16 13:56:36.12	277.24	8.46	
2025-01-16 13:56:36.33	277.28	8.46	
2025-01-16 13:56:36.53	277.32	8.47	
2025-01-16 13:56:36.73	277.36	8.47	
2025-01-16 13:56:36.93	277.40	8.47	
2025-01-16 13:56:37.14	277.44	8.47	
2025-01-16 13:56:37.34	277.47	8.47	
2025-01-16 13:56:37.54	277.51	8.47	
2025-01-16 13:56:37.75	277.55	8.48	
2025-01-16 13:56:37.95	277.59	8.48	
2025-01-16 13:56:38.15	277.63	8.48	
2025-01-16 13:56:38.36	277.67	8.48	
2025-01-16 13:56:38.56	277.71	8.48	
2025-01-16 13:56:38.76	277.75	8.49	
2025-01-16 13:56:38.96	277.79	8.49	
2025-01-16 13:56:39.17	277.83	8.49	
2025-01-16 13:56:39.37	277.87	8.49	
2025-01-16 13:56:39.57	277.90	8.49	
2025-01-16 13:56:39.78	277.95	8.49	
2025-01-16 13:56:39.98	277.98	8.50	
2025-01-16 13:56:40.18	278.02	8.50	
2025-01-16 13:56:40.39	278.06	8.50	
2025-01-16 13:56:40.59	278.10	8.50	
2025-01-16 13:56:40.79	278.14	8.50	
2025-01-16 13:56:40.99	278.18	8.50	
2025-01-16 13:56:41.20	278.22	8.50	
2025-01-16 13:56:41.40	278.26	8.51	
2025-01-16 13:56:41.60	278.30	8.51	
2025-01-16 13:56:41.81	278.34	8.51	
2025-01-16 13:56:42.01	278.38	8.51	
2025-01-16 13:56:42.21	278.41	8.51	
2025-01-16 13:56:42.41	278.45	8.51	
2025-01-16 13:56:42.62	278.49	8.52	
2025-01-16 13:56:42.82	278.53	8.52	
2025-01-16 13:56:43.02	278.57	8.52	
2025-01-16 13:56:43.23	278.61	8.52	
2025-01-16 13:56:43.43	278.65	8.52	
2025-01-16 13:56:43.63	278.69	8.52	
2025-01-16 13:56:43.84	278.73	8.52	
2025-01-16 13:56:44.04	278.77	8.53	
2025-01-16 13:56:44.24	278.81	8.53	
2025-01-16 13:56:44.44	278.85	8.53	
2025-01-16 13:56:44.65	278.89	8.53	
2025-01-16 13:56:44.85	278.93	8.53	
2025-01-16 13:56:45.05	278.96	8.53	
2025-01-16 13:56:45.26	279.00	8.53	
2025-01-16 13:56:45.46	279.04	8.54	
2025-01-16 13:56:45.66	279.08	8.54	
2025-01-16 13:56:45.87	279.12	8.54	
2025-01-16 13:56:46.07	279.16	8.54	
2025-01-16 13:56:46.27	279.20	8.54	
2025-01-16 13:56:46.47	279.24	8.54	
2025-01-16 13:56:46.68	279.28	8.54	
2025-01-16 13:56:46.88	279.32	8.54	
2025-01-16 13:56:47.08	279.36	8.55	
2025-01-16 13:56:47.29	279.40	8.55	
2025-01-16 13:56:47.49	279.44	8.55	
2025-01-16 13:56:47.69	279.48	8.55	
2025-01-16 13:56:47.90	279.52	8.55	
2025-01-16 13:56:48.10	279.55	8.55	
2025-01-16 13:56:48.30	279.59	8.55	
2025-01-16 13:56:48.50	279.63	8.55	
2025-01-16 13:56:48.71	279.67	8.55	
2025-01-16 13:56:48.91	279.71	8.56	
2025-01-16 13:56:49.11	279.75	8.56	
2025-01-16 13:56:49.32	279.79	8.56	
2025-01-16 13:56:49.52	279.83	8.56	
2025-01-16 13:56:49.72	279.87	8.56	
2025-01-16 13:56:49.93	279.91	8.56	
2025-01-16 13:56:50.13	279.95	8.56	
2025-01-16 13:56:50.33	279.99	8.56	
2025-01-16 13:56:50.53	280.03	8.56	
2025-01-16 13:56:50.74	280.07	8.57	
2025-01-16 13:56:50.94	280.11	8.57	
2025-01-16 13:56:51.14	280.14	8.57	
2025-01-16 13:56:51.35	280.18	8.57	
2025-01-16 13:56:51.55	280.22	8.57	
2025-01-16 13:56:51.75	280.26	8.57	
2025-01-16 13:56:51.95	280.30	8.57	
2025-01-16 13:56:52.16	280.34	8.57	
2025-01-16 13:56:52.36	280.38	8.57	
2025-01-16 13:56:52.56	280.42	8.57	
2025-01-16 13:56:52.77	280.46	8.58	
2025-01-16 13:56:52.97	280.50	8.58	
2025-01-16 13:56:53.17	280.54	8.58	
2025-01-16 13:56:53.38	280.58	8.58	
2025-01-16 13:56:53.58	280.62	8.58	
2025-01-16 13:56:53.78	280.66	8.58	
2025-01-16 13:56:53.98	280.69	8.58	
2025-01-16 13:56:54.19	280.74	8.58	
2025-01-16 13:56:54.39	280.77	8.58	
2025-01-16 13:56:54.59	280.81	8.58	
2025-01-16 13:56:54.80	280.85	8.58	
2025-01-16 13:56:55.00	280.89	8.59	
2025-01-16 13:56:55.20	280.93	8.59	
2025-01-16 13:56:55.41	280.97	8.59	
2025-01-16 13:56:55.61	281.01	8.59	
2025-01-16 13:56:55.81	281.05	8.59	
2025-01-16 13:56:56.01	281.09	8.59	
2025-01-16 13:56:56.22	281.13	8.59	
2025-01-16 13:56:56.42	281.17	8.59	
2025-01-16 13:56:56.62	281.21	8.59	
2025-01-16 13:56:56.83	281.25	8.59	
2025-01-16 13:56:57.03	281.29	8.59	
2025-01-16 13:56:57.23	281.33	8.59	
2025-01-16 13:56:57.44	281.37	8.59	
2025-01-16 13:56:57.64	281.41	8.60	
2025-01-16 13:56:57.84	281.44	8.60	
2025-01-16 13:56:58.04	281.48	8.60	
2025-01-16 13:56:58.25	281.52	8.60	
2025-01-16 13:56:58.45	281.56	8.60	
2025-01-16 13:56:58.65	281.60	8.60	
2025-01-16 13:56:58.86	281.64	8.60	
2025-01-16 13:56:59.06	281.68	8.60	
2025-01-16 13:56:59.26	281.72	8.60	
2025-01-16 13:56:59.47	281.76	8.60	
2025-01-16 13:56:59.67	281.80	8.60	
2025-01-16 13:56:59.87	281.84	8.60	
2025-01-16 13:57:00.07	281.88	8.60	
2025-01-16 13:57:00.28	281.92	8.60	
2025-01-16 13:57:00.48	281.96	8.60	
2025-01-16 13:57:00.68	282.00	8.60	
2025-01-16 13:57:00.89	282.04	8.60	
2025-01-16 13:57:01.09	282.08	8.60	
2025-01-16 13:57:01.29	282.12	8.61	
2025-01-16 13:57:01.49	282.15	8.61	
2025-01-16 13:57:01.70	282.20	8.61	
2025-01-16 13:57:01.90	282.23	8.61	
2025-01-16 13:57:02.10	282.27	8.61	
2025-01-16 13:57:02.31	282.31	8.61	
2025-01-16 13:57:02.51	282.35	8.61	
2025-01-16 13:57:02.71	282.39	8.61	
2025-01-16 13:57:02.92	282.43	8.61	
2025-01-16 13:57:03.12	282.47	8.61	
2025-01-16 13:57:03.32	282.51	8.61	
2025-01-16 13:57:03.52	282.55	8.61	
2025-01-16 13:57:03.73	282.59	8.61	
2025-01-16 13:57:03.93	282.63	8.61	
2025-01-16 13:57:04.13	282.67	8.61	
2025-01-16 13:57:04.34	282.71	8.61	
2025-01-16 13:57:04.54	282.75	8.61	
2025-01-16 13:57:04.74	282.79	8.61	
2025-01-16 13:57:04.95	282.83	8.61	
2025-01-16 13:57:05.15	282.87	8.61	
2025-01-16 13:57:05.35	282.91	8.61	
2025-01-16 13:57:05.55	282.94	8.61	
2025-01-16 13:57:05.76	282.98	8.61	
2025-01-16 13:57:05.96	283.02	8.61	
2025-01-16 13:57:06.16	283.06	8.61	
2025-01-16 13:57:06.37	283.10	8.61	
2025-01-16 13:57:06.57	283.14	8.61	
2025-01-16 13:57:06.77	283.18	8.61	
2025-01-16 13:57:06.98	283.22	8.61	
2025-01-16 13:57:07.18	283.26	8.61	
2025-01-16 13:57:07.38	283.30	8.61	
2025-01-16 13:57:07.58	283.34	8.61	
2025-01-16 13:57:07.79	283.38	8.61	
2025-01-16 13:57:07.99	283.42	8.61	
2025-01-16 13:57:08.19	283.46	8.61	
2025-01-16 13:57:08.40	283.50	8.61	
2025-01-16 13:57:08.60	283.54	8.61	
2025-01-16 13:57:08.80	283.58	8.61	
2025-01-16 13:57:09.01	283.62	8.61	
2025-01-16 13:57:09.21	283.66	8.61	
2025-01-16 13:57:09.41	283.69	8.61	
2025-01-16 13:57:09.61	283.73	8.61	
2025-01-16 13:57:09.82	283.77	8.61	
2025-01-16 13:57:10.02	283.81	8.61	
2025-01-16 13:57:10.22	283.85	8.61	
2025-01-16 13:57:10.43	283.89	8.61	
2025-01-16 13:57:10.63	283.93	8.61	
2025-01-16 13:57:10.83	283.97	8.61	
2025-01-16 13:57:11.04	284.01	8.61	
2025-01-16 13:57:11.24	284.05	8.61	
2025-01-16 13:57:11.44	284.09	8.61	
2025-01-16 13:57:11.64	284.13	8.61	
2025-01-16 13:57:11.85	284.17	8.61	
2025-01-16 13:57:12.05	284.21	8.61	
2025-01-16 13:57:12.25	284.25	8.61	
2025-01-16 13:57:12.46	284.29	8.61	
2025-01-16 13:57:12.66	284.33	8.61	
2025-01-16 13:57:12.86	284.37	8.61	
2025-01-16 13:57:13.06	284.41	8.61	
2025-01-16 13:57:13.27	284.45	8.61	
2025-01-16 13:57:13.47	284.48	8.61	
2025-01-16 13:57:13.67	284.52	8.61	
2025-01-16 13:57:13.88	284.56	8.61	
2025-01-16 13:57:14.08	284.60	8.61	
2025-01-16 13:57:14.28	284.64	8.61	
2025-01-16 13:57:14.49	284.68	8.61	
2025-01-16 13:57:14.69	284.72	8.61	
2025-01-16 13:57:14.89	284.76	8.61	
2025-01-16 13:57:15.09	284.80	8.61	
2025-01-16 13:57:15.30	284.84	8.61	
2025-01-16 13:57:15.50	284.88	8.61	
2025-01-16 13:57:15.70	284.92	8.61	
2025-01-16 13:57:15.91	284.96	8.61	
2025-01-16 13:57:16.11	285.00	8.61	
2025-01-16 13:57:16.31	285.04	8.61	
2025-01-16 13:57:16.52	285.08	8.61	
2025-01-16 13:57:16.72	285.12	8.61	
2025-01-16 13:57:16.92	285.16	8.61	
2025-01-16 13:57:17.12	285.19	8.61	
2025-01-16 13:57:17.33	285.24	8.61	
2025-01-16 13:57:17.53	285.27	8.61	
2025-01-16 13:57:17.73	285.31	8.61	
2025-01-16 13:57:17.94	285.35	8.61	
2025-01-16 13:57:18.14	285.39	8.61	
2025-01-16 13:57:18.34	285.43	8.61	
2025-01-16 13:57:18.55	285.47	8.60	
2025-01-16 13:57:18.75	285.51	8.60	
2025-01-16 13:57:18.95	285.55	8.60	
2025-01-16 13:57:19.15	285.59	8.60	
2025-01-16 13:57:19.36	285.63	8.60	
2025-01-16 13:57:19.56	285.67	8.60	
2025-01-16 13:57:19.76	285.71	8.60	
2025-01-16 13:57:19.97	285.75	8.60	
2025-01-16 13:57:20.17	285.79	8.60	
2025-01-16 13:57:20.37	285.83	8.60	
2025-01-16 13:57:20.58	285.87	8.60	
2025-01-16 13:57:20.78	285.91	8.60	
2025-01-16 13:57:20.98	285.94	8.60	
2025-01-16 13:57:21.18	285.98	8.60	
2025-01-16 13:57:21.39	286.02	8.60	
2025-01-16 13:57:21.59	286.06	8.60	
2025-01-16 13:57:21.79	286.10	8.60	
2025-01-16 13:57:22.00	286.14	8.59	
2025-01-16 13:57:22.20	286.18	8.59	
2025-01-16 13:57:22.40	286.22	8.59	
2025-01-16 13:57:22.60	286.26	8.59	
2025-01-16 13:57:22.81	286.30	8.59	
2025-01-16 13:57:23.01	286.34	8.59	
2025-01-16 13:57:23.21	286.38	8.59	
2025-01-16 13:57:23.42	286.42	8.59	
2025-01-16 13:57:23.62	286.46	8.59	
2025-01-16 13:57:23.82	286.50	8.59	
2025-01-16 13:57:24.03	286.54	8.59	
2025-01-16 13:57:24.23	286.58	8.59	
2025-01-16 13:57:24.43	286.61	8.59	
2025-01-16 13:57:24.63	286.65	8.59	
2025-01-16 13:57:24.84	286.69	8.58	
2025-01-16 13:57:25.04	286.73	8.58	
2025-01-16 13:57:25.24	286.77	8.58	
2025-01-16 13:57:25.45	286.81	8.58	
2025-01-16 13:57:25.65	286.85	8.58	
2025-01-16 13:57:25.85	286.89	8.58	
2025-01-16 13:57:26.06	286.93	8.58	
2025-01-16 13:57:26.26	286.97	8.58	
2025-01-16 13:57:26.46	287.01	8.58	
2025-01-16 13:57:26.66	287.05	8.58	
2025-01-16 13:57:26.87	287.09	8.58	
2025-01-16 13:57:27.07	287.13	8.57	
2025-01-16 13:57:27.27	287.17	8.57	
2025-01-16 13:57:27.48	287.21	8.57	
2025-01-16 13:57:27.68	287.25	8.57	
2025-01-16 13:57:27.88	287.28	8.57	
2025-01-16 13:57:28.09	287.32	8.57	
2025-01-16 13:57:28.29	287.36	8.57	
2025-01-16 13:57:28.49	287.40	8.57	
2025-01-16 13:57:28.69	287.44	8.57	
2025-01-16 13:57:28.90	287.48	8.57	
2025-01-16 13:57:29.10	287.52	8.56	
2025-01-16 13:57:29.30	287.56	8.56	
2025-01-16 13:57:29.51	287.60	8.56	
2025-01-16 13:57:29.71	287.64	8.56	
2025-01-16 13:57:29.91	287.68	8.56	
2025-01-16 13:57:30.12	287.72	8.56	
2025-01-16 13:57:30.32	287.76	8.56	
2025-01-16 13:57:30.52	287.80	8.56	
2025-01-16 13:57:30.72	287.83	8.56	
2025-01-16 13:57:30.93	287.87	8.55	
2025-01-16 13:57:31.13	287.91	8.55	
2025-01-16 13:57:31.33	287.95	8.55	
2025-01-16 13:57:31.54	287.99	8.55	
2025-01-16 13:57:31.74	288.03	8.55	
2025-01-16 13:57:31.94	288.07	8.55	
2025-01-16 13:57:32.14	288.11	8.55	
2025-01-16 13:57:32.35	288.15	8.55	
2025-01-16 13:57:32.55	288.19	8.54	
2025-01-16 13:57:32.75	288.23	8.54	
2025-01-16 13:57:32.96	288.27	8.54	
2025-01-16 13:57:33.16	288.31	8.54	
2025-01-16 13:57:33.36	288.35	8.54	
2025-01-16 13:57:33.57	288.39	8.54	
2025-01-16 13:57:33.77	288.42	8.54	
2025-01-16 13:57:33.97	288.46	8.54	
2025-01-16 13:57:34.17	288.50	8.53	
2025-01-16 13:57:34.38	288.54	8.53	
2025-01-16 13:57:34.58	288.58	8.53	
2025-01-16 13:57:34.78	288.62	8.53	
2025-01-16 13:57:34.99	288.66	8.53	
2025-01-16 13:57:35.19	288.70	8.53	
2025-01-16 13:57:35.39	288.74	8.53	
2025-01-16 13:57:35.60	288.78	8.53	
2025-01-16 13:57:35.80	288.82	8.52	
2025-01-16 13:57:36.00	288.86	8.52	
2025-01-16 13:57:36.20	288.89	8.52	
2025-01-16 13:57:36.41	288.93	8.52	
2025-01-16 13:57:36.61	288.97	8.52	
2025-01-16 13:57:36.81	289.01	8.52	
2025-01-16 13:57:37.02	289.05	8.51	
2025-01-16 13:57:37.22	289.09	8.51	
2025-01-16 13:57:37.42	289.13	8.51	
2025-01-16 13:57:37.63	289.17	8.51	
2025-01-16 13:57:37.83	289.21	8.51	
2025-01-16 13:57:38.03	289.25	8.51	
2025-01-16 13:57:38.23	289.29	8.51	
2025-01-16 13:57:38.44	289.33	8.50	
2025-01-16 13:57:38.64	289.36	8.50	
2025-01-16 13:57:38.84	289.40	8.50	
2025-01-16 13:57:39.05	289.44	8.50	
2025-01-16 13:57:39.25	289.48	8.50	
2025-01-16 13:57:39.45	289.52	8.50	
2025-01-16 13:57:39.66	289.56	8.49	
2025-01-16 13:57:39.86	289.60	8.49	
2025-01-16 13:57:40.06	289.64	8.49	
2025-01-16 13:57:40.26	289.68	8.49	
2025-01-16 13:57:40.47	289.72	8.49	
2025-01-16 13:57:40.67	289.76	8.49	
2025-01-16 13:57:40.87	289.79	8.48	
2025-01-16 13:57:41.08	289.83	8.48	
2025-01-16 13:57:41.28	289.87	8.48	
2025-01-16 13:57:41.48	289.91	8.48	
2025-01-16 13:57:41.68	289.95	8.48	
2025-01-16 13:57:41.89	289.99	8.48	
2025-01-16 13:57:42.09	290.03	8.47	
2025-01-16 13:57:42.29	290.07	8.47	
2025-01-16 13:57:42.50	290.11	8.47	
2025-01-16 13:57:42.70	290.15	8.47	
2025-01-16 13:57:42.90	290.19	8.47	
2025-01-16 13:57:43.11	290.23	8.47	
2025-01-16 13:57:43.31	290.26	8.46	
2025-01-16 13:57:43.51	290.30	8.46	
2025-01-16 13:57:43.71	290.34	8.46	
2025-01-16 13:57:43.92	290.38	8.46	
2025-01-16 13:57:44.12	290.42	8.46	
2025-01-16 13:57:44.32	290.46	8.45	
2025-01-16 13:57:44.53	290.50	8.45	
2025-01-16 13:57:44.73	290.54	8.45	
2025-01-16 13:57:44.93	290.58	8.45	
2025-01-16 13:57:45.14	290.62	8.45	
2025-01-16 13:57:45.34	290.65	8.44	
2025-01-16 13:57:45.54	290.69	8.44	
2025-01-16 13:57:45.74	290.73	8.44	
2025-01-16 13:57:45.95	290.77	8.44	
2025-01-16 13:57:46.15	290.81	8.44	
2025-01-16 13:57:46.35	290.85	8.44	
2025-01-16 13:57:46.56	290.89	8.43	
2025-01-16 13:57:46.76	290.93	8.43	
2025-01-16 13:57:46.96	290.97	8.43	
2025-01-16 13:57:47.17	291.01	8.43	
2025-01-16 13:57:47.37	291.04	8.43	
2025-01-16 13:57:47.57	291.08	8.42	
2025-01-16 13:57:47.77	291.12	8.42	
2025-01-16 13:57:47.98	291.16	8.42	
2025-01-16 13:57:48.18	291.20	8.42	
2025-01-16 13:57:48.38	291.24	8.41	
2025-01-16 13:57:48.59	291.28	8.41	
2025-01-16 13:57:48.79	291.32	8.41	
2025-01-16 13:57:48.99	291.35	8.41	
2025-01-16 13:57:49.20	291.39	8.41	
2025-01-16 13:57:49.40	291.43	8.40	
2025-01-16 13:57:49.60	291.47	8.40	
2025-01-16 13:57:49.80	291.51	8.40	
2025-01-16 13:57:50.01	291.55	8.40	
2025-01-16 13:57:50.21	291.59	8.40	
2025-01-16 13:57:50.41	291.63	8.39	
2025-01-16 13:57:50.62	291.67	8.39	
2025-01-16 13:57:50.82	291.70	8.39	
2025-01-16 13:57:51.02	291.74	8.39	
2025-01-16 13:57:51.23	291.78	8.38	
2025-01-16 13:57:51.43	291.82	8.38	
2025-01-16 13:57:51.63	291.86	8.38	
2025-01-16 13:57:51.83	291.90	8.38	
2025-01-16 13:57:52.04	291.94	8.38	
2025-01-16 13:57:52.24	291.98	8.37	
2025-01-16 13:57:52.44	292.01	8.37	
2025-01-16 13:57:52.65	292.05	8.37	
2025-01-16 13:57:52.85	292.09	8.37	
2025-01-16 13:57:53.05	292.13	8.36	
2025-01-16 13:57:53.25	292.17	8.36	
2025-01-16 13:57:53.46	292.21	8.36	
2025-01-16 13:57:53.66	292.25	8.36	
2025-01-16 13:57:53.86	292.28	8.35	
2025-01-16 13:57:54.07	292.33	8.35	
2025-01-16 13:57:54.27	292.36	8.35	
2025-01-16 13:57:54.47	292.40	8.35	
2025-01-16 13:57:54.68	292.44	8.35	
2025-01-16 13:57:54.88	292.48	8.34	
2025-01-16 13:57:55.08	292.52	8.34	
2025-01-16 13:57:55.28	292.56	8.34	
2025-01-16 13:57:55.49	292.60	8.34	
2025-01-16 13:57:55.69	292.63	8.33	
2025-01-16 13:57:55.89	292.67	8.33	
2025-01-16 13:57:56.10	292.71	8.33	
2025-01-16 13:57:56.30	292.75	8.33	
2025-01-16 13:57:56.50	292.79	8.32	
2025-01-16 13:57:56.71	292.83	8.32	
2025-01-16 13:57:56.91	292.87	8.32	
2025-01-16 13:57:57.11	292.90	8.32	
2025-01-16 13:57:57.31	292.94	8.31	
2025-01-16 13:57:57.52	292.98	8.31	
2025-01-16 13:57:57.72	293.02	8.31	
2025-01-16 13:57:57.92	293.06	8.31	
2025-01-16 13:57:58.13	293.10	8.30	
2025-01-16 13:57:58.33	293.14	8.30	
2025-01-16 13:57:58.53	293.17	8.30	
2025-01-16 13:57:58.74	293.21	8.29	
2025-01-16 13:57:58.94	293.25	8.29	
2025-01-16 13:57:59.14	293.29	8.29	
2025-01-16 13:57:59.34	293.33	8.29	
2025-01-16 13:57:59.55	293.37	8.28	
2025-01-16 13:57:59.75	293.41	8.28	
2025-01-16 13:57:59.95	293.44	8.28	
2025-01-16 13:58:00.16	293.48	8.28	
2025-01-16 13:58:00.36	293.52	8.27	
2025-01-16 13:58:00.56	293.56	8.27	
2025-01-16 13:58:00.77	293.60	8.27	
2025-01-16 13:58:00.97	293.64	8.27	
2025-01-16 13:58:01.17	293.67	8.26	
2025-01-16 13:58:01.37	293.71	8.26	
2025-01-16 13:58:01.58	293.75	8.26	
2025-01-16 13:58:01.78	293.79	8.25	
2025-01-16 13:58:01.98	293.83	8.25	
2025-01-16 13:58:02.20	293.87	8.25	
2025-01-16 13:58:02.40	293.91	8.25	
2025-01-16 13:58:02.61	293.95	8.24	
2025-01-16 13:58:02.81	293.99	8.24	
2025-01-16 13:58:03.01	294.02	8.24	
2025-01-16 13:58:03.22	294.06	8.23	
2025-01-16 13:58:03.42	294.10	8.23	
2025-01-16 13:58:03.62	294.14	8.23	
2025-01-16 13:58:03.83	294.18	8.23	
2025-01-16 13:58:04.03	294.22	8.22	
2025-01-16 13:58:04.23	294.25	8.22	
2025-01-16 13:58:04.43	294.29	8.22	
2025-01-16 13:58:04.64	294.33	8.21	
2025-01-16 13:58:04.84	294.37	8.21	
2025-01-16 13:58:05.04	294.41	8.21	
2025-01-16 13:58:05.25	294.45	8.21	
2025-01-16 13:58:05.45	294.48	8.20	
2025-01-16 13:58:05.65	294.52	8.20	
2025-01-16 13:58:05.86	294.56	8.20	
2025-01-16 13:58:06.06	294.60	8.19	
2025-01-16 13:58:06.26	294.64	8.19	
2025-01-16 13:58:06.46	294.67	8.19	
2025-01-16 13:58:06.67	294.71	8.18	
2025-01-16 13:58:06.87	294.75	8.18	
2025-01-16 13:58:07.07	294.79	8.18	
2025-01-16 13:58:07.28	294.83	8.18	
2025-01-16 13:58:07.48	294.87	8.17	
2025-01-16 13:58:07.68	294.90	8.17	
2025-01-16 13:58:07.89	294.94	8.17	
2025-01-16 13:58:08.09	294.98	8.16	
2025-01-16 13:58:08.29	295.02	8.16	
2025-01-16 13:58:08.49	295.06	8.16	
2025-01-16 13:58:08.70	295.10	8.15	
2025-01-16 13:58:08.90	295.13	8.15	
2025-01-16 13:58:09.10	295.17	8.15	
2025-01-16 13:58:09.31	295.21	8.14	
2025-01-16 13:58:09.51	295.25	8.14	
2025-01-16 13:58:09.71	295.29	8.14	
2025-01-16 13:58:09.91	295.32	8.14	
2025-01-16 13:58:10.12	295.36	8.13	
2025-01-16 13:58:10.32	295.40	8.13	
2025-01-16 13:58:10.52	295.44	8.13	
2025-01-16 13:58:10.73	295.48	8.12	
2025-01-16 13:58:10.93	295.51	8.12	
2025-01-16 13:58:11.13	295.55	8.12	
2025-01-16 13:58:11.34	295.59	8.11	
2025-01-16 13:58:11.54	295.63	8.11	
2025-01-16 13:58:11.74	295.67	8.11	
2025-01-16 13:58:11.94	295.70	8.10	
2025-01-16 13:58:12.15	295.74	8.10	
2025-01-16 13:58:12.35	295.78	8.10	
2025-01-16 13:58:12.55	295.82	8.09	
2025-01-16 13:58:12.76	295.86	8.09	
2025-01-16 13:58:12.96	295.89	8.09	
2025-01-16 13:58:13.16	295.93	8.08	
2025-01-16 13:58:13.37	295.97	8.08	
2025-01-16 13:58:13.57	296.01	8.08	
2025-01-16 13:58:13.77	296.05	8.07	
2025-01-16 13:58:13.97	296.08	8.07	
2025-01-16 13:58:14.18	296.12	8.07	
2025-01-16 13:58:14.38	296.16	8.06	
2025-01-16 13:58:14.58	296.20	8.06	
2025-01-16 13:58:14.79	296.24	8.06	
2025-01-16 13:58:14.99	296.27	8.05	
2025-01-16 13:58:15.19	296.31	8.05	
2025-01-16 13:58:15.40	296.35	8.05	
2025-01-16 13:58:15.60	296.39	8.04	
2025-01-16 13:58:15.80	296.42	8.04	
2025-01-16 13:58:16.00	296.46	8.04	
2025-01-16 13:58:16.21	296.50	8.03	
2025-01-16 13:58:16.41	296.54	8.03	
2025-01-16 13:58:16.61	296.58	8.03	
2025-01-16 13:58:16.82	296.61	8.02	
2025-01-16 13:58:17.02	296.65	8.02	
2025-01-16 13:58:17.22	296.69	8.01	
2025-01-16 13:58:17.43	296.73	8.01	
2025-01-16 13:58:17.63	296.77	8.01	
2025-01-16 13:58:17.83	296.80	8.00	
2025-01-16 13:58:18.03	296.84	8.00	
2025-01-16 13:58:18.24	296.88	8.00	
2025-01-16 13:58:18.44	296.92	7.99	
2025-01-16 13:58:18.64	296.95	7.99	
2025-01-16 13:58:18.85	296.99	7.99	
2025-01-16 13:58:19.05	297.03	7.98	
2025-01-16 13:58:19.25	297.07	7.98	
2025-01-16 13:58:19.45	297.10	7.98	
2025-01-16 13:58:19.66	297.14	7.97	
2025-01-16 13:58:19.86	297.18	7.97	
2025-01-16 13:58:20.06	297.22	7.96	
2025-01-16 13:58:20.27	297.26	7.96	
2025-01-16 13:58:20.47	297.29	7.96	
2025-01-16 13:58:20.67	297.33	7.95	
2025-01-16 13:58:20.88	297.37	7.95	
2025-01-16 13:58:21.08	297.40	7.95	
2025-01-16 13:58:21.28	297.44	7.94	
2025-01-16 13:58:21.48	297.48	7.94	
2025-01-16 13:58:21.69	297.52	7.94	
2025-01-16 13:58:21.89	297.55	7.93	
2025-01-16 13:58:22.09	297.59	7.93	
2025-01-16 13:58:22.30	297.63	7.92	
2025-01-16 13:58:22.50	297.67	7.92	
2025-01-16 13:58:22.70	297.70	7.92	
2025-01-16 13:58:22.91	297.74	7.91	
2025-01-16 13:58:23.11	297.78	7.91	
2025-01-16 13:58:23.31	297.82	7.91	
2025-01-16 13:58:23.51	297.85	7.90	
2025-01-16 13:58:23.72	297.89	7.90	
2025-01-16 13:58:23.92	297.93	7.89	
2025-01-16 13:58:24.12	297.97	7.89	
2025-01-16 13:58:24.33	298.01	7.89	
2025-01-16 13:58:24.53	298.04	7.88	
2025-01-16 13:58:24.73	298.08	7.88	
2025-01-16 13:58:24.94	298.12	7.87	
2025-01-16 13:58:25.14	298.15	7.87	
2025-01-16 13:58:25.34	298.19	7.87	
2025-01-16 13:58:25.54	298.23	7.86	
2025-01-16 13:58:25.75	298.27	7.86	
2025-01-16 13:58:25.95	298.30	7.85	
2025-01-16 13:58:26.15	298.34	7.85	
2025-01-16 13:58:26.36	298.38	7.85	
2025-01-16 13:58:26.56	298.42	7.84	
2025-01-16 13:58:26.76	298.45	7.84	
2025-01-16 13:58:26.97	298.49	7.83	
2025-01-16 13:58:27.17	298.53	7.83	
2025-01-16 13:58:27.37	298.56	7.83	
2025-01-16 13:58:27.57	298.60	7.82	
2025-01-16 13:58:27.78	298.64	7.82	
2025-01-16 13:58:27.98	298.68	7.82	
2025-01-16 13:58:28.18	298.71	7.81	
2025-01-16 13:58:28.39	298.75	7.81	
2025-01-16 13:58:28.59	298.79	7.80	
2025-01-16 13:58:28.79	298.82	7.80	
2025-01-16 13:58:28.99	298.86	7.80	
2025-01-16 13:58:29.20	298.90	7.79	
2025-01-16 13:58:29.40	298.94	7.79	
2025-01-16 13:58:29.60	298.97	7.78	
2025-01-16 13:58:29.81	299.01	7.78	
2025-01-16 13:58:30.01	299.05	7.77	
2025-01-16 13:58:30.21	299.08	7.77	
2025-01-16 13:58:30.42	299.12	7.77	
2025-01-16 13:58:30.62	299.16	7.76	
2025-01-16 13:58:30.82	299.20	7.76	
2025-01-16 13:58:31.02	299.23	7.75	
2025-01-16 13:58:31.23	299.27	7.75	
2025-01-16 13:58:31.43	299.31	7.75	
2025-01-16 13:58:31.63	299.34	7.74	
2025-01-16 13:58:31.84	299.38	7.74	
2025-01-16 13:58:32.04	299.42	7.73	
2025-01-16 13:58:32.24	299.45	7.73	
2025-01-16 13:58:32.45	299.49	7.72	
2025-01-16 13:58:32.65	299.53	7.72	
2025-01-16 13:58:32.85	299.57	7.72	
2025-01-16 13:58:33.05	299.60	7.71	
2025-01-16 13:58:33.26	299.64	7.71	
2025-01-16 13:58:33.46	299.68	7.70	
2025-01-16 13:58:33.66	299.71	7.70	
2025-01-16 13:58:33.87	299.75	7.69	
2025-01-16 13:58:34.07	299.79	7.69	
2025-01-16 13:58:34.27	299.82	7.69	
2025-01-16 13:58:34.48	299.86	7.68	
2025-01-16 13:58:34.68	299.90	7.68	
2025-01-16 13:58:34.88	299.93	7.67	
2025-01-16 13:58:35.08	299.97	7.67	
2025-01-16 13:58:35.29	300.01	7.66	
2025-01-16 13:58:35.49	300.04	7.66	
2025-01-16 13:58:35.69	300.08	7.66	
2025-01-16 13:58:35.90	300.12	7.65	
2025-01-16 13:58:36.10	300.16	7.65	
2025-01-16 13:58:36.30	300.19	7.64	
2025-01-16 13:58:36.50	300.23	7.64	
2025-01-16 13:58:36.71	300.27	7.63	
2025-01-16 13:58:36.91	300.30	7.63	
2025-01-16 13:58:37.11	300.34	7.63	
2025-01-16 13:58:37.32	300.38	7.62	
2025-01-16 13:58:37.52	300.41	7.62	
2025-01-16 13:58:37.72	300.45	7.61	
2025-01-16 13:58:37.93	300.49	7.61	
2025-01-16 13:58:38.13	300.52	7.60	
2025-01-16 13:58:38.33	300.56	7.60	
2025-01-16 13:58:38.53	300.59	7.59	
2025-01-16 13:58:38.74	300.63	7.59	
2025-01-16 13:58:38.94	300.67	7.59	
2025-01-16 13:58:39.14	300.70	7.58	
2025-01-16 13:58:39.35	300.74	7.58	
2025-01-16 13:58:39.55	300.78	7.57	
2025-01-16 13:58:39.75	300.81	7.57	
2025-01-16 13:58:39.96	300.85	7.56	
2025-01-16 13:58:40.16	300.89	7.56	
2025-01-16 13:58:40.36	300.92	7.55	
2025-01-16 13:58:40.56	300.96	7.55	
2025-01-16 13:58:40.77	301.00	7.54	
2025-01-16 13:58:40.97	301.03	7.54	
2025-01-16 13:58:41.17	301.07	7.54	
2025-01-16 13:58:41.38	301.11	7.53	
2025-01-16 13:58:41.58	301.14	7.53	
2025-01-16 13:58:41.78	301.18	7.52	
2025-01-16 13:58:41.99	301.22	7.52	
2025-01-16 13:58:42.19	301.25	7.51	
2025-01-16 13:58:42.39	301.29	7.51	
2025-01-16 13:58:42.59	301.32	7.50	
2025-01-16 13:58:42.80	301.36	7.50	
2025-01-16 13:58:43.00	301.40	7.49	
2025-01-16 13:58:43.20	301.43	7.49	
2025-01-16 13:58:43.41	301.47	7.48	
2025-01-16 13:58:43.61	301.51	7.48	
2025-01-16 13:58:43.81	301.54	7.48	
2025-01-16 13:58:44.02	301.58	7.47	
2025-01-16 13:58:44.22	301.62	7.47	
2025-01-16 13:58:44.42	301.65	7.46	
2025-01-16 13:58:44.62	301.69	7.46	
2025-01-16 13:58:44.83	301.73	7.45	
2025-01-16 13:58:45.03	301.76	7.45	
2025-01-16 13:58:45.23	301.80	7.44	
2025-01-16 13:58:45.44	301.83	7.44	
2025-01-16 13:58:45.64	301.87	7.43	
2025-01-16 13:58:45.84	301.91	7.43	
2025-01-16 13:58:46.05	301.94	7.42	
2025-01-16 13:58:46.25	301.98	7.42	
2025-01-16 13:58:46.45	302.01	7.41	
2025-01-16 13:58:46.65	302.05	7.41	
2025-01-16 13:58:46.86	302.09	7.40	
2025-01-16 13:58:47.06	302.12	7.40	
2025-01-16 13:58:47.26	302.16	7.39	
2025-01-16 13:58:47.47	302.20	7.39	
2025-01-16 13:58:47.67	302.23	7.38	
2025-01-16 13:58:47.87	302.27	7.38	
2025-01-16 13:58:48.08	302.30	7.37	
2025-01-16 13:58:48.28	302.34	7.37	
2025-01-16 13:58:48.48	302.37	7.37	
2025-01-16 13:58:48.68	302.41	7.36	
2025-01-16 13:58:48.89	302.45	7.36	
2025-01-16 13:58:49.09	302.48	7.35	
2025-01-16 13:58:49.29	302.52	7.35	
2025-01-16 13:58:49.50	302.56	7.34	
2025-01-16 13:58:49.70	302.59	7.34	
2025-01-16 13:58:49.90	302.63	7.33	
2025-01-16 13:58:50.10	302.66	7.33	
2025-01-16 13:58:50.31	302.70	7.32	
2025-01-16 13:58:50.51	302.73	7.32	
2025-01-16 13:58:50.71	302.77	7.31	
2025-01-16 13:58:50.92	302.81	7.31	
2025-01-16 13:58:51.12	302.84	7.30	
2025-01-16 13:58:51.32	302.88	7.30	
2025-01-16 13:58:51.53	302.91	7.29	
2025-01-16 13:58:51.73	302.95	7.29	
2025-01-16 13:58:51.93	302.98	7.28	
2025-01-16 13:58:52.13	303.02	7.28	
2025-01-16 13:58:52.34	303.06	7.27	
2025-01-16 13:58:52.54	303.09	7.27	
2025-01-16 13:58:52.74	303.13	7.26	
2025-01-16 13:58:52.95	303.16	7.26	
2025-01-16 13:58:53.15	303.20	7.25	
2025-01-16 13:58:53.35	303.23	7.25	
2025-01-16 13:58:53.56	303.27	7.24	
2025-01-16 13:58:53.76	303.31	7.24	
2025-01-16 13:58:53.96	303.34	7.23	
2025-01-16 13:58:54.16	303.38	7.23	
2025-01-16 13:58:54.37	303.41	7.22	
2025-01-16 13:58:54.57	303.45	7.22	
2025-01-16 13:58:54.77	303.48	7.21	
2025-01-16 13:58:54.98	303.52	7.20	
2025-01-16 13:58:55.18	303.56	7.20	
2025-01-16 13:58:55.38	303.59	7.19	
2025-01-16 13:58:55.59	303.63	7.19	
2025-01-16 13:58:55.79	303.66	7.18	
2025-01-16 13:58:55.99	303.70	7.18	
2025-01-16 13:58:56.19	303.73	7.17	
2025-01-16 13:58:56.40	303.77	7.17	
2025-01-16 13:58:56.60	303.80	7.16	
2025-01-16 13:58:56.80	303.84	7.16	
2025-01-16 13:58:57.01	303.88	7.15	
2025-01-16 13:58:57.21	303.91	7.15	
2025-01-16 13:58:57.41	303.95	7.14	
2025-01-16 13:58:57.62	303.98	7.14	
2025-01-16 13:58:57.82	304.02	7.13	
2025-01-16 13:58:58.02	304.05	7.13	
2025-01-16 13:58:58.22	304.09	7.12	
2025-01-16 13:58:58.43	304.12	7.12	
2025-01-16 13:58:58.63	304.16	7.11	
2025-01-16 13:58:58.83	304.19	7.11	
2025-01-16 13:58:59.04	304.23	7.10	
2025-01-16 13:58:59.24	304.26	7.10	
2025-01-16 13:58:59.44	304.30	7.09	
2025-01-16 13:58:59.64	304.33	7.09	
2025-01-16 13:58:59.85	304.37	7.08	
2025-01-16 13:59:00.05	304.41	7.07	
2025-01-16 13:59:00.25	304.44	7.07	
2025-01-16 13:59:00.46	304.48	7.06	
2025-01-16 13:59:00.66	304.51	7.06	
2025-01-16 13:59:00.86	304.55	7.05	
2025-01-16 13:59:01.07	304.58	7.05	
2025-01-16 13:59:01.27	304.62	7.04	
2025-01-16 13:59:01.47	304.65	7.04	
2025-01-16 13:59:01.67	304.69	7.03	
2025-01-16 13:59:01.88	304.72	7.03	
2025-01-16 13:59:02.08	304.76	7.02	
2025-01-16 13:59:02.28	304.79	7.02	
2025-01-16 13:59:02.49	304.83	7.01	
2025-01-16 13:59:02.69	304.86	7.00	
2025-01-16 13:59:02.89	304.90	7.00	
2025-01-16 13:59:03.10	304.93	6.99	
2025-01-16 13:59:03.30	304.97	6.99	
2025-01-16 13:59:03.50	305.00	6.98	
2025-01-16 13:59:03.70	305.04	6.98	
2025-01-16 13:59:03.91	305.07	6.97	
2025-01-16 13:59:04.11	305.11	6.97	
2025-01-16 13:59:04.31	305.14	6.96	
2025-01-16 13:59:04.52	305.18	6.96	
2025-01-16 13:59:04.72	305.21	6.95	
2025-01-16 13:59:04.92	305.25	6.94	
2025-01-16 13:59:05.13	305.28	6.94	
2025-01-16 13:59:05.33	305.32	6.93	
2025-01-16 13:59:05.53	305.35	6.93	
2025-01-16 13:59:05.73	305.39	6.92	
2025-01-16 13:59:05.94	305.42	6.92	
2025-01-16 13:59:06.14	305.46	6.91	
2025-01-16 13:59:06.34	305.49	6.91	
2025-01-16 13:59:06.55	305.53	6.90	
2025-01-16 13:59:06.75	305.56	6.89	
2025-01-16 13:59:06.95	305.60	6.89	
2025-01-16 13:59:07.16	305.63	6.88	
2025-01-16 13:59:07.36	305.67	6.88	
2025-01-16 13:59:07.56	305.70	6.87	
2025-01-16 13:59:07.76	305.73	6.87	
2025-01-16 13:59:07.97	305.77	6.86	
2025-01-16 13:59:08.17	305.80	6.86	
2025-01-16 13:59:08.37	305.84	6.85	
2025-01-16 13:59:08.58	305.87	6.84	
2025-01-16 13:59:08.78	305.91	6.84	
2025-01-16 13:59:08.98	305.94	6.83	
2025-01-16 13:59:09.18	305.98	6.83	
2025-01-16 13:59:09.39	306.01	6.82	
2025-01-16 13:59:09.59	306.05	6.82	
2025-01-16 13:59:09.79	306.08	6.81	
2025-01-16 13:59:10.00	306.12	6.80	
2025-01-16 13:59:10.20	306.15	6.80	
2025-01-16 13:59:10.40	306.18	6.79	
2025-01-16 13:59:10.61	306.22	6.79	
2025-01-16 13:59:10.81	306.25	6.78	
2025-01-16 13:59:11.01	306.29	6.78	
2025-01-16 13:59:11.21	306.32	6.77	
2025-01-16 13:59:11.42	306.36	6.76	
2025-01-16 13:59:11.62	306.39	6.76	
2025-01-16 13:59:11.82	306.43	6.75	
2025-01-16 13:59:12.03	306.46	6.75	
2025-01-16 13:59:12.23	306.50	6.74	
2025-01-16 13:59:12.43	306.53	6.74	
2025-01-16 13:59:12.64	306.56	6.73	
2025-01-16 13:59:12.84	306.60	6.72	
2025-01-16 13:59:13.04	306.63	6.72	
2025-01-16 13:59:13.24	306.67	6.71	
2025-01-16 13:59:13.45	306.70	6.71	
2025-01-16 13:59:13.65	306.74	6.70	
2025-01-16 13:59:13.85	306.77	6.70	
2025-01-16 13:59:14.06	306.80	6.69	
2025-01-16 13:59:14.26	306.84	6.68	
2025-01-16 13:59:14.46	306.87	6.68	
2025-01-16 13:59:14.67	306.91	6.67	
2025-01-16 13:59:14.87	306.94	6.67	
2025-01-16 13:59:15.07	306.98	6.66	
2025-01-16 13:59:15.27	307.01	6.66	
2025-01-16 13:59:15.48	307.04	6.65	
2025-01-16 13:59:15.68	307.08	6.64	
2025-01-16 13:59:15.88	307.11	6.64	
2025-01-16 13:59:16.09	307.15	6.63	
2025-01-16 13:59:16.29	307.18	6.63	
2025-01-16 13:59:16.49	307.21	6.62	
2025-01-16 13:59:16.70	307.25	6.61	
2025-01-16 13:59:16.90	307.28	6.61	
2025-01-16 13:59:17.10	307.32	6.60	
2025-01-16 13:59:17.30	307.35	6.60	
2025-01-16 13:59:17.51	307.39	6.59	
2025-01-16 13:59:17.71	307.42	6.58	
2025-01-16 13:59:17.91	307.45	6.58	
2025-01-16 13:59:18.12	307.49	6.57	
2025-01-16 13:59:18.32	307.52	6.57	
2025-01-16 13:59:18.52	307.55	6.56	
2025-01-16 13:59:18.72	307.59	6.55	
2025-01-16 13:59:18.93	307.62	6.55	
2025-01-16 13:59:19.13	307.66	6.54	
2025-01-16 13:59:19.33	307.69	6.54	
2025-01-16 13:59:19.54	307.72	6.53	
2025-01-16 13:59:19.74	307.76	6.52	
2025-01-16 13:59:19.94	307.79	6.52	
2025-01-16 13:59:20.15	307.83	6.51	
2025-01-16 13:59:20.35	307.86	6.51	
2025-01-16 13:59:20.55	307.89	6.50	
2025-01-16 13:59:20.75	307.93	6.50	
2025-01-16 13:59:20.96	307.96	6.49	
2025-01-16 13:59:21.16	307.99	6.48	
2025-01-16 13:59:21.36	308.03	6.48	
2025-01-16 13:59:21.57	308.06	6.47	
2025-01-16 13:59:21.77	308.10	6.46	
2025-01-16 13:59:21.97	308.13	6.46	
2025-01-16 13:59:22.18	308.16	6.45	
2025-01-16 13:59:22.38	308.20	6.45	
2025-01-16 13:59:22.58	308.23	6.44	
2025-01-16 13:59:22.78	308.26	6.43	
2025-01-16 13:59:22.99	308.30	6.43	
2025-01-16 13:59:23.19	308.33	6.42	
2025-01-16 13:59:23.39	308.36	6.42	
2025-01-16 13:59:23.60	308.40	6.41	
