passes_logs/2025/01/16/SPB_Silybum_02/SPB_Silybum_02__20250116_103501_AQUA_rec.log

#Pass ID: 20250116_103501_AQUA
#Satellite: AQUA
#Configuration: AQUA
#Start time: 2025-01-16 10:35:01

#Version: 2.0.20230423
#Station: SPB_Silybum_02
#Location: 30.233357 lon 59.946436 lat
#TLE: 1 27424U 02022A   25015.89755826  .00001635  00000+0  34564-3 0  9997
#TLE: 2 27424  98.3590 332.5696 0001753 110.3458 316.1758 14.60685220207753

#Time	Az	El	Level	Level2	SNR	BER	Gain	Gain2
2025-01-16 10:35:03.76	135.74	4.17	
2025-01-16 10:35:03.96	135.73	4.18	
2025-01-16 10:35:04.17	135.72	4.20	
2025-01-16 10:35:04.37	135.71	4.21	
2025-01-16 10:35:04.57	135.70	4.23	
2025-01-16 10:35:04.77	135.70	4.24	
2025-01-16 10:35:04.98	135.69	4.25	
2025-01-16 10:35:05.18	135.68	4.27	
2025-01-16 10:35:05.38	135.67	4.28	
2025-01-16 10:35:05.59	135.66	4.30	
2025-01-16 10:35:05.79	135.66	4.31	
2025-01-16 10:35:05.99	135.65	4.33	
2025-01-16 10:35:06.20	135.64	4.34	
2025-01-16 10:35:06.40	135.63	4.36	
2025-01-16 10:35:06.60	135.62	4.37	
2025-01-16 10:35:06.80	135.61	4.38	
2025-01-16 10:35:07.01	135.61	4.40	
2025-01-16 10:35:07.21	135.60	4.41	
2025-01-16 10:35:07.41	135.59	4.43	
2025-01-16 10:35:07.62	135.58	4.44	
2025-01-16 10:35:07.82	135.57	4.46	
2025-01-16 10:35:08.02	135.56	4.47	
2025-01-16 10:35:08.23	135.56	4.49	
2025-01-16 10:35:08.43	135.55	4.50	
2025-01-16 10:35:08.63	135.54	4.51	
2025-01-16 10:35:08.83	135.53	4.53	
2025-01-16 10:35:09.04	135.52	4.54	
2025-01-16 10:35:09.24	135.51	4.56	
2025-01-16 10:35:09.44	135.51	4.57	
2025-01-16 10:35:09.65	135.50	4.59	
2025-01-16 10:35:09.85	135.49	4.60	
2025-01-16 10:35:10.05	135.48	4.62	
2025-01-16 10:35:10.26	135.47	4.63	
2025-01-16 10:35:10.46	135.46	4.64	
2025-01-16 10:35:10.66	135.45	4.66	
2025-01-16 10:35:10.86	135.45	4.67	
2025-01-16 10:35:11.07	135.44	4.69	
2025-01-16 10:35:11.27	135.43	4.70	
2025-01-16 10:35:11.47	135.42	4.72	
2025-01-16 10:35:11.68	135.41	4.73	
2025-01-16 10:35:11.88	135.40	4.75	
2025-01-16 10:35:12.08	135.40	4.76	
2025-01-16 10:35:12.28	135.39	4.78	
2025-01-16 10:35:12.49	135.38	4.79	
2025-01-16 10:35:12.69	135.37	4.81	
2025-01-16 10:35:12.89	135.36	4.82	
2025-01-16 10:35:13.10	135.35	4.83	
2025-01-16 10:35:13.30	135.34	4.85	
2025-01-16 10:35:13.50	135.34	4.86	
2025-01-16 10:35:13.71	135.33	4.88	
2025-01-16 10:35:13.91	135.32	4.89	
2025-01-16 10:35:14.11	135.31	4.91	
2025-01-16 10:35:14.31	135.30	4.92	
2025-01-16 10:35:14.52	135.29	4.94	
2025-01-16 10:35:14.72	135.28	4.95	
2025-01-16 10:35:14.92	135.27	4.97	
2025-01-16 10:35:15.13	135.27	4.98	
2025-01-16 10:35:15.33	135.26	5.00	
2025-01-16 10:35:15.53	135.25	5.01	
2025-01-16 10:35:15.74	135.24	5.03	
2025-01-16 10:35:15.94	135.23	5.04	
2025-01-16 10:35:16.14	135.22	5.06	
2025-01-16 10:35:16.34	135.21	5.07	
2025-01-16 10:35:16.55	135.20	5.09	
2025-01-16 10:35:16.75	135.20	5.10	
2025-01-16 10:35:16.95	135.19	5.11	
2025-01-16 10:35:17.16	135.18	5.13	
2025-01-16 10:35:17.36	135.17	5.14	
2025-01-16 10:35:17.56	135.16	5.16	
2025-01-16 10:35:17.77	135.15	5.17	
2025-01-16 10:35:17.97	135.14	5.19	
2025-01-16 10:35:18.17	135.13	5.20	
2025-01-16 10:35:18.37	135.13	5.22	
2025-01-16 10:35:18.58	135.12	5.23	
2025-01-16 10:35:18.78	135.11	5.25	
2025-01-16 10:35:18.98	135.10	5.26	
2025-01-16 10:35:19.19	135.09	5.28	
2025-01-16 10:35:19.39	135.08	5.29	
2025-01-16 10:35:19.59	135.07	5.31	
2025-01-16 10:35:19.80	135.06	5.32	
2025-01-16 10:35:20.00	135.05	5.34	
2025-01-16 10:35:20.20	135.05	5.35	
2025-01-16 10:35:20.40	135.04	5.37	
2025-01-16 10:35:20.61	135.03	5.38	
2025-01-16 10:35:20.81	135.02	5.40	
2025-01-16 10:35:21.01	135.01	5.41	
2025-01-16 10:35:21.22	135.00	5.43	
2025-01-16 10:35:21.42	134.99	5.44	
2025-01-16 10:35:21.62	134.98	5.46	
2025-01-16 10:35:21.82	134.97	5.47	
2025-01-16 10:35:22.03	134.96	5.49	
2025-01-16 10:35:22.23	134.96	5.50	
2025-01-16 10:35:22.43	134.95	5.52	
2025-01-16 10:35:22.64	134.94	5.53	
2025-01-16 10:35:22.84	134.93	5.55	
2025-01-16 10:35:23.04	134.92	5.56	
2025-01-16 10:35:23.25	134.91	5.58	
2025-01-16 10:35:23.45	134.90	5.59	
2025-01-16 10:35:23.65	134.89	5.61	
2025-01-16 10:35:23.85	134.88	5.62	
2025-01-16 10:35:24.06	134.87	5.64	
2025-01-16 10:35:24.26	134.86	5.65	
2025-01-16 10:35:24.46	134.85	5.67	
2025-01-16 10:35:24.67	134.85	5.68	
2025-01-16 10:35:24.87	134.84	5.70	
2025-01-16 10:35:25.07	134.83	5.71	
2025-01-16 10:35:25.28	134.82	5.73	
2025-01-16 10:35:25.48	134.81	5.75	
2025-01-16 10:35:25.68	134.80	5.76	
2025-01-16 10:35:25.88	134.79	5.78	
2025-01-16 10:35:26.09	134.78	5.79	
2025-01-16 10:35:26.29	134.77	5.81	
2025-01-16 10:35:26.49	134.76	5.82	
2025-01-16 10:35:26.70	134.75	5.84	
2025-01-16 10:35:26.90	134.74	5.85	
2025-01-16 10:35:27.10	134.73	5.87	
2025-01-16 10:35:27.31	134.72	5.88	
2025-01-16 10:35:27.51	134.72	5.90	
2025-01-16 10:35:27.71	134.71	5.91	
2025-01-16 10:35:27.91	134.70	5.93	
2025-01-16 10:35:28.12	134.69	5.94	
2025-01-16 10:35:28.32	134.68	5.96	
2025-01-16 10:35:28.52	134.67	5.97	
2025-01-16 10:35:28.73	134.66	5.99	
2025-01-16 10:35:28.93	134.65	6.01	
2025-01-16 10:35:29.13	134.64	6.02	
2025-01-16 10:35:29.34	134.63	6.04	
2025-01-16 10:35:29.54	134.62	6.05	
2025-01-16 10:35:29.74	134.61	6.07	
2025-01-16 10:35:29.94	134.60	6.08	
2025-01-16 10:35:30.15	134.59	6.10	
2025-01-16 10:35:30.35	134.58	6.11	
2025-01-16 10:35:30.55	134.57	6.13	
2025-01-16 10:35:30.76	134.56	6.14	
2025-01-16 10:35:30.96	134.56	6.16	
2025-01-16 10:35:31.16	134.55	6.17	
2025-01-16 10:35:31.36	134.54	6.19	
2025-01-16 10:35:31.57	134.53	6.21	
2025-01-16 10:35:31.77	134.52	6.22	
2025-01-16 10:35:31.97	134.51	6.24	
2025-01-16 10:35:32.18	134.50	6.25	
2025-01-16 10:35:32.38	134.49	6.27	
2025-01-16 10:35:32.58	134.48	6.28	
2025-01-16 10:35:32.79	134.47	6.30	
2025-01-16 10:35:32.99	134.46	6.31	
2025-01-16 10:35:33.19	134.45	6.33	
2025-01-16 10:35:33.39	134.44	6.35	
2025-01-16 10:35:33.60	134.43	6.36	
2025-01-16 10:35:33.80	134.42	6.38	
2025-01-16 10:35:34.00	134.41	6.39	
2025-01-16 10:35:34.21	134.40	6.41	
2025-01-16 10:35:34.41	134.39	6.42	
2025-01-16 10:35:34.61	134.38	6.44	
2025-01-16 10:35:34.82	134.37	6.45	
2025-01-16 10:35:35.02	134.36	6.47	
2025-01-16 10:35:35.22	134.35	6.49	
2025-01-16 10:35:35.42	134.34	6.50	
2025-01-16 10:35:35.63	134.33	6.52	
2025-01-16 10:35:35.83	134.32	6.53	
2025-01-16 10:35:36.03	134.31	6.55	
2025-01-16 10:35:36.24	134.30	6.56	
2025-01-16 10:35:36.44	134.29	6.58	
2025-01-16 10:35:36.64	134.28	6.60	
2025-01-16 10:35:36.85	134.27	6.61	
2025-01-16 10:35:37.05	134.26	6.63	
2025-01-16 10:35:37.25	134.25	6.64	
2025-01-16 10:35:37.45	134.24	6.66	
2025-01-16 10:35:37.66	134.23	6.67	
2025-01-16 10:35:37.86	134.22	6.69	
2025-01-16 10:35:38.06	134.21	6.71	
2025-01-16 10:35:38.27	134.20	6.72	
2025-01-16 10:35:38.47	134.19	6.74	
2025-01-16 10:35:38.67	134.18	6.75	
2025-01-16 10:35:38.88	134.17	6.77	
2025-01-16 10:35:39.08	134.16	6.79	
2025-01-16 10:35:39.28	134.15	6.80	
2025-01-16 10:35:39.48	134.14	6.82	
2025-01-16 10:35:39.69	134.13	6.83	
2025-01-16 10:35:39.89	134.12	6.85	
2025-01-16 10:35:40.09	134.11	6.86	
2025-01-16 10:35:40.30	134.10	6.88	
2025-01-16 10:35:40.50	134.09	6.90	
2025-01-16 10:35:40.70	134.08	6.91	
2025-01-16 10:35:40.91	134.07	6.93	
2025-01-16 10:35:41.11	134.06	6.94	
2025-01-16 10:35:41.31	134.05	6.96	
2025-01-16 10:35:41.51	134.04	6.98	
2025-01-16 10:35:41.72	134.03	6.99	
2025-01-16 10:35:41.92	134.02	7.01	
2025-01-16 10:35:42.12	134.01	7.02	
2025-01-16 10:35:42.33	134.00	7.04	
2025-01-16 10:35:42.53	133.99	7.06	
2025-01-16 10:35:42.73	133.98	7.07	
2025-01-16 10:35:42.93	133.97	7.09	
2025-01-16 10:35:43.14	133.96	7.10	
2025-01-16 10:35:43.34	133.95	7.12	
2025-01-16 10:35:43.54	133.94	7.14	
2025-01-16 10:35:43.75	133.93	7.15	
2025-01-16 10:35:43.95	133.92	7.17	
2025-01-16 10:35:44.15	133.91	7.18	
2025-01-16 10:35:44.36	133.90	7.20	
2025-01-16 10:35:44.56	133.89	7.22	
2025-01-16 10:35:44.76	133.88	7.23	
2025-01-16 10:35:44.96	133.87	7.25	
2025-01-16 10:35:45.17	133.86	7.27	
2025-01-16 10:35:45.37	133.85	7.28	
2025-01-16 10:35:45.57	133.84	7.30	
2025-01-16 10:35:45.78	133.83	7.31	
2025-01-16 10:35:45.98	133.82	7.33	
2025-01-16 10:35:46.18	133.81	7.35	
2025-01-16 10:35:46.39	133.79	7.36	
2025-01-16 10:35:46.59	133.78	7.38	
2025-01-16 10:35:46.79	133.77	7.39	
2025-01-16 10:35:46.99	133.76	7.41	
2025-01-16 10:35:47.20	133.75	7.43	
2025-01-16 10:35:47.40	133.74	7.44	
2025-01-16 10:35:47.60	133.73	7.46	
2025-01-16 10:35:47.81	133.72	7.48	
2025-01-16 10:35:48.01	133.71	7.49	
2025-01-16 10:35:48.21	133.70	7.51	
2025-01-16 10:35:48.42	133.69	7.53	
2025-01-16 10:35:48.62	133.68	7.54	
2025-01-16 10:35:48.82	133.67	7.56	
2025-01-16 10:35:49.02	133.66	7.57	
2025-01-16 10:35:49.23	133.65	7.59	
2025-01-16 10:35:49.43	133.64	7.61	
2025-01-16 10:35:49.63	133.63	7.62	
2025-01-16 10:35:49.84	133.61	7.64	
2025-01-16 10:35:50.04	133.60	7.66	
2025-01-16 10:35:50.24	133.59	7.67	
2025-01-16 10:35:50.45	133.58	7.69	
2025-01-16 10:35:50.65	133.57	7.71	
2025-01-16 10:35:50.85	133.56	7.72	
2025-01-16 10:35:51.05	133.55	7.74	
2025-01-16 10:35:51.26	133.54	7.75	
2025-01-16 10:35:51.46	133.53	7.77	
2025-01-16 10:35:51.66	133.52	7.79	
2025-01-16 10:35:51.87	133.51	7.80	
2025-01-16 10:35:52.07	133.50	7.82	
2025-01-16 10:35:52.27	133.48	7.84	
2025-01-16 10:35:52.47	133.47	7.85	
2025-01-16 10:35:52.68	133.46	7.87	
2025-01-16 10:35:52.88	133.45	7.89	
2025-01-16 10:35:53.08	133.44	7.90	
2025-01-16 10:35:53.29	133.43	7.92	
2025-01-16 10:35:53.49	133.42	7.94	
2025-01-16 10:35:53.69	133.41	7.95	
2025-01-16 10:35:53.90	133.40	7.97	
2025-01-16 10:35:54.10	133.39	7.99	
2025-01-16 10:35:54.30	133.38	8.00	
2025-01-16 10:35:54.50	133.36	8.02	
2025-01-16 10:35:54.71	133.35	8.04	
2025-01-16 10:35:54.91	133.34	8.05	
2025-01-16 10:35:55.11	133.33	8.07	
2025-01-16 10:35:55.32	133.32	8.09	
2025-01-16 10:35:55.52	133.31	8.10	
2025-01-16 10:35:55.72	133.30	8.12	
2025-01-16 10:35:55.93	133.29	8.14	
2025-01-16 10:35:56.13	133.28	8.15	
2025-01-16 10:35:56.33	133.26	8.17	
2025-01-16 10:35:56.53	133.25	8.19	
2025-01-16 10:35:56.74	133.24	8.20	
2025-01-16 10:35:56.94	133.23	8.22	
2025-01-16 10:35:57.14	133.22	8.24	
2025-01-16 10:35:57.35	133.21	8.25	
2025-01-16 10:35:57.55	133.20	8.27	
2025-01-16 10:35:57.75	133.19	8.29	
2025-01-16 10:35:57.96	133.17	8.30	
2025-01-16 10:35:58.16	133.16	8.32	
2025-01-16 10:35:58.36	133.15	8.34	
2025-01-16 10:35:58.56	133.14	8.35	
2025-01-16 10:35:58.77	133.13	8.37	
2025-01-16 10:35:58.97	133.12	8.39	
2025-01-16 10:35:59.17	133.11	8.41	
2025-01-16 10:35:59.38	133.09	8.42	
2025-01-16 10:35:59.58	133.08	8.44	
2025-01-16 10:35:59.78	133.07	8.46	
2025-01-16 10:35:59.98	133.06	8.47	
2025-01-16 10:36:00.19	133.05	8.49	
2025-01-16 10:36:00.39	133.04	8.51	
2025-01-16 10:36:00.59	133.03	8.52	
2025-01-16 10:36:00.80	133.01	8.54	
2025-01-16 10:36:01.00	133.00	8.56	
2025-01-16 10:36:01.20	132.99	8.57	
2025-01-16 10:36:01.41	132.98	8.59	
2025-01-16 10:36:01.61	132.97	8.61	
2025-01-16 10:36:01.81	132.96	8.63	
2025-01-16 10:36:02.01	132.95	8.64	
2025-01-16 10:36:02.22	132.93	8.66	
2025-01-16 10:36:02.42	132.92	8.68	
2025-01-16 10:36:02.62	132.91	8.69	
2025-01-16 10:36:02.83	132.90	8.71	
2025-01-16 10:36:03.03	132.89	8.73	
2025-01-16 10:36:03.23	132.88	8.75	
2025-01-16 10:36:03.44	132.86	8.76	
2025-01-16 10:36:03.64	132.85	8.78	
2025-01-16 10:36:03.84	132.84	8.80	
2025-01-16 10:36:04.04	132.83	8.81	
2025-01-16 10:36:04.25	132.82	8.83	
2025-01-16 10:36:04.45	132.81	8.85	
2025-01-16 10:36:04.65	132.79	8.87	
2025-01-16 10:36:04.86	132.78	8.88	
2025-01-16 10:36:05.06	132.77	8.90	
2025-01-16 10:36:05.26	132.76	8.92	
2025-01-16 10:36:05.47	132.75	8.94	
2025-01-16 10:36:05.67	132.73	8.95	
2025-01-16 10:36:05.87	132.72	8.97	
2025-01-16 10:36:06.07	132.71	8.99	
2025-01-16 10:36:06.28	132.70	9.00	
2025-01-16 10:36:06.48	132.69	9.02	
2025-01-16 10:36:06.68	132.67	9.04	
2025-01-16 10:36:06.89	132.66	9.06	
2025-01-16 10:36:07.09	132.65	9.07	
2025-01-16 10:36:07.29	132.64	9.09	
2025-01-16 10:36:07.50	132.63	9.11	
2025-01-16 10:36:07.70	132.61	9.13	
2025-01-16 10:36:07.90	132.60	9.14	
2025-01-16 10:36:08.10	132.59	9.16	
2025-01-16 10:36:08.31	132.58	9.18	
2025-01-16 10:36:08.51	132.57	9.20	
2025-01-16 10:36:08.71	132.55	9.21	
2025-01-16 10:36:08.92	132.54	9.23	
2025-01-16 10:36:09.12	132.53	9.25	
2025-01-16 10:36:09.32	132.52	9.27	
2025-01-16 10:36:09.53	132.51	9.28	
2025-01-16 10:36:09.73	132.49	9.30	
2025-01-16 10:36:09.93	132.48	9.32	
2025-01-16 10:36:10.13	132.47	9.34	
2025-01-16 10:36:10.34	132.46	9.35	
2025-01-16 10:36:10.54	132.44	9.37	
2025-01-16 10:36:10.74	132.43	9.39	
2025-01-16 10:36:10.95	132.42	9.41	
2025-01-16 10:36:11.15	132.41	9.42	
2025-01-16 10:36:11.35	132.40	9.44	
2025-01-16 10:36:11.55	132.38	9.46	
2025-01-16 10:36:11.76	132.37	9.48	
2025-01-16 10:36:11.96	132.36	9.49	
2025-01-16 10:36:12.16	132.35	9.51	
2025-01-16 10:36:12.37	132.33	9.53	
2025-01-16 10:36:12.57	132.32	9.55	
2025-01-16 10:36:12.77	132.31	9.57	
2025-01-16 10:36:12.98	132.30	9.58	
2025-01-16 10:36:13.18	132.28	9.60	
2025-01-16 10:36:13.38	132.27	9.62	
2025-01-16 10:36:13.58	132.26	9.64	
2025-01-16 10:36:13.79	132.25	9.65	
2025-01-16 10:36:13.99	132.23	9.67	
2025-01-16 10:36:14.19	132.22	9.69	
2025-01-16 10:36:14.40	132.21	9.71	
2025-01-16 10:36:14.60	132.20	9.73	
2025-01-16 10:36:14.80	132.18	9.74	
2025-01-16 10:36:15.01	132.17	9.76	
2025-01-16 10:36:15.21	132.16	9.78	
2025-01-16 10:36:15.41	132.15	9.80	
2025-01-16 10:36:15.61	132.13	9.81	
2025-01-16 10:36:15.82	132.12	9.83	
2025-01-16 10:36:16.02	132.11	9.85	
2025-01-16 10:36:16.22	132.09	9.87	
2025-01-16 10:36:16.43	132.08	9.89	
2025-01-16 10:36:16.63	132.07	9.90	
2025-01-16 10:36:16.83	132.06	9.92	
2025-01-16 10:36:17.04	132.04	9.94	
2025-01-16 10:36:17.24	132.03	9.96	
2025-01-16 10:36:17.44	132.02	9.98	
2025-01-16 10:36:17.64	132.00	9.99	
2025-01-16 10:36:17.85	131.99	10.01	
2025-01-16 10:36:18.05	131.98	10.03	
2025-01-16 10:36:18.25	131.97	10.05	
2025-01-16 10:36:18.46	131.95	10.07	
2025-01-16 10:36:18.66	131.94	10.08	
2025-01-16 10:36:18.86	131.93	10.10	
2025-01-16 10:36:19.07	131.91	10.12	
2025-01-16 10:36:19.27	131.90	10.14	
2025-01-16 10:36:19.47	131.89	10.16	
2025-01-16 10:36:19.67	131.88	10.18	
2025-01-16 10:36:19.88	131.86	10.19	
2025-01-16 10:36:20.08	131.85	10.21	
2025-01-16 10:36:20.28	131.84	10.23	
2025-01-16 10:36:20.49	131.82	10.25	
2025-01-16 10:36:20.69	131.81	10.27	
2025-01-16 10:36:20.89	131.80	10.28	
2025-01-16 10:36:21.10	131.78	10.30	
2025-01-16 10:36:21.30	131.77	10.32	
2025-01-16 10:36:21.50	131.76	10.34	
2025-01-16 10:36:21.70	131.74	10.36	
2025-01-16 10:36:21.91	131.73	10.38	
2025-01-16 10:36:22.11	131.72	10.39	
2025-01-16 10:36:22.31	131.70	10.41	
2025-01-16 10:36:22.52	131.69	10.43	
2025-01-16 10:36:22.72	131.68	10.45	
2025-01-16 10:36:22.92	131.66	10.47	
2025-01-16 10:36:23.12	131.65	10.49	
2025-01-16 10:36:23.33	131.64	10.51	
2025-01-16 10:36:23.53	131.62	10.52	
2025-01-16 10:36:23.73	131.61	10.54	
2025-01-16 10:36:23.94	131.60	10.56	
2025-01-16 10:36:24.14	131.58	10.58	
2025-01-16 10:36:24.34	131.57	10.60	
2025-01-16 10:36:24.55	131.56	10.62	
2025-01-16 10:36:24.75	131.54	10.63	
2025-01-16 10:36:24.95	131.53	10.65	
2025-01-16 10:36:25.15	131.52	10.67	
2025-01-16 10:36:25.36	131.50	10.69	
2025-01-16 10:36:25.56	131.49	10.71	
2025-01-16 10:36:25.76	131.48	10.73	
2025-01-16 10:36:25.97	131.46	10.75	
2025-01-16 10:36:26.17	131.45	10.76	
2025-01-16 10:36:26.37	131.43	10.78	
2025-01-16 10:36:26.58	131.42	10.80	
2025-01-16 10:36:26.78	131.41	10.82	
2025-01-16 10:36:26.98	131.39	10.84	
2025-01-16 10:36:27.18	131.38	10.86	
2025-01-16 10:36:27.39	131.37	10.88	
2025-01-16 10:36:27.59	131.35	10.89	
2025-01-16 10:36:27.79	131.34	10.91	
2025-01-16 10:36:28.00	131.32	10.93	
2025-01-16 10:36:28.20	131.31	10.95	
2025-01-16 10:36:28.40	131.30	10.97	
2025-01-16 10:36:28.61	131.28	10.99	
2025-01-16 10:36:28.81	131.27	11.01	
2025-01-16 10:36:29.01	131.26	11.03	
2025-01-16 10:36:29.21	131.24	11.04	
2025-01-16 10:36:29.42	131.23	11.06	
2025-01-16 10:36:29.62	131.21	11.08	
2025-01-16 10:36:29.82	131.20	11.10	
2025-01-16 10:36:30.03	131.18	11.12	
2025-01-16 10:36:30.23	131.17	11.14	
2025-01-16 10:36:30.43	131.16	11.16	
2025-01-16 10:36:30.64	131.14	11.18	
2025-01-16 10:36:30.84	131.13	11.20	
2025-01-16 10:36:31.04	131.11	11.21	
2025-01-16 10:36:31.24	131.10	11.23	
2025-01-16 10:36:31.45	131.09	11.25	
2025-01-16 10:36:31.65	131.07	11.27	
2025-01-16 10:36:31.85	131.06	11.29	
2025-01-16 10:36:32.06	131.04	11.31	
2025-01-16 10:36:32.26	131.03	11.33	
2025-01-16 10:36:32.46	131.02	11.35	
2025-01-16 10:36:32.66	131.00	11.37	
2025-01-16 10:36:32.87	130.99	11.39	
2025-01-16 10:36:33.07	130.97	11.41	
2025-01-16 10:36:33.27	130.96	11.42	
2025-01-16 10:36:33.48	130.94	11.44	
2025-01-16 10:36:33.68	130.93	11.46	
2025-01-16 10:36:33.88	130.92	11.48	
2025-01-16 10:36:34.09	130.90	11.50	
2025-01-16 10:36:34.29	130.89	11.52	
2025-01-16 10:36:34.49	130.87	11.54	
2025-01-16 10:36:34.69	130.86	11.56	
2025-01-16 10:36:34.90	130.84	11.58	
2025-01-16 10:36:35.10	130.83	11.60	
2025-01-16 10:36:35.30	130.81	11.62	
2025-01-16 10:36:35.51	130.80	11.64	
2025-01-16 10:36:35.71	130.78	11.66	
2025-01-16 10:36:35.91	130.77	11.67	
2025-01-16 10:36:36.12	130.75	11.69	
2025-01-16 10:36:36.32	130.74	11.71	
2025-01-16 10:36:36.52	130.73	11.73	
2025-01-16 10:36:36.72	130.71	11.75	
2025-01-16 10:36:36.93	130.70	11.77	
2025-01-16 10:36:37.13	130.68	11.79	
2025-01-16 10:36:37.33	130.67	11.81	
2025-01-16 10:36:37.54	130.65	11.83	
2025-01-16 10:36:37.74	130.64	11.85	
2025-01-16 10:36:37.94	130.62	11.87	
2025-01-16 10:36:38.15	130.61	11.89	
2025-01-16 10:36:38.35	130.59	11.91	
2025-01-16 10:36:38.55	130.58	11.93	
2025-01-16 10:36:38.75	130.56	11.95	
2025-01-16 10:36:38.96	130.55	11.97	
2025-01-16 10:36:39.16	130.53	11.99	
2025-01-16 10:36:39.36	130.52	12.00	
2025-01-16 10:36:39.57	130.50	12.02	
2025-01-16 10:36:39.77	130.49	12.04	
2025-01-16 10:36:39.97	130.47	12.06	
2025-01-16 10:36:40.18	130.46	12.08	
2025-01-16 10:36:40.38	130.44	12.10	
2025-01-16 10:36:40.58	130.43	12.12	
2025-01-16 10:36:40.78	130.41	12.14	
2025-01-16 10:36:40.99	130.40	12.16	
2025-01-16 10:36:41.19	130.38	12.18	
2025-01-16 10:36:41.39	130.37	12.20	
2025-01-16 10:36:41.60	130.35	12.22	
2025-01-16 10:36:41.80	130.34	12.24	
2025-01-16 10:36:42.00	130.32	12.26	
2025-01-16 10:36:42.20	130.31	12.28	
2025-01-16 10:36:42.41	130.29	12.30	
2025-01-16 10:36:42.61	130.28	12.32	
2025-01-16 10:36:42.81	130.26	12.34	
2025-01-16 10:36:43.02	130.24	12.36	
2025-01-16 10:36:43.22	130.23	12.38	
2025-01-16 10:36:43.42	130.21	12.40	
2025-01-16 10:36:43.63	130.20	12.42	
2025-01-16 10:36:43.83	130.18	12.44	
2025-01-16 10:36:44.03	130.17	12.46	
2025-01-16 10:36:44.23	130.15	12.48	
2025-01-16 10:36:44.44	130.14	12.50	
2025-01-16 10:36:44.64	130.12	12.52	
2025-01-16 10:36:44.84	130.10	12.54	
2025-01-16 10:36:45.05	130.09	12.56	
2025-01-16 10:36:45.25	130.07	12.58	
2025-01-16 10:36:45.45	130.06	12.60	
2025-01-16 10:36:45.66	130.04	12.62	
2025-01-16 10:36:45.86	130.03	12.64	
2025-01-16 10:36:46.06	130.01	12.66	
2025-01-16 10:36:46.26	130.00	12.68	
2025-01-16 10:36:46.47	129.98	12.70	
2025-01-16 10:36:46.67	129.96	12.72	
2025-01-16 10:36:46.87	129.95	12.74	
2025-01-16 10:36:47.08	129.93	12.76	
2025-01-16 10:36:47.28	129.92	12.78	
2025-01-16 10:36:47.48	129.90	12.80	
2025-01-16 10:36:47.69	129.88	12.82	
2025-01-16 10:36:47.89	129.87	12.84	
2025-01-16 10:36:48.09	129.85	12.86	
2025-01-16 10:36:48.29	129.84	12.88	
2025-01-16 10:36:48.50	129.82	12.90	
2025-01-16 10:36:48.70	129.80	12.92	
2025-01-16 10:36:48.90	129.79	12.94	
2025-01-16 10:36:49.11	129.77	12.96	
2025-01-16 10:36:49.31	129.76	12.98	
2025-01-16 10:36:49.51	129.74	13.00	
2025-01-16 10:36:49.72	129.72	13.02	
2025-01-16 10:36:49.92	129.71	13.04	
2025-01-16 10:36:50.12	129.69	13.06	
2025-01-16 10:36:50.32	129.67	13.08	
2025-01-16 10:36:50.53	129.66	13.11	
2025-01-16 10:36:50.73	129.64	13.13	
2025-01-16 10:36:50.93	129.63	13.15	
2025-01-16 10:36:51.14	129.61	13.17	
2025-01-16 10:36:51.34	129.59	13.19	
2025-01-16 10:36:51.54	129.58	13.21	
2025-01-16 10:36:51.74	129.56	13.23	
2025-01-16 10:36:51.95	129.54	13.25	
2025-01-16 10:36:52.15	129.53	13.27	
2025-01-16 10:36:52.35	129.51	13.29	
2025-01-16 10:36:52.56	129.49	13.31	
2025-01-16 10:36:52.76	129.48	13.33	
2025-01-16 10:36:52.96	129.46	13.35	
2025-01-16 10:36:53.17	129.44	13.37	
2025-01-16 10:36:53.37	129.43	13.39	
2025-01-16 10:36:53.57	129.41	13.41	
2025-01-16 10:36:53.77	129.39	13.43	
2025-01-16 10:36:53.98	129.38	13.46	
2025-01-16 10:36:54.18	129.36	13.48	
2025-01-16 10:36:54.38	129.34	13.50	
2025-01-16 10:36:54.59	129.33	13.52	
2025-01-16 10:36:54.79	129.31	13.54	
2025-01-16 10:36:54.99	129.29	13.56	
2025-01-16 10:36:55.20	129.28	13.58	
2025-01-16 10:36:55.40	129.26	13.60	
2025-01-16 10:36:55.60	129.24	13.62	
2025-01-16 10:36:55.80	129.23	13.64	
2025-01-16 10:36:56.01	129.21	13.66	
2025-01-16 10:36:56.23	129.19	13.69	
2025-01-16 10:36:56.43	129.17	13.71	
2025-01-16 10:36:56.63	129.16	13.73	
2025-01-16 10:36:56.83	129.14	13.75	
2025-01-16 10:36:57.04	129.12	13.77	
2025-01-16 10:36:57.24	129.11	13.79	
2025-01-16 10:36:57.44	129.09	13.81	
2025-01-16 10:36:57.65	129.07	13.83	
2025-01-16 10:36:57.85	129.05	13.86	
2025-01-16 10:36:58.05	129.04	13.88	
2025-01-16 10:36:58.26	129.02	13.90	
2025-01-16 10:36:58.46	129.00	13.92	
2025-01-16 10:36:58.66	128.98	13.94	
2025-01-16 10:36:58.86	128.97	13.96	
2025-01-16 10:36:59.07	128.95	13.98	
2025-01-16 10:36:59.27	128.93	14.00	
2025-01-16 10:36:59.47	128.92	14.02	
2025-01-16 10:36:59.68	128.90	14.05	
2025-01-16 10:36:59.88	128.88	14.07	
2025-01-16 10:37:00.08	128.86	14.09	
2025-01-16 10:37:00.29	128.84	14.11	
2025-01-16 10:37:00.49	128.83	14.13	
2025-01-16 10:37:00.69	128.81	14.15	
2025-01-16 10:37:00.89	128.79	14.17	
2025-01-16 10:37:01.10	128.77	14.19	
2025-01-16 10:37:01.30	128.76	14.22	
2025-01-16 10:37:01.50	128.74	14.24	
2025-01-16 10:37:01.71	128.72	14.26	
2025-01-16 10:37:01.91	128.70	14.28	
2025-01-16 10:37:02.11	128.69	14.30	
2025-01-16 10:37:02.32	128.67	14.32	
2025-01-16 10:37:02.52	128.65	14.34	
2025-01-16 10:37:02.72	128.63	14.37	
2025-01-16 10:37:02.92	128.61	14.39	
2025-01-16 10:37:03.13	128.60	14.41	
2025-01-16 10:37:03.33	128.58	14.43	
2025-01-16 10:37:03.53	128.56	14.45	
2025-01-16 10:37:03.74	128.54	14.47	
2025-01-16 10:37:03.94	128.52	14.50	
2025-01-16 10:37:04.14	128.51	14.52	
2025-01-16 10:37:04.35	128.49	14.54	
2025-01-16 10:37:04.55	128.47	14.56	
2025-01-16 10:37:04.75	128.45	14.58	
2025-01-16 10:37:04.95	128.43	14.60	
2025-01-16 10:37:05.16	128.42	14.63	
2025-01-16 10:37:05.36	128.40	14.65	
2025-01-16 10:37:05.56	128.38	14.67	
2025-01-16 10:37:05.77	128.36	14.69	
2025-01-16 10:37:05.97	128.34	14.71	
2025-01-16 10:37:06.17	128.32	14.73	
2025-01-16 10:37:06.38	128.30	14.76	
2025-01-16 10:37:06.58	128.29	14.78	
2025-01-16 10:37:06.78	128.27	14.80	
2025-01-16 10:37:06.98	128.25	14.82	
2025-01-16 10:37:07.19	128.23	14.84	
2025-01-16 10:37:07.39	128.21	14.87	
2025-01-16 10:37:07.59	128.19	14.89	
2025-01-16 10:37:07.80	128.18	14.91	
2025-01-16 10:37:08.00	128.16	14.93	
2025-01-16 10:37:08.20	128.14	14.95	
2025-01-16 10:37:08.40	128.12	14.98	
2025-01-16 10:37:08.61	128.10	15.00	
2025-01-16 10:37:08.81	128.08	15.02	
2025-01-16 10:37:09.01	128.06	15.04	
2025-01-16 10:37:09.22	128.04	15.06	
2025-01-16 10:37:09.42	128.03	15.09	
2025-01-16 10:37:09.62	128.01	15.11	
2025-01-16 10:37:09.83	127.99	15.13	
2025-01-16 10:37:10.03	127.97	15.15	
2025-01-16 10:37:10.23	127.95	15.17	
2025-01-16 10:37:10.43	127.93	15.20	
2025-01-16 10:37:10.64	127.91	15.22	
2025-01-16 10:37:10.84	127.89	15.24	
2025-01-16 10:37:11.04	127.87	15.26	
2025-01-16 10:37:11.25	127.85	15.29	
2025-01-16 10:37:11.45	127.84	15.31	
2025-01-16 10:37:11.65	127.82	15.33	
2025-01-16 10:37:11.86	127.80	15.35	
2025-01-16 10:37:12.06	127.78	15.38	
2025-01-16 10:37:12.26	127.76	15.40	
2025-01-16 10:37:12.46	127.74	15.42	
2025-01-16 10:37:12.67	127.72	15.44	
2025-01-16 10:37:12.87	127.70	15.47	
2025-01-16 10:37:13.07	127.68	15.49	
2025-01-16 10:37:13.28	127.66	15.51	
2025-01-16 10:37:13.48	127.64	15.53	
2025-01-16 10:37:13.68	127.62	15.56	
2025-01-16 10:37:13.89	127.60	15.58	
2025-01-16 10:37:14.09	127.58	15.60	
2025-01-16 10:37:14.29	127.56	15.62	
2025-01-16 10:37:14.49	127.54	15.65	
2025-01-16 10:37:14.70	127.52	15.67	
2025-01-16 10:37:14.90	127.50	15.69	
2025-01-16 10:37:15.10	127.49	15.71	
2025-01-16 10:37:15.31	127.47	15.74	
2025-01-16 10:37:15.51	127.45	15.76	
2025-01-16 10:37:15.71	127.43	15.78	
2025-01-16 10:37:15.92	127.41	15.81	
2025-01-16 10:37:16.12	127.39	15.83	
2025-01-16 10:37:16.32	127.37	15.85	
2025-01-16 10:37:16.52	127.35	15.87	
2025-01-16 10:37:16.73	127.33	15.90	
2025-01-16 10:37:16.93	127.31	15.92	
2025-01-16 10:37:17.13	127.29	15.94	
2025-01-16 10:37:17.34	127.27	15.96	
2025-01-16 10:37:17.54	127.25	15.99	
2025-01-16 10:37:17.74	127.23	16.01	
2025-01-16 10:37:17.95	127.20	16.03	
2025-01-16 10:37:18.15	127.18	16.06	
2025-01-16 10:37:18.35	127.16	16.08	
2025-01-16 10:37:18.55	127.14	16.10	
2025-01-16 10:37:18.76	127.12	16.13	
2025-01-16 10:37:18.96	127.10	16.15	
2025-01-16 10:37:19.16	127.08	16.17	
2025-01-16 10:37:19.37	127.06	16.20	
2025-01-16 10:37:19.57	127.04	16.22	
2025-01-16 10:37:19.77	127.02	16.24	
2025-01-16 10:37:19.97	127.00	16.26	
2025-01-16 10:37:20.18	126.98	16.29	
2025-01-16 10:37:20.38	126.96	16.31	
2025-01-16 10:37:20.58	126.94	16.33	
2025-01-16 10:37:20.79	126.92	16.36	
2025-01-16 10:37:20.99	126.90	16.38	
2025-01-16 10:37:21.19	126.88	16.40	
2025-01-16 10:37:21.40	126.86	16.43	
2025-01-16 10:37:21.60	126.84	16.45	
2025-01-16 10:37:21.80	126.82	16.47	
2025-01-16 10:37:22.00	126.79	16.50	
2025-01-16 10:37:22.21	126.77	16.52	
2025-01-16 10:37:22.41	126.75	16.54	
2025-01-16 10:37:22.61	126.73	16.57	
2025-01-16 10:37:22.82	126.71	16.59	
2025-01-16 10:37:23.02	126.69	16.61	
2025-01-16 10:37:23.22	126.67	16.64	
2025-01-16 10:37:23.43	126.65	16.66	
2025-01-16 10:37:23.63	126.63	16.68	
2025-01-16 10:37:23.83	126.60	16.71	
2025-01-16 10:37:24.03	126.58	16.73	
2025-01-16 10:37:24.24	126.56	16.76	
2025-01-16 10:37:24.44	126.54	16.78	
2025-01-16 10:37:24.64	126.52	16.80	
2025-01-16 10:37:24.85	126.50	16.83	
2025-01-16 10:37:25.05	126.48	16.85	
2025-01-16 10:37:25.25	126.46	16.87	
2025-01-16 10:37:25.46	126.43	16.90	
2025-01-16 10:37:25.66	126.41	16.92	
2025-01-16 10:37:25.86	126.39	16.94	
2025-01-16 10:37:26.06	126.37	16.97	
2025-01-16 10:37:26.27	126.35	16.99	
2025-01-16 10:37:26.47	126.33	17.02	
2025-01-16 10:37:26.67	126.30	17.04	
2025-01-16 10:37:26.88	126.28	17.06	
2025-01-16 10:37:27.08	126.26	17.09	
2025-01-16 10:37:27.28	126.24	17.11	
2025-01-16 10:37:27.49	126.22	17.14	
2025-01-16 10:37:27.69	126.19	17.16	
2025-01-16 10:37:27.89	126.17	17.18	
2025-01-16 10:37:28.09	126.15	17.21	
2025-01-16 10:37:28.30	126.13	17.23	
2025-01-16 10:37:28.50	126.11	17.26	
2025-01-16 10:37:28.70	126.08	17.28	
2025-01-16 10:37:28.91	126.06	17.30	
2025-01-16 10:37:29.11	126.04	17.33	
2025-01-16 10:37:29.31	126.02	17.35	
2025-01-16 10:37:29.51	126.00	17.38	
2025-01-16 10:37:29.72	125.97	17.40	
2025-01-16 10:37:29.92	125.95	17.42	
2025-01-16 10:37:30.12	125.93	17.45	
2025-01-16 10:37:30.33	125.91	17.47	
2025-01-16 10:37:30.53	125.88	17.50	
2025-01-16 10:37:30.73	125.86	17.52	
2025-01-16 10:37:30.94	125.84	17.55	
2025-01-16 10:37:31.14	125.82	17.57	
2025-01-16 10:37:31.34	125.79	17.59	
2025-01-16 10:37:31.54	125.77	17.62	
2025-01-16 10:37:31.75	125.75	17.64	
2025-01-16 10:37:31.95	125.73	17.67	
2025-01-16 10:37:32.15	125.70	17.69	
2025-01-16 10:37:32.36	125.68	17.72	
2025-01-16 10:37:32.56	125.66	17.74	
2025-01-16 10:37:32.76	125.63	17.77	
2025-01-16 10:37:32.97	125.61	17.79	
2025-01-16 10:37:33.17	125.59	17.81	
2025-01-16 10:37:33.37	125.57	17.84	
2025-01-16 10:37:33.57	125.54	17.86	
2025-01-16 10:37:33.78	125.52	17.89	
2025-01-16 10:37:33.98	125.50	17.91	
2025-01-16 10:37:34.18	125.47	17.94	
2025-01-16 10:37:34.39	125.45	17.96	
2025-01-16 10:37:34.59	125.43	17.99	
2025-01-16 10:37:34.79	125.40	18.01	
2025-01-16 10:37:35.00	125.38	18.04	
2025-01-16 10:37:35.20	125.36	18.06	
2025-01-16 10:37:35.40	125.33	18.09	
2025-01-16 10:37:35.60	125.31	18.11	
2025-01-16 10:37:35.81	125.29	18.14	
2025-01-16 10:37:36.01	125.26	18.16	
2025-01-16 10:37:36.21	125.24	18.19	
2025-01-16 10:37:36.42	125.21	18.21	
2025-01-16 10:37:36.62	125.19	18.24	
2025-01-16 10:37:36.82	125.17	18.26	
2025-01-16 10:37:37.03	125.14	18.29	
2025-01-16 10:37:37.23	125.12	18.31	
2025-01-16 10:37:37.43	125.10	18.34	
2025-01-16 10:37:37.63	125.07	18.36	
2025-01-16 10:37:37.84	125.05	18.39	
2025-01-16 10:37:38.04	125.02	18.41	
2025-01-16 10:37:38.24	125.00	18.44	
2025-01-16 10:37:38.45	124.98	18.46	
2025-01-16 10:37:38.65	124.95	18.49	
2025-01-16 10:37:38.85	124.93	18.51	
2025-01-16 10:37:39.05	124.91	18.54	
2025-01-16 10:37:39.26	124.88	18.56	
2025-01-16 10:37:39.46	124.86	18.59	
2025-01-16 10:37:39.66	124.83	18.61	
2025-01-16 10:37:39.87	124.81	18.64	
2025-01-16 10:37:40.07	124.78	18.66	
2025-01-16 10:37:40.27	124.76	18.69	
2025-01-16 10:37:40.48	124.73	18.71	
2025-01-16 10:37:40.68	124.71	18.74	
2025-01-16 10:37:40.88	124.69	18.76	
2025-01-16 10:37:41.08	124.66	18.79	
2025-01-16 10:37:41.29	124.64	18.82	
2025-01-16 10:37:41.49	124.61	18.84	
2025-01-16 10:37:41.69	124.59	18.87	
2025-01-16 10:37:41.90	124.56	18.89	
2025-01-16 10:37:42.10	124.54	18.92	
2025-01-16 10:37:42.30	124.51	18.94	
2025-01-16 10:37:42.51	124.49	18.97	
2025-01-16 10:37:42.71	124.46	18.99	
2025-01-16 10:37:42.91	124.44	19.02	
2025-01-16 10:37:43.11	124.41	19.04	
2025-01-16 10:37:43.32	124.39	19.07	
2025-01-16 10:37:43.52	124.36	19.10	
2025-01-16 10:37:43.72	124.34	19.12	
2025-01-16 10:37:43.93	124.31	19.15	
2025-01-16 10:37:44.13	124.29	19.17	
2025-01-16 10:37:44.33	124.26	19.20	
2025-01-16 10:37:44.54	124.23	19.23	
2025-01-16 10:37:44.74	124.21	19.25	
2025-01-16 10:37:44.94	124.18	19.28	
2025-01-16 10:37:45.14	124.16	19.30	
2025-01-16 10:37:45.35	124.13	19.33	
2025-01-16 10:37:45.55	124.11	19.36	
2025-01-16 10:37:45.75	124.08	19.38	
2025-01-16 10:37:45.96	124.06	19.41	
2025-01-16 10:37:46.16	124.03	19.43	
2025-01-16 10:37:46.36	124.00	19.46	
2025-01-16 10:37:46.57	123.98	19.49	
2025-01-16 10:37:46.77	123.95	19.51	
2025-01-16 10:37:46.97	123.93	19.54	
2025-01-16 10:37:47.17	123.90	19.56	
2025-01-16 10:37:47.38	123.87	19.59	
2025-01-16 10:37:47.58	123.85	19.62	
2025-01-16 10:37:47.78	123.82	19.64	
2025-01-16 10:37:47.99	123.80	19.67	
2025-01-16 10:37:48.19	123.77	19.69	
2025-01-16 10:37:48.39	123.74	19.72	
2025-01-16 10:37:48.59	123.72	19.75	
2025-01-16 10:37:48.80	123.69	19.77	
2025-01-16 10:37:49.00	123.67	19.80	
2025-01-16 10:37:49.20	123.64	19.83	
2025-01-16 10:37:49.41	123.61	19.85	
2025-01-16 10:37:49.61	123.59	19.88	
2025-01-16 10:37:49.81	123.56	19.91	
2025-01-16 10:37:50.02	123.53	19.93	
2025-01-16 10:37:50.22	123.51	19.96	
2025-01-16 10:37:50.42	123.48	19.98	
2025-01-16 10:37:50.62	123.45	20.01	
2025-01-16 10:37:50.83	123.42	20.04	
2025-01-16 10:37:51.03	123.40	20.06	
2025-01-16 10:37:51.23	123.37	20.09	
2025-01-16 10:37:51.44	123.34	20.12	
2025-01-16 10:37:51.64	123.32	20.14	
2025-01-16 10:37:51.84	123.29	20.17	
2025-01-16 10:37:52.05	123.26	20.20	
2025-01-16 10:37:52.25	123.24	20.23	
2025-01-16 10:37:52.45	123.21	20.25	
2025-01-16 10:37:52.65	123.18	20.28	
2025-01-16 10:37:52.86	123.15	20.31	
2025-01-16 10:37:53.06	123.13	20.33	
2025-01-16 10:37:53.26	123.10	20.36	
2025-01-16 10:37:53.47	123.07	20.39	
2025-01-16 10:37:53.67	123.04	20.41	
2025-01-16 10:37:53.87	123.02	20.44	
2025-01-16 10:37:54.08	122.99	20.47	
2025-01-16 10:37:54.28	122.96	20.49	
2025-01-16 10:37:54.48	122.93	20.52	
2025-01-16 10:37:54.68	122.91	20.55	
2025-01-16 10:37:54.89	122.88	20.58	
2025-01-16 10:37:55.09	122.85	20.60	
2025-01-16 10:37:55.29	122.82	20.63	
2025-01-16 10:37:55.50	122.79	20.66	
2025-01-16 10:37:55.70	122.76	20.68	
2025-01-16 10:37:55.90	122.74	20.71	
2025-01-16 10:37:56.11	122.71	20.74	
2025-01-16 10:37:56.31	122.68	20.77	
2025-01-16 10:37:56.51	122.65	20.79	
2025-01-16 10:37:56.71	122.62	20.82	
2025-01-16 10:37:56.92	122.59	20.85	
2025-01-16 10:37:57.12	122.57	20.87	
2025-01-16 10:37:57.32	122.54	20.90	
2025-01-16 10:37:57.53	122.51	20.93	
2025-01-16 10:37:57.73	122.48	20.96	
2025-01-16 10:37:57.93	122.45	20.98	
2025-01-16 10:37:58.13	122.42	21.01	
2025-01-16 10:37:58.34	122.39	21.04	
2025-01-16 10:37:58.54	122.37	21.07	
2025-01-16 10:37:58.74	122.34	21.09	
2025-01-16 10:37:58.95	122.31	21.12	
2025-01-16 10:37:59.15	122.28	21.15	
2025-01-16 10:37:59.35	122.25	21.18	
2025-01-16 10:37:59.56	122.22	21.21	
2025-01-16 10:37:59.76	122.19	21.23	
2025-01-16 10:37:59.96	122.16	21.26	
2025-01-16 10:38:00.16	122.13	21.29	
2025-01-16 10:38:00.37	122.10	21.32	
2025-01-16 10:38:00.57	122.07	21.34	
2025-01-16 10:38:00.77	122.05	21.37	
2025-01-16 10:38:00.98	122.01	21.40	
2025-01-16 10:38:01.18	121.99	21.43	
2025-01-16 10:38:01.38	121.96	21.45	
2025-01-16 10:38:01.59	121.93	21.48	
2025-01-16 10:38:01.79	121.90	21.51	
2025-01-16 10:38:01.99	121.87	21.54	
2025-01-16 10:38:02.19	121.84	21.57	
2025-01-16 10:38:02.40	121.81	21.59	
2025-01-16 10:38:02.60	121.78	21.62	
2025-01-16 10:38:02.80	121.75	21.65	
2025-01-16 10:38:03.01	121.72	21.68	
2025-01-16 10:38:03.21	121.69	21.71	
2025-01-16 10:38:03.41	121.66	21.73	
2025-01-16 10:38:03.62	121.63	21.76	
2025-01-16 10:38:03.82	121.60	21.79	
2025-01-16 10:38:04.02	121.57	21.82	
2025-01-16 10:38:04.22	121.54	21.85	
2025-01-16 10:38:04.43	121.50	21.88	
2025-01-16 10:38:04.63	121.47	21.90	
2025-01-16 10:38:04.83	121.44	21.93	
2025-01-16 10:38:05.04	121.41	21.96	
2025-01-16 10:38:05.24	121.38	21.99	
2025-01-16 10:38:05.44	121.35	22.02	
2025-01-16 10:38:05.65	121.32	22.05	
2025-01-16 10:38:05.85	121.29	22.07	
2025-01-16 10:38:06.05	121.26	22.10	
2025-01-16 10:38:06.25	121.23	22.13	
2025-01-16 10:38:06.46	121.20	22.16	
2025-01-16 10:38:06.66	121.17	22.19	
2025-01-16 10:38:06.86	121.13	22.22	
2025-01-16 10:38:07.07	121.10	22.25	
2025-01-16 10:38:07.27	121.07	22.27	
2025-01-16 10:38:07.47	121.04	22.30	
2025-01-16 10:38:07.67	121.01	22.33	
2025-01-16 10:38:07.89	120.98	22.36	
2025-01-16 10:38:08.09	120.94	22.39	
2025-01-16 10:38:08.30	120.91	22.42	
2025-01-16 10:38:08.50	120.88	22.45	
2025-01-16 10:38:08.70	120.85	22.48	
2025-01-16 10:38:08.90	120.82	22.51	
2025-01-16 10:38:09.11	120.78	22.54	
2025-01-16 10:38:09.31	120.75	22.56	
2025-01-16 10:38:09.51	120.72	22.59	
2025-01-16 10:38:09.72	120.69	22.62	
2025-01-16 10:38:09.92	120.66	22.65	
2025-01-16 10:38:10.12	120.62	22.68	
2025-01-16 10:38:10.33	120.59	22.71	
2025-01-16 10:38:10.53	120.56	22.74	
2025-01-16 10:38:10.73	120.53	22.77	
2025-01-16 10:38:10.93	120.50	22.80	
2025-01-16 10:38:11.14	120.46	22.83	
2025-01-16 10:38:11.34	120.43	22.85	
2025-01-16 10:38:11.54	120.40	22.88	
2025-01-16 10:38:11.75	120.36	22.91	
2025-01-16 10:38:11.95	120.33	22.94	
2025-01-16 10:38:12.15	120.30	22.97	
2025-01-16 10:38:12.36	120.26	23.00	
2025-01-16 10:38:12.56	120.23	23.03	
2025-01-16 10:38:12.76	120.20	23.06	
2025-01-16 10:38:12.96	120.17	23.09	
2025-01-16 10:38:13.17	120.13	23.12	
2025-01-16 10:38:13.37	120.10	23.15	
2025-01-16 10:38:13.57	120.07	23.18	
2025-01-16 10:38:13.78	120.03	23.21	
2025-01-16 10:38:13.98	120.00	23.24	
2025-01-16 10:38:14.18	119.97	23.26	
2025-01-16 10:38:14.39	119.93	23.30	
2025-01-16 10:38:14.59	119.90	23.32	
2025-01-16 10:38:14.79	119.87	23.35	
2025-01-16 10:38:14.99	119.83	23.38	
2025-01-16 10:38:15.20	119.80	23.41	
2025-01-16 10:38:15.40	119.76	23.44	
2025-01-16 10:38:15.60	119.73	23.47	
2025-01-16 10:38:15.81	119.69	23.50	
2025-01-16 10:38:16.01	119.66	23.53	
2025-01-16 10:38:16.21	119.63	23.56	
2025-01-16 10:38:16.42	119.59	23.59	
2025-01-16 10:38:16.62	119.56	23.62	
2025-01-16 10:38:16.82	119.52	23.65	
2025-01-16 10:38:17.02	119.49	23.68	
2025-01-16 10:38:17.23	119.45	23.71	
2025-01-16 10:38:17.43	119.42	23.74	
2025-01-16 10:38:17.63	119.39	23.77	
2025-01-16 10:38:17.84	119.35	23.80	
2025-01-16 10:38:18.04	119.32	23.83	
2025-01-16 10:38:18.24	119.28	23.86	
2025-01-16 10:38:18.44	119.25	23.89	
2025-01-16 10:38:18.65	119.21	23.92	
2025-01-16 10:38:18.85	119.18	23.95	
2025-01-16 10:38:19.05	119.14	23.98	
2025-01-16 10:38:19.26	119.10	24.01	
2025-01-16 10:38:19.46	119.07	24.04	
2025-01-16 10:38:19.66	119.04	24.07	
2025-01-16 10:38:19.87	119.00	24.10	
2025-01-16 10:38:20.07	118.96	24.13	
2025-01-16 10:38:20.27	118.93	24.16	
2025-01-16 10:38:20.47	118.89	24.19	
2025-01-16 10:38:20.68	118.86	24.22	
2025-01-16 10:38:20.88	118.82	24.25	
2025-01-16 10:38:21.08	118.79	24.28	
2025-01-16 10:38:21.29	118.75	24.32	
2025-01-16 10:38:21.49	118.71	24.35	
2025-01-16 10:38:21.69	118.68	24.38	
2025-01-16 10:38:21.90	118.64	24.41	
2025-01-16 10:38:22.10	118.60	24.44	
2025-01-16 10:38:22.30	118.57	24.47	
2025-01-16 10:38:22.50	118.53	24.50	
2025-01-16 10:38:22.71	118.49	24.53	
2025-01-16 10:38:22.91	118.46	24.56	
2025-01-16 10:38:23.11	118.42	24.59	
2025-01-16 10:38:23.32	118.38	24.62	
2025-01-16 10:38:23.52	118.35	24.65	
2025-01-16 10:38:23.72	118.31	24.68	
2025-01-16 10:38:23.93	118.27	24.71	
2025-01-16 10:38:24.13	118.24	24.74	
2025-01-16 10:38:24.33	118.20	24.77	
2025-01-16 10:38:24.53	118.16	24.80	
2025-01-16 10:38:24.74	118.12	24.84	
2025-01-16 10:38:24.94	118.09	24.87	
2025-01-16 10:38:25.14	118.05	24.90	
2025-01-16 10:38:25.35	118.01	24.93	
2025-01-16 10:38:25.55	117.98	24.96	
2025-01-16 10:38:25.75	117.94	24.99	
2025-01-16 10:38:25.96	117.90	25.02	
2025-01-16 10:38:26.16	117.86	25.05	
2025-01-16 10:38:26.36	117.82	25.08	
2025-01-16 10:38:26.56	117.79	25.11	
2025-01-16 10:38:26.77	117.75	25.15	
2025-01-16 10:38:26.97	117.71	25.18	
2025-01-16 10:38:27.17	117.67	25.21	
2025-01-16 10:38:27.38	117.63	25.24	
2025-01-16 10:38:27.58	117.60	25.27	
2025-01-16 10:38:27.78	117.56	25.30	
2025-01-16 10:38:27.99	117.52	25.33	
2025-01-16 10:38:28.19	117.48	25.37	
2025-01-16 10:38:28.39	117.44	25.40	
2025-01-16 10:38:28.59	117.40	25.43	
2025-01-16 10:38:28.80	117.36	25.46	
2025-01-16 10:38:29.00	117.32	25.49	
2025-01-16 10:38:29.20	117.29	25.52	
2025-01-16 10:38:29.41	117.25	25.55	
2025-01-16 10:38:29.61	117.21	25.59	
2025-01-16 10:38:29.81	117.17	25.62	
2025-01-16 10:38:30.01	117.13	25.65	
2025-01-16 10:38:30.22	117.09	25.68	
2025-01-16 10:38:30.42	117.05	25.71	
2025-01-16 10:38:30.62	117.01	25.74	
2025-01-16 10:38:30.83	116.97	25.78	
2025-01-16 10:38:31.03	116.93	25.81	
2025-01-16 10:38:31.23	116.89	25.84	
2025-01-16 10:38:31.44	116.85	25.87	
2025-01-16 10:38:31.64	116.81	25.90	
2025-01-16 10:38:31.84	116.77	25.93	
2025-01-16 10:38:32.04	116.73	25.96	
2025-01-16 10:38:32.25	116.69	26.00	
2025-01-16 10:38:32.45	116.65	26.03	
2025-01-16 10:38:32.65	116.61	26.06	
2025-01-16 10:38:32.86	116.57	26.09	
2025-01-16 10:38:33.06	116.53	26.12	
2025-01-16 10:38:33.26	116.49	26.16	
2025-01-16 10:38:33.47	116.45	26.19	
2025-01-16 10:38:33.67	116.41	26.22	
2025-01-16 10:38:33.87	116.37	26.25	
2025-01-16 10:38:34.07	116.33	26.28	
2025-01-16 10:38:34.28	116.28	26.32	
2025-01-16 10:38:34.48	116.24	26.35	
2025-01-16 10:38:34.68	116.20	26.38	
2025-01-16 10:38:34.89	116.16	26.41	
2025-01-16 10:38:35.09	116.12	26.45	
2025-01-16 10:38:35.29	116.08	26.48	
2025-01-16 10:38:35.50	116.03	26.51	
2025-01-16 10:38:35.70	115.99	26.54	
2025-01-16 10:38:35.90	115.95	26.57	
2025-01-16 10:38:36.10	115.91	26.61	
2025-01-16 10:38:36.31	115.87	26.64	
2025-01-16 10:38:36.51	115.83	26.67	
2025-01-16 10:38:36.71	115.78	26.70	
2025-01-16 10:38:36.92	115.74	26.74	
2025-01-16 10:38:37.12	115.70	26.77	
2025-01-16 10:38:37.32	115.66	26.80	
2025-01-16 10:38:37.53	115.61	26.83	
2025-01-16 10:38:37.73	115.57	26.87	
2025-01-16 10:38:37.93	115.53	26.90	
2025-01-16 10:38:38.13	115.49	26.93	
2025-01-16 10:38:38.34	115.44	26.96	
2025-01-16 10:38:38.54	115.40	27.00	
2025-01-16 10:38:38.74	115.36	27.03	
2025-01-16 10:38:38.95	115.31	27.06	
2025-01-16 10:38:39.15	115.27	27.09	
2025-01-16 10:38:39.35	115.23	27.13	
2025-01-16 10:38:39.55	115.18	27.16	
2025-01-16 10:38:39.76	115.14	27.19	
2025-01-16 10:38:39.96	115.10	27.23	
2025-01-16 10:38:40.16	115.05	27.26	
2025-01-16 10:38:40.37	115.01	27.29	
2025-01-16 10:38:40.57	114.96	27.32	
2025-01-16 10:38:40.77	114.92	27.36	
2025-01-16 10:38:40.98	114.88	27.39	
2025-01-16 10:38:41.18	114.83	27.42	
2025-01-16 10:38:41.38	114.79	27.46	
2025-01-16 10:38:41.58	114.74	27.49	
2025-01-16 10:38:41.79	114.70	27.52	
2025-01-16 10:38:41.99	114.65	27.55	
2025-01-16 10:38:42.19	114.61	27.59	
2025-01-16 10:38:42.40	114.56	27.62	
2025-01-16 10:38:42.60	114.52	27.65	
2025-01-16 10:38:42.80	114.48	27.69	
2025-01-16 10:38:43.01	114.43	27.72	
2025-01-16 10:38:43.21	114.38	27.75	
2025-01-16 10:38:43.41	114.34	27.79	
2025-01-16 10:38:43.61	114.29	27.82	
2025-01-16 10:38:43.82	114.25	27.85	
2025-01-16 10:38:44.02	114.20	27.89	
2025-01-16 10:38:44.22	114.16	27.92	
2025-01-16 10:38:44.43	114.11	27.95	
2025-01-16 10:38:44.63	114.07	27.99	
2025-01-16 10:38:44.83	114.02	28.02	
2025-01-16 10:38:45.04	113.97	28.05	
2025-01-16 10:38:45.24	113.93	28.09	
2025-01-16 10:38:45.44	113.88	28.12	
2025-01-16 10:38:45.64	113.84	28.15	
2025-01-16 10:38:45.85	113.79	28.19	
2025-01-16 10:38:46.05	113.74	28.22	
2025-01-16 10:38:46.25	113.70	28.25	
2025-01-16 10:38:46.46	113.65	28.29	
2025-01-16 10:38:46.66	113.60	28.32	
2025-01-16 10:38:46.86	113.55	28.35	
2025-01-16 10:38:47.07	113.51	28.39	
2025-01-16 10:38:47.27	113.46	28.42	
2025-01-16 10:38:47.47	113.41	28.46	
2025-01-16 10:38:47.67	113.37	28.49	
2025-01-16 10:38:47.88	113.32	28.52	
2025-01-16 10:38:48.08	113.27	28.56	
2025-01-16 10:38:48.28	113.22	28.59	
2025-01-16 10:38:48.49	113.17	28.62	
2025-01-16 10:38:48.69	113.13	28.66	
2025-01-16 10:38:48.89	113.08	28.69	
2025-01-16 10:38:49.09	113.03	28.72	
2025-01-16 10:38:49.30	112.98	28.76	
2025-01-16 10:38:49.50	112.93	28.79	
2025-01-16 10:38:49.70	112.89	28.83	
2025-01-16 10:38:49.91	112.84	28.86	
2025-01-16 10:38:50.11	112.79	28.89	
2025-01-16 10:38:50.31	112.74	28.93	
2025-01-16 10:38:50.52	112.69	28.96	
2025-01-16 10:38:50.72	112.64	29.00	
2025-01-16 10:38:50.92	112.59	29.03	
2025-01-16 10:38:51.12	112.54	29.06	
2025-01-16 10:38:51.33	112.49	29.10	
2025-01-16 10:38:51.53	112.44	29.13	
2025-01-16 10:38:51.73	112.40	29.17	
2025-01-16 10:38:51.94	112.34	29.20	
2025-01-16 10:38:52.14	112.30	29.24	
2025-01-16 10:38:52.34	112.25	29.27	
2025-01-16 10:38:52.55	112.19	29.30	
2025-01-16 10:38:52.75	112.14	29.34	
2025-01-16 10:38:52.95	112.10	29.37	
2025-01-16 10:38:53.15	112.05	29.41	
2025-01-16 10:38:53.36	111.99	29.44	
2025-01-16 10:38:53.56	111.94	29.47	
2025-01-16 10:38:53.76	111.89	29.51	
2025-01-16 10:38:53.97	111.84	29.54	
2025-01-16 10:38:54.17	111.79	29.58	
2025-01-16 10:38:54.37	111.74	29.61	
2025-01-16 10:38:54.58	111.69	29.65	
2025-01-16 10:38:54.78	111.64	29.68	
2025-01-16 10:38:54.98	111.59	29.72	
2025-01-16 10:38:55.18	111.54	29.75	
2025-01-16 10:38:55.39	111.48	29.79	
2025-01-16 10:38:55.59	111.43	29.82	
2025-01-16 10:38:55.79	111.38	29.85	
2025-01-16 10:38:56.00	111.33	29.89	
2025-01-16 10:38:56.20	111.28	29.92	
2025-01-16 10:38:56.40	111.23	29.96	
2025-01-16 10:38:56.61	111.17	29.99	
2025-01-16 10:38:56.81	111.12	30.03	
2025-01-16 10:38:57.01	111.07	30.06	
2025-01-16 10:38:57.21	111.02	30.09	
2025-01-16 10:38:57.42	110.96	30.13	
2025-01-16 10:38:57.62	110.91	30.16	
2025-01-16 10:38:57.82	110.86	30.20	
2025-01-16 10:38:58.03	110.80	30.23	
2025-01-16 10:38:58.23	110.75	30.27	
2025-01-16 10:38:58.43	110.70	30.30	
2025-01-16 10:38:58.63	110.64	30.34	
2025-01-16 10:38:58.84	110.59	30.37	
2025-01-16 10:38:59.04	110.54	30.41	
2025-01-16 10:38:59.24	110.48	30.44	
2025-01-16 10:38:59.45	110.43	30.48	
2025-01-16 10:38:59.65	110.37	30.51	
2025-01-16 10:38:59.85	110.32	30.55	
2025-01-16 10:39:00.06	110.26	30.58	
2025-01-16 10:39:00.26	110.21	30.62	
2025-01-16 10:39:00.46	110.16	30.65	
2025-01-16 10:39:00.66	110.10	30.69	
2025-01-16 10:39:00.87	110.05	30.72	
2025-01-16 10:39:01.07	109.99	30.76	
2025-01-16 10:39:01.27	109.94	30.79	
2025-01-16 10:39:01.48	109.88	30.83	
2025-01-16 10:39:01.68	109.83	30.86	
2025-01-16 10:39:01.88	109.77	30.90	
2025-01-16 10:39:02.09	109.72	30.93	
2025-01-16 10:39:02.29	109.66	30.97	
2025-01-16 10:39:02.49	109.61	31.00	
2025-01-16 10:39:02.69	109.55	31.04	
2025-01-16 10:39:02.90	109.49	31.07	
2025-01-16 10:39:03.10	109.44	31.11	
2025-01-16 10:39:03.30	109.38	31.14	
2025-01-16 10:39:03.51	109.32	31.18	
2025-01-16 10:39:03.71	109.27	31.21	
2025-01-16 10:39:03.91	109.21	31.25	
2025-01-16 10:39:04.12	109.15	31.28	
2025-01-16 10:39:04.32	109.10	31.32	
2025-01-16 10:39:04.52	109.04	31.35	
2025-01-16 10:39:04.72	108.98	31.39	
2025-01-16 10:39:04.93	108.93	31.42	
2025-01-16 10:39:05.13	108.87	31.46	
2025-01-16 10:39:05.33	108.81	31.49	
2025-01-16 10:39:05.54	108.75	31.53	
2025-01-16 10:39:05.74	108.70	31.57	
2025-01-16 10:39:05.94	108.64	31.60	
2025-01-16 10:39:06.15	108.58	31.64	
2025-01-16 10:39:06.35	108.52	31.67	
2025-01-16 10:39:06.55	108.46	31.71	
2025-01-16 10:39:06.75	108.41	31.74	
2025-01-16 10:39:06.96	108.35	31.78	
2025-01-16 10:39:07.16	108.29	31.81	
2025-01-16 10:39:07.36	108.23	31.85	
2025-01-16 10:39:07.57	108.17	31.88	
2025-01-16 10:39:07.77	108.11	31.92	
2025-01-16 10:39:07.97	108.05	31.95	
2025-01-16 10:39:08.18	107.99	31.99	
2025-01-16 10:39:08.38	107.93	32.03	
2025-01-16 10:39:08.58	107.87	32.06	
2025-01-16 10:39:08.78	107.81	32.10	
2025-01-16 10:39:08.99	107.75	32.13	
2025-01-16 10:39:09.19	107.69	32.17	
2025-01-16 10:39:09.39	107.63	32.20	
2025-01-16 10:39:09.60	107.57	32.24	
2025-01-16 10:39:09.80	107.51	32.27	
2025-01-16 10:39:10.00	107.45	32.31	
2025-01-16 10:39:10.20	107.39	32.34	
2025-01-16 10:39:10.41	107.33	32.38	
2025-01-16 10:39:10.61	107.27	32.42	
2025-01-16 10:39:10.81	107.21	32.45	
2025-01-16 10:39:11.02	107.15	32.49	
2025-01-16 10:39:11.22	107.09	32.52	
2025-01-16 10:39:11.42	107.02	32.56	
2025-01-16 10:39:11.63	106.96	32.59	
2025-01-16 10:39:11.83	106.90	32.63	
2025-01-16 10:39:12.03	106.84	32.66	
2025-01-16 10:39:12.23	106.78	32.70	
2025-01-16 10:39:12.44	106.71	32.74	
2025-01-16 10:39:12.64	106.65	32.77	
2025-01-16 10:39:12.84	106.59	32.81	
2025-01-16 10:39:13.05	106.53	32.84	
2025-01-16 10:39:13.25	106.46	32.88	
2025-01-16 10:39:13.45	106.40	32.91	
2025-01-16 10:39:13.66	106.34	32.95	
2025-01-16 10:39:13.86	106.27	32.99	
2025-01-16 10:39:14.06	106.21	33.02	
2025-01-16 10:39:14.26	106.15	33.06	
2025-01-16 10:39:14.47	106.08	33.09	
2025-01-16 10:39:14.67	106.02	33.13	
2025-01-16 10:39:14.87	105.96	33.16	
2025-01-16 10:39:15.08	105.89	33.20	
2025-01-16 10:39:15.28	105.83	33.24	
2025-01-16 10:39:15.48	105.76	33.27	
2025-01-16 10:39:15.69	105.70	33.31	
2025-01-16 10:39:15.89	105.63	33.34	
2025-01-16 10:39:16.09	105.57	33.38	
2025-01-16 10:39:16.29	105.50	33.41	
2025-01-16 10:39:16.50	105.44	33.45	
2025-01-16 10:39:16.70	105.37	33.49	
2025-01-16 10:39:16.90	105.31	33.52	
2025-01-16 10:39:17.11	105.24	33.56	
2025-01-16 10:39:17.31	105.18	33.59	
2025-01-16 10:39:17.51	105.11	33.63	
2025-01-16 10:39:17.72	105.04	33.66	
2025-01-16 10:39:17.92	104.98	33.70	
2025-01-16 10:39:18.12	104.91	33.74	
2025-01-16 10:39:18.32	104.85	33.77	
2025-01-16 10:39:18.53	104.78	33.81	
2025-01-16 10:39:18.73	104.71	33.84	
2025-01-16 10:39:18.93	104.65	33.88	
2025-01-16 10:39:19.14	104.58	33.91	
2025-01-16 10:39:19.34	104.51	33.95	
2025-01-16 10:39:19.54	104.44	33.99	
2025-01-16 10:39:19.74	104.38	34.02	
2025-01-16 10:39:19.95	104.31	34.06	
2025-01-16 10:39:20.15	104.24	34.09	
2025-01-16 10:39:20.35	104.17	34.13	
2025-01-16 10:39:20.56	104.10	34.16	
2025-01-16 10:39:20.76	104.04	34.20	
2025-01-16 10:39:20.96	103.97	34.24	
2025-01-16 10:39:21.17	103.90	34.27	
2025-01-16 10:39:21.37	103.83	34.31	
2025-01-16 10:39:21.57	103.76	34.34	
2025-01-16 10:39:21.77	103.69	34.38	
2025-01-16 10:39:21.98	103.62	34.41	
2025-01-16 10:39:22.18	103.55	34.45	
2025-01-16 10:39:22.38	103.48	34.49	
2025-01-16 10:39:22.59	103.41	34.52	
2025-01-16 10:39:22.79	103.34	34.56	
2025-01-16 10:39:22.99	103.27	34.59	
2025-01-16 10:39:23.20	103.20	34.63	
2025-01-16 10:39:23.40	103.13	34.66	
2025-01-16 10:39:23.60	103.06	34.70	
2025-01-16 10:39:23.80	102.99	34.73	
2025-01-16 10:39:24.01	102.92	34.77	
2025-01-16 10:39:24.21	102.85	34.81	
2025-01-16 10:39:24.41	102.78	34.84	
2025-01-16 10:39:24.62	102.71	34.88	
2025-01-16 10:39:24.82	102.64	34.91	
2025-01-16 10:39:25.02	102.57	34.95	
2025-01-16 10:39:25.23	102.49	34.99	
2025-01-16 10:39:25.43	102.42	35.02	
2025-01-16 10:39:25.63	102.35	35.06	
2025-01-16 10:39:25.83	102.28	35.09	
2025-01-16 10:39:26.04	102.20	35.13	
2025-01-16 10:39:26.24	102.13	35.16	
2025-01-16 10:39:26.44	102.06	35.20	
2025-01-16 10:39:26.65	101.98	35.24	
2025-01-16 10:39:26.85	101.91	35.27	
2025-01-16 10:39:27.05	101.84	35.31	
2025-01-16 10:39:27.26	101.76	35.34	
2025-01-16 10:39:27.46	101.69	35.38	
2025-01-16 10:39:27.66	101.62	35.41	
2025-01-16 10:39:27.86	101.55	35.45	
2025-01-16 10:39:28.07	101.47	35.48	
2025-01-16 10:39:28.27	101.40	35.52	
2025-01-16 10:39:28.47	101.32	35.55	
2025-01-16 10:39:28.68	101.25	35.59	
2025-01-16 10:39:28.88	101.17	35.63	
2025-01-16 10:39:29.08	101.10	35.66	
2025-01-16 10:39:29.28	101.02	35.70	
2025-01-16 10:39:29.49	100.95	35.73	
2025-01-16 10:39:29.69	100.87	35.77	
2025-01-16 10:39:29.89	100.80	35.80	
2025-01-16 10:39:30.10	100.72	35.84	
2025-01-16 10:39:30.30	100.64	35.87	
2025-01-16 10:39:30.50	100.57	35.91	
2025-01-16 10:39:30.71	100.49	35.94	
2025-01-16 10:39:30.91	100.42	35.98	
2025-01-16 10:39:31.11	100.34	36.01	
2025-01-16 10:39:31.31	100.26	36.05	
2025-01-16 10:39:31.52	100.18	36.09	
2025-01-16 10:39:31.72	100.11	36.12	
2025-01-16 10:39:31.92	100.03	36.15	
2025-01-16 10:39:32.13	99.95	36.19	
2025-01-16 10:39:32.33	99.88	36.23	
2025-01-16 10:39:32.53	99.80	36.26	
2025-01-16 10:39:32.74	99.72	36.30	
2025-01-16 10:39:32.94	99.64	36.33	
2025-01-16 10:39:33.14	99.56	36.37	
2025-01-16 10:39:33.34	99.49	36.40	
2025-01-16 10:39:33.55	99.41	36.44	
2025-01-16 10:39:33.75	99.33	36.47	
2025-01-16 10:39:33.95	99.25	36.51	
2025-01-16 10:39:34.16	99.17	36.54	
2025-01-16 10:39:34.36	99.09	36.58	
2025-01-16 10:39:34.56	99.01	36.61	
2025-01-16 10:39:34.77	98.93	36.65	
2025-01-16 10:39:34.97	98.85	36.68	
2025-01-16 10:39:35.17	98.77	36.72	
2025-01-16 10:39:35.37	98.69	36.75	
2025-01-16 10:39:35.58	98.61	36.79	
2025-01-16 10:39:35.78	98.53	36.82	
2025-01-16 10:39:35.98	98.45	36.85	
2025-01-16 10:39:36.19	98.37	36.89	
2025-01-16 10:39:36.39	98.29	36.93	
2025-01-16 10:39:36.59	98.21	36.96	
2025-01-16 10:39:36.80	98.12	37.00	
2025-01-16 10:39:37.00	98.04	37.03	
2025-01-16 10:39:37.20	97.96	37.06	
2025-01-16 10:39:37.40	97.88	37.10	
2025-01-16 10:39:37.61	97.80	37.13	
2025-01-16 10:39:37.81	97.71	37.17	
2025-01-16 10:39:38.01	97.63	37.20	
2025-01-16 10:39:38.22	97.55	37.24	
2025-01-16 10:39:38.42	97.47	37.27	
2025-01-16 10:39:38.62	97.38	37.30	
2025-01-16 10:39:38.82	97.30	37.34	
2025-01-16 10:39:39.03	97.22	37.37	
2025-01-16 10:39:39.23	97.13	37.41	
2025-01-16 10:39:39.43	97.05	37.44	
2025-01-16 10:39:39.64	96.96	37.48	
2025-01-16 10:39:39.84	96.88	37.51	
2025-01-16 10:39:40.04	96.80	37.55	
2025-01-16 10:39:40.25	96.71	37.58	
2025-01-16 10:39:40.45	96.63	37.61	
2025-01-16 10:39:40.65	96.54	37.65	
2025-01-16 10:39:40.85	96.46	37.68	
2025-01-16 10:39:41.06	96.37	37.72	
2025-01-16 10:39:41.26	96.29	37.75	
2025-01-16 10:39:41.46	96.20	37.78	
2025-01-16 10:39:41.67	96.11	37.82	
2025-01-16 10:39:41.87	96.03	37.85	
2025-01-16 10:39:42.07	95.94	37.89	
2025-01-16 10:39:42.28	95.85	37.92	
2025-01-16 10:39:42.48	95.77	37.95	
2025-01-16 10:39:42.68	95.68	37.99	
2025-01-16 10:39:42.88	95.60	38.02	
2025-01-16 10:39:43.09	95.51	38.06	
2025-01-16 10:39:43.29	95.42	38.09	
2025-01-16 10:39:43.49	95.34	38.12	
2025-01-16 10:39:43.70	95.24	38.16	
2025-01-16 10:39:43.90	95.16	38.19	
2025-01-16 10:39:44.10	95.07	38.22	
2025-01-16 10:39:44.31	94.98	38.26	
2025-01-16 10:39:44.51	94.89	38.29	
2025-01-16 10:39:44.71	94.81	38.32	
2025-01-16 10:39:44.91	94.72	38.36	
2025-01-16 10:39:45.12	94.63	38.39	
2025-01-16 10:39:45.32	94.54	38.42	
2025-01-16 10:39:45.52	94.45	38.46	
2025-01-16 10:39:45.73	94.36	38.49	
2025-01-16 10:39:45.93	94.27	38.52	
2025-01-16 10:39:46.13	94.18	38.55	
2025-01-16 10:39:46.34	94.09	38.59	
2025-01-16 10:39:46.54	94.00	38.62	
2025-01-16 10:39:46.74	93.91	38.65	
2025-01-16 10:39:46.94	93.82	38.69	
2025-01-16 10:39:47.15	93.73	38.72	
2025-01-16 10:39:47.35	93.64	38.75	
2025-01-16 10:39:47.55	93.55	38.78	
2025-01-16 10:39:47.76	93.45	38.82	
2025-01-16 10:39:47.96	93.36	38.85	
2025-01-16 10:39:48.16	93.27	38.88	
2025-01-16 10:39:48.37	93.18	38.92	
2025-01-16 10:39:48.57	93.09	38.95	
2025-01-16 10:39:48.77	92.99	38.98	
2025-01-16 10:39:48.97	92.90	39.01	
2025-01-16 10:39:49.18	92.81	39.05	
2025-01-16 10:39:49.38	92.72	39.08	
2025-01-16 10:39:49.58	92.62	39.11	
2025-01-16 10:39:49.79	92.53	39.14	
2025-01-16 10:39:49.99	92.44	39.17	
2025-01-16 10:39:50.19	92.34	39.21	
2025-01-16 10:39:50.39	92.25	39.24	
2025-01-16 10:39:50.60	92.15	39.27	
2025-01-16 10:39:50.80	92.06	39.30	
2025-01-16 10:39:51.00	91.97	39.33	
2025-01-16 10:39:51.21	91.87	39.37	
2025-01-16 10:39:51.41	91.78	39.40	
2025-01-16 10:39:51.61	91.68	39.43	
2025-01-16 10:39:51.82	91.59	39.46	
2025-01-16 10:39:52.02	91.49	39.49	
2025-01-16 10:39:52.22	91.40	39.52	
2025-01-16 10:39:52.42	91.30	39.55	
2025-01-16 10:39:52.63	91.20	39.59	
2025-01-16 10:39:52.83	91.11	39.62	
2025-01-16 10:39:53.03	91.01	39.65	
2025-01-16 10:39:53.24	90.91	39.68	
2025-01-16 10:39:53.44	90.82	39.71	
2025-01-16 10:39:53.64	90.72	39.74	
2025-01-16 10:39:53.85	90.62	39.77	
2025-01-16 10:39:54.05	90.53	39.81	
2025-01-16 10:39:54.25	90.43	39.84	
2025-01-16 10:39:54.45	90.34	39.87	
2025-01-16 10:39:54.66	90.23	39.90	
2025-01-16 10:39:54.86	90.14	39.93	
2025-01-16 10:39:55.06	90.04	39.96	
2025-01-16 10:39:55.27	89.94	39.99	
2025-01-16 10:39:55.47	89.84	40.02	
2025-01-16 10:39:55.67	89.74	40.05	
2025-01-16 10:39:55.88	89.64	40.08	
2025-01-16 10:39:56.08	89.54	40.11	
2025-01-16 10:39:56.28	89.45	40.14	
2025-01-16 10:39:56.48	89.35	40.17	
2025-01-16 10:39:56.69	89.25	40.20	
2025-01-16 10:39:56.89	89.15	40.23	
2025-01-16 10:39:57.09	89.05	40.26	
2025-01-16 10:39:57.30	88.94	40.29	
2025-01-16 10:39:57.50	88.85	40.32	
2025-01-16 10:39:57.70	88.75	40.35	
2025-01-16 10:39:57.91	88.64	40.38	
2025-01-16 10:39:58.11	88.54	40.41	
2025-01-16 10:39:58.31	88.44	40.44	
2025-01-16 10:39:58.51	88.34	40.47	
2025-01-16 10:39:58.72	88.24	40.50	
2025-01-16 10:39:58.92	88.14	40.53	
2025-01-16 10:39:59.12	88.04	40.56	
2025-01-16 10:39:59.33	87.93	40.59	
2025-01-16 10:39:59.53	87.83	40.61	
2025-01-16 10:39:59.73	87.73	40.64	
2025-01-16 10:39:59.93	87.63	40.67	
2025-01-16 10:40:00.14	87.52	40.70	
2025-01-16 10:40:00.34	87.42	40.73	
2025-01-16 10:40:00.54	87.32	40.76	
2025-01-16 10:40:00.75	87.21	40.79	
2025-01-16 10:40:00.95	87.11	40.82	
2025-01-16 10:40:01.15	87.01	40.84	
2025-01-16 10:40:01.36	86.90	40.87	
2025-01-16 10:40:01.56	86.80	40.90	
2025-01-16 10:40:01.76	86.69	40.93	
2025-01-16 10:40:01.96	86.59	40.96	
2025-01-16 10:40:02.17	86.48	40.99	
2025-01-16 10:40:02.37	86.38	41.01	
2025-01-16 10:40:02.57	86.28	41.04	
2025-01-16 10:40:02.78	86.17	41.07	
2025-01-16 10:40:02.98	86.06	41.10	
2025-01-16 10:40:03.18	85.96	41.12	
2025-01-16 10:40:03.39	85.85	41.15	
2025-01-16 10:40:03.59	85.75	41.18	
2025-01-16 10:40:03.79	85.64	41.21	
2025-01-16 10:40:03.99	85.54	41.23	
2025-01-16 10:40:04.20	85.43	41.26	
2025-01-16 10:40:04.40	85.32	41.29	
2025-01-16 10:40:04.60	85.22	41.31	
2025-01-16 10:40:04.81	85.10	41.34	
2025-01-16 10:40:05.01	85.00	41.37	
2025-01-16 10:40:05.21	84.89	41.39	
2025-01-16 10:40:05.42	84.78	41.42	
2025-01-16 10:40:05.62	84.68	41.45	
2025-01-16 10:40:05.82	84.57	41.47	
2025-01-16 10:40:06.02	84.46	41.50	
2025-01-16 10:40:06.23	84.35	41.53	
2025-01-16 10:40:06.43	84.24	41.55	
2025-01-16 10:40:06.63	84.14	41.58	
2025-01-16 10:40:06.84	84.02	41.61	
2025-01-16 10:40:07.04	83.92	41.63	
2025-01-16 10:40:07.24	83.81	41.66	
2025-01-16 10:40:07.45	83.69	41.68	
2025-01-16 10:40:07.65	83.59	41.71	
2025-01-16 10:40:07.85	83.48	41.73	
2025-01-16 10:40:08.05	83.37	41.76	
2025-01-16 10:40:08.26	83.26	41.78	
2025-01-16 10:40:08.46	83.15	41.81	
2025-01-16 10:40:08.66	83.04	41.83	
2025-01-16 10:40:08.87	82.92	41.86	
2025-01-16 10:40:09.07	82.82	41.88	
2025-01-16 10:40:09.27	82.71	41.91	
2025-01-16 10:40:09.47	82.60	41.93	
2025-01-16 10:40:09.68	82.48	41.96	
2025-01-16 10:40:09.88	82.37	41.98	
2025-01-16 10:40:10.08	82.26	42.01	
2025-01-16 10:40:10.29	82.15	42.03	
2025-01-16 10:40:10.49	82.03	42.05	
2025-01-16 10:40:10.69	81.92	42.08	
2025-01-16 10:40:10.90	81.81	42.10	
2025-01-16 10:40:11.10	81.70	42.13	
2025-01-16 10:40:11.30	81.59	42.15	
2025-01-16 10:40:11.50	81.47	42.17	
2025-01-16 10:40:11.71	81.36	42.20	
2025-01-16 10:40:11.91	81.25	42.22	
2025-01-16 10:40:12.11	81.13	42.24	
2025-01-16 10:40:12.32	81.02	42.27	
2025-01-16 10:40:12.52	80.91	42.29	
2025-01-16 10:40:12.72	80.79	42.31	
2025-01-16 10:40:12.93	80.67	42.34	
2025-01-16 10:40:13.13	80.56	42.36	
2025-01-16 10:40:13.33	80.45	42.38	
2025-01-16 10:40:13.53	80.34	42.40	
2025-01-16 10:40:13.74	80.22	42.43	
2025-01-16 10:40:13.94	80.10	42.45	
2025-01-16 10:40:14.14	79.99	42.47	
2025-01-16 10:40:14.35	79.87	42.49	
2025-01-16 10:40:14.55	79.76	42.51	
2025-01-16 10:40:14.75	79.64	42.54	
2025-01-16 10:40:14.96	79.53	42.56	
2025-01-16 10:40:15.16	79.41	42.58	
2025-01-16 10:40:15.36	79.30	42.60	
2025-01-16 10:40:15.56	79.18	42.62	
2025-01-16 10:40:15.77	79.06	42.64	
2025-01-16 10:40:15.97	78.95	42.66	
2025-01-16 10:40:16.17	78.83	42.68	
2025-01-16 10:40:16.38	78.71	42.71	
2025-01-16 10:40:16.58	78.60	42.73	
2025-01-16 10:40:16.78	78.48	42.75	
2025-01-16 10:40:16.99	78.36	42.77	
2025-01-16 10:40:17.19	78.24	42.79	
2025-01-16 10:40:17.39	78.13	42.81	
2025-01-16 10:40:17.59	78.01	42.83	
2025-01-16 10:40:17.80	77.89	42.85	
2025-01-16 10:40:18.00	77.77	42.87	
2025-01-16 10:40:18.20	77.66	42.89	
2025-01-16 10:40:18.41	77.54	42.91	
2025-01-16 10:40:18.61	77.42	42.93	
2025-01-16 10:40:18.81	77.30	42.95	
2025-01-16 10:40:19.01	77.19	42.97	
2025-01-16 10:40:19.22	77.06	42.98	
2025-01-16 10:40:19.42	76.95	43.00	
2025-01-16 10:40:19.62	76.83	43.02	
2025-01-16 10:40:19.83	76.70	43.04	
2025-01-16 10:40:20.03	76.59	43.06	
2025-01-16 10:40:20.23	76.47	43.08	
2025-01-16 10:40:20.44	76.34	43.10	
2025-01-16 10:40:20.64	76.23	43.11	
2025-01-16 10:40:20.84	76.11	43.13	
2025-01-16 10:40:21.04	75.99	43.15	
2025-01-16 10:40:21.25	75.87	43.17	
2025-01-16 10:40:21.45	75.75	43.19	
2025-01-16 10:40:21.65	75.63	43.20	
2025-01-16 10:40:21.86	75.50	43.22	
2025-01-16 10:40:22.06	75.38	43.24	
2025-01-16 10:40:22.26	75.27	43.26	
2025-01-16 10:40:22.47	75.14	43.27	
2025-01-16 10:40:22.67	75.02	43.29	
2025-01-16 10:40:22.87	74.90	43.31	
2025-01-16 10:40:23.07	74.78	43.32	
2025-01-16 10:40:23.28	74.66	43.34	
2025-01-16 10:40:23.48	74.54	43.36	
2025-01-16 10:40:23.68	74.42	43.37	
2025-01-16 10:40:23.89	74.29	43.39	
2025-01-16 10:40:24.09	74.17	43.40	
2025-01-16 10:40:24.29	74.05	43.42	
2025-01-16 10:40:24.50	73.92	43.44	
2025-01-16 10:40:24.70	73.80	43.45	
2025-01-16 10:40:24.90	73.68	43.47	
2025-01-16 10:40:25.10	73.56	43.48	
2025-01-16 10:40:25.31	73.43	43.50	
2025-01-16 10:40:25.51	73.31	43.51	
2025-01-16 10:40:25.71	73.19	43.53	
2025-01-16 10:40:25.92	73.06	43.54	
2025-01-16 10:40:26.12	72.94	43.56	
2025-01-16 10:40:26.32	72.82	43.57	
2025-01-16 10:40:26.53	72.69	43.59	
2025-01-16 10:40:26.73	72.57	43.60	
2025-01-16 10:40:26.93	72.45	43.61	
2025-01-16 10:40:27.13	72.33	43.63	
2025-01-16 10:40:27.34	72.20	43.64	
2025-01-16 10:40:27.54	72.08	43.65	
2025-01-16 10:40:27.74	71.96	43.67	
2025-01-16 10:40:27.95	71.83	43.68	
2025-01-16 10:40:28.15	71.70	43.69	
2025-01-16 10:40:28.35	71.58	43.71	
2025-01-16 10:40:28.55	71.46	43.72	
2025-01-16 10:40:28.76	71.33	43.73	
2025-01-16 10:40:28.96	71.21	43.75	
2025-01-16 10:40:29.16	71.08	43.76	
2025-01-16 10:40:29.37	70.95	43.77	
2025-01-16 10:40:29.57	70.83	43.78	
2025-01-16 10:40:29.77	70.71	43.79	
2025-01-16 10:40:29.98	70.58	43.81	
2025-01-16 10:40:30.18	70.46	43.82	
2025-01-16 10:40:30.38	70.33	43.83	
2025-01-16 10:40:30.58	70.21	43.84	
2025-01-16 10:40:30.79	70.08	43.85	
2025-01-16 10:40:30.99	69.95	43.86	
2025-01-16 10:40:31.19	69.83	43.87	
2025-01-16 10:40:31.40	69.70	43.88	
2025-01-16 10:40:31.60	69.58	43.90	
2025-01-16 10:40:31.80	69.45	43.91	
2025-01-16 10:40:32.01	69.32	43.92	
2025-01-16 10:40:32.21	69.20	43.93	
2025-01-16 10:40:32.41	69.07	43.94	
2025-01-16 10:40:32.61	68.95	43.95	
2025-01-16 10:40:32.82	68.82	43.96	
2025-01-16 10:40:33.02	68.69	43.97	
2025-01-16 10:40:33.22	68.57	43.97	
2025-01-16 10:40:33.43	68.44	43.98	
2025-01-16 10:40:33.63	68.31	43.99	
2025-01-16 10:40:33.83	68.19	44.00	
2025-01-16 10:40:34.04	68.06	44.01	
2025-01-16 10:40:34.24	67.93	44.02	
