passes_logs/2025/01/16/SPB_Silybum_02/SPB_Silybum_02__20250116_083900_TERRA_rec.log

#Pass ID: 20250116_083900_TERRA
#Satellite: TERRA
#Configuration: TERRA
#Start time: 2025-01-16 08:39:00

#Version: 2.0.20230423
#Station: SPB_Silybum_02
#Location: 30.233357 lon 59.946436 lat
#TLE: 1 25994U 99068A   25015.81469206  .00000761  00000+0  16641-3 0  9994
#TLE: 2 25994  98.0214  78.8192 0003429  70.9720  38.3229 14.60396307334199

#Time	Az	El	Level	Level2	SNR	BER	Gain	Gain2
2025-01-16 08:39:02.35	15.24	4.14	
2025-01-16 08:39:02.55	15.24	4.16	
2025-01-16 08:39:02.76	15.24	4.17	
2025-01-16 08:39:02.96	15.23	4.19	
2025-01-16 08:39:03.16	15.23	4.20	
2025-01-16 08:39:03.36	15.23	4.21	
2025-01-16 08:39:03.57	15.23	4.23	
2025-01-16 08:39:03.77	15.23	4.24	
2025-01-16 08:39:03.97	15.22	4.26	
2025-01-16 08:39:04.18	15.22	4.27	
2025-01-16 08:39:04.38	15.22	4.29	
2025-01-16 08:39:04.58	15.22	4.30	
2025-01-16 08:39:04.79	15.21	4.32	
2025-01-16 08:39:04.99	15.21	4.33	
2025-01-16 08:39:05.19	15.21	4.35	
2025-01-16 08:39:05.40	15.21	4.36	
2025-01-16 08:39:05.60	15.20	4.38	
2025-01-16 08:39:05.80	15.20	4.39	
2025-01-16 08:39:06.00	15.20	4.41	
2025-01-16 08:39:06.21	15.20	4.42	
2025-01-16 08:39:06.41	15.20	4.44	
2025-01-16 08:39:06.61	15.19	4.45	
2025-01-16 08:39:06.82	15.19	4.47	
2025-01-16 08:39:07.02	15.19	4.48	
2025-01-16 08:39:07.22	15.19	4.49	
2025-01-16 08:39:07.43	15.18	4.51	
2025-01-16 08:39:07.63	15.18	4.52	
2025-01-16 08:39:07.83	15.18	4.54	
2025-01-16 08:39:08.04	15.18	4.55	
2025-01-16 08:39:08.24	15.17	4.57	
2025-01-16 08:39:08.44	15.17	4.58	
2025-01-16 08:39:08.65	15.17	4.60	
2025-01-16 08:39:08.85	15.17	4.61	
2025-01-16 08:39:09.05	15.17	4.63	
2025-01-16 08:39:09.25	15.16	4.64	
2025-01-16 08:39:09.46	15.16	4.66	
2025-01-16 08:39:09.66	15.16	4.67	
2025-01-16 08:39:09.86	15.16	4.69	
2025-01-16 08:39:10.07	15.15	4.70	
2025-01-16 08:39:10.27	15.15	4.72	
2025-01-16 08:39:10.47	15.15	4.73	
2025-01-16 08:39:10.68	15.15	4.75	
2025-01-16 08:39:10.88	15.14	4.76	
2025-01-16 08:39:11.08	15.14	4.78	
2025-01-16 08:39:11.29	15.14	4.79	
2025-01-16 08:39:11.49	15.14	4.81	
2025-01-16 08:39:11.69	15.13	4.82	
2025-01-16 08:39:11.90	15.13	4.84	
2025-01-16 08:39:12.10	15.13	4.85	
2025-01-16 08:39:12.30	15.13	4.87	
2025-01-16 08:39:12.50	15.12	4.88	
2025-01-16 08:39:12.71	15.12	4.90	
2025-01-16 08:39:12.91	15.12	4.91	
2025-01-16 08:39:13.11	15.12	4.93	
2025-01-16 08:39:13.32	15.11	4.94	
2025-01-16 08:39:13.52	15.11	4.96	
2025-01-16 08:39:13.72	15.11	4.97	
2025-01-16 08:39:13.93	15.11	4.99	
2025-01-16 08:39:14.13	15.10	5.00	
2025-01-16 08:39:14.33	15.10	5.02	
2025-01-16 08:39:14.54	15.10	5.03	
2025-01-16 08:39:14.74	15.10	5.05	
2025-01-16 08:39:14.94	15.09	5.06	
2025-01-16 08:39:15.14	15.09	5.08	
2025-01-16 08:39:15.35	15.09	5.09	
2025-01-16 08:39:15.55	15.09	5.11	
2025-01-16 08:39:15.75	15.08	5.12	
2025-01-16 08:39:15.96	15.08	5.14	
2025-01-16 08:39:16.16	15.08	5.15	
2025-01-16 08:39:16.36	15.08	5.17	
2025-01-16 08:39:16.57	15.07	5.18	
2025-01-16 08:39:16.77	15.07	5.20	
2025-01-16 08:39:16.97	15.07	5.21	
2025-01-16 08:39:17.18	15.07	5.23	
2025-01-16 08:39:17.38	15.06	5.24	
2025-01-16 08:39:17.58	15.06	5.26	
2025-01-16 08:39:17.79	15.06	5.28	
2025-01-16 08:39:17.99	15.06	5.29	
2025-01-16 08:39:18.19	15.05	5.31	
2025-01-16 08:39:18.39	15.05	5.32	
2025-01-16 08:39:18.60	15.05	5.34	
2025-01-16 08:39:18.80	15.05	5.35	
2025-01-16 08:39:19.00	15.04	5.37	
2025-01-16 08:39:19.21	15.04	5.38	
2025-01-16 08:39:19.41	15.04	5.40	
2025-01-16 08:39:19.61	15.04	5.41	
2025-01-16 08:39:19.82	15.03	5.43	
2025-01-16 08:39:20.02	15.03	5.44	
2025-01-16 08:39:20.22	15.03	5.46	
2025-01-16 08:39:20.43	15.03	5.47	
2025-01-16 08:39:20.63	15.02	5.49	
2025-01-16 08:39:20.83	15.02	5.50	
2025-01-16 08:39:21.03	15.02	5.52	
2025-01-16 08:39:21.24	15.02	5.54	
2025-01-16 08:39:21.44	15.01	5.55	
2025-01-16 08:39:21.64	15.01	5.57	
2025-01-16 08:39:21.85	15.01	5.58	
2025-01-16 08:39:22.05	15.01	5.60	
2025-01-16 08:39:22.25	15.00	5.61	
2025-01-16 08:39:22.46	15.00	5.63	
2025-01-16 08:39:22.66	15.00	5.64	
2025-01-16 08:39:22.86	15.00	5.66	
2025-01-16 08:39:23.07	14.99	5.68	
2025-01-16 08:39:23.27	14.99	5.69	
2025-01-16 08:39:23.47	14.99	5.71	
2025-01-16 08:39:23.68	14.98	5.72	
2025-01-16 08:39:23.88	14.98	5.74	
2025-01-16 08:39:24.08	14.98	5.75	
2025-01-16 08:39:24.28	14.98	5.77	
2025-01-16 08:39:24.49	14.97	5.78	
2025-01-16 08:39:24.69	14.97	5.80	
2025-01-16 08:39:24.89	14.97	5.81	
2025-01-16 08:39:25.10	14.97	5.83	
2025-01-16 08:39:25.30	14.96	5.85	
2025-01-16 08:39:25.50	14.96	5.86	
2025-01-16 08:39:25.71	14.96	5.88	
2025-01-16 08:39:25.91	14.96	5.89	
2025-01-16 08:39:26.11	14.95	5.91	
2025-01-16 08:39:26.32	14.95	5.93	
2025-01-16 08:39:26.52	14.95	5.94	
2025-01-16 08:39:26.72	14.94	5.96	
2025-01-16 08:39:26.93	14.94	5.97	
2025-01-16 08:39:27.13	14.94	5.99	
2025-01-16 08:39:27.33	14.94	6.00	
2025-01-16 08:39:27.53	14.93	6.02	
2025-01-16 08:39:27.74	14.93	6.03	
2025-01-16 08:39:27.94	14.93	6.05	
2025-01-16 08:39:28.14	14.93	6.07	
2025-01-16 08:39:28.35	14.92	6.08	
2025-01-16 08:39:28.55	14.92	6.10	
2025-01-16 08:39:28.75	14.92	6.11	
2025-01-16 08:39:28.96	14.91	6.13	
2025-01-16 08:39:29.16	14.91	6.15	
2025-01-16 08:39:29.36	14.91	6.16	
2025-01-16 08:39:29.57	14.91	6.18	
2025-01-16 08:39:29.77	14.90	6.19	
2025-01-16 08:39:29.97	14.90	6.21	
2025-01-16 08:39:30.17	14.90	6.22	
2025-01-16 08:39:30.38	14.90	6.24	
2025-01-16 08:39:30.58	14.89	6.26	
2025-01-16 08:39:30.78	14.89	6.27	
2025-01-16 08:39:30.99	14.89	6.29	
2025-01-16 08:39:31.19	14.88	6.30	
2025-01-16 08:39:31.39	14.88	6.32	
2025-01-16 08:39:31.60	14.88	6.34	
2025-01-16 08:39:31.80	14.88	6.35	
2025-01-16 08:39:32.00	14.87	6.37	
2025-01-16 08:39:32.21	14.87	6.38	
2025-01-16 08:39:32.41	14.87	6.40	
2025-01-16 08:39:32.61	14.86	6.42	
2025-01-16 08:39:32.82	14.86	6.43	
2025-01-16 08:39:33.02	14.86	6.45	
2025-01-16 08:39:33.22	14.86	6.46	
2025-01-16 08:39:33.42	14.85	6.48	
2025-01-16 08:39:33.63	14.85	6.50	
2025-01-16 08:39:33.83	14.85	6.51	
2025-01-16 08:39:34.03	14.84	6.53	
2025-01-16 08:39:34.24	14.84	6.54	
2025-01-16 08:39:34.44	14.84	6.56	
2025-01-16 08:39:34.64	14.84	6.58	
2025-01-16 08:39:34.85	14.83	6.59	
2025-01-16 08:39:35.05	14.83	6.61	
2025-01-16 08:39:35.25	14.83	6.62	
2025-01-16 08:39:35.46	14.82	6.64	
2025-01-16 08:39:35.66	14.82	6.66	
2025-01-16 08:39:35.86	14.82	6.67	
2025-01-16 08:39:36.07	14.82	6.69	
2025-01-16 08:39:36.27	14.81	6.71	
2025-01-16 08:39:36.47	14.81	6.72	
2025-01-16 08:39:36.67	14.81	6.74	
2025-01-16 08:39:36.88	14.80	6.75	
2025-01-16 08:39:37.08	14.80	6.77	
2025-01-16 08:39:37.28	14.80	6.79	
2025-01-16 08:39:37.49	14.79	6.80	
2025-01-16 08:39:37.69	14.79	6.82	
2025-01-16 08:39:37.89	14.79	6.84	
2025-01-16 08:39:38.10	14.79	6.85	
2025-01-16 08:39:38.30	14.78	6.87	
2025-01-16 08:39:38.50	14.78	6.88	
2025-01-16 08:39:38.71	14.78	6.90	
2025-01-16 08:39:38.91	14.77	6.92	
2025-01-16 08:39:39.11	14.77	6.93	
2025-01-16 08:39:39.31	14.77	6.95	
2025-01-16 08:39:39.52	14.77	6.97	
2025-01-16 08:39:39.72	14.76	6.98	
2025-01-16 08:39:39.92	14.76	7.00	
2025-01-16 08:39:40.13	14.76	7.02	
2025-01-16 08:39:40.33	14.75	7.03	
2025-01-16 08:39:40.53	14.75	7.05	
2025-01-16 08:39:40.74	14.75	7.07	
2025-01-16 08:39:40.94	14.74	7.08	
2025-01-16 08:39:41.14	14.74	7.10	
2025-01-16 08:39:41.35	14.74	7.11	
2025-01-16 08:39:41.55	14.74	7.13	
2025-01-16 08:39:41.75	14.73	7.15	
2025-01-16 08:39:41.96	14.73	7.16	
2025-01-16 08:39:42.16	14.73	7.18	
2025-01-16 08:39:42.36	14.72	7.20	
2025-01-16 08:39:42.56	14.72	7.21	
2025-01-16 08:39:42.77	14.72	7.23	
2025-01-16 08:39:42.97	14.71	7.25	
2025-01-16 08:39:43.17	14.71	7.26	
2025-01-16 08:39:43.38	14.71	7.28	
2025-01-16 08:39:43.58	14.70	7.30	
2025-01-16 08:39:43.78	14.70	7.31	
2025-01-16 08:39:43.99	14.70	7.33	
2025-01-16 08:39:44.19	14.70	7.35	
2025-01-16 08:39:44.39	14.69	7.36	
2025-01-16 08:39:44.60	14.69	7.38	
2025-01-16 08:39:44.80	14.69	7.40	
2025-01-16 08:39:45.00	14.68	7.41	
2025-01-16 08:39:45.21	14.68	7.43	
2025-01-16 08:39:45.41	14.68	7.45	
2025-01-16 08:39:45.61	14.67	7.46	
2025-01-16 08:39:45.81	14.67	7.48	
2025-01-16 08:39:46.02	14.67	7.50	
2025-01-16 08:39:46.22	14.66	7.51	
2025-01-16 08:39:46.42	14.66	7.53	
2025-01-16 08:39:46.63	14.66	7.55	
2025-01-16 08:39:46.83	14.65	7.56	
2025-01-16 08:39:47.03	14.65	7.58	
2025-01-16 08:39:47.24	14.65	7.60	
2025-01-16 08:39:47.44	14.65	7.62	
2025-01-16 08:39:47.64	14.64	7.63	
2025-01-16 08:39:47.85	14.64	7.65	
2025-01-16 08:39:48.05	14.64	7.67	
2025-01-16 08:39:48.25	14.63	7.68	
2025-01-16 08:39:48.45	14.63	7.70	
2025-01-16 08:39:48.66	14.63	7.72	
2025-01-16 08:39:48.86	14.62	7.73	
2025-01-16 08:39:49.06	14.62	7.75	
2025-01-16 08:39:49.27	14.62	7.77	
2025-01-16 08:39:49.47	14.61	7.78	
2025-01-16 08:39:49.67	14.61	7.80	
2025-01-16 08:39:49.88	14.61	7.82	
2025-01-16 08:39:50.08	14.60	7.84	
2025-01-16 08:39:50.28	14.60	7.85	
2025-01-16 08:39:50.49	14.60	7.87	
2025-01-16 08:39:50.69	14.59	7.89	
2025-01-16 08:39:50.89	14.59	7.90	
2025-01-16 08:39:51.10	14.59	7.92	
2025-01-16 08:39:51.30	14.58	7.94	
2025-01-16 08:39:51.50	14.58	7.95	
2025-01-16 08:39:51.70	14.58	7.97	
2025-01-16 08:39:51.91	14.57	7.99	
2025-01-16 08:39:52.11	14.57	8.01	
2025-01-16 08:39:52.31	14.57	8.02	
2025-01-16 08:39:52.52	14.56	8.04	
2025-01-16 08:39:52.72	14.56	8.06	
2025-01-16 08:39:52.92	14.56	8.07	
2025-01-16 08:39:53.13	14.55	8.09	
2025-01-16 08:39:53.33	14.55	8.11	
2025-01-16 08:39:53.53	14.55	8.13	
2025-01-16 08:39:53.74	14.54	8.14	
2025-01-16 08:39:53.94	14.54	8.16	
2025-01-16 08:39:54.14	14.54	8.18	
2025-01-16 08:39:54.35	14.53	8.20	
2025-01-16 08:39:54.55	14.53	8.21	
2025-01-16 08:39:54.75	14.53	8.23	
2025-01-16 08:39:54.95	14.52	8.25	
2025-01-16 08:39:55.16	14.52	8.26	
2025-01-16 08:39:55.36	14.52	8.28	
2025-01-16 08:39:55.56	14.51	8.30	
2025-01-16 08:39:55.77	14.51	8.32	
2025-01-16 08:39:55.97	14.51	8.33	
2025-01-16 08:39:56.17	14.50	8.35	
2025-01-16 08:39:56.38	14.50	8.37	
2025-01-16 08:39:56.58	14.50	8.39	
2025-01-16 08:39:56.78	14.49	8.40	
2025-01-16 08:39:56.99	14.49	8.42	
2025-01-16 08:39:57.19	14.49	8.44	
2025-01-16 08:39:57.39	14.48	8.46	
2025-01-16 08:39:57.59	14.48	8.47	
2025-01-16 08:39:57.80	14.48	8.49	
2025-01-16 08:39:58.00	14.47	8.51	
2025-01-16 08:39:58.20	14.47	8.53	
2025-01-16 08:39:58.41	14.47	8.54	
2025-01-16 08:39:58.61	14.46	8.56	
2025-01-16 08:39:58.81	14.46	8.58	
2025-01-16 08:39:59.02	14.46	8.60	
2025-01-16 08:39:59.22	14.45	8.61	
2025-01-16 08:39:59.42	14.45	8.63	
2025-01-16 08:39:59.63	14.45	8.65	
2025-01-16 08:39:59.83	14.44	8.67	
2025-01-16 08:40:00.03	14.44	8.68	
2025-01-16 08:40:00.24	14.43	8.70	
2025-01-16 08:40:00.44	14.43	8.72	
2025-01-16 08:40:00.64	14.43	8.74	
2025-01-16 08:40:00.84	14.42	8.76	
2025-01-16 08:40:01.05	14.42	8.77	
2025-01-16 08:40:01.25	14.42	8.79	
2025-01-16 08:40:01.45	14.41	8.81	
2025-01-16 08:40:01.66	14.41	8.83	
2025-01-16 08:40:01.86	14.41	8.84	
2025-01-16 08:40:02.06	14.40	8.86	
2025-01-16 08:40:02.27	14.40	8.88	
2025-01-16 08:40:02.47	14.40	8.90	
2025-01-16 08:40:02.67	14.39	8.92	
2025-01-16 08:40:02.88	14.39	8.93	
2025-01-16 08:40:03.08	14.38	8.95	
2025-01-16 08:40:03.28	14.38	8.97	
2025-01-16 08:40:03.48	14.38	8.99	
2025-01-16 08:40:03.69	14.37	9.01	
2025-01-16 08:40:03.89	14.37	9.02	
2025-01-16 08:40:04.09	14.37	9.04	
2025-01-16 08:40:04.30	14.36	9.06	
2025-01-16 08:40:04.50	14.36	9.08	
2025-01-16 08:40:04.70	14.36	9.09	
2025-01-16 08:40:04.91	14.35	9.11	
2025-01-16 08:40:05.11	14.35	9.13	
2025-01-16 08:40:05.31	14.34	9.15	
2025-01-16 08:40:05.52	14.34	9.17	
2025-01-16 08:40:05.72	14.34	9.18	
2025-01-16 08:40:05.92	14.33	9.20	
2025-01-16 08:40:06.13	14.33	9.22	
2025-01-16 08:40:06.33	14.33	9.24	
2025-01-16 08:40:06.53	14.32	9.26	
2025-01-16 08:40:06.73	14.32	9.27	
2025-01-16 08:40:06.94	14.32	9.29	
2025-01-16 08:40:07.14	14.31	9.31	
2025-01-16 08:40:07.34	14.31	9.33	
2025-01-16 08:40:07.55	14.30	9.35	
2025-01-16 08:40:07.75	14.30	9.37	
2025-01-16 08:40:07.95	14.30	9.38	
2025-01-16 08:40:08.16	14.29	9.40	
2025-01-16 08:40:08.36	14.29	9.42	
2025-01-16 08:40:08.56	14.29	9.44	
2025-01-16 08:40:08.77	14.28	9.46	
2025-01-16 08:40:08.97	14.28	9.48	
2025-01-16 08:40:09.17	14.27	9.49	
2025-01-16 08:40:09.38	14.27	9.51	
2025-01-16 08:40:09.58	14.27	9.53	
2025-01-16 08:40:09.78	14.26	9.55	
2025-01-16 08:40:09.98	14.26	9.57	
2025-01-16 08:40:10.19	14.26	9.59	
2025-01-16 08:40:10.39	14.25	9.60	
2025-01-16 08:40:10.59	14.25	9.62	
2025-01-16 08:40:10.80	14.24	9.64	
2025-01-16 08:40:11.00	14.24	9.66	
2025-01-16 08:40:11.20	14.24	9.68	
2025-01-16 08:40:11.41	14.23	9.70	
2025-01-16 08:40:11.61	14.23	9.71	
2025-01-16 08:40:11.81	14.22	9.73	
2025-01-16 08:40:12.02	14.22	9.75	
2025-01-16 08:40:12.22	14.22	9.77	
2025-01-16 08:40:12.42	14.21	9.79	
2025-01-16 08:40:12.62	14.21	9.81	
2025-01-16 08:40:12.83	14.21	9.83	
2025-01-16 08:40:13.03	14.20	9.84	
2025-01-16 08:40:13.23	14.20	9.86	
2025-01-16 08:40:13.44	14.19	9.88	
2025-01-16 08:40:13.64	14.19	9.90	
2025-01-16 08:40:13.84	14.19	9.92	
2025-01-16 08:40:14.05	14.18	9.94	
2025-01-16 08:40:14.25	14.18	9.96	
2025-01-16 08:40:14.45	14.17	9.97	
2025-01-16 08:40:14.66	14.17	9.99	
2025-01-16 08:40:14.86	14.17	10.01	
2025-01-16 08:40:15.06	14.16	10.03	
2025-01-16 08:40:15.27	14.16	10.05	
2025-01-16 08:40:15.47	14.15	10.07	
2025-01-16 08:40:15.67	14.15	10.09	
2025-01-16 08:40:15.87	14.15	10.11	
2025-01-16 08:40:16.08	14.14	10.13	
2025-01-16 08:40:16.28	14.14	10.14	
2025-01-16 08:40:16.48	14.13	10.16	
2025-01-16 08:40:16.69	14.13	10.18	
2025-01-16 08:40:16.89	14.13	10.20	
2025-01-16 08:40:17.09	14.12	10.22	
2025-01-16 08:40:17.30	14.12	10.24	
2025-01-16 08:40:17.50	14.11	10.26	
2025-01-16 08:40:17.70	14.11	10.28	
2025-01-16 08:40:17.91	14.11	10.30	
2025-01-16 08:40:18.11	14.10	10.31	
2025-01-16 08:40:18.31	14.10	10.33	
2025-01-16 08:40:18.52	14.09	10.35	
2025-01-16 08:40:18.72	14.09	10.37	
2025-01-16 08:40:18.92	14.09	10.39	
2025-01-16 08:40:19.12	14.08	10.41	
2025-01-16 08:40:19.33	14.08	10.43	
2025-01-16 08:40:19.53	14.07	10.45	
2025-01-16 08:40:19.73	14.07	10.47	
2025-01-16 08:40:19.94	14.06	10.49	
2025-01-16 08:40:20.14	14.06	10.50	
2025-01-16 08:40:20.34	14.06	10.52	
2025-01-16 08:40:20.55	14.05	10.54	
2025-01-16 08:40:20.75	14.05	10.56	
2025-01-16 08:40:20.95	14.04	10.58	
2025-01-16 08:40:21.16	14.04	10.60	
2025-01-16 08:40:21.36	14.04	10.62	
2025-01-16 08:40:21.56	14.03	10.64	
2025-01-16 08:40:21.76	14.03	10.66	
2025-01-16 08:40:21.97	14.02	10.68	
2025-01-16 08:40:22.17	14.02	10.70	
2025-01-16 08:40:22.37	14.01	10.72	
2025-01-16 08:40:22.58	14.01	10.74	
2025-01-16 08:40:22.78	14.01	10.75	
2025-01-16 08:40:22.98	14.00	10.77	
2025-01-16 08:40:23.19	14.00	10.79	
2025-01-16 08:40:23.39	13.99	10.81	
2025-01-16 08:40:23.59	13.99	10.83	
2025-01-16 08:40:23.80	13.99	10.85	
2025-01-16 08:40:24.00	13.98	10.87	
2025-01-16 08:40:24.20	13.98	10.89	
2025-01-16 08:40:24.41	13.97	10.91	
2025-01-16 08:40:24.61	13.97	10.93	
2025-01-16 08:40:24.81	13.96	10.95	
2025-01-16 08:40:25.01	13.96	10.97	
2025-01-16 08:40:25.22	13.96	10.99	
2025-01-16 08:40:25.42	13.95	11.01	
2025-01-16 08:40:25.62	13.95	11.03	
2025-01-16 08:40:25.83	13.94	11.05	
2025-01-16 08:40:26.03	13.94	11.07	
2025-01-16 08:40:26.23	13.93	11.09	
2025-01-16 08:40:26.44	13.93	11.11	
2025-01-16 08:40:26.64	13.92	11.13	
2025-01-16 08:40:26.84	13.92	11.15	
2025-01-16 08:40:27.05	13.92	11.17	
2025-01-16 08:40:27.25	13.91	11.19	
2025-01-16 08:40:27.45	13.91	11.20	
2025-01-16 08:40:27.66	13.90	11.23	
2025-01-16 08:40:27.86	13.90	11.24	
2025-01-16 08:40:28.06	13.89	11.26	
2025-01-16 08:40:28.26	13.89	11.28	
2025-01-16 08:40:28.47	13.89	11.30	
2025-01-16 08:40:28.67	13.88	11.32	
2025-01-16 08:40:28.87	13.88	11.34	
2025-01-16 08:40:29.08	13.87	11.36	
2025-01-16 08:40:29.28	13.87	11.38	
2025-01-16 08:40:29.48	13.86	11.40	
2025-01-16 08:40:29.69	13.86	11.42	
2025-01-16 08:40:29.89	13.85	11.44	
2025-01-16 08:40:30.09	13.85	11.46	
2025-01-16 08:40:30.30	13.84	11.48	
2025-01-16 08:40:30.50	13.84	11.50	
2025-01-16 08:40:30.70	13.84	11.52	
2025-01-16 08:40:30.90	13.83	11.54	
2025-01-16 08:40:31.11	13.83	11.56	
2025-01-16 08:40:31.31	13.82	11.58	
2025-01-16 08:40:31.51	13.82	11.60	
2025-01-16 08:40:31.72	13.81	11.62	
2025-01-16 08:40:31.92	13.81	11.64	
2025-01-16 08:40:32.12	13.80	11.66	
2025-01-16 08:40:32.33	13.80	11.68	
2025-01-16 08:40:32.53	13.79	11.70	
2025-01-16 08:40:32.73	13.79	11.72	
2025-01-16 08:40:32.94	13.79	11.75	
2025-01-16 08:40:33.14	13.78	11.77	
2025-01-16 08:40:33.34	13.78	11.79	
2025-01-16 08:40:33.55	13.77	11.81	
2025-01-16 08:40:33.75	13.77	11.83	
2025-01-16 08:40:33.95	13.76	11.85	
2025-01-16 08:40:34.15	13.76	11.87	
2025-01-16 08:40:34.36	13.75	11.89	
2025-01-16 08:40:34.56	13.75	11.91	
2025-01-16 08:40:34.76	13.74	11.93	
2025-01-16 08:40:34.97	13.74	11.95	
2025-01-16 08:40:35.17	13.73	11.97	
2025-01-16 08:40:35.37	13.73	11.99	
2025-01-16 08:40:35.58	13.72	12.01	
2025-01-16 08:40:35.78	13.72	12.03	
2025-01-16 08:40:35.98	13.72	12.05	
2025-01-16 08:40:36.19	13.71	12.07	
2025-01-16 08:40:36.39	13.71	12.09	
2025-01-16 08:40:36.59	13.70	12.11	
2025-01-16 08:40:36.79	13.70	12.13	
2025-01-16 08:40:37.00	13.69	12.15	
2025-01-16 08:40:37.20	13.69	12.17	
2025-01-16 08:40:37.40	13.68	12.19	
2025-01-16 08:40:37.61	13.68	12.22	
2025-01-16 08:40:37.81	13.67	12.24	
2025-01-16 08:40:38.01	13.67	12.26	
2025-01-16 08:40:38.22	13.66	12.28	
2025-01-16 08:40:38.42	13.66	12.30	
2025-01-16 08:40:38.62	13.65	12.32	
2025-01-16 08:40:38.83	13.65	12.34	
2025-01-16 08:40:39.03	13.64	12.36	
2025-01-16 08:40:39.23	13.64	12.38	
2025-01-16 08:40:39.44	13.63	12.40	
2025-01-16 08:40:39.64	13.63	12.42	
2025-01-16 08:40:39.84	13.62	12.44	
2025-01-16 08:40:40.04	13.62	12.46	
2025-01-16 08:40:40.25	13.61	12.49	
2025-01-16 08:40:40.45	13.61	12.51	
2025-01-16 08:40:40.65	13.60	12.53	
2025-01-16 08:40:40.86	13.60	12.55	
2025-01-16 08:40:41.06	13.59	12.57	
2025-01-16 08:40:41.26	13.59	12.59	
2025-01-16 08:40:41.47	13.58	12.61	
2025-01-16 08:40:41.67	13.58	12.63	
2025-01-16 08:40:41.87	13.57	12.65	
2025-01-16 08:40:42.08	13.57	12.68	
2025-01-16 08:40:42.28	13.56	12.70	
2025-01-16 08:40:42.48	13.56	12.72	
2025-01-16 08:40:42.69	13.55	12.74	
2025-01-16 08:40:42.89	13.55	12.76	
2025-01-16 08:40:43.09	13.54	12.78	
2025-01-16 08:40:43.29	13.54	12.80	
2025-01-16 08:40:43.50	13.53	12.82	
2025-01-16 08:40:43.70	13.53	12.84	
2025-01-16 08:40:43.90	13.52	12.87	
2025-01-16 08:40:44.11	13.52	12.89	
2025-01-16 08:40:44.31	13.51	12.91	
2025-01-16 08:40:44.51	13.51	12.93	
2025-01-16 08:40:44.72	13.50	12.95	
2025-01-16 08:40:44.92	13.50	12.97	
2025-01-16 08:40:45.12	13.49	12.99	
2025-01-16 08:40:45.33	13.49	13.02	
2025-01-16 08:40:45.53	13.48	13.04	
2025-01-16 08:40:45.73	13.48	13.06	
2025-01-16 08:40:45.93	13.47	13.08	
2025-01-16 08:40:46.14	13.47	13.10	
2025-01-16 08:40:46.34	13.46	13.12	
2025-01-16 08:40:46.54	13.46	13.14	
2025-01-16 08:40:46.75	13.45	13.17	
2025-01-16 08:40:46.95	13.45	13.19	
2025-01-16 08:40:47.15	13.44	13.21	
2025-01-16 08:40:47.36	13.44	13.23	
2025-01-16 08:40:47.56	13.43	13.25	
2025-01-16 08:40:47.76	13.43	13.27	
2025-01-16 08:40:47.97	13.42	13.30	
2025-01-16 08:40:48.17	13.42	13.32	
2025-01-16 08:40:48.37	13.41	13.34	
2025-01-16 08:40:48.58	13.41	13.36	
2025-01-16 08:40:48.78	13.40	13.38	
2025-01-16 08:40:48.98	13.39	13.40	
2025-01-16 08:40:49.18	13.39	13.43	
2025-01-16 08:40:49.39	13.38	13.45	
2025-01-16 08:40:49.59	13.38	13.47	
2025-01-16 08:40:49.79	13.37	13.49	
2025-01-16 08:40:50.00	13.37	13.51	
2025-01-16 08:40:50.20	13.36	13.54	
2025-01-16 08:40:50.40	13.36	13.56	
2025-01-16 08:40:50.61	13.35	13.58	
2025-01-16 08:40:50.81	13.35	13.60	
2025-01-16 08:40:51.01	13.34	13.62	
2025-01-16 08:40:51.22	13.34	13.65	
2025-01-16 08:40:51.42	13.33	13.67	
2025-01-16 08:40:51.62	13.33	13.69	
2025-01-16 08:40:51.83	13.32	13.71	
2025-01-16 08:40:52.03	13.31	13.73	
2025-01-16 08:40:52.23	13.31	13.76	
2025-01-16 08:40:52.43	13.30	13.78	
2025-01-16 08:40:52.64	13.30	13.80	
2025-01-16 08:40:52.84	13.29	13.82	
2025-01-16 08:40:53.04	13.29	13.84	
2025-01-16 08:40:53.25	13.28	13.87	
2025-01-16 08:40:53.45	13.28	13.89	
2025-01-16 08:40:53.65	13.27	13.91	
2025-01-16 08:40:53.86	13.26	13.93	
2025-01-16 08:40:54.06	13.26	13.96	
2025-01-16 08:40:54.26	13.25	13.98	
2025-01-16 08:40:54.47	13.25	14.00	
2025-01-16 08:40:54.67	13.24	14.02	
2025-01-16 08:40:54.87	13.24	14.05	
2025-01-16 08:40:55.07	13.23	14.07	
2025-01-16 08:40:55.28	13.23	14.09	
2025-01-16 08:40:55.48	13.22	14.11	
2025-01-16 08:40:55.68	13.21	14.14	
2025-01-16 08:40:55.89	13.21	14.16	
2025-01-16 08:40:56.09	13.20	14.18	
2025-01-16 08:40:56.29	13.20	14.20	
2025-01-16 08:40:56.50	13.19	14.23	
2025-01-16 08:40:56.70	13.19	14.25	
2025-01-16 08:40:56.90	13.18	14.27	
2025-01-16 08:40:57.11	13.17	14.29	
2025-01-16 08:40:57.31	13.17	14.32	
2025-01-16 08:40:57.51	13.16	14.34	
2025-01-16 08:40:57.72	13.16	14.36	
2025-01-16 08:40:57.92	13.15	14.39	
2025-01-16 08:40:58.12	13.15	14.41	
2025-01-16 08:40:58.32	13.14	14.43	
2025-01-16 08:40:58.53	13.13	14.45	
2025-01-16 08:40:58.73	13.13	14.48	
2025-01-16 08:40:58.93	13.12	14.50	
2025-01-16 08:40:59.14	13.12	14.52	
2025-01-16 08:40:59.34	13.11	14.54	
2025-01-16 08:40:59.54	13.11	14.57	
2025-01-16 08:40:59.75	13.10	14.59	
2025-01-16 08:40:59.95	13.09	14.61	
2025-01-16 08:41:00.15	13.09	14.64	
2025-01-16 08:41:00.36	13.08	14.66	
2025-01-16 08:41:00.56	13.08	14.68	
2025-01-16 08:41:00.76	13.07	14.71	
2025-01-16 08:41:00.97	13.06	14.73	
2025-01-16 08:41:01.17	13.06	14.75	
2025-01-16 08:41:01.37	13.05	14.78	
2025-01-16 08:41:01.57	13.05	14.80	
2025-01-16 08:41:01.78	13.04	14.82	
2025-01-16 08:41:01.98	13.03	14.85	
2025-01-16 08:41:02.18	13.03	14.87	
2025-01-16 08:41:02.39	13.02	14.89	
2025-01-16 08:41:02.59	13.02	14.92	
2025-01-16 08:41:02.79	13.01	14.94	
2025-01-16 08:41:03.00	13.00	14.96	
2025-01-16 08:41:03.20	13.00	14.99	
2025-01-16 08:41:03.40	12.99	15.01	
2025-01-16 08:41:03.61	12.99	15.03	
2025-01-16 08:41:03.81	12.98	15.06	
2025-01-16 08:41:04.01	12.97	15.08	
2025-01-16 08:41:04.21	12.97	15.10	
2025-01-16 08:41:04.42	12.96	15.13	
2025-01-16 08:41:04.62	12.96	15.15	
2025-01-16 08:41:04.82	12.95	15.17	
2025-01-16 08:41:05.03	12.94	15.20	
2025-01-16 08:41:05.23	12.94	15.22	
2025-01-16 08:41:05.43	12.93	15.24	
2025-01-16 08:41:05.64	12.92	15.27	
2025-01-16 08:41:05.84	12.92	15.29	
2025-01-16 08:41:06.04	12.91	15.32	
2025-01-16 08:41:06.25	12.91	15.34	
2025-01-16 08:41:06.45	12.90	15.36	
2025-01-16 08:41:06.65	12.89	15.39	
2025-01-16 08:41:06.86	12.89	15.41	
2025-01-16 08:41:07.06	12.88	15.43	
2025-01-16 08:41:07.26	12.88	15.46	
2025-01-16 08:41:07.46	12.87	15.48	
2025-01-16 08:41:07.67	12.86	15.51	
2025-01-16 08:41:07.87	12.86	15.53	
2025-01-16 08:41:08.07	12.85	15.55	
2025-01-16 08:41:08.28	12.84	15.58	
2025-01-16 08:41:08.48	12.84	15.60	
2025-01-16 08:41:08.68	12.83	15.63	
2025-01-16 08:41:08.89	12.82	15.65	
2025-01-16 08:41:09.09	12.82	15.67	
2025-01-16 08:41:09.29	12.81	15.70	
2025-01-16 08:41:09.50	12.81	15.72	
2025-01-16 08:41:09.70	12.80	15.75	
2025-01-16 08:41:09.90	12.79	15.77	
2025-01-16 08:41:10.10	12.79	15.80	
2025-01-16 08:41:10.31	12.78	15.82	
2025-01-16 08:41:10.51	12.77	15.84	
2025-01-16 08:41:10.71	12.77	15.87	
2025-01-16 08:41:10.92	12.76	15.89	
2025-01-16 08:41:11.12	12.75	15.92	
2025-01-16 08:41:11.32	12.75	15.94	
2025-01-16 08:41:11.53	12.74	15.97	
2025-01-16 08:41:11.73	12.73	15.99	
2025-01-16 08:41:11.93	12.73	16.01	
2025-01-16 08:41:12.14	12.72	16.04	
2025-01-16 08:41:12.34	12.71	16.06	
2025-01-16 08:41:12.54	12.71	16.09	
2025-01-16 08:41:12.75	12.70	16.11	
2025-01-16 08:41:12.95	12.69	16.14	
2025-01-16 08:41:13.15	12.69	16.16	
2025-01-16 08:41:13.35	12.68	16.19	
2025-01-16 08:41:13.56	12.67	16.21	
2025-01-16 08:41:13.76	12.67	16.24	
2025-01-16 08:41:13.96	12.66	16.26	
2025-01-16 08:41:14.17	12.65	16.29	
2025-01-16 08:41:14.37	12.65	16.31	
2025-01-16 08:41:14.57	12.64	16.34	
2025-01-16 08:41:14.78	12.63	16.36	
2025-01-16 08:41:14.98	12.63	16.39	
2025-01-16 08:41:15.18	12.62	16.41	
2025-01-16 08:41:15.39	12.61	16.44	
2025-01-16 08:41:15.59	12.61	16.46	
2025-01-16 08:41:15.79	12.60	16.49	
2025-01-16 08:41:16.00	12.59	16.51	
2025-01-16 08:41:16.20	12.59	16.54	
2025-01-16 08:41:16.40	12.58	16.56	
2025-01-16 08:41:16.60	12.57	16.59	
2025-01-16 08:41:16.81	12.57	16.61	
2025-01-16 08:41:17.01	12.56	16.64	
2025-01-16 08:41:17.21	12.55	16.66	
2025-01-16 08:41:17.42	12.55	16.69	
2025-01-16 08:41:17.62	12.54	16.71	
2025-01-16 08:41:17.82	12.53	16.74	
2025-01-16 08:41:18.03	12.52	16.76	
2025-01-16 08:41:18.23	12.52	16.79	
2025-01-16 08:41:18.43	12.51	16.81	
2025-01-16 08:41:18.64	12.50	16.84	
2025-01-16 08:41:18.84	12.50	16.86	
2025-01-16 08:41:19.04	12.49	16.89	
2025-01-16 08:41:19.24	12.48	16.91	
2025-01-16 08:41:19.45	12.48	16.94	
2025-01-16 08:41:19.65	12.47	16.97	
2025-01-16 08:41:19.85	12.46	16.99	
2025-01-16 08:41:20.06	12.45	17.02	
2025-01-16 08:41:20.26	12.45	17.04	
2025-01-16 08:41:20.46	12.44	17.07	
2025-01-16 08:41:20.67	12.43	17.10	
2025-01-16 08:41:20.87	12.43	17.12	
2025-01-16 08:41:21.07	12.42	17.15	
2025-01-16 08:41:21.28	12.41	17.17	
2025-01-16 08:41:21.48	12.40	17.20	
2025-01-16 08:41:21.68	12.40	17.22	
2025-01-16 08:41:21.89	12.39	17.25	
2025-01-16 08:41:22.09	12.38	17.28	
2025-01-16 08:41:22.29	12.38	17.30	
2025-01-16 08:41:22.49	12.37	17.33	
2025-01-16 08:41:22.70	12.36	17.35	
2025-01-16 08:41:22.90	12.35	17.38	
2025-01-16 08:41:23.10	12.35	17.41	
2025-01-16 08:41:23.31	12.34	17.43	
2025-01-16 08:41:23.51	12.33	17.46	
2025-01-16 08:41:23.71	12.32	17.48	
2025-01-16 08:41:23.92	12.32	17.51	
2025-01-16 08:41:24.12	12.31	17.54	
2025-01-16 08:41:24.32	12.30	17.56	
2025-01-16 08:41:24.53	12.29	17.59	
2025-01-16 08:41:24.73	12.29	17.62	
2025-01-16 08:41:24.93	12.28	17.64	
2025-01-16 08:41:25.14	12.27	17.67	
2025-01-16 08:41:25.34	12.26	17.69	
2025-01-16 08:41:25.54	12.26	17.72	
2025-01-16 08:41:25.74	12.25	17.75	
2025-01-16 08:41:25.95	12.24	17.77	
2025-01-16 08:41:26.15	12.23	17.80	
2025-01-16 08:41:26.35	12.23	17.83	
2025-01-16 08:41:26.56	12.22	17.85	
2025-01-16 08:41:26.76	12.21	17.88	
2025-01-16 08:41:26.96	12.20	17.91	
2025-01-16 08:41:27.17	12.20	17.93	
2025-01-16 08:41:27.37	12.19	17.96	
2025-01-16 08:41:27.57	12.18	17.99	
2025-01-16 08:41:27.78	12.17	18.01	
2025-01-16 08:41:27.98	12.17	18.04	
2025-01-16 08:41:28.18	12.16	18.07	
2025-01-16 08:41:28.38	12.15	18.09	
2025-01-16 08:41:28.59	12.14	18.12	
2025-01-16 08:41:28.79	12.14	18.15	
2025-01-16 08:41:28.99	12.13	18.17	
2025-01-16 08:41:29.20	12.12	18.20	
2025-01-16 08:41:29.40	12.11	18.23	
2025-01-16 08:41:29.60	12.10	18.26	
2025-01-16 08:41:29.81	12.10	18.28	
2025-01-16 08:41:30.01	12.09	18.31	
2025-01-16 08:41:30.21	12.08	18.34	
2025-01-16 08:41:30.42	12.07	18.36	
2025-01-16 08:41:30.62	12.06	18.39	
2025-01-16 08:41:30.82	12.06	18.42	
2025-01-16 08:41:31.03	12.05	18.45	
2025-01-16 08:41:31.23	12.04	18.47	
2025-01-16 08:41:31.43	12.03	18.50	
2025-01-16 08:41:31.63	12.03	18.53	
2025-01-16 08:41:31.84	12.02	18.56	
2025-01-16 08:41:32.04	12.01	18.58	
2025-01-16 08:41:32.24	12.00	18.61	
2025-01-16 08:41:32.45	11.99	18.64	
2025-01-16 08:41:32.65	11.99	18.67	
2025-01-16 08:41:32.85	11.98	18.69	
2025-01-16 08:41:33.06	11.97	18.72	
2025-01-16 08:41:33.26	11.96	18.75	
2025-01-16 08:41:33.46	11.95	18.78	
2025-01-16 08:41:33.67	11.94	18.80	
2025-01-16 08:41:33.87	11.94	18.83	
2025-01-16 08:41:34.07	11.93	18.86	
2025-01-16 08:41:34.28	11.92	18.89	
2025-01-16 08:41:34.48	11.91	18.91	
2025-01-16 08:41:34.68	11.90	18.94	
2025-01-16 08:41:34.88	11.90	18.97	
2025-01-16 08:41:35.09	11.89	19.00	
2025-01-16 08:41:35.29	11.88	19.03	
2025-01-16 08:41:35.49	11.87	19.05	
2025-01-16 08:41:35.70	11.86	19.08	
2025-01-16 08:41:35.90	11.85	19.11	
2025-01-16 08:41:36.10	11.85	19.14	
2025-01-16 08:41:36.31	11.84	19.17	
2025-01-16 08:41:36.51	11.83	19.19	
2025-01-16 08:41:36.71	11.82	19.22	
2025-01-16 08:41:36.92	11.81	19.25	
2025-01-16 08:41:37.12	11.80	19.28	
2025-01-16 08:41:37.32	11.79	19.31	
2025-01-16 08:41:37.52	11.79	19.34	
2025-01-16 08:41:37.73	11.78	19.36	
2025-01-16 08:41:37.93	11.77	19.39	
2025-01-16 08:41:38.13	11.76	19.42	
2025-01-16 08:41:38.34	11.75	19.45	
2025-01-16 08:41:38.54	11.74	19.48	
2025-01-16 08:41:38.74	11.74	19.51	
2025-01-16 08:41:38.95	11.73	19.54	
2025-01-16 08:41:39.15	11.72	19.56	
2025-01-16 08:41:39.35	11.71	19.59	
2025-01-16 08:41:39.56	11.70	19.62	
2025-01-16 08:41:39.76	11.69	19.65	
2025-01-16 08:41:39.96	11.68	19.68	
2025-01-16 08:41:40.17	11.67	19.71	
2025-01-16 08:41:40.37	11.67	19.74	
2025-01-16 08:41:40.57	11.66	19.77	
2025-01-16 08:41:40.77	11.65	19.79	
2025-01-16 08:41:40.98	11.64	19.82	
2025-01-16 08:41:41.18	11.63	19.85	
2025-01-16 08:41:41.38	11.62	19.88	
2025-01-16 08:41:41.59	11.61	19.91	
2025-01-16 08:41:41.79	11.60	19.94	
2025-01-16 08:41:41.99	11.60	19.97	
2025-01-16 08:41:42.20	11.59	20.00	
2025-01-16 08:41:42.40	11.58	20.03	
2025-01-16 08:41:42.60	11.57	20.06	
2025-01-16 08:41:42.81	11.56	20.09	
2025-01-16 08:41:43.01	11.55	20.12	
2025-01-16 08:41:43.21	11.54	20.14	
2025-01-16 08:41:43.41	11.53	20.17	
2025-01-16 08:41:43.62	11.52	20.20	
2025-01-16 08:41:43.82	11.51	20.23	
2025-01-16 08:41:44.02	11.51	20.26	
2025-01-16 08:41:44.23	11.50	20.29	
2025-01-16 08:41:44.43	11.49	20.32	
2025-01-16 08:41:44.63	11.48	20.35	
2025-01-16 08:41:44.84	11.47	20.38	
2025-01-16 08:41:45.04	11.46	20.41	
2025-01-16 08:41:45.24	11.45	20.44	
2025-01-16 08:41:45.45	11.44	20.47	
2025-01-16 08:41:45.65	11.43	20.50	
2025-01-16 08:41:45.85	11.42	20.53	
2025-01-16 08:41:46.06	11.41	20.56	
2025-01-16 08:41:46.26	11.40	20.59	
2025-01-16 08:41:46.46	11.39	20.62	
2025-01-16 08:41:46.66	11.39	20.65	
2025-01-16 08:41:46.87	11.38	20.68	
2025-01-16 08:41:47.07	11.37	20.71	
2025-01-16 08:41:47.27	11.36	20.74	
2025-01-16 08:41:47.48	11.35	20.77	
2025-01-16 08:41:47.68	11.34	20.80	
2025-01-16 08:41:47.88	11.33	20.83	
2025-01-16 08:41:48.09	11.32	20.86	
2025-01-16 08:41:48.29	11.31	20.89	
2025-01-16 08:41:48.49	11.30	20.92	
2025-01-16 08:41:48.70	11.29	20.95	
2025-01-16 08:41:48.90	11.28	20.98	
2025-01-16 08:41:49.10	11.27	21.01	
2025-01-16 08:41:49.31	11.26	21.04	
2025-01-16 08:41:49.51	11.25	21.07	
2025-01-16 08:41:49.71	11.24	21.10	
2025-01-16 08:41:49.91	11.23	21.13	
2025-01-16 08:41:50.12	11.22	21.17	
2025-01-16 08:41:50.32	11.21	21.20	
2025-01-16 08:41:50.52	11.20	21.23	
2025-01-16 08:41:50.73	11.19	21.26	
2025-01-16 08:41:50.93	11.18	21.29	
2025-01-16 08:41:51.13	11.17	21.32	
2025-01-16 08:41:51.34	11.16	21.35	
2025-01-16 08:41:51.54	11.15	21.38	
2025-01-16 08:41:51.74	11.14	21.41	
2025-01-16 08:41:51.95	11.13	21.44	
2025-01-16 08:41:52.15	11.12	21.47	
2025-01-16 08:41:52.35	11.11	21.50	
2025-01-16 08:41:52.55	11.11	21.54	
2025-01-16 08:41:52.76	11.09	21.57	
2025-01-16 08:41:52.96	11.08	21.60	
2025-01-16 08:41:53.16	11.07	21.63	
2025-01-16 08:41:53.37	11.06	21.66	
2025-01-16 08:41:53.57	11.05	21.69	
2025-01-16 08:41:53.77	11.04	21.72	
2025-01-16 08:41:53.98	11.03	21.76	
2025-01-16 08:41:54.18	11.02	21.79	
2025-01-16 08:41:54.38	11.01	21.82	
2025-01-16 08:41:54.59	11.00	21.85	
2025-01-16 08:41:54.79	10.99	21.88	
2025-01-16 08:41:54.99	10.98	21.91	
2025-01-16 08:41:55.20	10.97	21.95	
2025-01-16 08:41:55.40	10.96	21.98	
2025-01-16 08:41:55.60	10.95	22.01	
2025-01-16 08:41:55.80	10.94	22.04	
2025-01-16 08:41:56.01	10.93	22.07	
2025-01-16 08:41:56.21	10.92	22.10	
2025-01-16 08:41:56.41	10.91	22.13	
2025-01-16 08:41:56.62	10.90	22.17	
2025-01-16 08:41:56.82	10.89	22.20	
2025-01-16 08:41:57.02	10.88	22.23	
2025-01-16 08:41:57.23	10.87	22.26	
2025-01-16 08:41:57.43	10.86	22.30	
2025-01-16 08:41:57.63	10.85	22.33	
2025-01-16 08:41:57.84	10.84	22.36	
2025-01-16 08:41:58.04	10.83	22.39	
2025-01-16 08:41:58.24	10.82	22.42	
2025-01-16 08:41:58.45	10.80	22.46	
2025-01-16 08:41:58.65	10.79	22.49	
2025-01-16 08:41:58.85	10.78	22.52	
2025-01-16 08:41:59.05	10.77	22.55	
2025-01-16 08:41:59.26	10.76	22.59	
2025-01-16 08:41:59.46	10.75	22.62	
2025-01-16 08:41:59.66	10.74	22.65	
2025-01-16 08:41:59.87	10.73	22.69	
2025-01-16 08:42:00.07	10.72	22.72	
2025-01-16 08:42:00.27	10.71	22.75	
2025-01-16 08:42:00.48	10.70	22.78	
2025-01-16 08:42:00.68	10.69	22.82	
2025-01-16 08:42:00.88	10.68	22.85	
2025-01-16 08:42:01.09	10.66	22.88	
2025-01-16 08:42:01.29	10.65	22.92	
2025-01-16 08:42:01.49	10.64	22.95	
2025-01-16 08:42:01.69	10.63	22.98	
2025-01-16 08:42:01.90	10.62	23.01	
2025-01-16 08:42:02.10	10.61	23.05	
2025-01-16 08:42:02.30	10.60	23.08	
2025-01-16 08:42:02.51	10.59	23.11	
2025-01-16 08:42:02.71	10.58	23.15	
2025-01-16 08:42:02.91	10.56	23.18	
2025-01-16 08:42:03.12	10.55	23.21	
2025-01-16 08:42:03.32	10.54	23.25	
2025-01-16 08:42:03.52	10.53	23.28	
2025-01-16 08:42:03.73	10.52	23.31	
2025-01-16 08:42:03.93	10.51	23.35	
2025-01-16 08:42:04.13	10.50	23.38	
2025-01-16 08:42:04.34	10.48	23.42	
2025-01-16 08:42:04.54	10.47	23.45	
2025-01-16 08:42:04.74	10.46	23.48	
2025-01-16 08:42:04.94	10.45	23.52	
2025-01-16 08:42:05.15	10.44	23.55	
2025-01-16 08:42:05.35	10.43	23.58	
2025-01-16 08:42:05.55	10.42	23.62	
2025-01-16 08:42:05.76	10.40	23.65	
2025-01-16 08:42:05.96	10.39	23.69	
2025-01-16 08:42:06.16	10.38	23.72	
2025-01-16 08:42:06.37	10.37	23.75	
2025-01-16 08:42:06.57	10.36	23.79	
2025-01-16 08:42:06.77	10.35	23.82	
2025-01-16 08:42:06.98	10.33	23.86	
2025-01-16 08:42:07.18	10.32	23.89	
2025-01-16 08:42:07.38	10.31	23.93	
2025-01-16 08:42:07.59	10.30	23.96	
2025-01-16 08:42:07.79	10.29	23.99	
2025-01-16 08:42:07.99	10.27	24.03	
2025-01-16 08:42:08.19	10.26	24.06	
2025-01-16 08:42:08.40	10.25	24.10	
2025-01-16 08:42:08.60	10.24	24.13	
2025-01-16 08:42:08.80	10.23	24.17	
2025-01-16 08:42:09.01	10.21	24.20	
2025-01-16 08:42:09.21	10.20	24.24	
2025-01-16 08:42:09.41	10.19	24.27	
2025-01-16 08:42:09.62	10.18	24.31	
2025-01-16 08:42:09.82	10.17	24.34	
2025-01-16 08:42:10.02	10.15	24.38	
2025-01-16 08:42:10.23	10.14	24.41	
2025-01-16 08:42:10.43	10.13	24.45	
2025-01-16 08:42:10.63	10.12	24.48	
2025-01-16 08:42:10.83	10.10	24.52	
2025-01-16 08:42:11.04	10.09	24.55	
2025-01-16 08:42:11.24	10.08	24.59	
2025-01-16 08:42:11.44	10.07	24.62	
2025-01-16 08:42:11.65	10.05	24.66	
2025-01-16 08:42:11.85	10.04	24.69	
2025-01-16 08:42:12.05	10.03	24.73	
2025-01-16 08:42:12.26	10.02	24.77	
2025-01-16 08:42:12.46	10.00	24.80	
2025-01-16 08:42:12.66	9.99	24.84	
2025-01-16 08:42:12.87	9.98	24.87	
2025-01-16 08:42:13.07	9.97	24.91	
2025-01-16 08:42:13.27	9.95	24.94	
2025-01-16 08:42:13.48	9.94	24.98	
2025-01-16 08:42:13.68	9.93	25.02	
2025-01-16 08:42:13.88	9.91	25.05	
2025-01-16 08:42:14.08	9.90	25.09	
2025-01-16 08:42:14.29	9.89	25.12	
2025-01-16 08:42:14.49	9.88	25.16	
2025-01-16 08:42:14.69	9.86	25.20	
2025-01-16 08:42:14.90	9.85	25.23	
2025-01-16 08:42:15.10	9.84	25.27	
2025-01-16 08:42:15.30	9.82	25.30	
2025-01-16 08:42:15.51	9.81	25.34	
2025-01-16 08:42:15.71	9.80	25.38	
2025-01-16 08:42:15.91	9.78	25.41	
2025-01-16 08:42:16.12	9.77	25.45	
2025-01-16 08:42:16.32	9.76	25.49	
2025-01-16 08:42:16.52	9.75	25.52	
2025-01-16 08:42:16.72	9.73	25.56	
2025-01-16 08:42:16.93	9.72	25.60	
2025-01-16 08:42:17.13	9.71	25.63	
2025-01-16 08:42:17.33	9.69	25.67	
2025-01-16 08:42:17.54	9.68	25.71	
2025-01-16 08:42:17.74	9.66	25.74	
2025-01-16 08:42:17.94	9.65	25.78	
2025-01-16 08:42:18.15	9.64	25.82	
2025-01-16 08:42:18.35	9.62	25.86	
2025-01-16 08:42:18.55	9.61	25.89	
2025-01-16 08:42:18.76	9.60	25.93	
2025-01-16 08:42:18.96	9.58	25.97	
2025-01-16 08:42:19.16	9.57	26.00	
2025-01-16 08:42:19.37	9.56	26.04	
2025-01-16 08:42:19.57	9.54	26.08	
2025-01-16 08:42:19.77	9.53	26.12	
2025-01-16 08:42:19.97	9.51	26.15	
2025-01-16 08:42:20.18	9.50	26.19	
2025-01-16 08:42:20.38	9.49	26.23	
2025-01-16 08:42:20.58	9.47	26.27	
2025-01-16 08:42:20.79	9.46	26.31	
2025-01-16 08:42:20.99	9.44	26.34	
2025-01-16 08:42:21.19	9.43	26.38	
2025-01-16 08:42:21.40	9.42	26.42	
2025-01-16 08:42:21.60	9.40	26.46	
2025-01-16 08:42:21.80	9.39	26.49	
2025-01-16 08:42:22.01	9.37	26.53	
2025-01-16 08:42:22.21	9.36	26.57	
2025-01-16 08:42:22.41	9.35	26.61	
2025-01-16 08:42:22.62	9.33	26.65	
2025-01-16 08:42:22.82	9.32	26.69	
2025-01-16 08:42:23.02	9.30	26.72	
2025-01-16 08:42:23.22	9.29	26.76	
2025-01-16 08:42:23.43	9.27	26.80	
2025-01-16 08:42:23.63	9.26	26.84	
2025-01-16 08:42:23.83	9.24	26.88	
2025-01-16 08:42:24.04	9.23	26.92	
2025-01-16 08:42:24.24	9.22	26.96	
2025-01-16 08:42:24.44	9.20	26.99	
2025-01-16 08:42:24.65	9.19	27.03	
2025-01-16 08:42:24.85	9.17	27.07	
2025-01-16 08:42:25.05	9.16	27.11	
2025-01-16 08:42:25.26	9.14	27.15	
2025-01-16 08:42:25.46	9.13	27.19	
2025-01-16 08:42:25.66	9.11	27.23	
2025-01-16 08:42:25.86	9.10	27.27	
2025-01-16 08:42:26.07	9.08	27.31	
2025-01-16 08:42:26.27	9.07	27.35	
2025-01-16 08:42:26.47	9.05	27.39	
2025-01-16 08:42:26.68	9.04	27.43	
2025-01-16 08:42:26.88	9.02	27.46	
2025-01-16 08:42:27.08	9.01	27.50	
2025-01-16 08:42:27.29	8.99	27.54	
2025-01-16 08:42:27.49	8.98	27.58	
2025-01-16 08:42:27.69	8.96	27.62	
2025-01-16 08:42:27.90	8.94	27.66	
2025-01-16 08:42:28.10	8.93	27.70	
2025-01-16 08:42:28.30	8.91	27.74	
2025-01-16 08:42:28.51	8.90	27.78	
2025-01-16 08:42:28.71	8.88	27.82	
2025-01-16 08:42:28.91	8.87	27.86	
2025-01-16 08:42:29.11	8.85	27.90	
2025-01-16 08:42:29.32	8.84	27.94	
2025-01-16 08:42:29.52	8.82	27.98	
2025-01-16 08:42:29.72	8.81	28.02	
2025-01-16 08:42:29.93	8.79	28.07	
2025-01-16 08:42:30.13	8.77	28.10	
2025-01-16 08:42:30.33	8.76	28.14	
2025-01-16 08:42:30.54	8.74	28.19	
2025-01-16 08:42:30.74	8.73	28.23	
2025-01-16 08:42:30.94	8.71	28.27	
2025-01-16 08:42:31.15	8.69	28.31	
2025-01-16 08:42:31.35	8.68	28.35	
2025-01-16 08:42:31.55	8.66	28.39	
2025-01-16 08:42:31.76	8.64	28.43	
2025-01-16 08:42:31.96	8.63	28.47	
2025-01-16 08:42:32.16	8.61	28.51	
2025-01-16 08:42:32.36	8.60	28.55	
2025-01-16 08:42:32.57	8.58	28.60	
2025-01-16 08:42:32.77	8.56	28.64	
2025-01-16 08:42:32.97	8.55	28.68	
2025-01-16 08:42:33.18	8.53	28.72	
2025-01-16 08:42:33.38	8.51	28.76	
2025-01-16 08:42:33.58	8.50	28.80	
2025-01-16 08:42:33.79	8.48	28.84	
2025-01-16 08:42:33.99	8.46	28.89	
2025-01-16 08:42:34.19	8.45	28.93	
2025-01-16 08:42:34.40	8.43	28.97	
2025-01-16 08:42:34.60	8.41	29.01	
2025-01-16 08:42:34.80	8.40	29.05	
2025-01-16 08:42:35.00	8.38	29.09	
2025-01-16 08:42:35.21	8.36	29.14	
2025-01-16 08:42:35.41	8.35	29.18	
2025-01-16 08:42:35.61	8.33	29.22	
2025-01-16 08:42:35.82	8.31	29.26	
2025-01-16 08:42:36.02	8.29	29.31	
2025-01-16 08:42:36.22	8.28	29.35	
2025-01-16 08:42:36.43	8.26	29.39	
2025-01-16 08:42:36.63	8.24	29.43	
2025-01-16 08:42:36.83	8.23	29.47	
2025-01-16 08:42:37.04	8.21	29.52	
2025-01-16 08:42:37.24	8.19	29.56	
2025-01-16 08:42:37.44	8.17	29.60	
2025-01-16 08:42:37.65	8.16	29.65	
2025-01-16 08:42:37.85	8.14	29.69	
2025-01-16 08:42:38.05	8.12	29.73	
2025-01-16 08:42:38.25	8.10	29.77	
2025-01-16 08:42:38.46	8.09	29.82	
2025-01-16 08:42:38.66	8.07	29.86	
2025-01-16 08:42:38.86	8.05	29.90	
2025-01-16 08:42:39.07	8.03	29.95	
2025-01-16 08:42:39.27	8.01	29.99	
2025-01-16 08:42:39.47	8.00	30.03	
2025-01-16 08:42:39.68	7.98	30.08	
2025-01-16 08:42:39.88	7.96	30.12	
2025-01-16 08:42:40.08	7.94	30.16	
2025-01-16 08:42:40.29	7.92	30.21	
2025-01-16 08:42:40.49	7.90	30.25	
2025-01-16 08:42:40.69	7.89	30.30	
2025-01-16 08:42:40.90	7.87	30.34	
2025-01-16 08:42:41.10	7.85	30.38	
2025-01-16 08:42:41.30	7.83	30.43	
2025-01-16 08:42:41.50	7.81	30.47	
2025-01-16 08:42:41.71	7.79	30.52	
2025-01-16 08:42:41.91	7.78	30.56	
2025-01-16 08:42:42.11	7.76	30.60	
2025-01-16 08:42:42.32	7.74	30.65	
2025-01-16 08:42:42.52	7.72	30.69	
2025-01-16 08:42:42.72	7.70	30.74	
2025-01-16 08:42:42.93	7.68	30.78	
2025-01-16 08:42:43.13	7.66	30.83	
2025-01-16 08:42:43.33	7.64	30.87	
2025-01-16 08:42:43.54	7.62	30.92	
2025-01-16 08:42:43.74	7.61	30.96	
2025-01-16 08:42:43.94	7.59	31.01	
2025-01-16 08:42:44.14	7.57	31.05	
2025-01-16 08:42:44.35	7.55	31.10	
2025-01-16 08:42:44.55	7.53	31.14	
2025-01-16 08:42:44.75	7.51	31.19	
2025-01-16 08:42:44.96	7.49	31.23	
2025-01-16 08:42:45.16	7.47	31.28	
2025-01-16 08:42:45.36	7.45	31.32	
2025-01-16 08:42:45.57	7.43	31.37	
2025-01-16 08:42:45.77	7.41	31.41	
2025-01-16 08:42:45.97	7.39	31.46	
2025-01-16 08:42:46.18	7.37	31.51	
2025-01-16 08:42:46.38	7.35	31.55	
2025-01-16 08:42:46.58	7.33	31.60	
2025-01-16 08:42:46.79	7.31	31.64	
2025-01-16 08:42:46.99	7.29	31.69	
2025-01-16 08:42:47.19	7.27	31.73	
2025-01-16 08:42:47.39	7.25	31.78	
2025-01-16 08:42:47.60	7.23	31.83	
2025-01-16 08:42:47.80	7.21	31.87	
2025-01-16 08:42:48.00	7.19	31.92	
2025-01-16 08:42:48.21	7.17	31.97	
2025-01-16 08:42:48.41	7.15	32.01	
2025-01-16 08:42:48.61	7.13	32.06	
2025-01-16 08:42:48.82	7.11	32.11	
2025-01-16 08:42:49.02	7.09	32.15	
2025-01-16 08:42:49.22	7.07	32.20	
2025-01-16 08:42:49.43	7.04	32.25	
2025-01-16 08:42:49.63	7.02	32.29	
2025-01-16 08:42:49.83	7.00	32.34	
2025-01-16 08:42:50.03	6.98	32.39	
2025-01-16 08:42:50.24	6.96	32.43	
2025-01-16 08:42:50.44	6.94	32.48	
2025-01-16 08:42:50.64	6.92	32.53	
2025-01-16 08:42:50.85	6.90	32.58	
2025-01-16 08:42:51.05	6.88	32.62	
2025-01-16 08:42:51.25	6.85	32.67	
2025-01-16 08:42:51.46	6.83	32.72	
2025-01-16 08:42:51.66	6.81	32.77	
2025-01-16 08:42:51.86	6.79	32.81	
2025-01-16 08:42:52.07	6.77	32.86	
2025-01-16 08:42:52.27	6.75	32.91	
2025-01-16 08:42:52.47	6.72	32.96	
2025-01-16 08:42:52.68	6.70	33.01	
2025-01-16 08:42:52.88	6.68	33.06	
2025-01-16 08:42:53.08	6.66	33.10	
2025-01-16 08:42:53.28	6.64	33.15	
2025-01-16 08:42:53.49	6.61	33.20	
2025-01-16 08:42:53.69	6.59	33.25	
2025-01-16 08:42:53.89	6.57	33.30	
2025-01-16 08:42:54.10	6.55	33.35	
2025-01-16 08:42:54.30	6.52	33.39	
2025-01-16 08:42:54.50	6.50	33.44	
2025-01-16 08:42:54.71	6.48	33.49	
2025-01-16 08:42:54.91	6.46	33.54	
2025-01-16 08:42:55.11	6.43	33.59	
2025-01-16 08:42:55.32	6.41	33.64	
2025-01-16 08:42:55.52	6.39	33.69	
2025-01-16 08:42:55.72	6.37	33.74	
2025-01-16 08:42:55.93	6.34	33.79	
2025-01-16 08:42:56.13	6.32	33.84	
2025-01-16 08:42:56.33	6.30	33.89	
2025-01-16 08:42:56.53	6.27	33.93	
2025-01-16 08:42:56.74	6.25	33.99	
2025-01-16 08:42:56.94	6.23	34.03	
2025-01-16 08:42:57.14	6.20	34.08	
2025-01-16 08:42:57.35	6.18	34.13	
2025-01-16 08:42:57.55	6.16	34.18	
2025-01-16 08:42:57.75	6.13	34.23	
2025-01-16 08:42:57.96	6.11	34.29	
2025-01-16 08:42:58.16	6.08	34.33	
2025-01-16 08:42:58.36	6.06	34.38	
2025-01-16 08:42:58.57	6.04	34.44	
2025-01-16 08:42:58.77	6.01	34.49	
2025-01-16 08:42:58.97	5.99	34.54	
2025-01-16 08:42:59.17	5.96	34.59	
2025-01-16 08:42:59.38	5.94	34.64	
2025-01-16 08:42:59.58	5.91	34.69	
2025-01-16 08:42:59.78	5.89	34.74	
2025-01-16 08:42:59.99	5.87	34.79	
2025-01-16 08:43:00.19	5.84	34.84	
2025-01-16 08:43:00.39	5.82	34.89	
2025-01-16 08:43:00.60	5.79	34.94	
2025-01-16 08:43:00.80	5.77	34.99	
2025-01-16 08:43:01.00	5.74	35.05	
2025-01-16 08:43:01.21	5.72	35.10	
2025-01-16 08:43:01.41	5.69	35.15	
2025-01-16 08:43:01.61	5.67	35.20	
2025-01-16 08:43:01.82	5.64	35.25	
2025-01-16 08:43:02.02	5.62	35.30	
2025-01-16 08:43:02.22	5.59	35.36	
2025-01-16 08:43:02.42	5.56	35.41	
2025-01-16 08:43:02.63	5.54	35.46	
2025-01-16 08:43:02.83	5.51	35.51	
2025-01-16 08:43:03.03	5.49	35.56	
2025-01-16 08:43:03.24	5.46	35.62	
2025-01-16 08:43:03.44	5.43	35.67	
2025-01-16 08:43:03.64	5.41	35.72	
2025-01-16 08:43:03.85	5.38	35.77	
2025-01-16 08:43:04.05	5.36	35.83	
2025-01-16 08:43:04.25	5.33	35.88	
2025-01-16 08:43:04.46	5.30	35.93	
2025-01-16 08:43:04.66	5.28	35.98	
2025-01-16 08:43:04.86	5.25	36.04	
2025-01-16 08:43:05.07	5.22	36.09	
2025-01-16 08:43:05.27	5.20	36.14	
2025-01-16 08:43:05.47	5.17	36.20	
2025-01-16 08:43:05.67	5.14	36.25	
2025-01-16 08:43:05.88	5.12	36.30	
2025-01-16 08:43:06.08	5.09	36.36	
2025-01-16 08:43:06.28	5.06	36.41	
2025-01-16 08:43:06.49	5.03	36.47	
2025-01-16 08:43:06.69	5.01	36.52	
2025-01-16 08:43:06.89	4.98	36.57	
2025-01-16 08:43:07.10	4.95	36.63	
2025-01-16 08:43:07.30	4.92	36.68	
2025-01-16 08:43:07.50	4.90	36.73	
2025-01-16 08:43:07.71	4.87	36.79	
2025-01-16 08:43:07.91	4.84	36.84	
2025-01-16 08:43:08.11	4.81	36.90	
2025-01-16 08:43:08.31	4.78	36.95	
2025-01-16 08:43:08.52	4.75	37.01	
2025-01-16 08:43:08.72	4.73	37.06	
2025-01-16 08:43:08.92	4.70	37.11	
2025-01-16 08:43:09.13	4.67	37.17	
2025-01-16 08:43:09.33	4.64	37.22	
2025-01-16 08:43:09.53	4.61	37.28	
2025-01-16 08:43:09.74	4.58	37.34	
2025-01-16 08:43:09.94	4.55	37.39	
2025-01-16 08:43:10.14	4.52	37.44	
2025-01-16 08:43:10.35	4.49	37.50	
2025-01-16 08:43:10.55	4.47	37.56	
2025-01-16 08:43:10.75	4.44	37.61	
2025-01-16 08:43:10.96	4.41	37.67	
2025-01-16 08:43:11.16	4.38	37.72	
2025-01-16 08:43:11.36	4.35	37.78	
2025-01-16 08:43:11.56	4.32	37.83	
2025-01-16 08:43:11.77	4.29	37.89	
2025-01-16 08:43:11.97	4.26	37.95	
2025-01-16 08:43:12.17	4.23	38.00	
2025-01-16 08:43:12.38	4.20	38.06	
2025-01-16 08:43:12.58	4.17	38.11	
2025-01-16 08:43:12.78	4.14	38.17	
2025-01-16 08:43:12.99	4.10	38.23	
2025-01-16 08:43:13.19	4.07	38.28	
2025-01-16 08:43:13.39	4.04	38.34	
2025-01-16 08:43:13.60	4.01	38.40	
2025-01-16 08:43:13.80	3.98	38.45	
2025-01-16 08:43:14.00	3.95	38.51	
2025-01-16 08:43:14.21	3.92	38.57	
2025-01-16 08:43:14.41	3.89	38.63	
2025-01-16 08:43:14.61	3.85	38.68	
2025-01-16 08:43:14.81	3.82	38.74	
2025-01-16 08:43:15.02	3.79	38.80	
2025-01-16 08:43:15.22	3.76	38.85	
2025-01-16 08:43:15.42	3.73	38.91	
2025-01-16 08:43:15.63	3.69	38.97	
2025-01-16 08:43:15.83	3.66	39.03	
2025-01-16 08:43:16.03	3.63	39.08	
2025-01-16 08:43:16.24	3.60	39.14	
2025-01-16 08:43:16.44	3.56	39.20	
2025-01-16 08:43:16.64	3.53	39.26	
2025-01-16 08:43:16.85	3.50	39.32	
2025-01-16 08:43:17.05	3.47	39.38	
2025-01-16 08:43:17.25	3.43	39.43	
2025-01-16 08:43:17.45	3.40	39.49	
2025-01-16 08:43:17.66	3.37	39.55	
2025-01-16 08:43:17.86	3.33	39.61	
2025-01-16 08:43:18.06	3.30	39.67	
2025-01-16 08:43:18.27	3.27	39.73	
2025-01-16 08:43:18.47	3.23	39.79	
2025-01-16 08:43:18.67	3.20	39.84	
2025-01-16 08:43:18.88	3.16	39.91	
2025-01-16 08:43:19.08	3.13	39.96	
2025-01-16 08:43:19.28	3.10	40.02	
2025-01-16 08:43:19.49	3.06	40.08	
2025-01-16 08:43:19.69	3.03	40.14	
2025-01-16 08:43:19.89	2.99	40.20	
2025-01-16 08:43:20.10	2.96	40.26	
2025-01-16 08:43:20.30	2.92	40.32	
2025-01-16 08:43:20.50	2.89	40.38	
2025-01-16 08:43:20.70	2.85	40.44	
2025-01-16 08:43:20.91	2.81	40.50	
2025-01-16 08:43:21.11	2.78	40.56	
2025-01-16 08:43:21.31	2.74	40.62	
2025-01-16 08:43:21.52	2.71	40.68	
2025-01-16 08:43:21.72	2.67	40.74	
2025-01-16 08:43:21.92	2.64	40.80	
2025-01-16 08:43:22.13	2.60	40.87	
2025-01-16 08:43:22.33	2.56	40.92	
2025-01-16 08:43:22.53	2.53	40.98	
2025-01-16 08:43:22.74	2.49	41.05	
2025-01-16 08:43:22.94	2.45	41.11	
2025-01-16 08:43:23.14	2.42	41.17	
2025-01-16 08:43:23.34	2.38	41.23	
2025-01-16 08:43:23.55	2.34	41.29	
2025-01-16 08:43:23.75	2.30	41.35	
2025-01-16 08:43:23.95	2.27	41.41	
2025-01-16 08:43:24.16	2.23	41.48	
2025-01-16 08:43:24.36	2.19	41.54	
2025-01-16 08:43:24.56	2.15	41.60	
2025-01-16 08:43:24.77	2.11	41.66	
2025-01-16 08:43:24.97	2.08	41.72	
2025-01-16 08:43:25.17	2.04	41.78	
2025-01-16 08:43:25.38	2.00	41.85	
2025-01-16 08:43:25.58	1.96	41.91	
2025-01-16 08:43:25.78	1.92	41.97	
2025-01-16 08:43:25.99	1.88	42.04	
2025-01-16 08:43:26.19	1.84	42.10	
2025-01-16 08:43:26.39	1.80	42.16	
2025-01-16 08:43:26.59	1.76	42.22	
2025-01-16 08:43:26.80	1.72	42.29	
2025-01-16 08:43:27.00	1.68	42.35	
2025-01-16 08:43:27.20	1.64	42.41	
2025-01-16 08:43:27.41	1.60	42.48	
2025-01-16 08:43:27.61	1.56	42.54	
2025-01-16 08:43:27.81	1.52	42.60	
2025-01-16 08:43:28.02	1.48	42.67	
2025-01-16 08:43:28.22	1.44	42.73	
2025-01-16 08:43:28.42	1.40	42.79	
2025-01-16 08:43:28.63	1.36	42.86	
2025-01-16 08:43:28.83	1.32	42.92	
2025-01-16 08:43:29.03	1.27	42.98	
2025-01-16 08:43:29.24	1.23	43.05	
2025-01-16 08:43:29.44	1.19	43.11	
2025-01-16 08:43:29.64	1.15	43.18	
2025-01-16 08:43:29.84	1.11	43.24	
2025-01-16 08:43:30.05	1.06	43.31	
2025-01-16 08:43:30.25	1.02	43.37	
2025-01-16 08:43:30.45	0.98	43.43	
2025-01-16 08:43:30.66	0.93	43.50	
2025-01-16 08:43:30.86	0.89	43.56	
2025-01-16 08:43:31.06	0.85	43.63	
2025-01-16 08:43:31.27	0.80	43.69	
2025-01-16 08:43:31.47	0.76	43.76	
2025-01-16 08:43:31.67	0.72	43.82	
2025-01-16 08:43:31.88	0.67	43.89	
2025-01-16 08:43:32.08	0.63	43.95	
2025-01-16 08:43:32.28	0.58	44.02	
2025-01-16 08:43:32.48	0.54	44.08	
2025-01-16 08:43:32.69	0.49	44.15	
2025-01-16 08:43:32.89	0.45	44.22	
2025-01-16 08:43:33.09	0.41	44.28	
2025-01-16 08:43:33.30	0.36	44.35	
2025-01-16 08:43:33.50	0.31	44.41	
2025-01-16 08:43:33.70	0.27	44.48	
2025-01-16 08:43:33.91	0.22	44.55	
2025-01-16 08:43:34.11	0.18	44.61	
2025-01-16 08:43:34.31	0.13	44.68	
2025-01-16 08:43:34.52	0.08	44.75	
2025-01-16 08:43:34.72	0.03	44.81	
2025-01-16 08:43:34.92	359.99	44.88	
2025-01-16 08:43:35.13	359.94	44.95	
2025-01-16 08:43:35.33	359.89	45.01	
2025-01-16 08:43:35.53	359.85	45.08	
2025-01-16 08:43:35.73	359.80	45.15	
2025-01-16 08:43:35.94	359.75	45.22	
2025-01-16 08:43:36.14	359.70	45.28	
2025-01-16 08:43:36.34	359.65	45.35	
2025-01-16 08:43:36.55	359.60	45.42	
2025-01-16 08:43:36.75	359.56	45.48	
2025-01-16 08:43:36.95	359.51	45.55	
2025-01-16 08:43:37.16	359.46	45.62	
2025-01-16 08:43:37.36	359.41	45.69	
2025-01-16 08:43:37.56	359.36	45.75	
2025-01-16 08:43:37.77	359.31	45.83	
2025-01-16 08:43:37.97	359.26	45.89	
2025-01-16 08:43:38.17	359.21	45.96	
2025-01-16 08:43:38.38	359.16	46.03	
2025-01-16 08:43:38.58	359.10	46.10	
2025-01-16 08:43:38.78	359.05	46.17	
2025-01-16 08:43:38.98	359.00	46.23	
2025-01-16 08:43:39.19	358.95	46.30	
2025-01-16 08:43:39.39	358.90	46.37	
2025-01-16 08:43:39.59	358.85	46.44	
2025-01-16 08:43:39.80	358.79	46.51	
2025-01-16 08:43:40.00	358.74	46.58	
2025-01-16 08:43:40.20	358.69	46.65	
2025-01-16 08:43:40.41	358.64	46.72	
2025-01-16 08:43:40.61	358.58	46.79	
2025-01-16 08:43:40.81	358.53	46.86	
2025-01-16 08:43:41.02	358.48	46.93	
2025-01-16 08:43:41.22	358.42	47.00	
2025-01-16 08:43:41.42	358.37	47.06	
2025-01-16 08:43:41.62	358.31	47.13	
2025-01-16 08:43:41.83	358.26	47.21	
2025-01-16 08:43:42.03	358.20	47.27	
2025-01-16 08:43:42.23	358.15	47.34	
2025-01-16 08:43:42.44	358.09	47.42	
2025-01-16 08:43:42.64	358.04	47.49	
2025-01-16 08:43:42.84	357.98	47.56	
2025-01-16 08:43:43.05	357.92	47.63	
2025-01-16 08:43:43.25	357.87	47.70	
2025-01-16 08:43:43.45	357.81	47.77	
2025-01-16 08:43:43.66	357.75	47.84	
2025-01-16 08:43:43.86	357.70	47.91	
2025-01-16 08:43:44.06	357.64	47.98	
2025-01-16 08:43:44.27	357.58	48.05	
2025-01-16 08:43:44.47	357.52	48.12	
2025-01-16 08:43:44.67	357.47	48.19	
2025-01-16 08:43:44.87	357.41	48.26	
2025-01-16 08:43:45.08	357.35	48.34	
2025-01-16 08:43:45.28	357.29	48.41	
2025-01-16 08:43:45.48	357.23	48.48	
2025-01-16 08:43:45.69	357.17	48.55	
2025-01-16 08:43:45.89	357.11	48.62	
2025-01-16 08:43:46.09	357.05	48.69	
2025-01-16 08:43:46.30	356.99	48.77	
2025-01-16 08:43:46.50	356.93	48.84	
2025-01-16 08:43:46.70	356.87	48.91	
2025-01-16 08:43:46.91	356.80	48.99	
2025-01-16 08:43:47.11	356.74	49.06	
2025-01-16 08:43:47.31	356.68	49.13	
2025-01-16 08:43:47.52	356.62	49.20	
2025-01-16 08:43:47.72	356.55	49.27	
2025-01-16 08:43:47.92	356.49	49.35	
2025-01-16 08:43:48.12	356.43	49.42	
2025-01-16 08:43:48.33	356.36	49.49	
2025-01-16 08:43:48.53	356.30	49.56	
2025-01-16 08:43:48.73	356.24	49.64	
2025-01-16 08:43:48.94	356.17	49.71	
2025-01-16 08:43:49.14	356.11	49.78	
2025-01-16 08:43:49.34	356.04	49.86	
2025-01-16 08:43:49.55	355.97	49.93	
2025-01-16 08:43:49.75	355.91	50.00	
2025-01-16 08:43:49.95	355.84	50.08	
2025-01-16 08:43:50.16	355.78	50.15	
2025-01-16 08:43:50.36	355.71	50.23	
2025-01-16 08:43:50.56	355.64	50.30	
2025-01-16 08:43:50.76	355.58	50.37	
2025-01-16 08:43:50.97	355.51	50.45	
2025-01-16 08:43:51.17	355.44	50.52	
2025-01-16 08:43:51.37	355.37	50.59	
2025-01-16 08:43:51.58	355.30	50.67	
2025-01-16 08:43:51.78	355.23	50.74	
2025-01-16 08:43:51.98	355.16	50.82	
2025-01-16 08:43:52.19	355.09	50.89	
2025-01-16 08:43:52.39	355.02	50.97	
2025-01-16 08:43:52.59	354.95	51.04	
2025-01-16 08:43:52.80	354.88	51.12	
2025-01-16 08:43:53.00	354.81	51.19	
2025-01-16 08:43:53.20	354.74	51.26	
2025-01-16 08:43:53.41	354.66	51.34	
2025-01-16 08:43:53.61	354.59	51.42	
2025-01-16 08:43:53.81	354.52	51.49	
2025-01-16 08:43:54.01	354.45	51.56	
2025-01-16 08:43:54.22	354.37	51.64	
2025-01-16 08:43:54.42	354.30	51.72	
2025-01-16 08:43:54.62	354.23	51.79	
2025-01-16 08:43:54.83	354.15	51.87	
2025-01-16 08:43:55.03	354.08	51.94	
2025-01-16 08:43:55.23	354.00	52.02	
2025-01-16 08:43:55.44	353.92	52.09	
2025-01-16 08:43:55.64	353.85	52.17	
2025-01-16 08:43:55.84	353.77	52.24	
2025-01-16 08:43:56.05	353.69	52.32	
2025-01-16 08:43:56.25	353.62	52.40	
2025-01-16 08:43:56.45	353.54	52.47	
2025-01-16 08:43:56.66	353.46	52.55	
2025-01-16 08:43:56.86	353.38	52.62	
2025-01-16 08:43:57.06	353.30	52.70	
2025-01-16 08:43:57.26	353.22	52.77	
2025-01-16 08:43:57.47	353.14	52.85	
2025-01-16 08:43:57.67	353.06	52.93	
2025-01-16 08:43:57.87	352.98	53.00	
2025-01-16 08:43:58.08	352.90	53.08	
2025-01-16 08:43:58.28	352.82	53.16	
2025-01-16 08:43:58.48	352.74	53.23	
2025-01-16 08:43:58.69	352.65	53.31	
2025-01-16 08:43:58.89	352.57	53.39	
2025-01-16 08:43:59.09	352.49	53.46	
2025-01-16 08:43:59.30	352.40	53.54	
2025-01-16 08:43:59.50	352.32	53.62	
2025-01-16 08:43:59.70	352.23	53.70	
2025-01-16 08:43:59.90	352.15	53.77	
2025-01-16 08:44:00.11	352.06	53.85	
2025-01-16 08:44:00.31	351.98	53.93	
2025-01-16 08:44:00.51	351.89	54.00	
2025-01-16 08:44:00.72	351.80	54.08	
2025-01-16 08:44:00.92	351.71	54.16	
2025-01-16 08:44:01.12	351.63	54.23	
2025-01-16 08:44:01.33	351.53	54.32	
2025-01-16 08:44:01.53	351.45	54.39	
2025-01-16 08:44:01.73	351.36	54.47	
2025-01-16 08:44:01.94	351.27	54.55	
2025-01-16 08:44:02.14	351.18	54.62	
2025-01-16 08:44:02.34	351.09	54.70	
2025-01-16 08:44:02.55	350.99	54.78	
2025-01-16 08:44:02.75	350.90	54.86	
2025-01-16 08:44:02.95	350.81	54.93	
2025-01-16 08:44:03.15	350.72	55.01	
2025-01-16 08:44:03.36	350.62	55.09	
2025-01-16 08:44:03.56	350.53	55.17	
2025-01-16 08:44:03.76	350.44	55.24	
2025-01-16 08:44:03.97	350.34	55.33	
2025-01-16 08:44:04.17	350.24	55.40	
2025-01-16 08:44:04.37	350.15	55.48	
2025-01-16 08:44:04.58	350.05	55.56	
2025-01-16 08:44:04.78	349.95	55.64	
2025-01-16 08:44:04.98	349.85	55.71	
2025-01-16 08:44:05.19	349.75	55.79	
2025-01-16 08:44:05.39	349.66	55.87	
2025-01-16 08:44:05.59	349.56	55.95	
2025-01-16 08:44:05.79	349.46	56.03	
2025-01-16 08:44:06.00	349.35	56.11	
2025-01-16 08:44:06.20	349.25	56.18	
2025-01-16 08:44:06.40	349.15	56.26	
2025-01-16 08:44:06.61	349.05	56.34	
2025-01-16 08:44:06.81	348.95	56.42	
2025-01-16 08:44:07.01	348.84	56.50	
2025-01-16 08:44:07.22	348.74	56.58	
2025-01-16 08:44:07.42	348.63	56.66	
2025-01-16 08:44:07.62	348.53	56.73	
2025-01-16 08:44:07.83	348.42	56.81	
2025-01-16 08:44:08.03	348.31	56.89	
2025-01-16 08:44:08.23	348.21	56.97	
2025-01-16 08:44:08.44	348.10	57.05	
2025-01-16 08:44:08.64	347.99	57.13	
2025-01-16 08:44:08.84	347.88	57.21	
2025-01-16 08:44:09.04	347.77	57.28	
2025-01-16 08:44:09.25	347.66	57.36	
2025-01-16 08:44:09.45	347.55	57.44	
2025-01-16 08:44:09.65	347.44	57.52	
2025-01-16 08:44:09.86	347.32	57.60	
2025-01-16 08:44:10.06	347.21	57.68	
2025-01-16 08:44:10.26	347.10	57.76	
2025-01-16 08:44:10.47	346.98	57.84	
2025-01-16 08:44:10.67	346.87	57.91	
2025-01-16 08:44:10.87	346.75	57.99	
2025-01-16 08:44:11.08	346.63	58.07	
2025-01-16 08:44:11.28	346.52	58.15	
2025-01-16 08:44:11.48	346.40	58.23	
2025-01-16 08:44:11.69	346.28	58.31	
2025-01-16 08:44:11.89	346.16	58.39	
2025-01-16 08:44:12.09	346.04	58.46	
2025-01-16 08:44:12.29	345.92	58.54	
2025-01-16 08:44:12.50	345.80	58.62	
2025-01-16 08:44:12.70	345.68	58.70	
2025-01-16 08:44:12.90	345.55	58.78	
2025-01-16 08:44:13.11	345.43	58.86	
2025-01-16 08:44:13.31	345.30	58.94	
2025-01-16 08:44:13.51	345.18	59.01	
2025-01-16 08:44:13.72	345.05	59.10	
2025-01-16 08:44:13.92	344.93	59.17	
2025-01-16 08:44:14.12	344.80	59.25	
2025-01-16 08:44:14.33	344.67	59.33	
2025-01-16 08:44:14.53	344.54	59.41	
2025-01-16 08:44:14.73	344.41	59.49	
2025-01-16 08:44:14.93	344.28	59.56	
2025-01-16 08:44:15.14	344.15	59.64	
2025-01-16 08:44:15.34	344.02	59.72	
2025-01-16 08:44:15.54	343.89	59.80	
2025-01-16 08:44:15.75	343.75	59.88	
2025-01-16 08:44:15.95	343.61	59.96	
2025-01-16 08:44:16.15	343.48	60.03	
2025-01-16 08:44:16.36	343.34	60.11	
2025-01-16 08:44:16.56	343.20	60.19	
2025-01-16 08:44:16.76	343.07	60.27	
2025-01-16 08:44:16.97	342.92	60.35	
2025-01-16 08:44:17.17	342.79	60.43	
2025-01-16 08:44:17.37	342.65	60.50	
2025-01-16 08:44:17.58	342.50	60.58	
2025-01-16 08:44:17.78	342.36	60.66	
2025-01-16 08:44:17.98	342.22	60.74	
2025-01-16 08:44:18.18	342.08	60.81	
2025-01-16 08:44:18.39	341.93	60.89	
2025-01-16 08:44:18.59	341.78	60.97	
2025-01-16 08:44:18.79	341.64	61.05	
2025-01-16 08:44:19.00	341.49	61.13	
2025-01-16 08:44:19.20	341.34	61.20	
2025-01-16 08:44:19.40	341.19	61.28	
2025-01-16 08:44:19.61	341.04	61.36	
2025-01-16 08:44:19.81	340.89	61.43	
2025-01-16 08:44:20.01	340.74	61.51	
2025-01-16 08:44:20.22	340.58	61.59	
2025-01-16 08:44:20.42	340.43	61.66	
2025-01-16 08:44:20.62	340.27	61.74	
2025-01-16 08:44:20.83	340.11	61.82	
2025-01-16 08:44:21.03	339.95	61.89	
2025-01-16 08:44:21.23	339.80	61.97	
2025-01-16 08:44:21.43	339.64	62.04	
2025-01-16 08:44:21.64	339.48	62.12	
2025-01-16 08:44:21.84	339.32	62.20	
2025-01-16 08:44:22.04	339.16	62.27	
2025-01-16 08:44:22.25	338.99	62.35	
2025-01-16 08:44:22.45	338.83	62.43	
2025-01-16 08:44:22.65	338.66	62.50	
2025-01-16 08:44:22.86	338.49	62.58	
2025-01-16 08:44:23.06	338.32	62.65	
2025-01-16 08:44:23.26	338.16	62.73	
2025-01-16 08:44:23.47	337.98	62.81	
2025-01-16 08:44:23.67	337.81	62.88	
2025-01-16 08:44:23.87	337.64	62.95	
2025-01-16 08:44:24.07	337.47	63.03	
2025-01-16 08:44:24.28	337.29	63.10	
2025-01-16 08:44:24.48	337.12	63.18	
2025-01-16 08:44:24.68	336.95	63.25	
2025-01-16 08:44:24.89	336.76	63.33	
2025-01-16 08:44:25.09	336.59	63.40	
2025-01-16 08:44:25.29	336.41	63.47	
2025-01-16 08:44:25.50	336.22	63.55	
2025-01-16 08:44:25.70	336.04	63.62	
2025-01-16 08:44:25.90	335.86	63.69	
2025-01-16 08:44:26.11	335.67	63.77	
2025-01-16 08:44:26.31	335.49	63.84	
2025-01-16 08:44:26.51	335.31	63.91	
2025-01-16 08:44:26.72	335.11	63.99	
2025-01-16 08:44:26.92	334.93	64.06	
2025-01-16 08:44:27.12	334.74	64.13	
2025-01-16 08:44:27.32	334.55	64.20	
2025-01-16 08:44:27.53	334.35	64.28	
2025-01-16 08:44:27.73	334.16	64.35	
2025-01-16 08:44:27.93	333.97	64.42	
2025-01-16 08:44:28.14	333.76	64.49	
2025-01-16 08:44:28.34	333.57	64.56	
2025-01-16 08:44:28.54	333.37	64.63	
2025-01-16 08:44:28.75	333.17	64.71	
2025-01-16 08:44:28.95	332.97	64.78	
2025-01-16 08:44:29.15	332.77	64.85	
2025-01-16 08:44:29.36	332.56	64.92	
2025-01-16 08:44:29.56	332.35	64.99	
2025-01-16 08:44:29.76	332.15	65.06	
2025-01-16 08:44:29.97	331.94	65.13	
2025-01-16 08:44:30.17	331.73	65.20	
2025-01-16 08:44:30.37	331.52	65.26	
2025-01-16 08:44:30.57	331.31	65.33	
2025-01-16 08:44:30.78	331.09	65.40	
2025-01-16 08:44:30.98	330.88	65.47	
2025-01-16 08:44:31.18	330.67	65.54	
2025-01-16 08:44:31.39	330.45	65.61	
2025-01-16 08:44:31.59	330.23	65.67	
2025-01-16 08:44:31.79	330.01	65.74	
2025-01-16 08:44:32.00	329.79	65.81	
2025-01-16 08:44:32.20	329.57	65.88	
2025-01-16 08:44:32.40	329.35	65.94	
2025-01-16 08:44:32.61	329.11	66.01	
2025-01-16 08:44:32.81	328.89	66.07	
2025-01-16 08:44:33.01	328.66	66.14	
2025-01-16 08:44:33.21	328.44	66.20	
2025-01-16 08:44:33.42	328.20	66.27	
2025-01-16 08:44:33.62	327.97	66.33	
2025-01-16 08:44:33.82	327.74	66.40	
2025-01-16 08:44:34.03	327.50	66.46	
2025-01-16 08:44:34.23	327.26	66.53	
2025-01-16 08:44:34.43	327.03	66.59	
2025-01-16 08:44:34.64	326.78	66.65	
2025-01-16 08:44:34.84	326.55	66.72	
2025-01-16 08:44:35.04	326.31	66.78	
2025-01-16 08:44:35.25	326.05	66.84	
2025-01-16 08:44:35.45	325.81	66.90	
2025-01-16 08:44:35.65	325.57	66.96	
2025-01-16 08:44:35.86	325.31	67.03	
2025-01-16 08:44:36.06	325.07	67.09	
2025-01-16 08:44:36.26	324.82	67.15	
2025-01-16 08:44:36.46	324.57	67.21	
2025-01-16 08:44:36.67	324.31	67.27	
2025-01-16 08:44:36.87	324.06	67.33	
2025-01-16 08:44:37.07	323.81	67.39	
2025-01-16 08:44:37.28	323.54	67.45	
2025-01-16 08:44:37.48	323.28	67.50	
2025-01-16 08:44:37.68	323.03	67.56	
2025-01-16 08:44:37.89	322.75	67.62	
2025-01-16 08:44:38.09	322.49	67.68	
2025-01-16 08:44:38.29	322.23	67.73	
2025-01-16 08:44:38.50	321.96	67.79	
2025-01-16 08:44:38.70	321.69	67.85	
2025-01-16 08:44:38.90	321.42	67.90	
2025-01-16 08:44:39.10	321.16	67.95	
2025-01-16 08:44:39.31	320.87	68.01	
2025-01-16 08:44:39.51	320.60	68.06	
2025-01-16 08:44:39.71	320.33	68.12	
2025-01-16 08:44:39.92	320.05	68.17	
2025-01-16 08:44:40.12	319.77	68.22	
2025-01-16 08:44:40.32	319.49	68.28	
2025-01-16 08:44:40.53	319.20	68.33	
2025-01-16 08:44:40.73	318.92	68.38	
