passes_logs/2025/01/16/SPB_Silybum_02/SPB_Silybum_02__20250116_195402_TERRA_rec.log

#Pass ID: 20250116_195402_TERRA
#Satellite: TERRA
#Configuration: TERRA
#Start time: 2025-01-16 19:54:01

#Version: 2.0.20230423
#Station: SPB_Silybum_02
#Location: 30.233357 lon 59.946436 lat
#TLE: 1 25994U 99068A   25015.81469206  .00000761  00000+0  16641-3 0  9994
#TLE: 2 25994  98.0214  78.8192 0003429  70.9720  38.3229 14.60396307334199

#Time	Az	El	Level	Level2	SNR	BER	Gain	Gain2
2025-01-16 19:54:04.06	205.81	4.12	
2025-01-16 19:54:04.26	205.83	4.13	
2025-01-16 19:54:04.46	205.84	4.14	
2025-01-16 19:54:04.67	205.86	4.16	
2025-01-16 19:54:04.87	205.88	4.17	
2025-01-16 19:54:05.07	205.90	4.18	
2025-01-16 19:54:05.28	205.91	4.20	
2025-01-16 19:54:05.48	205.93	4.21	
2025-01-16 19:54:05.68	205.95	4.22	
2025-01-16 19:54:05.88	205.96	4.23	
2025-01-16 19:54:06.09	205.98	4.25	
2025-01-16 19:54:06.29	206.00	4.26	
2025-01-16 19:54:06.49	206.01	4.27	
2025-01-16 19:54:06.70	206.03	4.29	
2025-01-16 19:54:06.90	206.05	4.30	
2025-01-16 19:54:07.10	206.06	4.31	
2025-01-16 19:54:07.31	206.08	4.32	
2025-01-16 19:54:07.51	206.10	4.34	
2025-01-16 19:54:07.71	206.11	4.35	
2025-01-16 19:54:07.92	206.13	4.36	
2025-01-16 19:54:08.12	206.15	4.38	
2025-01-16 19:54:08.32	206.17	4.39	
2025-01-16 19:54:08.53	206.18	4.40	
2025-01-16 19:54:08.73	206.20	4.41	
2025-01-16 19:54:08.93	206.22	4.43	
2025-01-16 19:54:09.13	206.23	4.44	
2025-01-16 19:54:09.34	206.25	4.45	
2025-01-16 19:54:09.54	206.27	4.47	
2025-01-16 19:54:09.74	206.29	4.48	
2025-01-16 19:54:09.95	206.30	4.49	
2025-01-16 19:54:10.15	206.32	4.50	
2025-01-16 19:54:10.35	206.34	4.52	
2025-01-16 19:54:10.56	206.35	4.53	
2025-01-16 19:54:10.76	206.37	4.54	
2025-01-16 19:54:10.96	206.39	4.56	
2025-01-16 19:54:11.17	206.41	4.57	
2025-01-16 19:54:11.37	206.42	4.58	
2025-01-16 19:54:11.57	206.44	4.60	
2025-01-16 19:54:11.78	206.46	4.61	
2025-01-16 19:54:11.98	206.48	4.62	
2025-01-16 19:54:12.18	206.49	4.63	
2025-01-16 19:54:12.38	206.51	4.65	
2025-01-16 19:54:12.59	206.53	4.66	
2025-01-16 19:54:12.79	206.54	4.67	
2025-01-16 19:54:12.99	206.56	4.69	
2025-01-16 19:54:13.20	206.58	4.70	
2025-01-16 19:54:13.40	206.60	4.71	
2025-01-16 19:54:13.60	206.61	4.73	
2025-01-16 19:54:13.81	206.63	4.74	
2025-01-16 19:54:14.01	206.65	4.75	
2025-01-16 19:54:14.21	206.67	4.76	
2025-01-16 19:54:14.42	206.68	4.78	
2025-01-16 19:54:14.62	206.70	4.79	
2025-01-16 19:54:14.82	206.72	4.80	
2025-01-16 19:54:15.02	206.74	4.82	
2025-01-16 19:54:15.23	206.75	4.83	
2025-01-16 19:54:15.43	206.77	4.84	
2025-01-16 19:54:15.63	206.79	4.86	
2025-01-16 19:54:15.84	206.81	4.87	
2025-01-16 19:54:16.04	206.82	4.88	
2025-01-16 19:54:16.24	206.84	4.89	
2025-01-16 19:54:16.45	206.86	4.91	
2025-01-16 19:54:16.65	206.88	4.92	
2025-01-16 19:54:16.85	206.89	4.93	
2025-01-16 19:54:17.06	206.91	4.95	
2025-01-16 19:54:17.26	206.93	4.96	
2025-01-16 19:54:17.46	206.95	4.97	
2025-01-16 19:54:17.67	206.97	4.99	
2025-01-16 19:54:17.87	206.98	5.00	
2025-01-16 19:54:18.07	207.00	5.01	
2025-01-16 19:54:18.27	207.02	5.03	
2025-01-16 19:54:18.48	207.04	5.04	
2025-01-16 19:54:18.68	207.06	5.05	
2025-01-16 19:54:18.88	207.07	5.07	
2025-01-16 19:54:19.09	207.09	5.08	
2025-01-16 19:54:19.29	207.11	5.09	
2025-01-16 19:54:19.49	207.13	5.10	
2025-01-16 19:54:19.70	207.15	5.12	
2025-01-16 19:54:19.90	207.16	5.13	
2025-01-16 19:54:20.10	207.18	5.14	
2025-01-16 19:54:20.31	207.20	5.16	
2025-01-16 19:54:20.51	207.22	5.17	
2025-01-16 19:54:20.71	207.23	5.18	
2025-01-16 19:54:20.92	207.25	5.20	
2025-01-16 19:54:21.12	207.27	5.21	
2025-01-16 19:54:21.32	207.29	5.22	
2025-01-16 19:54:21.52	207.31	5.24	
2025-01-16 19:54:21.73	207.33	5.25	
2025-01-16 19:54:21.93	207.34	5.26	
2025-01-16 19:54:22.13	207.36	5.28	
2025-01-16 19:54:22.34	207.38	5.29	
2025-01-16 19:54:22.54	207.40	5.30	
2025-01-16 19:54:22.74	207.42	5.32	
2025-01-16 19:54:22.95	207.43	5.33	
2025-01-16 19:54:23.15	207.45	5.34	
2025-01-16 19:54:23.35	207.47	5.36	
2025-01-16 19:54:23.56	207.49	5.37	
2025-01-16 19:54:23.76	207.51	5.38	
2025-01-16 19:54:23.96	207.53	5.40	
2025-01-16 19:54:24.16	207.54	5.41	
2025-01-16 19:54:24.37	207.56	5.42	
2025-01-16 19:54:24.57	207.58	5.44	
2025-01-16 19:54:24.77	207.60	5.45	
2025-01-16 19:54:24.98	207.62	5.46	
2025-01-16 19:54:25.18	207.64	5.48	
2025-01-16 19:54:25.38	207.65	5.49	
2025-01-16 19:54:25.59	207.67	5.50	
2025-01-16 19:54:25.79	207.69	5.52	
2025-01-16 19:54:25.99	207.71	5.53	
2025-01-16 19:54:26.20	207.73	5.54	
2025-01-16 19:54:26.40	207.75	5.56	
2025-01-16 19:54:26.60	207.76	5.57	
2025-01-16 19:54:26.81	207.78	5.58	
2025-01-16 19:54:27.01	207.80	5.60	
2025-01-16 19:54:27.21	207.82	5.61	
2025-01-16 19:54:27.41	207.84	5.62	
2025-01-16 19:54:27.62	207.86	5.64	
2025-01-16 19:54:27.82	207.88	5.65	
2025-01-16 19:54:28.02	207.89	5.66	
2025-01-16 19:54:28.23	207.91	5.68	
2025-01-16 19:54:28.43	207.93	5.69	
2025-01-16 19:54:28.63	207.95	5.70	
2025-01-16 19:54:28.84	207.97	5.72	
2025-01-16 19:54:29.04	207.99	5.73	
2025-01-16 19:54:29.24	208.01	5.74	
2025-01-16 19:54:29.45	208.03	5.76	
2025-01-16 19:54:29.65	208.04	5.77	
2025-01-16 19:54:29.85	208.06	5.78	
2025-01-16 19:54:30.06	208.08	5.80	
2025-01-16 19:54:30.26	208.10	5.81	
2025-01-16 19:54:30.46	208.12	5.82	
2025-01-16 19:54:30.66	208.14	5.84	
2025-01-16 19:54:30.87	208.16	5.85	
2025-01-16 19:54:31.07	208.18	5.86	
2025-01-16 19:54:31.27	208.20	5.88	
2025-01-16 19:54:31.48	208.21	5.89	
2025-01-16 19:54:31.68	208.23	5.90	
2025-01-16 19:54:31.88	208.25	5.92	
2025-01-16 19:54:32.09	208.27	5.93	
2025-01-16 19:54:32.29	208.29	5.95	
2025-01-16 19:54:32.49	208.31	5.96	
2025-01-16 19:54:32.70	208.33	5.97	
2025-01-16 19:54:32.90	208.35	5.99	
2025-01-16 19:54:33.10	208.37	6.00	
2025-01-16 19:54:33.31	208.39	6.01	
2025-01-16 19:54:33.51	208.41	6.03	
2025-01-16 19:54:33.71	208.42	6.04	
2025-01-16 19:54:33.91	208.44	6.05	
2025-01-16 19:54:34.12	208.46	6.07	
2025-01-16 19:54:34.32	208.48	6.08	
2025-01-16 19:54:34.52	208.50	6.09	
2025-01-16 19:54:34.73	208.52	6.11	
2025-01-16 19:54:34.93	208.54	6.12	
2025-01-16 19:54:35.13	208.56	6.13	
2025-01-16 19:54:35.34	208.58	6.15	
2025-01-16 19:54:35.54	208.60	6.16	
2025-01-16 19:54:35.74	208.62	6.18	
2025-01-16 19:54:35.95	208.64	6.19	
2025-01-16 19:54:36.15	208.66	6.20	
2025-01-16 19:54:36.35	208.67	6.22	
2025-01-16 19:54:36.55	208.69	6.23	
2025-01-16 19:54:36.76	208.71	6.24	
2025-01-16 19:54:36.96	208.73	6.26	
2025-01-16 19:54:37.16	208.75	6.27	
2025-01-16 19:54:37.37	208.77	6.28	
2025-01-16 19:54:37.57	208.79	6.30	
2025-01-16 19:54:37.77	208.81	6.31	
2025-01-16 19:54:37.98	208.83	6.33	
2025-01-16 19:54:38.18	208.85	6.34	
2025-01-16 19:54:38.38	208.87	6.35	
2025-01-16 19:54:38.59	208.89	6.37	
2025-01-16 19:54:38.79	208.91	6.38	
2025-01-16 19:54:38.99	208.93	6.39	
2025-01-16 19:54:39.20	208.95	6.41	
2025-01-16 19:54:39.40	208.97	6.42	
2025-01-16 19:54:39.60	208.99	6.43	
2025-01-16 19:54:39.80	209.01	6.45	
2025-01-16 19:54:40.01	209.03	6.46	
2025-01-16 19:54:40.21	209.05	6.48	
2025-01-16 19:54:40.41	209.07	6.49	
2025-01-16 19:54:40.62	209.09	6.50	
2025-01-16 19:54:40.82	209.11	6.52	
2025-01-16 19:54:41.02	209.13	6.53	
2025-01-16 19:54:41.23	209.15	6.54	
2025-01-16 19:54:41.43	209.17	6.56	
2025-01-16 19:54:41.63	209.19	6.57	
2025-01-16 19:54:41.84	209.21	6.59	
2025-01-16 19:54:42.04	209.23	6.60	
2025-01-16 19:54:42.24	209.25	6.61	
2025-01-16 19:54:42.45	209.27	6.63	
2025-01-16 19:54:42.65	209.29	6.64	
2025-01-16 19:54:42.85	209.31	6.65	
2025-01-16 19:54:43.05	209.33	6.67	
2025-01-16 19:54:43.26	209.35	6.68	
2025-01-16 19:54:43.46	209.37	6.70	
2025-01-16 19:54:43.66	209.39	6.71	
2025-01-16 19:54:43.87	209.41	6.72	
2025-01-16 19:54:44.07	209.43	6.74	
2025-01-16 19:54:44.27	209.45	6.75	
2025-01-16 19:54:44.48	209.47	6.76	
2025-01-16 19:54:44.68	209.49	6.78	
2025-01-16 19:54:44.88	209.51	6.79	
2025-01-16 19:54:45.09	209.53	6.81	
2025-01-16 19:54:45.29	209.55	6.82	
2025-01-16 19:54:45.49	209.57	6.83	
2025-01-16 19:54:45.70	209.59	6.85	
2025-01-16 19:54:45.90	209.61	6.86	
2025-01-16 19:54:46.10	209.63	6.88	
2025-01-16 19:54:46.30	209.65	6.89	
2025-01-16 19:54:46.51	209.67	6.90	
2025-01-16 19:54:46.71	209.69	6.92	
2025-01-16 19:54:46.91	209.71	6.93	
2025-01-16 19:54:47.12	209.73	6.95	
2025-01-16 19:54:47.32	209.75	6.96	
2025-01-16 19:54:47.52	209.77	6.97	
2025-01-16 19:54:47.73	209.79	6.99	
2025-01-16 19:54:47.93	209.81	7.00	
2025-01-16 19:54:48.13	209.83	7.01	
2025-01-16 19:54:48.34	209.85	7.03	
2025-01-16 19:54:48.54	209.88	7.04	
2025-01-16 19:54:48.74	209.90	7.06	
2025-01-16 19:54:48.94	209.92	7.07	
2025-01-16 19:54:49.15	209.94	7.08	
2025-01-16 19:54:49.35	209.96	7.10	
2025-01-16 19:54:49.55	209.98	7.11	
2025-01-16 19:54:49.76	210.00	7.13	
2025-01-16 19:54:49.96	210.02	7.14	
2025-01-16 19:54:50.16	210.04	7.15	
2025-01-16 19:54:50.37	210.06	7.17	
2025-01-16 19:54:50.57	210.08	7.18	
2025-01-16 19:54:50.77	210.10	7.20	
2025-01-16 19:54:50.98	210.12	7.21	
2025-01-16 19:54:51.18	210.14	7.22	
2025-01-16 19:54:51.38	210.17	7.24	
2025-01-16 19:54:51.59	210.19	7.25	
2025-01-16 19:54:51.79	210.21	7.27	
2025-01-16 19:54:51.99	210.23	7.28	
2025-01-16 19:54:52.19	210.25	7.29	
2025-01-16 19:54:52.40	210.27	7.31	
2025-01-16 19:54:52.60	210.29	7.32	
2025-01-16 19:54:52.80	210.31	7.34	
2025-01-16 19:54:53.01	210.33	7.35	
2025-01-16 19:54:53.21	210.35	7.36	
2025-01-16 19:54:53.41	210.37	7.38	
2025-01-16 19:54:53.62	210.40	7.39	
2025-01-16 19:54:53.82	210.42	7.41	
2025-01-16 19:54:54.02	210.44	7.42	
2025-01-16 19:54:54.23	210.46	7.43	
2025-01-16 19:54:54.43	210.48	7.45	
2025-01-16 19:54:54.63	210.50	7.46	
2025-01-16 19:54:54.84	210.52	7.48	
2025-01-16 19:54:55.04	210.54	7.49	
2025-01-16 19:54:55.24	210.57	7.50	
2025-01-16 19:54:55.44	210.59	7.52	
2025-01-16 19:54:55.65	210.61	7.53	
2025-01-16 19:54:55.85	210.63	7.55	
2025-01-16 19:54:56.05	210.65	7.56	
2025-01-16 19:54:56.26	210.67	7.58	
2025-01-16 19:54:56.46	210.69	7.59	
2025-01-16 19:54:56.66	210.72	7.60	
2025-01-16 19:54:56.87	210.74	7.62	
2025-01-16 19:54:57.07	210.76	7.63	
2025-01-16 19:54:57.27	210.78	7.65	
2025-01-16 19:54:57.48	210.80	7.66	
2025-01-16 19:54:57.68	210.82	7.67	
2025-01-16 19:54:57.88	210.84	7.69	
2025-01-16 19:54:58.08	210.87	7.70	
2025-01-16 19:54:58.29	210.89	7.72	
2025-01-16 19:54:58.49	210.91	7.73	
2025-01-16 19:54:58.69	210.93	7.75	
2025-01-16 19:54:58.90	210.95	7.76	
2025-01-16 19:54:59.10	210.97	7.77	
2025-01-16 19:54:59.30	211.00	7.79	
2025-01-16 19:54:59.51	211.02	7.80	
2025-01-16 19:54:59.71	211.04	7.82	
2025-01-16 19:54:59.91	211.06	7.83	
2025-01-16 19:55:00.12	211.08	7.85	
2025-01-16 19:55:00.32	211.11	7.86	
2025-01-16 19:55:00.52	211.13	7.87	
2025-01-16 19:55:00.73	211.15	7.89	
2025-01-16 19:55:00.93	211.17	7.90	
2025-01-16 19:55:01.13	211.19	7.92	
2025-01-16 19:55:01.33	211.21	7.93	
2025-01-16 19:55:01.54	211.24	7.95	
2025-01-16 19:55:01.74	211.26	7.96	
2025-01-16 19:55:01.94	211.28	7.97	
2025-01-16 19:55:02.15	211.30	7.99	
2025-01-16 19:55:02.35	211.32	8.00	
2025-01-16 19:55:02.55	211.35	8.02	
2025-01-16 19:55:02.76	211.37	8.03	
2025-01-16 19:55:02.96	211.39	8.05	
2025-01-16 19:55:03.16	211.41	8.06	
2025-01-16 19:55:03.37	211.44	8.07	
2025-01-16 19:55:03.57	211.46	8.09	
2025-01-16 19:55:03.77	211.48	8.10	
2025-01-16 19:55:03.98	211.50	8.12	
2025-01-16 19:55:04.18	211.52	8.13	
2025-01-16 19:55:04.38	211.55	8.15	
2025-01-16 19:55:04.58	211.57	8.16	
2025-01-16 19:55:04.79	211.59	8.17	
2025-01-16 19:55:04.99	211.61	8.19	
2025-01-16 19:55:05.19	211.64	8.20	
2025-01-16 19:55:05.40	211.66	8.22	
2025-01-16 19:55:05.60	211.68	8.23	
2025-01-16 19:55:05.80	211.70	8.25	
2025-01-16 19:55:06.01	211.73	8.26	
2025-01-16 19:55:06.21	211.75	8.28	
2025-01-16 19:55:06.41	211.77	8.29	
2025-01-16 19:55:06.62	211.79	8.30	
2025-01-16 19:55:06.82	211.82	8.32	
2025-01-16 19:55:07.02	211.84	8.33	
2025-01-16 19:55:07.22	211.86	8.35	
2025-01-16 19:55:07.43	211.88	8.36	
2025-01-16 19:55:07.63	211.91	8.38	
2025-01-16 19:55:07.83	211.93	8.39	
2025-01-16 19:55:08.04	211.95	8.41	
2025-01-16 19:55:08.24	211.97	8.42	
2025-01-16 19:55:08.44	212.00	8.43	
2025-01-16 19:55:08.65	212.02	8.45	
2025-01-16 19:55:08.85	212.04	8.46	
2025-01-16 19:55:09.05	212.07	8.48	
2025-01-16 19:55:09.26	212.09	8.49	
2025-01-16 19:55:09.46	212.11	8.51	
2025-01-16 19:55:09.66	212.13	8.52	
2025-01-16 19:55:09.87	212.16	8.54	
2025-01-16 19:55:10.07	212.18	8.55	
2025-01-16 19:55:10.27	212.20	8.56	
2025-01-16 19:55:10.47	212.23	8.58	
2025-01-16 19:55:10.68	212.25	8.59	
2025-01-16 19:55:10.88	212.27	8.61	
2025-01-16 19:55:11.08	212.29	8.62	
2025-01-16 19:55:11.29	212.32	8.64	
2025-01-16 19:55:11.49	212.34	8.65	
2025-01-16 19:55:11.69	212.36	8.67	
2025-01-16 19:55:11.90	212.39	8.68	
2025-01-16 19:55:12.10	212.41	8.70	
2025-01-16 19:55:12.30	212.43	8.71	
2025-01-16 19:55:12.51	212.46	8.73	
2025-01-16 19:55:12.71	212.48	8.74	
2025-01-16 19:55:12.91	212.50	8.75	
2025-01-16 19:55:13.12	212.53	8.77	
2025-01-16 19:55:13.32	212.55	8.78	
2025-01-16 19:55:13.52	212.57	8.80	
2025-01-16 19:55:13.72	212.60	8.81	
2025-01-16 19:55:13.93	212.62	8.83	
2025-01-16 19:55:14.13	212.64	8.84	
2025-01-16 19:55:14.33	212.67	8.86	
2025-01-16 19:55:14.54	212.69	8.87	
2025-01-16 19:55:14.74	212.71	8.89	
2025-01-16 19:55:14.94	212.74	8.90	
2025-01-16 19:55:15.15	212.76	8.92	
2025-01-16 19:55:15.35	212.78	8.93	
2025-01-16 19:55:15.55	212.81	8.94	
2025-01-16 19:55:15.76	212.83	8.96	
2025-01-16 19:55:15.96	212.86	8.97	
2025-01-16 19:55:16.16	212.88	8.99	
2025-01-16 19:55:16.37	212.90	9.00	
2025-01-16 19:55:16.57	212.93	9.02	
2025-01-16 19:55:16.77	212.95	9.03	
2025-01-16 19:55:16.97	212.97	9.05	
2025-01-16 19:55:17.18	213.00	9.06	
2025-01-16 19:55:17.38	213.02	9.08	
2025-01-16 19:55:17.58	213.05	9.09	
2025-01-16 19:55:17.79	213.07	9.11	
2025-01-16 19:55:17.99	213.09	9.12	
2025-01-16 19:55:18.19	213.12	9.14	
2025-01-16 19:55:18.40	213.14	9.15	
2025-01-16 19:55:18.60	213.17	9.17	
2025-01-16 19:55:18.80	213.19	9.18	
2025-01-16 19:55:19.01	213.21	9.20	
2025-01-16 19:55:19.21	213.24	9.21	
2025-01-16 19:55:19.41	213.26	9.22	
2025-01-16 19:55:19.62	213.29	9.24	
2025-01-16 19:55:19.82	213.31	9.25	
2025-01-16 19:55:20.02	213.33	9.27	
2025-01-16 19:55:20.22	213.36	9.28	
2025-01-16 19:55:20.43	213.38	9.30	
2025-01-16 19:55:20.63	213.41	9.31	
2025-01-16 19:55:20.83	213.43	9.33	
2025-01-16 19:55:21.04	213.46	9.34	
2025-01-16 19:55:21.24	213.48	9.36	
2025-01-16 19:55:21.44	213.50	9.37	
2025-01-16 19:55:21.65	213.53	9.39	
2025-01-16 19:55:21.85	213.55	9.40	
2025-01-16 19:55:22.05	213.58	9.42	
2025-01-16 19:55:22.26	213.60	9.43	
2025-01-16 19:55:22.46	213.63	9.45	
2025-01-16 19:55:22.66	213.65	9.46	
2025-01-16 19:55:22.86	213.67	9.48	
2025-01-16 19:55:23.07	213.70	9.49	
2025-01-16 19:55:23.27	213.72	9.51	
2025-01-16 19:55:23.47	213.75	9.52	
2025-01-16 19:55:23.68	213.77	9.54	
2025-01-16 19:55:23.88	213.80	9.55	
2025-01-16 19:55:24.08	213.82	9.57	
2025-01-16 19:55:24.29	213.85	9.58	
2025-01-16 19:55:24.49	213.87	9.60	
2025-01-16 19:55:24.69	213.90	9.61	
2025-01-16 19:55:24.90	213.92	9.63	
2025-01-16 19:55:25.10	213.95	9.64	
2025-01-16 19:55:25.30	213.97	9.66	
2025-01-16 19:55:25.51	214.00	9.67	
2025-01-16 19:55:25.71	214.02	9.69	
2025-01-16 19:55:25.91	214.04	9.70	
2025-01-16 19:55:26.11	214.07	9.72	
2025-01-16 19:55:26.32	214.10	9.73	
2025-01-16 19:55:26.52	214.12	9.75	
2025-01-16 19:55:26.72	214.14	9.76	
2025-01-16 19:55:26.93	214.17	9.78	
2025-01-16 19:55:27.13	214.20	9.79	
2025-01-16 19:55:27.33	214.22	9.81	
2025-01-16 19:55:27.54	214.25	9.82	
2025-01-16 19:55:27.74	214.27	9.84	
2025-01-16 19:55:27.94	214.30	9.85	
2025-01-16 19:55:28.15	214.32	9.87	
2025-01-16 19:55:28.35	214.35	9.88	
2025-01-16 19:55:28.55	214.37	9.90	
2025-01-16 19:55:28.75	214.40	9.91	
2025-01-16 19:55:28.96	214.42	9.93	
2025-01-16 19:55:29.16	214.45	9.94	
2025-01-16 19:55:29.36	214.47	9.96	
2025-01-16 19:55:29.57	214.50	9.97	
2025-01-16 19:55:29.77	214.52	9.99	
2025-01-16 19:55:29.97	214.55	10.00	
2025-01-16 19:55:30.18	214.57	10.02	
2025-01-16 19:55:30.38	214.60	10.03	
2025-01-16 19:55:30.58	214.63	10.05	
2025-01-16 19:55:30.79	214.65	10.06	
2025-01-16 19:55:30.99	214.68	10.08	
2025-01-16 19:55:31.19	214.70	10.09	
2025-01-16 19:55:31.40	214.73	10.11	
2025-01-16 19:55:31.60	214.75	10.12	
2025-01-16 19:55:31.80	214.78	10.14	
2025-01-16 19:55:32.00	214.80	10.15	
2025-01-16 19:55:32.21	214.83	10.17	
2025-01-16 19:55:32.41	214.86	10.18	
2025-01-16 19:55:32.61	214.88	10.20	
2025-01-16 19:55:32.82	214.91	10.21	
2025-01-16 19:55:33.02	214.93	10.23	
2025-01-16 19:55:33.22	214.96	10.24	
2025-01-16 19:55:33.43	214.99	10.26	
2025-01-16 19:55:33.63	215.01	10.27	
2025-01-16 19:55:33.83	215.04	10.29	
2025-01-16 19:55:34.04	215.06	10.30	
2025-01-16 19:55:34.24	215.09	10.32	
2025-01-16 19:55:34.44	215.12	10.33	
2025-01-16 19:55:34.65	215.14	10.35	
2025-01-16 19:55:34.85	215.17	10.36	
2025-01-16 19:55:35.05	215.19	10.38	
2025-01-16 19:55:35.25	215.22	10.39	
2025-01-16 19:55:35.46	215.25	10.41	
2025-01-16 19:55:35.66	215.27	10.43	
2025-01-16 19:55:35.86	215.30	10.44	
2025-01-16 19:55:36.07	215.33	10.46	
2025-01-16 19:55:36.27	215.35	10.47	
2025-01-16 19:55:36.47	215.38	10.49	
2025-01-16 19:55:36.68	215.40	10.50	
2025-01-16 19:55:36.88	215.43	10.52	
2025-01-16 19:55:37.08	215.46	10.53	
2025-01-16 19:55:37.29	215.48	10.55	
2025-01-16 19:55:37.49	215.51	10.56	
2025-01-16 19:55:37.69	215.54	10.58	
2025-01-16 19:55:37.90	215.56	10.59	
2025-01-16 19:55:38.10	215.59	10.61	
2025-01-16 19:55:38.30	215.62	10.62	
2025-01-16 19:55:38.50	215.64	10.64	
2025-01-16 19:55:38.71	215.67	10.65	
2025-01-16 19:55:38.91	215.70	10.67	
2025-01-16 19:55:39.11	215.72	10.69	
2025-01-16 19:55:39.32	215.75	10.70	
2025-01-16 19:55:39.52	215.78	10.72	
2025-01-16 19:55:39.72	215.80	10.73	
2025-01-16 19:55:39.93	215.83	10.75	
2025-01-16 19:55:40.13	215.86	10.76	
2025-01-16 19:55:40.33	215.88	10.78	
2025-01-16 19:55:40.54	215.91	10.79	
2025-01-16 19:55:40.74	215.94	10.81	
2025-01-16 19:55:40.94	215.96	10.82	
2025-01-16 19:55:41.15	215.99	10.84	
2025-01-16 19:55:41.35	216.02	10.85	
2025-01-16 19:55:41.55	216.05	10.87	
2025-01-16 19:55:41.75	216.07	10.88	
2025-01-16 19:55:41.96	216.10	10.90	
2025-01-16 19:55:42.16	216.13	10.92	
2025-01-16 19:55:42.36	216.15	10.93	
2025-01-16 19:55:42.57	216.18	10.95	
2025-01-16 19:55:42.77	216.21	10.96	
2025-01-16 19:55:42.97	216.24	10.98	
2025-01-16 19:55:43.18	216.26	10.99	
2025-01-16 19:55:43.38	216.29	11.01	
2025-01-16 19:55:43.58	216.32	11.02	
2025-01-16 19:55:43.79	216.35	11.04	
2025-01-16 19:55:43.99	216.37	11.05	
2025-01-16 19:55:44.19	216.40	11.07	
2025-01-16 19:55:44.39	216.43	11.09	
2025-01-16 19:55:44.60	216.46	11.10	
2025-01-16 19:55:44.80	216.48	11.12	
2025-01-16 19:55:45.00	216.51	11.13	
2025-01-16 19:55:45.21	216.54	11.15	
2025-01-16 19:55:45.41	216.57	11.16	
2025-01-16 19:55:45.61	216.59	11.18	
2025-01-16 19:55:45.82	216.62	11.19	
2025-01-16 19:55:46.02	216.65	11.21	
2025-01-16 19:55:46.22	216.68	11.22	
2025-01-16 19:55:46.43	216.70	11.24	
2025-01-16 19:55:46.63	216.73	11.26	
2025-01-16 19:55:46.83	216.76	11.27	
2025-01-16 19:55:47.04	216.79	11.29	
2025-01-16 19:55:47.24	216.82	11.30	
2025-01-16 19:55:47.44	216.84	11.32	
2025-01-16 19:55:47.64	216.87	11.33	
2025-01-16 19:55:47.85	216.90	11.35	
2025-01-16 19:55:48.05	216.93	11.36	
2025-01-16 19:55:48.25	216.96	11.38	
2025-01-16 19:55:48.46	216.98	11.40	
2025-01-16 19:55:48.66	217.01	11.41	
2025-01-16 19:55:48.86	217.04	11.43	
2025-01-16 19:55:49.07	217.07	11.44	
2025-01-16 19:55:49.27	217.10	11.46	
2025-01-16 19:55:49.47	217.12	11.47	
2025-01-16 19:55:49.68	217.15	11.49	
2025-01-16 19:55:49.88	217.18	11.51	
2025-01-16 19:55:50.08	217.21	11.52	
2025-01-16 19:55:50.29	217.24	11.54	
2025-01-16 19:55:50.49	217.27	11.55	
2025-01-16 19:55:50.69	217.29	11.57	
2025-01-16 19:55:50.89	217.32	11.58	
2025-01-16 19:55:51.10	217.35	11.60	
2025-01-16 19:55:51.30	217.38	11.61	
2025-01-16 19:55:51.50	217.41	11.63	
2025-01-16 19:55:51.71	217.44	11.65	
2025-01-16 19:55:51.91	217.47	11.66	
2025-01-16 19:55:52.11	217.49	11.68	
2025-01-16 19:55:52.32	217.52	11.69	
2025-01-16 19:55:52.52	217.55	11.71	
2025-01-16 19:55:52.72	217.58	11.72	
2025-01-16 19:55:52.93	217.61	11.74	
2025-01-16 19:55:53.13	217.64	11.76	
2025-01-16 19:55:53.33	217.67	11.77	
2025-01-16 19:55:53.53	217.70	11.79	
2025-01-16 19:55:53.74	217.73	11.80	
2025-01-16 19:55:53.94	217.75	11.82	
2025-01-16 19:55:54.14	217.78	11.83	
2025-01-16 19:55:54.35	217.81	11.85	
2025-01-16 19:55:54.55	217.84	11.87	
2025-01-16 19:55:54.75	217.87	11.88	
2025-01-16 19:55:54.96	217.90	11.90	
2025-01-16 19:55:55.16	217.93	11.91	
2025-01-16 19:55:55.36	217.96	11.93	
2025-01-16 19:55:55.57	217.99	11.94	
2025-01-16 19:55:55.77	218.02	11.96	
2025-01-16 19:55:55.97	218.05	11.98	
2025-01-16 19:55:56.18	218.08	11.99	
2025-01-16 19:55:56.38	218.10	12.01	
2025-01-16 19:55:56.58	218.13	12.02	
2025-01-16 19:55:56.78	218.16	12.04	
2025-01-16 19:55:56.99	218.19	12.05	
2025-01-16 19:55:57.19	218.22	12.07	
2025-01-16 19:55:57.39	218.25	12.09	
2025-01-16 19:55:57.60	218.28	12.10	
2025-01-16 19:55:57.80	218.31	12.12	
2025-01-16 19:55:58.00	218.34	12.13	
2025-01-16 19:55:58.21	218.37	12.15	
2025-01-16 19:55:58.41	218.40	12.17	
2025-01-16 19:55:58.61	218.43	12.18	
2025-01-16 19:55:58.82	218.46	12.20	
2025-01-16 19:55:59.02	218.49	12.21	
2025-01-16 19:55:59.22	218.52	12.23	
2025-01-16 19:55:59.43	218.55	12.24	
2025-01-16 19:55:59.63	218.58	12.26	
2025-01-16 19:55:59.83	218.61	12.28	
2025-01-16 19:56:00.03	218.64	12.29	
2025-01-16 19:56:00.24	218.67	12.31	
2025-01-16 19:56:00.44	218.70	12.32	
2025-01-16 19:56:00.64	218.73	12.34	
2025-01-16 19:56:00.85	218.76	12.36	
2025-01-16 19:56:01.05	218.79	12.37	
2025-01-16 19:56:01.25	218.82	12.39	
2025-01-16 19:56:01.46	218.85	12.40	
2025-01-16 19:56:01.66	218.88	12.42	
2025-01-16 19:56:01.86	218.91	12.43	
2025-01-16 19:56:02.07	218.94	12.45	
2025-01-16 19:56:02.27	218.97	12.47	
2025-01-16 19:56:02.47	219.00	12.48	
2025-01-16 19:56:02.68	219.03	12.50	
2025-01-16 19:56:02.88	219.06	12.51	
2025-01-16 19:56:03.08	219.09	12.53	
2025-01-16 19:56:03.28	219.12	12.55	
2025-01-16 19:56:03.49	219.15	12.56	
2025-01-16 19:56:03.69	219.18	12.58	
2025-01-16 19:56:03.89	219.21	12.59	
2025-01-16 19:56:04.10	219.24	12.61	
2025-01-16 19:56:04.30	219.27	12.63	
2025-01-16 19:56:04.50	219.30	12.64	
2025-01-16 19:56:04.71	219.34	12.66	
2025-01-16 19:56:04.91	219.37	12.67	
2025-01-16 19:56:05.11	219.40	12.69	
2025-01-16 19:56:05.32	219.43	12.71	
2025-01-16 19:56:05.52	219.46	12.72	
2025-01-16 19:56:05.72	219.49	12.74	
2025-01-16 19:56:05.92	219.52	12.75	
2025-01-16 19:56:06.13	219.55	12.77	
2025-01-16 19:56:06.33	219.58	12.79	
2025-01-16 19:56:06.53	219.61	12.80	
2025-01-16 19:56:06.74	219.65	12.82	
2025-01-16 19:56:06.94	219.68	12.83	
2025-01-16 19:56:07.14	219.71	12.85	
2025-01-16 19:56:07.35	219.74	12.87	
2025-01-16 19:56:07.55	219.77	12.88	
2025-01-16 19:56:07.75	219.80	12.90	
2025-01-16 19:56:07.96	219.83	12.91	
2025-01-16 19:56:08.16	219.86	12.93	
2025-01-16 19:56:08.36	219.89	12.95	
2025-01-16 19:56:08.57	219.93	12.96	
2025-01-16 19:56:08.77	219.96	12.98	
2025-01-16 19:56:08.97	219.99	12.99	
2025-01-16 19:56:09.17	220.02	13.01	
2025-01-16 19:56:09.38	220.05	13.03	
2025-01-16 19:56:09.58	220.08	13.04	
2025-01-16 19:56:09.78	220.11	13.06	
2025-01-16 19:56:09.99	220.15	13.07	
2025-01-16 19:56:10.19	220.18	13.09	
2025-01-16 19:56:10.39	220.21	13.11	
2025-01-16 19:56:10.60	220.24	13.12	
2025-01-16 19:56:10.80	220.27	13.14	
2025-01-16 19:56:11.00	220.31	13.15	
2025-01-16 19:56:11.21	220.34	13.17	
2025-01-16 19:56:11.41	220.37	13.19	
2025-01-16 19:56:11.61	220.40	13.20	
2025-01-16 19:56:11.82	220.43	13.22	
2025-01-16 19:56:12.02	220.47	13.24	
2025-01-16 19:56:12.22	220.50	13.25	
2025-01-16 19:56:12.42	220.53	13.27	
2025-01-16 19:56:12.63	220.56	13.28	
2025-01-16 19:56:12.83	220.59	13.30	
2025-01-16 19:56:13.03	220.63	13.32	
2025-01-16 19:56:13.24	220.66	13.33	
2025-01-16 19:56:13.44	220.69	13.35	
2025-01-16 19:56:13.64	220.72	13.36	
2025-01-16 19:56:13.85	220.76	13.38	
2025-01-16 19:56:14.05	220.79	13.40	
2025-01-16 19:56:14.25	220.82	13.41	
2025-01-16 19:56:14.46	220.85	13.43	
2025-01-16 19:56:14.66	220.88	13.45	
2025-01-16 19:56:14.86	220.92	13.46	
2025-01-16 19:56:15.06	220.95	13.48	
2025-01-16 19:56:15.27	220.98	13.49	
2025-01-16 19:56:15.47	221.01	13.51	
2025-01-16 19:56:15.67	221.05	13.53	
2025-01-16 19:56:15.88	221.08	13.54	
2025-01-16 19:56:16.08	221.11	13.56	
2025-01-16 19:56:16.28	221.15	13.57	
2025-01-16 19:56:16.49	221.18	13.59	
2025-01-16 19:56:16.69	221.21	13.61	
2025-01-16 19:56:16.89	221.24	13.62	
2025-01-16 19:56:17.10	221.28	13.64	
2025-01-16 19:56:17.30	221.31	13.66	
2025-01-16 19:56:17.50	221.34	13.67	
2025-01-16 19:56:17.71	221.38	13.69	
2025-01-16 19:56:17.91	221.41	13.70	
2025-01-16 19:56:18.11	221.44	13.72	
2025-01-16 19:56:18.31	221.47	13.74	
2025-01-16 19:56:18.52	221.51	13.75	
2025-01-16 19:56:18.72	221.54	13.77	
2025-01-16 19:56:18.92	221.57	13.79	
2025-01-16 19:56:19.13	221.61	13.80	
2025-01-16 19:56:19.33	221.64	13.82	
2025-01-16 19:56:19.53	221.67	13.83	
2025-01-16 19:56:19.74	221.71	13.85	
2025-01-16 19:56:19.94	221.74	13.87	
2025-01-16 19:56:20.14	221.77	13.88	
2025-01-16 19:56:20.35	221.81	13.90	
2025-01-16 19:56:20.55	221.84	13.92	
2025-01-16 19:56:20.75	221.88	13.93	
2025-01-16 19:56:20.96	221.91	13.95	
2025-01-16 19:56:21.16	221.94	13.96	
2025-01-16 19:56:21.36	221.98	13.98	
2025-01-16 19:56:21.56	222.01	14.00	
2025-01-16 19:56:21.77	222.05	14.01	
2025-01-16 19:56:21.97	222.08	14.03	
2025-01-16 19:56:22.17	222.11	14.05	
2025-01-16 19:56:22.38	222.15	14.06	
2025-01-16 19:56:22.58	222.18	14.08	
2025-01-16 19:56:22.78	222.21	14.09	
2025-01-16 19:56:22.99	222.25	14.11	
2025-01-16 19:56:23.19	222.28	14.13	
2025-01-16 19:56:23.39	222.32	14.14	
2025-01-16 19:56:23.60	222.35	14.16	
2025-01-16 19:56:23.80	222.38	14.18	
2025-01-16 19:56:24.00	222.42	14.19	
2025-01-16 19:56:24.21	222.45	14.21	
2025-01-16 19:56:24.41	222.49	14.23	
2025-01-16 19:56:24.61	222.52	14.24	
2025-01-16 19:56:24.81	222.56	14.26	
2025-01-16 19:56:25.02	222.59	14.27	
2025-01-16 19:56:25.22	222.62	14.29	
2025-01-16 19:56:25.42	222.66	14.31	
2025-01-16 19:56:25.63	222.69	14.32	
2025-01-16 19:56:25.83	222.73	14.34	
2025-01-16 19:56:26.03	222.76	14.36	
2025-01-16 19:56:26.24	222.80	14.37	
2025-01-16 19:56:26.44	222.83	14.39	
2025-01-16 19:56:26.64	222.87	14.41	
2025-01-16 19:56:26.85	222.90	14.42	
2025-01-16 19:56:27.05	222.94	14.44	
2025-01-16 19:56:27.25	222.97	14.45	
2025-01-16 19:56:27.46	223.01	14.47	
2025-01-16 19:56:27.66	223.04	14.49	
2025-01-16 19:56:27.86	223.08	14.50	
2025-01-16 19:56:28.06	223.11	14.52	
2025-01-16 19:56:28.27	223.15	14.54	
2025-01-16 19:56:28.47	223.18	14.55	
2025-01-16 19:56:28.67	223.22	14.57	
2025-01-16 19:56:28.88	223.25	14.59	
2025-01-16 19:56:29.08	223.29	14.60	
2025-01-16 19:56:29.28	223.32	14.62	
2025-01-16 19:56:29.49	223.36	14.64	
2025-01-16 19:56:29.69	223.39	14.65	
2025-01-16 19:56:29.89	223.43	14.67	
2025-01-16 19:56:30.10	223.46	14.68	
2025-01-16 19:56:30.30	223.50	14.70	
2025-01-16 19:56:30.50	223.53	14.72	
2025-01-16 19:56:30.70	223.57	14.73	
2025-01-16 19:56:30.91	223.61	14.75	
2025-01-16 19:56:31.11	223.64	14.77	
2025-01-16 19:56:31.31	223.68	14.78	
2025-01-16 19:56:31.52	223.71	14.80	
2025-01-16 19:56:31.72	223.75	14.82	
2025-01-16 19:56:31.92	223.78	14.83	
2025-01-16 19:56:32.13	223.82	14.85	
2025-01-16 19:56:32.33	223.86	14.86	
2025-01-16 19:56:32.53	223.89	14.88	
2025-01-16 19:56:32.74	223.93	14.90	
2025-01-16 19:56:32.94	223.96	14.91	
2025-01-16 19:56:33.14	224.00	14.93	
2025-01-16 19:56:33.35	224.04	14.95	
2025-01-16 19:56:33.55	224.07	14.96	
2025-01-16 19:56:33.75	224.11	14.98	
2025-01-16 19:56:33.95	224.14	15.00	
2025-01-16 19:56:34.16	224.18	15.01	
2025-01-16 19:56:34.36	224.22	15.03	
2025-01-16 19:56:34.56	224.25	15.05	
2025-01-16 19:56:34.77	224.29	15.06	
2025-01-16 19:56:34.97	224.33	15.08	
2025-01-16 19:56:35.17	224.36	15.09	
2025-01-16 19:56:35.38	224.40	15.11	
2025-01-16 19:56:35.58	224.44	15.13	
2025-01-16 19:56:35.78	224.47	15.14	
2025-01-16 19:56:35.99	224.51	15.16	
2025-01-16 19:56:36.19	224.55	15.18	
2025-01-16 19:56:36.39	224.58	15.19	
2025-01-16 19:56:36.59	224.62	15.21	
2025-01-16 19:56:36.80	224.66	15.23	
2025-01-16 19:56:37.00	224.69	15.24	
2025-01-16 19:56:37.20	224.73	15.26	
2025-01-16 19:56:37.41	224.77	15.28	
2025-01-16 19:56:37.61	224.80	15.29	
2025-01-16 19:56:37.81	224.84	15.31	
2025-01-16 19:56:38.02	224.88	15.33	
2025-01-16 19:56:38.22	224.91	15.34	
2025-01-16 19:56:38.42	224.95	15.36	
2025-01-16 19:56:38.63	224.99	15.38	
2025-01-16 19:56:38.83	225.03	15.39	
2025-01-16 19:56:39.03	225.06	15.41	
2025-01-16 19:56:39.24	225.10	15.43	
2025-01-16 19:56:39.44	225.14	15.44	
2025-01-16 19:56:39.64	225.17	15.46	
2025-01-16 19:56:39.84	225.21	15.47	
2025-01-16 19:56:40.05	225.25	15.49	
2025-01-16 19:56:40.25	225.29	15.51	
2025-01-16 19:56:40.45	225.32	15.52	
2025-01-16 19:56:40.66	225.36	15.54	
2025-01-16 19:56:40.86	225.40	15.56	
2025-01-16 19:56:41.06	225.44	15.57	
2025-01-16 19:56:41.27	225.48	15.59	
2025-01-16 19:56:41.47	225.51	15.61	
2025-01-16 19:56:41.67	225.55	15.62	
2025-01-16 19:56:41.88	225.59	15.64	
2025-01-16 19:56:42.08	225.63	15.66	
2025-01-16 19:56:42.28	225.66	15.67	
2025-01-16 19:56:42.49	225.70	15.69	
2025-01-16 19:56:42.69	225.74	15.71	
2025-01-16 19:56:42.89	225.78	15.72	
2025-01-16 19:56:43.09	225.82	15.74	
2025-01-16 19:56:43.30	225.85	15.76	
2025-01-16 19:56:43.50	225.89	15.77	
2025-01-16 19:56:43.70	225.93	15.79	
2025-01-16 19:56:43.91	225.97	15.81	
2025-01-16 19:56:44.11	226.01	15.82	
2025-01-16 19:56:44.31	226.05	15.84	
2025-01-16 19:56:44.52	226.08	15.86	
2025-01-16 19:56:44.72	226.12	15.87	
2025-01-16 19:56:44.92	226.16	15.89	
2025-01-16 19:56:45.13	226.20	15.90	
2025-01-16 19:56:45.33	226.24	15.92	
2025-01-16 19:56:45.53	226.28	15.94	
2025-01-16 19:56:45.74	226.32	15.95	
2025-01-16 19:56:45.94	226.35	15.97	
2025-01-16 19:56:46.14	226.39	15.99	
2025-01-16 19:56:46.34	226.43	16.00	
2025-01-16 19:56:46.55	226.47	16.02	
2025-01-16 19:56:46.75	226.51	16.04	
2025-01-16 19:56:46.95	226.55	16.05	
2025-01-16 19:56:47.16	226.59	16.07	
2025-01-16 19:56:47.36	226.63	16.09	
2025-01-16 19:56:47.56	226.66	16.10	
2025-01-16 19:56:47.77	226.71	16.12	
2025-01-16 19:56:47.97	226.74	16.14	
2025-01-16 19:56:48.17	226.78	16.15	
2025-01-16 19:56:48.38	226.82	16.17	
2025-01-16 19:56:48.58	226.86	16.19	
2025-01-16 19:56:48.78	226.90	16.20	
2025-01-16 19:56:48.99	226.94	16.22	
2025-01-16 19:56:49.19	226.98	16.24	
2025-01-16 19:56:49.39	227.02	16.25	
2025-01-16 19:56:49.59	227.06	16.27	
2025-01-16 19:56:49.80	227.10	16.29	
2025-01-16 19:56:50.00	227.14	16.30	
2025-01-16 19:56:50.20	227.18	16.32	
2025-01-16 19:56:50.41	227.22	16.33	
2025-01-16 19:56:50.61	227.26	16.35	
2025-01-16 19:56:50.81	227.30	16.37	
2025-01-16 19:56:51.02	227.34	16.38	
2025-01-16 19:56:51.22	227.38	16.40	
2025-01-16 19:56:51.42	227.42	16.42	
2025-01-16 19:56:51.63	227.46	16.43	
2025-01-16 19:56:51.83	227.50	16.45	
2025-01-16 19:56:52.03	227.54	16.47	
2025-01-16 19:56:52.23	227.58	16.48	
2025-01-16 19:56:52.44	227.62	16.50	
2025-01-16 19:56:52.64	227.66	16.52	
2025-01-16 19:56:52.84	227.70	16.53	
2025-01-16 19:56:53.05	227.74	16.55	
2025-01-16 19:56:53.25	227.78	16.57	
2025-01-16 19:56:53.45	227.82	16.58	
2025-01-16 19:56:53.66	227.86	16.60	
2025-01-16 19:56:53.86	227.90	16.62	
2025-01-16 19:56:54.06	227.94	16.63	
2025-01-16 19:56:54.27	227.98	16.65	
2025-01-16 19:56:54.47	228.02	16.67	
2025-01-16 19:56:54.67	228.06	16.68	
2025-01-16 19:56:54.88	228.10	16.70	
2025-01-16 19:56:55.08	228.14	16.72	
2025-01-16 19:56:55.28	228.18	16.73	
2025-01-16 19:56:55.48	228.22	16.75	
2025-01-16 19:56:55.69	228.27	16.76	
2025-01-16 19:56:55.89	228.31	16.78	
2025-01-16 19:56:56.09	228.35	16.80	
2025-01-16 19:56:56.30	228.39	16.81	
2025-01-16 19:56:56.50	228.43	16.83	
2025-01-16 19:56:56.70	228.47	16.85	
2025-01-16 19:56:56.91	228.51	16.86	
2025-01-16 19:56:57.11	228.55	16.88	
2025-01-16 19:56:57.31	228.59	16.90	
2025-01-16 19:56:57.52	228.64	16.91	
2025-01-16 19:56:57.72	228.68	16.93	
2025-01-16 19:56:57.92	228.72	16.95	
2025-01-16 19:56:58.13	228.76	16.96	
2025-01-16 19:56:58.33	228.80	16.98	
2025-01-16 19:56:58.53	228.84	17.00	
2025-01-16 19:56:58.73	228.88	17.01	
2025-01-16 19:56:58.94	228.93	17.03	
2025-01-16 19:56:59.14	228.97	17.05	
2025-01-16 19:56:59.34	229.01	17.06	
2025-01-16 19:56:59.55	229.05	17.08	
2025-01-16 19:56:59.75	229.09	17.10	
2025-01-16 19:56:59.95	229.13	17.11	
2025-01-16 19:57:00.16	229.18	17.13	
2025-01-16 19:57:00.36	229.22	17.14	
2025-01-16 19:57:00.56	229.26	17.16	
2025-01-16 19:57:00.77	229.30	17.18	
2025-01-16 19:57:00.97	229.35	17.19	
2025-01-16 19:57:01.17	229.39	17.21	
2025-01-16 19:57:01.38	229.43	17.23	
2025-01-16 19:57:01.58	229.47	17.24	
2025-01-16 19:57:01.78	229.51	17.26	
2025-01-16 19:57:01.98	229.56	17.28	
2025-01-16 19:57:02.19	229.60	17.29	
2025-01-16 19:57:02.39	229.64	17.31	
2025-01-16 19:57:02.59	229.68	17.33	
2025-01-16 19:57:02.80	229.73	17.34	
2025-01-16 19:57:03.00	229.77	17.36	
2025-01-16 19:57:03.20	229.81	17.38	
2025-01-16 19:57:03.41	229.85	17.39	
2025-01-16 19:57:03.61	229.90	17.41	
2025-01-16 19:57:03.81	229.94	17.42	
2025-01-16 19:57:04.02	229.98	17.44	
2025-01-16 19:57:04.22	230.03	17.46	
2025-01-16 19:57:04.42	230.07	17.47	
2025-01-16 19:57:04.62	230.11	17.49	
2025-01-16 19:57:04.83	230.15	17.51	
2025-01-16 19:57:05.03	230.20	17.52	
2025-01-16 19:57:05.23	230.24	17.54	
2025-01-16 19:57:05.44	230.28	17.56	
2025-01-16 19:57:05.64	230.33	17.57	
2025-01-16 19:57:05.84	230.37	17.59	
2025-01-16 19:57:06.05	230.41	17.61	
2025-01-16 19:57:06.25	230.46	17.62	
2025-01-16 19:57:06.45	230.50	17.64	
2025-01-16 19:57:06.66	230.54	17.66	
2025-01-16 19:57:06.86	230.59	17.67	
2025-01-16 19:57:07.06	230.63	17.69	
2025-01-16 19:57:07.27	230.68	17.70	
2025-01-16 19:57:07.47	230.72	17.72	
2025-01-16 19:57:07.67	230.76	17.74	
2025-01-16 19:57:07.87	230.80	17.75	
2025-01-16 19:57:08.08	230.85	17.77	
2025-01-16 19:57:08.28	230.89	17.79	
2025-01-16 19:57:08.48	230.94	17.80	
2025-01-16 19:57:08.69	230.98	17.82	
2025-01-16 19:57:08.89	231.02	17.84	
2025-01-16 19:57:09.09	231.07	17.85	
2025-01-16 19:57:09.30	231.11	17.87	
2025-01-16 19:57:09.50	231.16	17.88	
2025-01-16 19:57:09.70	231.20	17.90	
2025-01-16 19:57:09.91	231.25	17.92	
2025-01-16 19:57:10.11	231.29	17.93	
2025-01-16 19:57:10.31	231.33	17.95	
2025-01-16 19:57:10.52	231.38	17.97	
2025-01-16 19:57:10.72	231.42	17.98	
2025-01-16 19:57:10.92	231.47	18.00	
2025-01-16 19:57:11.12	231.51	18.02	
2025-01-16 19:57:11.33	231.56	18.03	
2025-01-16 19:57:11.53	231.60	18.05	
2025-01-16 19:57:11.73	231.65	18.06	
2025-01-16 19:57:11.94	231.69	18.08	
2025-01-16 19:57:12.14	231.74	18.10	
2025-01-16 19:57:12.34	231.78	18.11	
2025-01-16 19:57:12.55	231.83	18.13	
2025-01-16 19:57:12.75	231.87	18.15	
2025-01-16 19:57:12.95	231.91	18.16	
2025-01-16 19:57:13.16	231.96	18.18	
2025-01-16 19:57:13.36	232.01	18.20	
2025-01-16 19:57:13.56	232.05	18.21	
2025-01-16 19:57:13.76	232.09	18.23	
2025-01-16 19:57:13.97	232.14	18.24	
2025-01-16 19:57:14.17	232.19	18.26	
2025-01-16 19:57:14.37	232.23	18.28	
2025-01-16 19:57:14.58	232.28	18.29	
2025-01-16 19:57:14.78	232.32	18.31	
2025-01-16 19:57:14.98	232.37	18.33	
2025-01-16 19:57:15.19	232.41	18.34	
2025-01-16 19:57:15.39	232.46	18.36	
2025-01-16 19:57:15.59	232.50	18.37	
2025-01-16 19:57:15.80	232.55	18.39	
2025-01-16 19:57:16.00	232.60	18.41	
2025-01-16 19:57:16.20	232.64	18.42	
2025-01-16 19:57:16.41	232.69	18.44	
2025-01-16 19:57:16.61	232.73	18.46	
2025-01-16 19:57:16.81	232.78	18.47	
2025-01-16 19:57:17.01	232.82	18.49	
2025-01-16 19:57:17.22	232.87	18.50	
2025-01-16 19:57:17.42	232.92	18.52	
2025-01-16 19:57:17.62	232.96	18.54	
2025-01-16 19:57:17.83	233.01	18.55	
2025-01-16 19:57:18.03	233.06	18.57	
2025-01-16 19:57:18.23	233.10	18.58	
2025-01-16 19:57:18.44	233.15	18.60	
2025-01-16 19:57:18.64	233.20	18.62	
2025-01-16 19:57:18.84	233.24	18.63	
2025-01-16 19:57:19.05	233.29	18.65	
2025-01-16 19:57:19.25	233.33	18.67	
2025-01-16 19:57:19.45	233.38	18.68	
2025-01-16 19:57:19.66	233.43	18.70	
2025-01-16 19:57:19.86	233.47	18.71	
2025-01-16 19:57:20.06	233.52	18.73	
2025-01-16 19:57:20.26	233.57	18.75	
2025-01-16 19:57:20.47	233.62	18.76	
2025-01-16 19:57:20.67	233.66	18.78	
2025-01-16 19:57:20.87	233.71	18.79	
2025-01-16 19:57:21.08	233.76	18.81	
2025-01-16 19:57:21.28	233.80	18.83	
2025-01-16 19:57:21.48	233.85	18.84	
2025-01-16 19:57:21.69	233.90	18.86	
2025-01-16 19:57:21.89	233.94	18.87	
2025-01-16 19:57:22.09	233.99	18.89	
2025-01-16 19:57:22.30	234.04	18.91	
2025-01-16 19:57:22.50	234.09	18.92	
2025-01-16 19:57:22.70	234.13	18.94	
2025-01-16 19:57:22.91	234.18	18.96	
2025-01-16 19:57:23.11	234.23	18.97	
2025-01-16 19:57:23.31	234.28	18.99	
2025-01-16 19:57:23.51	234.32	19.00	
2025-01-16 19:57:23.72	234.37	19.02	
2025-01-16 19:57:23.92	234.42	19.03	
2025-01-16 19:57:24.12	234.47	19.05	
2025-01-16 19:57:24.33	234.52	19.07	
2025-01-16 19:57:24.53	234.56	19.08	
2025-01-16 19:57:24.73	234.61	19.10	
2025-01-16 19:57:24.94	234.66	19.12	
2025-01-16 19:57:25.14	234.71	19.13	
2025-01-16 19:57:25.34	234.75	19.15	
2025-01-16 19:57:25.55	234.80	19.16	
2025-01-16 19:57:25.75	234.85	19.18	
2025-01-16 19:57:25.95	234.90	19.19	
2025-01-16 19:57:26.15	234.95	19.21	
2025-01-16 19:57:26.36	235.00	19.23	
2025-01-16 19:57:26.56	235.04	19.24	
2025-01-16 19:57:26.76	235.09	19.26	
2025-01-16 19:57:26.97	235.14	19.27	
2025-01-16 19:57:27.17	235.19	19.29	
2025-01-16 19:57:27.37	235.24	19.31	
2025-01-16 19:57:27.58	235.29	19.32	
2025-01-16 19:57:27.78	235.34	19.34	
2025-01-16 19:57:27.98	235.38	19.35	
2025-01-16 19:57:28.19	235.43	19.37	
2025-01-16 19:57:28.39	235.48	19.38	
2025-01-16 19:57:28.59	235.53	19.40	
2025-01-16 19:57:28.80	235.58	19.42	
2025-01-16 19:57:29.00	235.63	19.43	
2025-01-16 19:57:29.20	235.68	19.45	
2025-01-16 19:57:29.40	235.73	19.46	
2025-01-16 19:57:29.61	235.78	19.48	
2025-01-16 19:57:29.81	235.83	19.50	
2025-01-16 19:57:30.01	235.87	19.51	
2025-01-16 19:57:30.22	235.92	19.53	
2025-01-16 19:57:30.42	235.97	19.54	
2025-01-16 19:57:30.62	236.02	19.56	
2025-01-16 19:57:30.83	236.07	19.57	
2025-01-16 19:57:31.03	236.12	19.59	
2025-01-16 19:57:31.23	236.17	19.60	
2025-01-16 19:57:31.44	236.22	19.62	
2025-01-16 19:57:31.64	236.27	19.64	
2025-01-16 19:57:31.84	236.32	19.65	
2025-01-16 19:57:32.05	236.37	19.67	
2025-01-16 19:57:32.25	236.42	19.68	
2025-01-16 19:57:32.45	236.47	19.70	
2025-01-16 19:57:32.65	236.52	19.71	
2025-01-16 19:57:32.86	236.57	19.73	
2025-01-16 19:57:33.06	236.62	19.75	
2025-01-16 19:57:33.26	236.67	19.76	
2025-01-16 19:57:33.47	236.72	19.78	
2025-01-16 19:57:33.67	236.77	19.79	
2025-01-16 19:57:33.87	236.82	19.81	
2025-01-16 19:57:34.08	236.87	19.82	
2025-01-16 19:57:34.28	236.92	19.84	
2025-01-16 19:57:34.48	236.97	19.85	
2025-01-16 19:57:34.69	237.02	19.87	
2025-01-16 19:57:34.89	237.07	19.89	
2025-01-16 19:57:35.09	237.12	19.90	
2025-01-16 19:57:35.29	237.17	19.92	
2025-01-16 19:57:35.50	237.23	19.93	
2025-01-16 19:57:35.70	237.28	19.95	
2025-01-16 19:57:35.90	237.33	19.96	
2025-01-16 19:57:36.11	237.38	19.98	
2025-01-16 19:57:36.31	237.43	19.99	
2025-01-16 19:57:36.51	237.48	20.01	
2025-01-16 19:57:36.72	237.53	20.02	
2025-01-16 19:57:36.92	237.58	20.04	
2025-01-16 19:57:37.12	237.63	20.06	
2025-01-16 19:57:37.33	237.68	20.07	
2025-01-16 19:57:37.53	237.74	20.09	
2025-01-16 19:57:37.73	237.79	20.10	
2025-01-16 19:57:37.94	237.84	20.12	
2025-01-16 19:57:38.14	237.89	20.13	
2025-01-16 19:57:38.34	237.94	20.15	
2025-01-16 19:57:38.54	237.99	20.16	
2025-01-16 19:57:38.75	238.04	20.18	
2025-01-16 19:57:38.95	238.09	20.19	
2025-01-16 19:57:39.15	238.15	20.21	
2025-01-16 19:57:39.36	238.20	20.22	
2025-01-16 19:57:39.56	238.25	20.24	
2025-01-16 19:57:39.76	238.30	20.25	
2025-01-16 19:57:39.97	238.35	20.27	
2025-01-16 19:57:40.17	238.41	20.28	
2025-01-16 19:57:40.37	238.46	20.30	
2025-01-16 19:57:40.58	238.51	20.32	
2025-01-16 19:57:40.78	238.56	20.33	
2025-01-16 19:57:40.98	238.61	20.35	
2025-01-16 19:57:41.19	238.67	20.36	
2025-01-16 19:57:41.39	238.72	20.38	
2025-01-16 19:57:41.59	238.77	20.39	
2025-01-16 19:57:41.79	238.82	20.41	
2025-01-16 19:57:42.00	238.88	20.42	
2025-01-16 19:57:42.20	238.93	20.44	
2025-01-16 19:57:42.40	238.98	20.45	
2025-01-16 19:57:42.61	239.03	20.47	
2025-01-16 19:57:42.81	239.09	20.48	
2025-01-16 19:57:43.01	239.14	20.50	
2025-01-16 19:57:43.22	239.19	20.51	
2025-01-16 19:57:43.42	239.24	20.53	
2025-01-16 19:57:43.62	239.30	20.54	
2025-01-16 19:57:43.83	239.35	20.56	
2025-01-16 19:57:44.03	239.40	20.57	
2025-01-16 19:57:44.23	239.45	20.59	
2025-01-16 19:57:44.44	239.51	20.60	
2025-01-16 19:57:44.64	239.56	20.62	
2025-01-16 19:57:44.84	239.61	20.63	
2025-01-16 19:57:45.04	239.67	20.65	
2025-01-16 19:57:45.25	239.72	20.66	
2025-01-16 19:57:45.45	239.77	20.68	
2025-01-16 19:57:45.65	239.83	20.69	
2025-01-16 19:57:45.86	239.88	20.71	
2025-01-16 19:57:46.06	239.93	20.72	
2025-01-16 19:57:46.26	239.99	20.73	
2025-01-16 19:57:46.47	240.04	20.75	
2025-01-16 19:57:46.67	240.09	20.76	
2025-01-16 19:57:46.87	240.15	20.78	
2025-01-16 19:57:47.08	240.20	20.79	
2025-01-16 19:57:47.28	240.26	20.81	
2025-01-16 19:57:47.48	240.31	20.82	
2025-01-16 19:57:47.68	240.36	20.84	
2025-01-16 19:57:47.89	240.42	20.85	
2025-01-16 19:57:48.09	240.47	20.87	
2025-01-16 19:57:48.29	240.52	20.88	
2025-01-16 19:57:48.50	240.58	20.90	
2025-01-16 19:57:48.70	240.63	20.91	
2025-01-16 19:57:48.90	240.69	20.93	
2025-01-16 19:57:49.11	240.74	20.94	
2025-01-16 19:57:49.31	240.80	20.95	
2025-01-16 19:57:49.51	240.85	20.97	
2025-01-16 19:57:49.72	240.91	20.98	
2025-01-16 19:57:49.92	240.96	21.00	
2025-01-16 19:57:50.12	241.01	21.01	
2025-01-16 19:57:50.33	241.07	21.03	
2025-01-16 19:57:50.53	241.12	21.04	
2025-01-16 19:57:50.73	241.18	21.06	
2025-01-16 19:57:50.93	241.23	21.07	
2025-01-16 19:57:51.14	241.29	21.09	
2025-01-16 19:57:51.34	241.34	21.10	
2025-01-16 19:57:51.54	241.40	21.11	
2025-01-16 19:57:51.75	241.45	21.13	
2025-01-16 19:57:51.95	241.51	21.14	
2025-01-16 19:57:52.15	241.56	21.16	
2025-01-16 19:57:52.36	241.62	21.17	
2025-01-16 19:57:52.56	241.67	21.19	
2025-01-16 19:57:52.76	241.73	21.20	
2025-01-16 19:57:52.97	241.78	21.21	
2025-01-16 19:57:53.17	241.84	21.23	
2025-01-16 19:57:53.37	241.89	21.24	
2025-01-16 19:57:53.58	241.95	21.26	
2025-01-16 19:57:53.78	242.00	21.27	
2025-01-16 19:57:53.98	242.06	21.29	
2025-01-16 19:57:54.18	242.11	21.30	
2025-01-16 19:57:54.39	242.17	21.31	
2025-01-16 19:57:54.59	242.23	21.33	
2025-01-16 19:57:54.79	242.28	21.34	
2025-01-16 19:57:55.00	242.34	21.36	
2025-01-16 19:57:55.20	242.39	21.37	
2025-01-16 19:57:55.40	242.45	21.38	
2025-01-16 19:57:55.61	242.51	21.40	
2025-01-16 19:57:55.81	242.56	21.41	
2025-01-16 19:57:56.01	242.62	21.43	
2025-01-16 19:57:56.22	242.67	21.44	
2025-01-16 19:57:56.42	242.73	21.45	
2025-01-16 19:57:56.62	242.78	21.47	
2025-01-16 19:57:56.83	242.84	21.48	
2025-01-16 19:57:57.03	242.90	21.50	
2025-01-16 19:57:57.23	242.95	21.51	
2025-01-16 19:57:57.43	243.01	21.52	
2025-01-16 19:57:57.64	243.07	21.54	
2025-01-16 19:57:57.84	243.12	21.55	
2025-01-16 19:57:58.04	243.18	21.57	
2025-01-16 19:57:58.25	243.24	21.58	
2025-01-16 19:57:58.45	243.29	21.59	
2025-01-16 19:57:58.65	243.35	21.61	
2025-01-16 19:57:58.86	243.41	21.62	
2025-01-16 19:57:59.06	243.46	21.63	
2025-01-16 19:57:59.26	243.52	21.65	
2025-01-16 19:57:59.47	243.58	21.66	
2025-01-16 19:57:59.67	243.63	21.68	
2025-01-16 19:57:59.87	243.69	21.69	
2025-01-16 19:58:00.07	243.75	21.70	
2025-01-16 19:58:00.28	243.81	21.72	
2025-01-16 19:58:00.48	243.86	21.73	
2025-01-16 19:58:00.68	243.92	21.74	
2025-01-16 19:58:00.89	243.98	21.76	
2025-01-16 19:58:01.09	244.03	21.77	
2025-01-16 19:58:01.29	244.09	21.78	
2025-01-16 19:58:01.50	244.15	21.80	
2025-01-16 19:58:01.70	244.21	21.81	
2025-01-16 19:58:01.90	244.26	21.82	
2025-01-16 19:58:02.11	244.32	21.84	
2025-01-16 19:58:02.31	244.38	21.85	
2025-01-16 19:58:02.51	244.44	21.86	
2025-01-16 19:58:02.72	244.50	21.88	
2025-01-16 19:58:02.92	244.55	21.89	
2025-01-16 19:58:03.12	244.61	21.90	
2025-01-16 19:58:03.32	244.67	21.92	
2025-01-16 19:58:03.53	244.73	21.93	
2025-01-16 19:58:03.73	244.78	21.94	
2025-01-16 19:58:03.93	244.84	21.96	
2025-01-16 19:58:04.14	244.90	21.97	
2025-01-16 19:58:04.34	244.96	21.98	
2025-01-16 19:58:04.54	245.01	22.00	
2025-01-16 19:58:04.75	245.07	22.01	
2025-01-16 19:58:04.95	245.13	22.02	
2025-01-16 19:58:05.15	245.19	22.04	
2025-01-16 19:58:05.36	245.25	22.05	
2025-01-16 19:58:05.56	245.31	22.06	
2025-01-16 19:58:05.76	245.36	22.08	
2025-01-16 19:58:05.97	245.43	22.09	
2025-01-16 19:58:06.17	245.48	22.10	
2025-01-16 19:58:06.37	245.54	22.12	
2025-01-16 19:58:06.57	245.60	22.13	
2025-01-16 19:58:06.78	245.66	22.14	
2025-01-16 19:58:06.98	245.72	22.15	
2025-01-16 19:58:07.18	245.77	22.17	
2025-01-16 19:58:07.39	245.84	22.18	
2025-01-16 19:58:07.59	245.89	22.19	
2025-01-16 19:58:07.79	245.95	22.21	
2025-01-16 19:58:08.00	246.01	22.22	
2025-01-16 19:58:08.20	246.07	22.23	
2025-01-16 19:58:08.40	246.13	22.24	
2025-01-16 19:58:08.61	246.19	22.26	
2025-01-16 19:58:08.81	246.25	22.27	
2025-01-16 19:58:09.01	246.31	22.28	
2025-01-16 19:58:09.21	246.37	22.29	
2025-01-16 19:58:09.42	246.43	22.31	
2025-01-16 19:58:09.62	246.49	22.32	
2025-01-16 19:58:09.82	246.54	22.33	
2025-01-16 19:58:10.03	246.61	22.35	
2025-01-16 19:58:10.23	246.66	22.36	
2025-01-16 19:58:10.43	246.72	22.37	
2025-01-16 19:58:10.64	246.78	22.38	
2025-01-16 19:58:10.84	246.84	22.40	
2025-01-16 19:58:11.04	246.90	22.41	
2025-01-16 19:58:11.25	246.96	22.42	
2025-01-16 19:58:11.45	247.02	22.43	
2025-01-16 19:58:11.65	247.08	22.45	
2025-01-16 19:58:11.86	247.14	22.46	
2025-01-16 19:58:12.06	247.20	22.47	
2025-01-16 19:58:12.26	247.26	22.48	
2025-01-16 19:58:12.46	247.32	22.49	
2025-01-16 19:58:12.67	247.38	22.51	
2025-01-16 19:58:12.87	247.44	22.52	
2025-01-16 19:58:13.07	247.50	22.53	
2025-01-16 19:58:13.28	247.56	22.54	
2025-01-16 19:58:13.48	247.62	22.56	
2025-01-16 19:58:13.68	247.68	22.57	
2025-01-16 19:58:13.89	247.75	22.58	
2025-01-16 19:58:14.09	247.81	22.59	
2025-01-16 19:58:14.29	247.86	22.60	
2025-01-16 19:58:14.50	247.93	22.62	
2025-01-16 19:58:14.70	247.99	22.63	
2025-01-16 19:58:14.90	248.05	22.64	
2025-01-16 19:58:15.11	248.11	22.65	
2025-01-16 19:58:15.31	248.17	22.66	
2025-01-16 19:58:15.51	248.23	22.68	
2025-01-16 19:58:15.71	248.29	22.69	
2025-01-16 19:58:15.92	248.35	22.70	
2025-01-16 19:58:16.12	248.41	22.71	
2025-01-16 19:58:16.32	248.47	22.72	
2025-01-16 19:58:16.53	248.54	22.74	
2025-01-16 19:58:16.73	248.60	22.75	
2025-01-16 19:58:16.93	248.66	22.76	
2025-01-16 19:58:17.14	248.72	22.77	
2025-01-16 19:58:17.34	248.78	22.78	
2025-01-16 19:58:17.54	248.84	22.79	
2025-01-16 19:58:17.75	248.90	22.81	
2025-01-16 19:58:17.95	248.96	22.82	
2025-01-16 19:58:18.15	249.02	22.83	
2025-01-16 19:58:18.36	249.09	22.84	
2025-01-16 19:58:18.56	249.15	22.85	
2025-01-16 19:58:18.76	249.21	22.86	
2025-01-16 19:58:18.96	249.27	22.87	
2025-01-16 19:58:19.17	249.33	22.89	
2025-01-16 19:58:19.37	249.39	22.90	
2025-01-16 19:58:19.57	249.45	22.91	
2025-01-16 19:58:19.78	249.52	22.92	
2025-01-16 19:58:19.98	249.58	22.93	
2025-01-16 19:58:20.18	249.64	22.94	
2025-01-16 19:58:20.39	249.70	22.95	
2025-01-16 19:58:20.59	249.77	22.97	
2025-01-16 19:58:20.79	249.83	22.98	
2025-01-16 19:58:21.00	249.89	22.99	
2025-01-16 19:58:21.20	249.95	23.00	
2025-01-16 19:58:21.40	250.01	23.01	
2025-01-16 19:58:21.60	250.07	23.02	
2025-01-16 19:58:21.81	250.14	23.03	
2025-01-16 19:58:22.01	250.20	23.04	
2025-01-16 19:58:22.21	250.26	23.05	
2025-01-16 19:58:22.42	250.33	23.07	
2025-01-16 19:58:22.62	250.39	23.08	
2025-01-16 19:58:22.82	250.45	23.09	
2025-01-16 19:58:23.03	250.51	23.10	
2025-01-16 19:58:23.23	250.58	23.11	
2025-01-16 19:58:23.43	250.64	23.12	
2025-01-16 19:58:23.64	250.70	23.13	
2025-01-16 19:58:23.84	250.76	23.14	
2025-01-16 19:58:24.04	250.83	23.15	
2025-01-16 19:58:24.25	250.89	23.16	
2025-01-16 19:58:24.45	250.95	23.17	
2025-01-16 19:58:24.65	251.01	23.18	
2025-01-16 19:58:24.85	251.08	23.19	
2025-01-16 19:58:25.06	251.14	23.21	
2025-01-16 19:58:25.26	251.20	23.22	
2025-01-16 19:58:25.46	251.27	23.23	
2025-01-16 19:58:25.67	251.33	23.24	
2025-01-16 19:58:25.87	251.39	23.25	
2025-01-16 19:58:26.07	251.45	23.26	
2025-01-16 19:58:26.28	251.52	23.27	
2025-01-16 19:58:26.48	251.58	23.28	
2025-01-16 19:58:26.68	251.64	23.29	
2025-01-16 19:58:26.89	251.71	23.30	
2025-01-16 19:58:27.09	251.77	23.31	
2025-01-16 19:58:27.29	251.84	23.32	
2025-01-16 19:58:27.50	251.90	23.33	
2025-01-16 19:58:27.70	251.96	23.34	
2025-01-16 19:58:27.90	252.03	23.35	
2025-01-16 19:58:28.10	252.09	23.36	
2025-01-16 19:58:28.31	252.15	23.37	
2025-01-16 19:58:28.51	252.22	23.38	
2025-01-16 19:58:28.71	252.28	23.39	
2025-01-16 19:58:28.92	252.35	23.40	
2025-01-16 19:58:29.12	252.41	23.41	
2025-01-16 19:58:29.32	252.47	23.42	
2025-01-16 19:58:29.53	252.54	23.43	
2025-01-16 19:58:29.73	252.60	23.44	
2025-01-16 19:58:29.93	252.66	23.45	
2025-01-16 19:58:30.14	252.73	23.46	
2025-01-16 19:58:30.34	252.79	23.47	
2025-01-16 19:58:30.54	252.86	23.48	
2025-01-16 19:58:30.75	252.92	23.49	
2025-01-16 19:58:30.95	252.99	23.50	
2025-01-16 19:58:31.15	253.05	23.51	
2025-01-16 19:58:31.35	253.11	23.52	
2025-01-16 19:58:31.56	253.18	23.53	
2025-01-16 19:58:31.76	253.24	23.54	
2025-01-16 19:58:31.96	253.31	23.55	
2025-01-16 19:58:32.17	253.37	23.56	
2025-01-16 19:58:32.37	253.44	23.57	
2025-01-16 19:58:32.57	253.50	23.58	
2025-01-16 19:58:32.78	253.57	23.59	
2025-01-16 19:58:32.98	253.63	23.60	
2025-01-16 19:58:33.18	253.69	23.61	
2025-01-16 19:58:33.39	253.76	23.61	
2025-01-16 19:58:33.59	253.82	23.62	
2025-01-16 19:58:33.79	253.89	23.63	
2025-01-16 19:58:33.99	253.95	23.64	
2025-01-16 19:58:34.20	254.02	23.65	
2025-01-16 19:58:34.40	254.08	23.66	
2025-01-16 19:58:34.60	254.15	23.67	
2025-01-16 19:58:34.81	254.21	23.68	
2025-01-16 19:58:35.01	254.28	23.69	
2025-01-16 19:58:35.21	254.34	23.70	
2025-01-16 19:58:35.42	254.41	23.71	
2025-01-16 19:58:35.62	254.47	23.72	
2025-01-16 19:58:35.82	254.54	23.72	
2025-01-16 19:58:36.03	254.60	23.73	
2025-01-16 19:58:36.23	254.67	23.74	
2025-01-16 19:58:36.43	254.73	23.75	
2025-01-16 19:58:36.64	254.80	23.76	
2025-01-16 19:58:36.84	254.86	23.77	
2025-01-16 19:58:37.04	254.93	23.78	
2025-01-16 19:58:37.24	254.99	23.79	
2025-01-16 19:58:37.45	255.06	23.79	
2025-01-16 19:58:37.65	255.12	23.80	
2025-01-16 19:58:37.85	255.19	23.81	
2025-01-16 19:58:38.06	255.26	23.82	
2025-01-16 19:58:38.26	255.32	23.83	
2025-01-16 19:58:38.46	255.39	23.84	
2025-01-16 19:58:38.67	255.45	23.85	
2025-01-16 19:58:38.87	255.52	23.85	
2025-01-16 19:58:39.07	255.58	23.86	
2025-01-16 19:58:39.28	255.65	23.87	
2025-01-16 19:58:39.48	255.72	23.88	
2025-01-16 19:58:39.68	255.78	23.89	
2025-01-16 19:58:39.89	255.85	23.90	
2025-01-16 19:58:40.09	255.91	23.90	
2025-01-16 19:58:40.29	255.98	23.91	
2025-01-16 19:58:40.49	256.04	23.92	
2025-01-16 19:58:40.70	256.11	23.93	
2025-01-16 19:58:40.90	256.18	23.94	
2025-01-16 19:58:41.10	256.24	23.94	
2025-01-16 19:58:41.31	256.31	23.95	
2025-01-16 19:58:41.51	256.38	23.96	
2025-01-16 19:58:41.71	256.44	23.97	
2025-01-16 19:58:41.92	256.51	23.98	
2025-01-16 19:58:42.12	256.57	23.98	
2025-01-16 19:58:42.32	256.64	23.99	
2025-01-16 19:58:42.53	256.71	24.00	
2025-01-16 19:58:42.73	256.77	24.01	
2025-01-16 19:58:42.93	256.84	24.02	
2025-01-16 19:58:43.13	256.90	24.02	
2025-01-16 19:58:43.34	256.97	24.03	
2025-01-16 19:58:43.54	257.04	24.04	
2025-01-16 19:58:43.74	257.10	24.05	
2025-01-16 19:58:43.95	257.17	24.05	
2025-01-16 19:58:44.15	257.24	24.06	
2025-01-16 19:58:44.35	257.30	24.07	
2025-01-16 19:58:44.56	257.37	24.08	
2025-01-16 19:58:44.76	257.44	24.08	
2025-01-16 19:58:44.96	257.50	24.09	
2025-01-16 19:58:45.17	257.57	24.10	
2025-01-16 19:58:45.37	257.64	24.11	
2025-01-16 19:58:45.57	257.70	24.11	
2025-01-16 19:58:45.78	257.77	24.12	
2025-01-16 19:58:45.98	257.84	24.13	
2025-01-16 19:58:46.18	257.90	24.13	
2025-01-16 19:58:46.38	257.97	24.14	
2025-01-16 19:58:46.59	258.04	24.15	
2025-01-16 19:58:46.79	258.11	24.16	
2025-01-16 19:58:46.99	258.17	24.16	
2025-01-16 19:58:47.20	258.24	24.17	
2025-01-16 19:58:47.40	258.31	24.18	
2025-01-16 19:58:47.60	258.37	24.18	
2025-01-16 19:58:47.81	258.44	24.19	
2025-01-16 19:58:48.01	258.51	24.20	
2025-01-16 19:58:48.21	258.57	24.20	
2025-01-16 19:58:48.42	258.64	24.21	
2025-01-16 19:58:48.62	258.71	24.22	
2025-01-16 19:58:48.82	258.78	24.22	
2025-01-16 19:58:49.03	258.85	24.23	
2025-01-16 19:58:49.23	258.91	24.24	
2025-01-16 19:58:49.43	258.98	24.24	
2025-01-16 19:58:49.63	259.05	24.25	
2025-01-16 19:58:49.84	259.12	24.26	
2025-01-16 19:58:50.04	259.18	24.26	
2025-01-16 19:58:50.24	259.25	24.27	
2025-01-16 19:58:50.45	259.32	24.28	
2025-01-16 19:58:50.65	259.38	24.28	
2025-01-16 19:58:50.85	259.45	24.29	
2025-01-16 19:58:51.06	259.52	24.29	
2025-01-16 19:58:51.26	259.59	24.30	
2025-01-16 19:58:51.46	259.65	24.31	
2025-01-16 19:58:51.67	259.72	24.31	
2025-01-16 19:58:51.87	259.79	24.32	
2025-01-16 19:58:52.07	259.86	24.33	
2025-01-16 19:58:52.28	259.93	24.33	
2025-01-16 19:58:52.48	259.99	24.34	
2025-01-16 19:58:52.68	260.06	24.34	
2025-01-16 19:58:52.88	260.13	24.35	
2025-01-16 19:58:53.09	260.20	24.36	
2025-01-16 19:58:53.29	260.26	24.36	
2025-01-16 19:58:53.49	260.33	24.37	
2025-01-16 19:58:53.70	260.40	24.37	
2025-01-16 19:58:53.90	260.47	24.38	
2025-01-16 19:58:54.10	260.54	24.38	
2025-01-16 19:58:54.31	260.61	24.39	
2025-01-16 19:58:54.51	260.67	24.40	
2025-01-16 19:58:54.71	260.74	24.40	
2025-01-16 19:58:54.92	260.81	24.41	
2025-01-16 19:58:55.12	260.88	24.41	
2025-01-16 19:58:55.32	260.94	24.42	
2025-01-16 19:58:55.52	261.01	24.42	
2025-01-16 19:58:55.73	261.08	24.43	
2025-01-16 19:58:55.93	261.15	24.43	
2025-01-16 19:58:56.13	261.22	24.44	
2025-01-16 19:58:56.34	261.29	24.44	
2025-01-16 19:58:56.54	261.35	24.45	
2025-01-16 19:58:56.74	261.42	24.45	
2025-01-16 19:58:56.95	261.49	24.46	
2025-01-16 19:58:57.15	261.56	24.46	
2025-01-16 19:58:57.35	261.63	24.47	
2025-01-16 19:58:57.56	261.70	24.47	
2025-01-16 19:58:57.76	261.76	24.48	
2025-01-16 19:58:57.96	261.83	24.48	
2025-01-16 19:58:58.17	261.90	24.49	
2025-01-16 19:58:58.37	261.97	24.49	
2025-01-16 19:58:58.57	262.04	24.50	
2025-01-16 19:58:58.77	262.10	24.50	
2025-01-16 19:58:58.98	262.18	24.51	
2025-01-16 19:58:59.18	262.24	24.51	
2025-01-16 19:58:59.38	262.31	24.52	
2025-01-16 19:58:59.59	262.38	24.52	
2025-01-16 19:58:59.79	262.45	24.53	
2025-01-16 19:58:59.99	262.52	24.53	
2025-01-16 19:59:00.20	262.59	24.54	
2025-01-16 19:59:00.40	262.65	24.54	
2025-01-16 19:59:00.60	262.72	24.54	
2025-01-16 19:59:00.81	262.79	24.55	
2025-01-16 19:59:01.01	262.86	24.55	
2025-01-16 19:59:01.21	262.93	24.56	
2025-01-16 19:59:01.42	263.00	24.56	
2025-01-16 19:59:01.62	263.07	24.57	
2025-01-16 19:59:01.82	263.14	24.57	
2025-01-16 19:59:02.02	263.20	24.57	
2025-01-16 19:59:02.23	263.27	24.58	
2025-01-16 19:59:02.43	263.34	24.58	
2025-01-16 19:59:02.63	263.41	24.59	
2025-01-16 19:59:02.84	263.48	24.59	
2025-01-16 19:59:03.04	263.55	24.59	
2025-01-16 19:59:03.24	263.62	24.60	
2025-01-16 19:59:03.45	263.69	24.60	
2025-01-16 19:59:03.65	263.76	24.61	
2025-01-16 19:59:03.85	263.82	24.61	
2025-01-16 19:59:04.06	263.89	24.61	
2025-01-16 19:59:04.26	263.96	24.62	
2025-01-16 19:59:04.46	264.03	24.62	
2025-01-16 19:59:04.67	264.10	24.62	
2025-01-16 19:59:04.87	264.17	24.63	
2025-01-16 19:59:05.07	264.24	24.63	
2025-01-16 19:59:05.27	264.31	24.63	
2025-01-16 19:59:05.48	264.38	24.64	
2025-01-16 19:59:05.68	264.45	24.64	
2025-01-16 19:59:05.88	264.51	24.64	
2025-01-16 19:59:06.09	264.58	24.65	
2025-01-16 19:59:06.29	264.65	24.65	
2025-01-16 19:59:06.49	264.72	24.65	
2025-01-16 19:59:06.70	264.79	24.66	
2025-01-16 19:59:06.90	264.86	24.66	
2025-01-16 19:59:07.10	264.93	24.66	
2025-01-16 19:59:07.31	265.00	24.67	
2025-01-16 19:59:07.51	265.07	24.67	
2025-01-16 19:59:07.71	265.14	24.67	
2025-01-16 19:59:07.91	265.20	24.67	
2025-01-16 19:59:08.12	265.28	24.68	
2025-01-16 19:59:08.32	265.34	24.68	
2025-01-16 19:59:08.52	265.41	24.68	
2025-01-16 19:59:08.73	265.48	24.69	
2025-01-16 19:59:08.93	265.55	24.69	
2025-01-16 19:59:09.13	265.62	24.69	
2025-01-16 19:59:09.34	265.69	24.69	
2025-01-16 19:59:09.54	265.76	24.70	
2025-01-16 19:59:09.74	265.83	24.70	
2025-01-16 19:59:09.95	265.90	24.70	
2025-01-16 19:59:10.15	265.97	24.70	
2025-01-16 19:59:10.35	266.04	24.71	
2025-01-16 19:59:10.56	266.11	24.71	
2025-01-16 19:59:10.76	266.18	24.71	
2025-01-16 19:59:10.96	266.25	24.71	
2025-01-16 19:59:11.16	266.31	24.72	
2025-01-16 19:59:11.37	266.39	24.72	
2025-01-16 19:59:11.57	266.45	24.72	
2025-01-16 19:59:11.77	266.52	24.72	
2025-01-16 19:59:11.98	266.59	24.72	
2025-01-16 19:59:12.18	266.66	24.73	
2025-01-16 19:59:12.38	266.73	24.73	
2025-01-16 19:59:12.59	266.80	24.73	
2025-01-16 19:59:12.79	266.87	24.73	
2025-01-16 19:59:12.99	266.94	24.73	
2025-01-16 19:59:13.20	267.01	24.74	
2025-01-16 19:59:13.40	267.08	24.74	
2025-01-16 19:59:13.60	267.15	24.74	
2025-01-16 19:59:13.81	267.22	24.74	
2025-01-16 19:59:14.01	267.29	24.74	
2025-01-16 19:59:14.21	267.36	24.74	
2025-01-16 19:59:14.41	267.43	24.75	
2025-01-16 19:59:14.62	267.50	24.75	
2025-01-16 19:59:14.82	267.57	24.75	
2025-01-16 19:59:15.02	267.64	24.75	
2025-01-16 19:59:15.23	267.71	24.75	
2025-01-16 19:59:15.43	267.78	24.75	
2025-01-16 19:59:15.63	267.84	24.75	
2025-01-16 19:59:15.84	267.92	24.76	
2025-01-16 19:59:16.04	267.98	24.76	
2025-01-16 19:59:16.24	268.05	24.76	
2025-01-16 19:59:16.45	268.13	24.76	
2025-01-16 19:59:16.65	268.19	24.76	
2025-01-16 19:59:16.85	268.26	24.76	
2025-01-16 19:59:17.05	268.33	24.76	
2025-01-16 19:59:17.26	268.40	24.76	
2025-01-16 19:59:17.46	268.47	24.76	
2025-01-16 19:59:17.66	268.54	24.77	
2025-01-16 19:59:17.87	268.61	24.77	
2025-01-16 19:59:18.07	268.68	24.77	
2025-01-16 19:59:18.27	268.75	24.77	
2025-01-16 19:59:18.48	268.82	24.77	
2025-01-16 19:59:18.68	268.89	24.77	
2025-01-16 19:59:18.88	268.96	24.77	
2025-01-16 19:59:19.09	269.03	24.77	
2025-01-16 19:59:19.29	269.10	24.77	
2025-01-16 19:59:19.49	269.17	24.77	
2025-01-16 19:59:19.70	269.24	24.77	
2025-01-16 19:59:19.90	269.31	24.77	
2025-01-16 19:59:20.10	269.38	24.77	
2025-01-16 19:59:20.30	269.45	24.77	
2025-01-16 19:59:20.51	269.52	24.77	
2025-01-16 19:59:20.71	269.59	24.77	
2025-01-16 19:59:20.91	269.65	24.77	
2025-01-16 19:59:21.12	269.73	24.77	
2025-01-16 19:59:21.32	269.80	24.77	
2025-01-16 19:59:21.52	269.86	24.77	
2025-01-16 19:59:21.73	269.94	24.77	
2025-01-16 19:59:21.93	270.00	24.77	
2025-01-16 19:59:22.13	270.07	24.77	
2025-01-16 19:59:22.34	270.14	24.77	
2025-01-16 19:59:22.54	270.21	24.77	
2025-01-16 19:59:22.74	270.28	24.77	
2025-01-16 19:59:22.95	270.35	24.77	
2025-01-16 19:59:23.15	270.42	24.77	
2025-01-16 19:59:23.35	270.49	24.77	
2025-01-16 19:59:23.55	270.56	24.77	
2025-01-16 19:59:23.76	270.63	24.77	
2025-01-16 19:59:23.96	270.70	24.77	
2025-01-16 19:59:24.16	270.77	24.77	
2025-01-16 19:59:24.37	270.84	24.77	
2025-01-16 19:59:24.57	270.91	24.77	
2025-01-16 19:59:24.77	270.98	24.77	
2025-01-16 19:59:24.98	271.05	24.77	
2025-01-16 19:59:25.18	271.12	24.77	
2025-01-16 19:59:25.38	271.19	24.77	
2025-01-16 19:59:25.59	271.26	24.77	
2025-01-16 19:59:25.79	271.33	24.77	
2025-01-16 19:59:25.99	271.40	24.76	
2025-01-16 19:59:26.20	271.47	24.76	
2025-01-16 19:59:26.40	271.54	24.76	
2025-01-16 19:59:26.60	271.61	24.76	
2025-01-16 19:59:26.80	271.67	24.76	
2025-01-16 19:59:27.01	271.75	24.76	
2025-01-16 19:59:27.21	271.81	24.76	
2025-01-16 19:59:27.41	271.88	24.76	
2025-01-16 19:59:27.62	271.95	24.76	
2025-01-16 19:59:27.82	272.02	24.76	
2025-01-16 19:59:28.02	272.09	24.75	
2025-01-16 19:59:28.23	272.16	24.75	
2025-01-16 19:59:28.43	272.23	24.75	
2025-01-16 19:59:28.63	272.30	24.75	
2025-01-16 19:59:28.84	272.37	24.75	
2025-01-16 19:59:29.04	272.44	24.75	
2025-01-16 19:59:29.24	272.51	24.75	
2025-01-16 19:59:29.44	272.58	24.74	
2025-01-16 19:59:29.65	272.65	24.74	
2025-01-16 19:59:29.85	272.72	24.74	
2025-01-16 19:59:30.05	272.79	24.74	
2025-01-16 19:59:30.26	272.86	24.74	
2025-01-16 19:59:30.46	272.93	24.74	
2025-01-16 19:59:30.66	273.00	24.73	
2025-01-16 19:59:30.87	273.07	24.73	
2025-01-16 19:59:31.07	273.14	24.73	
2025-01-16 19:59:31.27	273.20	24.73	
2025-01-16 19:59:31.48	273.28	24.73	
2025-01-16 19:59:31.68	273.34	24.72	
2025-01-16 19:59:31.88	273.41	24.72	
2025-01-16 19:59:32.09	273.48	24.72	
2025-01-16 19:59:32.29	273.55	24.72	
2025-01-16 19:59:32.49	273.62	24.71	
2025-01-16 19:59:32.69	273.69	24.71	
2025-01-16 19:59:32.90	273.76	24.71	
2025-01-16 19:59:33.10	273.83	24.71	
2025-01-16 19:59:33.30	273.90	24.71	
