passes_logs/2025/01/16/SPB_Silybum_02/SPB_Silybum_02__20250116_121235_AQUA_rec.log

#Pass ID: 20250116_121235_AQUA
#Satellite: AQUA
#Configuration: AQUA
#Start time: 2025-01-16 12:12:35

#Version: 2.0.20230423
#Station: SPB_Silybum_02
#Location: 30.233357 lon 59.946436 lat
#TLE: 1 27424U 02022A   25015.89755826  .00001635  00000+0  34564-3 0  9997
#TLE: 2 27424  98.3590 332.5696 0001753 110.3458 316.1758 14.60685220207753

#Time	Az	El	Level	Level2	SNR	BER	Gain	Gain2
2025-01-16 12:12:37.13	186.35	4.12	
2025-01-16 12:12:37.34	186.36	4.14	
2025-01-16 12:12:37.54	186.37	4.15	
2025-01-16 12:12:37.74	186.38	4.17	
2025-01-16 12:12:37.94	186.39	4.18	
2025-01-16 12:12:38.15	186.40	4.19	
2025-01-16 12:12:38.35	186.41	4.21	
2025-01-16 12:12:38.55	186.42	4.22	
2025-01-16 12:12:38.76	186.43	4.24	
2025-01-16 12:12:38.96	186.44	4.25	
2025-01-16 12:12:39.16	186.45	4.26	
2025-01-16 12:12:39.37	186.46	4.28	
2025-01-16 12:12:39.57	186.47	4.29	
2025-01-16 12:12:39.77	186.48	4.31	
2025-01-16 12:12:39.97	186.49	4.32	
2025-01-16 12:12:40.18	186.50	4.34	
2025-01-16 12:12:40.38	186.51	4.35	
2025-01-16 12:12:40.58	186.52	4.36	
2025-01-16 12:12:40.79	186.53	4.38	
2025-01-16 12:12:40.99	186.54	4.39	
2025-01-16 12:12:41.19	186.55	4.41	
2025-01-16 12:12:41.40	186.56	4.42	
2025-01-16 12:12:41.60	186.57	4.43	
2025-01-16 12:12:41.80	186.58	4.45	
2025-01-16 12:12:42.00	186.59	4.46	
2025-01-16 12:12:42.21	186.61	4.48	
2025-01-16 12:12:42.41	186.62	4.49	
2025-01-16 12:12:42.61	186.63	4.51	
2025-01-16 12:12:42.82	186.64	4.52	
2025-01-16 12:12:43.02	186.65	4.53	
2025-01-16 12:12:43.22	186.66	4.55	
2025-01-16 12:12:43.43	186.67	4.56	
2025-01-16 12:12:43.63	186.68	4.58	
2025-01-16 12:12:43.83	186.69	4.59	
2025-01-16 12:12:44.03	186.70	4.61	
2025-01-16 12:12:44.24	186.71	4.62	
2025-01-16 12:12:44.44	186.72	4.63	
2025-01-16 12:12:44.64	186.73	4.65	
2025-01-16 12:12:44.85	186.74	4.66	
2025-01-16 12:12:45.05	186.75	4.68	
2025-01-16 12:12:45.25	186.76	4.69	
2025-01-16 12:12:45.45	186.77	4.71	
2025-01-16 12:12:45.66	186.79	4.72	
2025-01-16 12:12:45.86	186.80	4.73	
2025-01-16 12:12:46.06	186.81	4.75	
2025-01-16 12:12:46.27	186.82	4.76	
2025-01-16 12:12:46.47	186.83	4.78	
2025-01-16 12:12:46.67	186.84	4.79	
2025-01-16 12:12:46.88	186.85	4.81	
2025-01-16 12:12:47.08	186.86	4.82	
2025-01-16 12:12:47.28	186.87	4.84	
2025-01-16 12:12:47.48	186.88	4.85	
2025-01-16 12:12:47.69	186.89	4.86	
2025-01-16 12:12:47.89	186.90	4.88	
2025-01-16 12:12:48.09	186.91	4.89	
2025-01-16 12:12:48.30	186.92	4.91	
2025-01-16 12:12:48.50	186.94	4.92	
2025-01-16 12:12:48.70	186.95	4.94	
2025-01-16 12:12:48.91	186.96	4.95	
2025-01-16 12:12:49.11	186.97	4.97	
2025-01-16 12:12:49.31	186.98	4.98	
2025-01-16 12:12:49.51	186.99	4.99	
2025-01-16 12:12:49.72	187.00	5.01	
2025-01-16 12:12:49.92	187.01	5.02	
2025-01-16 12:12:50.12	187.02	5.04	
2025-01-16 12:12:50.33	187.03	5.05	
2025-01-16 12:12:50.53	187.04	5.07	
2025-01-16 12:12:50.73	187.05	5.08	
2025-01-16 12:12:50.94	187.07	5.10	
2025-01-16 12:12:51.14	187.08	5.11	
2025-01-16 12:12:51.34	187.09	5.12	
2025-01-16 12:12:51.54	187.10	5.14	
2025-01-16 12:12:51.75	187.11	5.15	
2025-01-16 12:12:51.95	187.12	5.17	
2025-01-16 12:12:52.15	187.13	5.18	
2025-01-16 12:12:52.36	187.14	5.20	
2025-01-16 12:12:52.56	187.15	5.21	
2025-01-16 12:12:52.76	187.16	5.23	
2025-01-16 12:12:52.97	187.18	5.24	
2025-01-16 12:12:53.17	187.19	5.26	
2025-01-16 12:12:53.37	187.20	5.27	
2025-01-16 12:12:53.57	187.21	5.29	
2025-01-16 12:12:53.78	187.22	5.30	
2025-01-16 12:12:53.98	187.23	5.32	
2025-01-16 12:12:54.18	187.24	5.33	
2025-01-16 12:12:54.39	187.25	5.34	
2025-01-16 12:12:54.59	187.26	5.36	
2025-01-16 12:12:54.79	187.28	5.37	
2025-01-16 12:12:54.99	187.29	5.39	
2025-01-16 12:12:55.20	187.30	5.40	
2025-01-16 12:12:55.40	187.31	5.42	
2025-01-16 12:12:55.60	187.32	5.43	
2025-01-16 12:12:55.81	187.33	5.45	
2025-01-16 12:12:56.01	187.34	5.46	
2025-01-16 12:12:56.21	187.35	5.48	
2025-01-16 12:12:56.42	187.37	5.49	
2025-01-16 12:12:56.62	187.38	5.51	
2025-01-16 12:12:56.82	187.39	5.52	
2025-01-16 12:12:57.02	187.40	5.54	
2025-01-16 12:12:57.23	187.41	5.55	
2025-01-16 12:12:57.43	187.42	5.57	
2025-01-16 12:12:57.63	187.43	5.58	
2025-01-16 12:12:57.84	187.44	5.60	
2025-01-16 12:12:58.04	187.46	5.61	
2025-01-16 12:12:58.24	187.47	5.63	
2025-01-16 12:12:58.45	187.48	5.64	
2025-01-16 12:12:58.65	187.49	5.66	
2025-01-16 12:12:58.85	187.50	5.67	
2025-01-16 12:12:59.05	187.51	5.68	
2025-01-16 12:12:59.26	187.52	5.70	
2025-01-16 12:12:59.46	187.54	5.71	
2025-01-16 12:12:59.66	187.55	5.73	
2025-01-16 12:12:59.87	187.56	5.74	
2025-01-16 12:13:00.07	187.57	5.76	
2025-01-16 12:13:00.27	187.58	5.77	
2025-01-16 12:13:00.48	187.59	5.79	
2025-01-16 12:13:00.68	187.60	5.80	
2025-01-16 12:13:00.88	187.62	5.82	
2025-01-16 12:13:01.08	187.63	5.83	
2025-01-16 12:13:01.29	187.64	5.85	
2025-01-16 12:13:01.49	187.65	5.86	
2025-01-16 12:13:01.69	187.66	5.88	
2025-01-16 12:13:01.90	187.67	5.89	
2025-01-16 12:13:02.10	187.68	5.91	
2025-01-16 12:13:02.30	187.70	5.92	
2025-01-16 12:13:02.51	187.71	5.94	
2025-01-16 12:13:02.71	187.72	5.95	
2025-01-16 12:13:02.91	187.73	5.97	
2025-01-16 12:13:03.11	187.74	5.98	
2025-01-16 12:13:03.32	187.75	6.00	
2025-01-16 12:13:03.52	187.77	6.01	
2025-01-16 12:13:03.72	187.78	6.03	
2025-01-16 12:13:03.93	187.79	6.04	
2025-01-16 12:13:04.13	187.80	6.06	
2025-01-16 12:13:04.33	187.81	6.07	
2025-01-16 12:13:04.54	187.82	6.09	
2025-01-16 12:13:04.74	187.84	6.11	
2025-01-16 12:13:04.94	187.85	6.12	
2025-01-16 12:13:05.14	187.86	6.14	
2025-01-16 12:13:05.35	187.87	6.15	
2025-01-16 12:13:05.55	187.88	6.17	
2025-01-16 12:13:05.75	187.89	6.18	
2025-01-16 12:13:05.96	187.91	6.20	
2025-01-16 12:13:06.16	187.92	6.21	
2025-01-16 12:13:06.36	187.93	6.23	
2025-01-16 12:13:06.56	187.94	6.24	
2025-01-16 12:13:06.77	187.95	6.26	
2025-01-16 12:13:06.97	187.97	6.27	
2025-01-16 12:13:07.17	187.98	6.29	
2025-01-16 12:13:07.38	187.99	6.30	
2025-01-16 12:13:07.58	188.00	6.32	
2025-01-16 12:13:07.78	188.01	6.33	
2025-01-16 12:13:07.99	188.03	6.35	
2025-01-16 12:13:08.19	188.04	6.36	
2025-01-16 12:13:08.39	188.05	6.38	
2025-01-16 12:13:08.59	188.06	6.39	
2025-01-16 12:13:08.80	188.07	6.41	
2025-01-16 12:13:09.00	188.09	6.42	
2025-01-16 12:13:09.20	188.10	6.44	
2025-01-16 12:13:09.41	188.11	6.46	
2025-01-16 12:13:09.61	188.12	6.47	
2025-01-16 12:13:09.81	188.13	6.49	
2025-01-16 12:13:10.02	188.15	6.50	
2025-01-16 12:13:10.22	188.16	6.52	
2025-01-16 12:13:10.42	188.17	6.53	
2025-01-16 12:13:10.62	188.18	6.55	
2025-01-16 12:13:10.83	188.19	6.56	
2025-01-16 12:13:11.03	188.21	6.58	
2025-01-16 12:13:11.23	188.22	6.59	
2025-01-16 12:13:11.44	188.23	6.61	
2025-01-16 12:13:11.64	188.24	6.62	
2025-01-16 12:13:11.84	188.25	6.64	
2025-01-16 12:13:12.05	188.27	6.66	
2025-01-16 12:13:12.25	188.28	6.67	
2025-01-16 12:13:12.45	188.29	6.69	
2025-01-16 12:13:12.65	188.30	6.70	
2025-01-16 12:13:12.86	188.32	6.72	
2025-01-16 12:13:13.06	188.33	6.73	
2025-01-16 12:13:13.26	188.34	6.75	
2025-01-16 12:13:13.47	188.35	6.76	
2025-01-16 12:13:13.67	188.37	6.78	
2025-01-16 12:13:13.87	188.38	6.80	
2025-01-16 12:13:14.08	188.39	6.81	
2025-01-16 12:13:14.28	188.40	6.83	
2025-01-16 12:13:14.48	188.41	6.84	
2025-01-16 12:13:14.68	188.43	6.86	
2025-01-16 12:13:14.89	188.44	6.87	
2025-01-16 12:13:15.09	188.45	6.89	
2025-01-16 12:13:15.29	188.46	6.90	
2025-01-16 12:13:15.50	188.48	6.92	
2025-01-16 12:13:15.70	188.49	6.94	
2025-01-16 12:13:15.90	188.50	6.95	
2025-01-16 12:13:16.10	188.51	6.97	
2025-01-16 12:13:16.31	188.53	6.98	
2025-01-16 12:13:16.51	188.54	7.00	
2025-01-16 12:13:16.71	188.55	7.01	
2025-01-16 12:13:16.92	188.56	7.03	
2025-01-16 12:13:17.12	188.58	7.05	
2025-01-16 12:13:17.32	188.59	7.06	
2025-01-16 12:13:17.53	188.60	7.08	
2025-01-16 12:13:17.73	188.61	7.09	
2025-01-16 12:13:17.93	188.63	7.11	
2025-01-16 12:13:18.13	188.64	7.12	
2025-01-16 12:13:18.34	188.65	7.14	
2025-01-16 12:13:18.54	188.66	7.16	
2025-01-16 12:13:18.74	188.68	7.17	
2025-01-16 12:13:18.95	188.69	7.19	
2025-01-16 12:13:19.15	188.70	7.20	
2025-01-16 12:13:19.35	188.72	7.22	
2025-01-16 12:13:19.56	188.73	7.23	
2025-01-16 12:13:19.76	188.74	7.25	
2025-01-16 12:13:19.96	188.75	7.27	
2025-01-16 12:13:20.16	188.77	7.28	
2025-01-16 12:13:20.37	188.78	7.30	
2025-01-16 12:13:20.57	188.79	7.31	
2025-01-16 12:13:20.77	188.80	7.33	
2025-01-16 12:13:20.98	188.82	7.35	
2025-01-16 12:13:21.18	188.83	7.36	
2025-01-16 12:13:21.38	188.84	7.38	
2025-01-16 12:13:21.59	188.86	7.39	
2025-01-16 12:13:21.79	188.87	7.41	
2025-01-16 12:13:21.99	188.88	7.42	
2025-01-16 12:13:22.19	188.89	7.44	
2025-01-16 12:13:22.40	188.91	7.46	
2025-01-16 12:13:22.60	188.92	7.47	
2025-01-16 12:13:22.80	188.93	7.49	
2025-01-16 12:13:23.01	188.95	7.51	
2025-01-16 12:13:23.21	188.96	7.52	
2025-01-16 12:13:23.41	188.97	7.54	
2025-01-16 12:13:23.62	188.99	7.55	
2025-01-16 12:13:23.82	189.00	7.57	
2025-01-16 12:13:24.02	189.01	7.58	
2025-01-16 12:13:24.22	189.02	7.60	
2025-01-16 12:13:24.43	189.04	7.62	
2025-01-16 12:13:24.63	189.05	7.63	
2025-01-16 12:13:24.83	189.06	7.65	
2025-01-16 12:13:25.04	189.08	7.67	
2025-01-16 12:13:25.24	189.09	7.68	
2025-01-16 12:13:25.44	189.10	7.70	
2025-01-16 12:13:25.64	189.12	7.71	
2025-01-16 12:13:25.85	189.13	7.73	
2025-01-16 12:13:26.05	189.14	7.75	
2025-01-16 12:13:26.25	189.15	7.76	
2025-01-16 12:13:26.46	189.17	7.78	
2025-01-16 12:13:26.66	189.18	7.79	
2025-01-16 12:13:26.86	189.19	7.81	
2025-01-16 12:13:27.07	189.21	7.83	
2025-01-16 12:13:27.27	189.22	7.84	
2025-01-16 12:13:27.47	189.23	7.86	
2025-01-16 12:13:27.67	189.25	7.87	
2025-01-16 12:13:27.88	189.26	7.89	
2025-01-16 12:13:28.08	189.27	7.91	
2025-01-16 12:13:28.28	189.29	7.92	
2025-01-16 12:13:28.49	189.30	7.94	
2025-01-16 12:13:28.69	189.31	7.96	
2025-01-16 12:13:28.89	189.33	7.97	
2025-01-16 12:13:29.10	189.34	7.99	
2025-01-16 12:13:29.30	189.35	8.01	
2025-01-16 12:13:29.50	189.37	8.02	
2025-01-16 12:13:29.70	189.38	8.04	
2025-01-16 12:13:29.91	189.40	8.05	
2025-01-16 12:13:30.11	189.41	8.07	
2025-01-16 12:13:30.31	189.42	8.09	
2025-01-16 12:13:30.52	189.44	8.10	
2025-01-16 12:13:30.72	189.45	8.12	
2025-01-16 12:13:30.92	189.46	8.14	
2025-01-16 12:13:31.13	189.48	8.15	
2025-01-16 12:13:31.33	189.49	8.17	
2025-01-16 12:13:31.53	189.50	8.19	
2025-01-16 12:13:31.73	189.52	8.20	
2025-01-16 12:13:31.94	189.53	8.22	
2025-01-16 12:13:32.14	189.54	8.23	
2025-01-16 12:13:32.34	189.56	8.25	
2025-01-16 12:13:32.55	189.57	8.27	
2025-01-16 12:13:32.75	189.59	8.28	
2025-01-16 12:13:32.95	189.60	8.30	
2025-01-16 12:13:33.16	189.61	8.32	
2025-01-16 12:13:33.36	189.63	8.33	
2025-01-16 12:13:33.56	189.64	8.35	
2025-01-16 12:13:33.76	189.65	8.37	
2025-01-16 12:13:33.97	189.67	8.38	
2025-01-16 12:13:34.17	189.68	8.40	
2025-01-16 12:13:34.37	189.70	8.42	
2025-01-16 12:13:34.58	189.71	8.43	
2025-01-16 12:13:34.78	189.72	8.45	
2025-01-16 12:13:34.98	189.74	8.47	
2025-01-16 12:13:35.18	189.75	8.48	
2025-01-16 12:13:35.39	189.76	8.50	
2025-01-16 12:13:35.59	189.78	8.52	
2025-01-16 12:13:35.79	189.79	8.53	
2025-01-16 12:13:36.00	189.81	8.55	
2025-01-16 12:13:36.20	189.82	8.57	
2025-01-16 12:13:36.40	189.83	8.58	
2025-01-16 12:13:36.61	189.85	8.60	
2025-01-16 12:13:36.81	189.86	8.62	
2025-01-16 12:13:37.01	189.88	8.63	
2025-01-16 12:13:37.21	189.89	8.65	
2025-01-16 12:13:37.42	189.90	8.67	
2025-01-16 12:13:37.62	189.92	8.68	
2025-01-16 12:13:37.82	189.93	8.70	
2025-01-16 12:13:38.03	189.95	8.72	
2025-01-16 12:13:38.23	189.96	8.73	
2025-01-16 12:13:38.43	189.97	8.75	
2025-01-16 12:13:38.64	189.99	8.77	
2025-01-16 12:13:38.84	190.00	8.78	
2025-01-16 12:13:39.04	190.02	8.80	
2025-01-16 12:13:39.24	190.03	8.82	
2025-01-16 12:13:39.45	190.05	8.83	
2025-01-16 12:13:39.65	190.06	8.85	
2025-01-16 12:13:39.85	190.07	8.87	
2025-01-16 12:13:40.06	190.09	8.88	
2025-01-16 12:13:40.26	190.10	8.90	
2025-01-16 12:13:40.46	190.12	8.92	
2025-01-16 12:13:40.67	190.13	8.94	
2025-01-16 12:13:40.87	190.15	8.95	
2025-01-16 12:13:41.07	190.16	8.97	
2025-01-16 12:13:41.27	190.17	8.99	
2025-01-16 12:13:41.48	190.19	9.00	
2025-01-16 12:13:41.68	190.20	9.02	
2025-01-16 12:13:41.88	190.22	9.04	
2025-01-16 12:13:42.09	190.23	9.05	
2025-01-16 12:13:42.29	190.25	9.07	
2025-01-16 12:13:42.49	190.26	9.09	
2025-01-16 12:13:42.70	190.28	9.11	
2025-01-16 12:13:42.90	190.29	9.12	
2025-01-16 12:13:43.10	190.30	9.14	
2025-01-16 12:13:43.30	190.32	9.16	
2025-01-16 12:13:43.51	190.33	9.17	
2025-01-16 12:13:43.71	190.35	9.19	
2025-01-16 12:13:43.91	190.36	9.21	
2025-01-16 12:13:44.12	190.38	9.22	
2025-01-16 12:13:44.32	190.39	9.24	
2025-01-16 12:13:44.52	190.41	9.26	
2025-01-16 12:13:44.73	190.42	9.28	
2025-01-16 12:13:44.93	190.44	9.29	
2025-01-16 12:13:45.13	190.45	9.31	
2025-01-16 12:13:45.33	190.47	9.33	
2025-01-16 12:13:45.54	190.48	9.34	
2025-01-16 12:13:45.74	190.50	9.36	
2025-01-16 12:13:45.94	190.51	9.38	
2025-01-16 12:13:46.15	190.53	9.40	
2025-01-16 12:13:46.35	190.54	9.41	
2025-01-16 12:13:46.55	190.55	9.43	
2025-01-16 12:13:46.75	190.57	9.45	
2025-01-16 12:13:46.96	190.58	9.47	
2025-01-16 12:13:47.16	190.60	9.48	
2025-01-16 12:13:47.36	190.61	9.50	
2025-01-16 12:13:47.57	190.63	9.52	
2025-01-16 12:13:47.77	190.64	9.53	
2025-01-16 12:13:47.97	190.66	9.55	
2025-01-16 12:13:48.18	190.67	9.57	
2025-01-16 12:13:48.38	190.69	9.59	
2025-01-16 12:13:48.58	190.70	9.60	
2025-01-16 12:13:48.78	190.72	9.62	
2025-01-16 12:13:48.99	190.73	9.64	
2025-01-16 12:13:49.19	190.75	9.66	
2025-01-16 12:13:49.39	190.76	9.67	
2025-01-16 12:13:49.60	190.78	9.69	
2025-01-16 12:13:49.80	190.79	9.71	
2025-01-16 12:13:50.00	190.81	9.73	
2025-01-16 12:13:50.21	190.82	9.74	
2025-01-16 12:13:50.41	190.84	9.76	
2025-01-16 12:13:50.61	190.85	9.78	
2025-01-16 12:13:50.81	190.87	9.80	
2025-01-16 12:13:51.02	190.89	9.81	
2025-01-16 12:13:51.22	190.90	9.83	
2025-01-16 12:13:51.42	190.92	9.85	
2025-01-16 12:13:51.63	190.93	9.87	
2025-01-16 12:13:51.83	190.95	9.88	
2025-01-16 12:13:52.03	190.96	9.90	
2025-01-16 12:13:52.24	190.98	9.92	
2025-01-16 12:13:52.44	190.99	9.94	
2025-01-16 12:13:52.64	191.01	9.95	
2025-01-16 12:13:52.84	191.02	9.97	
2025-01-16 12:13:53.05	191.04	9.99	
2025-01-16 12:13:53.25	191.05	10.01	
2025-01-16 12:13:53.45	191.07	10.02	
2025-01-16 12:13:53.66	191.09	10.04	
2025-01-16 12:13:53.86	191.10	10.06	
2025-01-16 12:13:54.06	191.12	10.08	
2025-01-16 12:13:54.27	191.13	10.10	
2025-01-16 12:13:54.47	191.15	10.11	
2025-01-16 12:13:54.67	191.16	10.13	
2025-01-16 12:13:54.87	191.18	10.15	
2025-01-16 12:13:55.08	191.19	10.17	
2025-01-16 12:13:55.28	191.21	10.18	
2025-01-16 12:13:55.48	191.22	10.20	
2025-01-16 12:13:55.69	191.24	10.22	
2025-01-16 12:13:55.89	191.26	10.24	
2025-01-16 12:13:56.09	191.27	10.25	
2025-01-16 12:13:56.29	191.29	10.27	
2025-01-16 12:13:56.50	191.30	10.29	
2025-01-16 12:13:56.70	191.32	10.31	
2025-01-16 12:13:56.90	191.34	10.33	
2025-01-16 12:13:57.11	191.35	10.34	
2025-01-16 12:13:57.31	191.37	10.36	
2025-01-16 12:13:57.51	191.38	10.38	
2025-01-16 12:13:57.72	191.40	10.40	
2025-01-16 12:13:57.92	191.41	10.42	
2025-01-16 12:13:58.12	191.43	10.43	
2025-01-16 12:13:58.32	191.45	10.45	
2025-01-16 12:13:58.53	191.46	10.47	
2025-01-16 12:13:58.73	191.48	10.49	
2025-01-16 12:13:58.93	191.49	10.51	
2025-01-16 12:13:59.14	191.51	10.52	
2025-01-16 12:13:59.34	191.53	10.54	
2025-01-16 12:13:59.54	191.54	10.56	
2025-01-16 12:13:59.75	191.56	10.58	
2025-01-16 12:13:59.95	191.57	10.60	
2025-01-16 12:14:00.15	191.59	10.61	
2025-01-16 12:14:00.35	191.61	10.63	
2025-01-16 12:14:00.56	191.62	10.65	
2025-01-16 12:14:00.76	191.64	10.67	
2025-01-16 12:14:00.96	191.66	10.69	
2025-01-16 12:14:01.17	191.67	10.70	
2025-01-16 12:14:01.37	191.69	10.72	
2025-01-16 12:14:01.57	191.70	10.74	
2025-01-16 12:14:01.78	191.72	10.76	
2025-01-16 12:14:01.98	191.74	10.78	
2025-01-16 12:14:02.18	191.75	10.80	
2025-01-16 12:14:02.38	191.77	10.81	
2025-01-16 12:14:02.59	191.79	10.83	
2025-01-16 12:14:02.79	191.80	10.85	
2025-01-16 12:14:02.99	191.82	10.87	
2025-01-16 12:14:03.20	191.84	10.89	
2025-01-16 12:14:03.40	191.85	10.91	
2025-01-16 12:14:03.60	191.87	10.92	
2025-01-16 12:14:03.81	191.88	10.94	
2025-01-16 12:14:04.01	191.90	10.96	
2025-01-16 12:14:04.21	191.92	10.98	
2025-01-16 12:14:04.41	191.93	11.00	
2025-01-16 12:14:04.62	191.95	11.02	
2025-01-16 12:14:04.82	191.97	11.03	
2025-01-16 12:14:05.02	191.98	11.05	
2025-01-16 12:14:05.23	192.00	11.07	
2025-01-16 12:14:05.43	192.02	11.09	
2025-01-16 12:14:05.63	192.03	11.11	
2025-01-16 12:14:05.83	192.05	11.13	
2025-01-16 12:14:06.04	192.07	11.14	
2025-01-16 12:14:06.24	192.08	11.16	
2025-01-16 12:14:06.44	192.10	11.18	
2025-01-16 12:14:06.65	192.12	11.20	
2025-01-16 12:14:06.85	192.13	11.22	
2025-01-16 12:14:07.05	192.15	11.24	
2025-01-16 12:14:07.26	192.17	11.26	
2025-01-16 12:14:07.46	192.19	11.27	
2025-01-16 12:14:07.66	192.20	11.29	
2025-01-16 12:14:07.86	192.22	11.31	
2025-01-16 12:14:08.07	192.24	11.33	
2025-01-16 12:14:08.27	192.25	11.35	
2025-01-16 12:14:08.47	192.27	11.37	
2025-01-16 12:14:08.68	192.29	11.39	
2025-01-16 12:14:08.88	192.30	11.40	
2025-01-16 12:14:09.08	192.32	11.42	
2025-01-16 12:14:09.29	192.34	11.44	
2025-01-16 12:14:09.49	192.36	11.46	
2025-01-16 12:14:09.69	192.37	11.48	
2025-01-16 12:14:09.89	192.39	11.50	
2025-01-16 12:14:10.10	192.41	11.52	
2025-01-16 12:14:10.30	192.42	11.53	
2025-01-16 12:14:10.50	192.44	11.55	
2025-01-16 12:14:10.71	192.46	11.57	
2025-01-16 12:14:10.91	192.48	11.59	
2025-01-16 12:14:11.11	192.49	11.61	
2025-01-16 12:14:11.32	192.51	11.63	
2025-01-16 12:14:11.52	192.53	11.65	
2025-01-16 12:14:11.72	192.54	11.67	
2025-01-16 12:14:11.92	192.56	11.68	
2025-01-16 12:14:12.13	192.58	11.70	
2025-01-16 12:14:12.33	192.60	11.72	
2025-01-16 12:14:12.53	192.61	11.74	
2025-01-16 12:14:12.74	192.63	11.76	
2025-01-16 12:14:12.94	192.65	11.78	
2025-01-16 12:14:13.14	192.67	11.80	
2025-01-16 12:14:13.35	192.68	11.82	
2025-01-16 12:14:13.55	192.70	11.84	
2025-01-16 12:14:13.75	192.72	11.86	
2025-01-16 12:14:13.95	192.74	11.87	
2025-01-16 12:14:14.16	192.75	11.89	
2025-01-16 12:14:14.36	192.77	11.91	
2025-01-16 12:14:14.56	192.79	11.93	
2025-01-16 12:14:14.77	192.81	11.95	
2025-01-16 12:14:14.97	192.83	11.97	
2025-01-16 12:14:15.17	192.84	11.99	
2025-01-16 12:14:15.37	192.86	12.01	
2025-01-16 12:14:15.58	192.88	12.03	
2025-01-16 12:14:15.78	192.90	12.05	
2025-01-16 12:14:15.98	192.91	12.06	
2025-01-16 12:14:16.19	192.93	12.08	
2025-01-16 12:14:16.39	192.95	12.10	
2025-01-16 12:14:16.59	192.97	12.12	
2025-01-16 12:14:16.80	192.99	12.14	
2025-01-16 12:14:17.00	193.00	12.16	
2025-01-16 12:14:17.20	193.02	12.18	
2025-01-16 12:14:17.40	193.04	12.20	
2025-01-16 12:14:17.61	193.06	12.22	
2025-01-16 12:14:17.81	193.08	12.24	
2025-01-16 12:14:18.01	193.09	12.26	
2025-01-16 12:14:18.22	193.11	12.28	
2025-01-16 12:14:18.42	193.13	12.30	
2025-01-16 12:14:18.62	193.15	12.31	
2025-01-16 12:14:18.83	193.17	12.33	
2025-01-16 12:14:19.03	193.18	12.35	
2025-01-16 12:14:19.23	193.20	12.37	
2025-01-16 12:14:19.43	193.22	12.39	
2025-01-16 12:14:19.64	193.24	12.41	
2025-01-16 12:14:19.84	193.26	12.43	
2025-01-16 12:14:20.04	193.28	12.45	
2025-01-16 12:14:20.25	193.29	12.47	
2025-01-16 12:14:20.45	193.31	12.49	
2025-01-16 12:14:20.65	193.33	12.51	
2025-01-16 12:14:20.86	193.35	12.53	
2025-01-16 12:14:21.06	193.37	12.55	
2025-01-16 12:14:21.26	193.39	12.57	
2025-01-16 12:14:21.46	193.40	12.59	
2025-01-16 12:14:21.67	193.42	12.61	
2025-01-16 12:14:21.87	193.44	12.63	
2025-01-16 12:14:22.07	193.46	12.65	
2025-01-16 12:14:22.28	193.48	12.67	
2025-01-16 12:14:22.48	193.50	12.69	
2025-01-16 12:14:22.68	193.52	12.70	
2025-01-16 12:14:22.89	193.54	12.72	
2025-01-16 12:14:23.09	193.55	12.74	
2025-01-16 12:14:23.29	193.57	12.76	
2025-01-16 12:14:23.49	193.59	12.78	
2025-01-16 12:14:23.70	193.61	12.80	
2025-01-16 12:14:23.90	193.63	12.82	
2025-01-16 12:14:24.10	193.65	12.84	
2025-01-16 12:14:24.31	193.67	12.86	
2025-01-16 12:14:24.51	193.69	12.88	
2025-01-16 12:14:24.71	193.70	12.90	
2025-01-16 12:14:24.92	193.72	12.92	
2025-01-16 12:14:25.12	193.74	12.94	
2025-01-16 12:14:25.32	193.76	12.96	
2025-01-16 12:14:25.52	193.78	12.98	
2025-01-16 12:14:25.73	193.80	13.00	
2025-01-16 12:14:25.93	193.82	13.02	
2025-01-16 12:14:26.13	193.84	13.04	
2025-01-16 12:14:26.34	193.86	13.06	
2025-01-16 12:14:26.54	193.88	13.08	
2025-01-16 12:14:26.74	193.90	13.10	
2025-01-16 12:14:26.94	193.91	13.12	
2025-01-16 12:14:27.15	193.93	13.14	
2025-01-16 12:14:27.35	193.95	13.16	
2025-01-16 12:14:27.55	193.97	13.18	
2025-01-16 12:14:27.76	193.99	13.20	
2025-01-16 12:14:27.96	194.01	13.22	
2025-01-16 12:14:28.16	194.03	13.24	
2025-01-16 12:14:28.37	194.05	13.26	
2025-01-16 12:14:28.57	194.07	13.28	
2025-01-16 12:14:28.77	194.09	13.30	
2025-01-16 12:14:28.97	194.11	13.32	
2025-01-16 12:14:29.18	194.13	13.34	
2025-01-16 12:14:29.38	194.15	13.36	
2025-01-16 12:14:29.58	194.17	13.38	
2025-01-16 12:14:29.79	194.19	13.40	
2025-01-16 12:14:29.99	194.21	13.42	
2025-01-16 12:14:30.19	194.23	13.44	
2025-01-16 12:14:30.40	194.25	13.46	
2025-01-16 12:14:30.60	194.26	13.48	
2025-01-16 12:14:30.80	194.28	13.50	
2025-01-16 12:14:31.00	194.30	13.52	
2025-01-16 12:14:31.21	194.32	13.54	
2025-01-16 12:14:31.41	194.34	13.56	
2025-01-16 12:14:31.61	194.36	13.58	
2025-01-16 12:14:31.82	194.38	13.60	
2025-01-16 12:14:32.02	194.40	13.62	
2025-01-16 12:14:32.22	194.42	13.64	
2025-01-16 12:14:32.43	194.44	13.67	
2025-01-16 12:14:32.63	194.46	13.69	
2025-01-16 12:14:32.83	194.48	13.71	
2025-01-16 12:14:33.03	194.50	13.73	
2025-01-16 12:14:33.24	194.52	13.75	
2025-01-16 12:14:33.44	194.54	13.77	
2025-01-16 12:14:33.64	194.56	13.79	
2025-01-16 12:14:33.85	194.58	13.81	
2025-01-16 12:14:34.05	194.60	13.83	
2025-01-16 12:14:34.25	194.62	13.85	
2025-01-16 12:14:34.46	194.64	13.87	
2025-01-16 12:14:34.66	194.66	13.89	
2025-01-16 12:14:34.86	194.68	13.91	
2025-01-16 12:14:35.06	194.70	13.93	
2025-01-16 12:14:35.27	194.73	13.95	
2025-01-16 12:14:35.47	194.75	13.97	
2025-01-16 12:14:35.67	194.77	13.99	
2025-01-16 12:14:35.88	194.79	14.01	
2025-01-16 12:14:36.08	194.81	14.03	
2025-01-16 12:14:36.28	194.83	14.05	
2025-01-16 12:14:36.48	194.85	14.07	
2025-01-16 12:14:36.69	194.87	14.10	
2025-01-16 12:14:36.89	194.89	14.12	
2025-01-16 12:14:37.09	194.91	14.14	
2025-01-16 12:14:37.30	194.93	14.16	
2025-01-16 12:14:37.50	194.95	14.18	
2025-01-16 12:14:37.70	194.97	14.20	
2025-01-16 12:14:37.91	194.99	14.22	
2025-01-16 12:14:38.11	195.01	14.24	
2025-01-16 12:14:38.31	195.03	14.26	
2025-01-16 12:14:38.51	195.05	14.28	
2025-01-16 12:14:38.72	195.08	14.30	
2025-01-16 12:14:38.92	195.10	14.32	
2025-01-16 12:14:39.12	195.12	14.35	
2025-01-16 12:14:39.33	195.14	14.37	
2025-01-16 12:14:39.53	195.16	14.39	
2025-01-16 12:14:39.73	195.18	14.41	
2025-01-16 12:14:39.94	195.20	14.43	
2025-01-16 12:14:40.14	195.22	14.45	
2025-01-16 12:14:40.34	195.24	14.47	
2025-01-16 12:14:40.54	195.26	14.49	
2025-01-16 12:14:40.75	195.29	14.51	
2025-01-16 12:14:40.95	195.31	14.53	
2025-01-16 12:14:41.15	195.33	14.56	
2025-01-16 12:14:41.36	195.35	14.58	
2025-01-16 12:14:41.56	195.37	14.60	
2025-01-16 12:14:41.76	195.39	14.62	
2025-01-16 12:14:41.97	195.41	14.64	
2025-01-16 12:14:42.17	195.43	14.66	
2025-01-16 12:14:42.37	195.46	14.68	
2025-01-16 12:14:42.57	195.48	14.70	
2025-01-16 12:14:42.78	195.50	14.72	
2025-01-16 12:14:42.98	195.52	14.75	
2025-01-16 12:14:43.18	195.54	14.77	
2025-01-16 12:14:43.39	195.56	14.79	
2025-01-16 12:14:43.59	195.59	14.81	
2025-01-16 12:14:43.79	195.61	14.83	
2025-01-16 12:14:44.00	195.63	14.85	
2025-01-16 12:14:44.20	195.65	14.87	
2025-01-16 12:14:44.40	195.67	14.89	
2025-01-16 12:14:44.60	195.69	14.92	
2025-01-16 12:14:44.81	195.72	14.94	
2025-01-16 12:14:45.01	195.74	14.96	
2025-01-16 12:14:45.21	195.76	14.98	
2025-01-16 12:14:45.42	195.78	15.00	
2025-01-16 12:14:45.62	195.80	15.02	
2025-01-16 12:14:45.82	195.82	15.04	
2025-01-16 12:14:46.02	195.85	15.07	
2025-01-16 12:14:46.23	195.87	15.09	
2025-01-16 12:14:46.43	195.89	15.11	
2025-01-16 12:14:46.63	195.91	15.13	
2025-01-16 12:14:46.84	195.94	15.15	
2025-01-16 12:14:47.04	195.96	15.17	
2025-01-16 12:14:47.24	195.98	15.20	
2025-01-16 12:14:47.45	196.00	15.22	
2025-01-16 12:14:47.65	196.02	15.24	
2025-01-16 12:14:47.85	196.05	15.26	
2025-01-16 12:14:48.05	196.07	15.28	
2025-01-16 12:14:48.26	196.09	15.30	
2025-01-16 12:14:48.46	196.11	15.33	
2025-01-16 12:14:48.66	196.13	15.35	
2025-01-16 12:14:48.87	196.16	15.37	
2025-01-16 12:14:49.07	196.18	15.39	
2025-01-16 12:14:49.27	196.20	15.41	
2025-01-16 12:14:49.48	196.23	15.43	
2025-01-16 12:14:49.68	196.25	15.46	
2025-01-16 12:14:49.88	196.27	15.48	
2025-01-16 12:14:50.08	196.29	15.50	
2025-01-16 12:14:50.29	196.32	15.52	
2025-01-16 12:14:50.49	196.34	15.54	
2025-01-16 12:14:50.69	196.36	15.56	
2025-01-16 12:14:50.90	196.38	15.59	
2025-01-16 12:14:51.10	196.41	15.61	
2025-01-16 12:14:51.30	196.43	15.63	
2025-01-16 12:14:51.51	196.45	15.65	
2025-01-16 12:14:51.71	196.48	15.67	
2025-01-16 12:14:51.91	196.50	15.70	
2025-01-16 12:14:52.11	196.52	15.72	
2025-01-16 12:14:52.32	196.54	15.74	
2025-01-16 12:14:52.52	196.57	15.76	
2025-01-16 12:14:52.72	196.59	15.78	
2025-01-16 12:14:52.93	196.61	15.81	
2025-01-16 12:14:53.13	196.64	15.83	
2025-01-16 12:14:53.33	196.66	15.85	
2025-01-16 12:14:53.54	196.68	15.87	
2025-01-16 12:14:53.74	196.71	15.90	
2025-01-16 12:14:53.94	196.73	15.92	
2025-01-16 12:14:54.14	196.75	15.94	
2025-01-16 12:14:54.35	196.78	15.96	
2025-01-16 12:14:54.55	196.80	15.98	
2025-01-16 12:14:54.75	196.82	16.01	
2025-01-16 12:14:54.96	196.85	16.03	
2025-01-16 12:14:55.16	196.87	16.05	
2025-01-16 12:14:55.36	196.89	16.07	
2025-01-16 12:14:55.56	196.92	16.09	
2025-01-16 12:14:55.77	196.94	16.12	
2025-01-16 12:14:55.97	196.96	16.14	
2025-01-16 12:14:56.17	196.99	16.16	
2025-01-16 12:14:56.38	197.01	16.18	
2025-01-16 12:14:56.58	197.04	16.21	
2025-01-16 12:14:56.78	197.06	16.23	
2025-01-16 12:14:56.99	197.08	16.25	
2025-01-16 12:14:57.19	197.11	16.27	
2025-01-16 12:14:57.39	197.13	16.30	
2025-01-16 12:14:57.59	197.15	16.32	
2025-01-16 12:14:57.80	197.18	16.34	
2025-01-16 12:14:58.00	197.20	16.36	
2025-01-16 12:14:58.20	197.23	16.39	
2025-01-16 12:14:58.41	197.25	16.41	
2025-01-16 12:14:58.61	197.28	16.43	
2025-01-16 12:14:58.81	197.30	16.45	
2025-01-16 12:14:59.02	197.32	16.48	
2025-01-16 12:14:59.22	197.35	16.50	
2025-01-16 12:14:59.42	197.37	16.52	
2025-01-16 12:14:59.62	197.40	16.54	
2025-01-16 12:14:59.83	197.42	16.57	
2025-01-16 12:15:00.03	197.44	16.59	
2025-01-16 12:15:00.23	197.47	16.61	
2025-01-16 12:15:00.44	197.49	16.64	
2025-01-16 12:15:00.64	197.52	16.66	
2025-01-16 12:15:00.84	197.54	16.68	
2025-01-16 12:15:01.05	197.57	16.70	
2025-01-16 12:15:01.25	197.59	16.73	
2025-01-16 12:15:01.45	197.62	16.75	
2025-01-16 12:15:01.65	197.64	16.77	
2025-01-16 12:15:01.86	197.67	16.80	
2025-01-16 12:15:02.06	197.69	16.82	
2025-01-16 12:15:02.26	197.72	16.84	
2025-01-16 12:15:02.47	197.74	16.87	
2025-01-16 12:15:02.67	197.77	16.89	
2025-01-16 12:15:02.87	197.79	16.91	
2025-01-16 12:15:03.08	197.82	16.93	
2025-01-16 12:15:03.28	197.84	16.96	
2025-01-16 12:15:03.48	197.87	16.98	
2025-01-16 12:15:03.68	197.89	17.00	
2025-01-16 12:15:03.89	197.92	17.03	
2025-01-16 12:15:04.09	197.94	17.05	
2025-01-16 12:15:04.29	197.97	17.07	
2025-01-16 12:15:04.50	197.99	17.10	
2025-01-16 12:15:04.70	198.02	17.12	
2025-01-16 12:15:04.90	198.04	17.14	
2025-01-16 12:15:05.11	198.07	17.17	
2025-01-16 12:15:05.31	198.09	17.19	
2025-01-16 12:15:05.51	198.12	17.21	
2025-01-16 12:15:05.71	198.14	17.23	
2025-01-16 12:15:05.92	198.17	17.26	
2025-01-16 12:15:06.12	198.19	17.28	
2025-01-16 12:15:06.32	198.22	17.30	
2025-01-16 12:15:06.53	198.25	17.33	
2025-01-16 12:15:06.73	198.27	17.35	
2025-01-16 12:15:06.93	198.30	17.37	
2025-01-16 12:15:07.13	198.32	17.40	
2025-01-16 12:15:07.34	198.35	17.42	
2025-01-16 12:15:07.54	198.37	17.44	
2025-01-16 12:15:07.74	198.40	17.47	
2025-01-16 12:15:07.95	198.43	17.49	
2025-01-16 12:15:08.15	198.45	17.51	
2025-01-16 12:15:08.35	198.48	17.54	
2025-01-16 12:15:08.56	198.50	17.56	
2025-01-16 12:15:08.76	198.53	17.59	
2025-01-16 12:15:08.96	198.56	17.61	
2025-01-16 12:15:09.16	198.58	17.63	
2025-01-16 12:15:09.37	198.61	17.66	
2025-01-16 12:15:09.57	198.64	17.68	
2025-01-16 12:15:09.77	198.66	17.70	
2025-01-16 12:15:09.98	198.69	17.73	
2025-01-16 12:15:10.18	198.71	17.75	
2025-01-16 12:15:10.38	198.74	17.77	
2025-01-16 12:15:10.59	198.77	17.80	
2025-01-16 12:15:10.79	198.79	17.82	
2025-01-16 12:15:10.99	198.82	17.85	
2025-01-16 12:15:11.19	198.85	17.87	
2025-01-16 12:15:11.40	198.87	17.89	
2025-01-16 12:15:11.60	198.90	17.92	
2025-01-16 12:15:11.80	198.93	17.94	
2025-01-16 12:15:12.01	198.95	17.96	
2025-01-16 12:15:12.21	198.98	17.99	
2025-01-16 12:15:12.41	199.01	18.01	
2025-01-16 12:15:12.62	199.03	18.04	
2025-01-16 12:15:12.82	199.06	18.06	
2025-01-16 12:15:13.02	199.09	18.08	
2025-01-16 12:15:13.22	199.11	18.11	
2025-01-16 12:15:13.43	199.14	18.13	
2025-01-16 12:15:13.63	199.17	18.16	
2025-01-16 12:15:13.83	199.20	18.18	
2025-01-16 12:15:14.04	199.22	18.20	
2025-01-16 12:15:14.24	199.25	18.23	
2025-01-16 12:15:14.44	199.28	18.25	
2025-01-16 12:15:14.65	199.31	18.28	
2025-01-16 12:15:14.85	199.33	18.30	
2025-01-16 12:15:15.05	199.36	18.32	
2025-01-16 12:15:15.25	199.39	18.35	
2025-01-16 12:15:15.46	199.42	18.37	
2025-01-16 12:15:15.66	199.44	18.40	
2025-01-16 12:15:15.86	199.47	18.42	
2025-01-16 12:15:16.07	199.50	18.45	
2025-01-16 12:15:16.27	199.53	18.47	
2025-01-16 12:15:16.47	199.55	18.49	
2025-01-16 12:15:16.67	199.58	18.52	
2025-01-16 12:15:16.88	199.61	18.54	
2025-01-16 12:15:17.08	199.64	18.57	
2025-01-16 12:15:17.28	199.66	18.59	
2025-01-16 12:15:17.49	199.69	18.62	
2025-01-16 12:15:17.69	199.72	18.64	
2025-01-16 12:15:17.89	199.75	18.66	
2025-01-16 12:15:18.10	199.78	18.69	
2025-01-16 12:15:18.30	199.81	18.71	
2025-01-16 12:15:18.50	199.83	18.74	
2025-01-16 12:15:18.70	199.86	18.76	
2025-01-16 12:15:18.91	199.89	18.79	
2025-01-16 12:15:19.11	199.92	18.81	
2025-01-16 12:15:19.31	199.95	18.84	
2025-01-16 12:15:19.52	199.98	18.86	
2025-01-16 12:15:19.72	200.00	18.89	
2025-01-16 12:15:19.92	200.03	18.91	
2025-01-16 12:15:20.13	200.06	18.93	
2025-01-16 12:15:20.33	200.09	18.96	
2025-01-16 12:15:20.53	200.12	18.98	
2025-01-16 12:15:20.73	200.15	19.01	
2025-01-16 12:15:20.94	200.18	19.03	
2025-01-16 12:15:21.14	200.20	19.06	
2025-01-16 12:15:21.34	200.23	19.08	
2025-01-16 12:15:21.55	200.26	19.11	
2025-01-16 12:15:21.75	200.29	19.13	
2025-01-16 12:15:21.95	200.32	19.16	
2025-01-16 12:15:22.16	200.35	19.18	
2025-01-16 12:15:22.36	200.38	19.21	
2025-01-16 12:15:22.56	200.41	19.23	
2025-01-16 12:15:22.76	200.44	19.26	
2025-01-16 12:15:22.97	200.47	19.28	
2025-01-16 12:15:23.17	200.50	19.31	
2025-01-16 12:15:23.37	200.52	19.33	
2025-01-16 12:15:23.58	200.55	19.36	
2025-01-16 12:15:23.78	200.58	19.38	
2025-01-16 12:15:23.98	200.61	19.41	
2025-01-16 12:15:24.19	200.64	19.43	
2025-01-16 12:15:24.39	200.67	19.46	
2025-01-16 12:15:24.59	200.70	19.48	
2025-01-16 12:15:24.79	200.73	19.51	
2025-01-16 12:15:25.00	200.76	19.53	
2025-01-16 12:15:25.20	200.79	19.56	
2025-01-16 12:15:25.40	200.82	19.58	
2025-01-16 12:15:25.61	200.85	19.61	
2025-01-16 12:15:25.81	200.88	19.63	
2025-01-16 12:15:26.01	200.91	19.66	
2025-01-16 12:15:26.21	200.94	19.68	
2025-01-16 12:15:26.42	200.97	19.71	
2025-01-16 12:15:26.62	201.00	19.73	
2025-01-16 12:15:26.82	201.03	19.76	
2025-01-16 12:15:27.03	201.06	19.78	
2025-01-16 12:15:27.23	201.09	19.81	
2025-01-16 12:15:27.43	201.12	19.83	
2025-01-16 12:15:27.64	201.15	19.86	
2025-01-16 12:15:27.84	201.18	19.89	
2025-01-16 12:15:28.04	201.21	19.91	
2025-01-16 12:15:28.24	201.24	19.94	
2025-01-16 12:15:28.45	201.27	19.96	
2025-01-16 12:15:28.65	201.31	19.99	
2025-01-16 12:15:28.85	201.34	20.01	
2025-01-16 12:15:29.06	201.37	20.04	
2025-01-16 12:15:29.26	201.40	20.06	
2025-01-16 12:15:29.46	201.43	20.09	
2025-01-16 12:15:29.67	201.46	20.12	
2025-01-16 12:15:29.87	201.49	20.14	
2025-01-16 12:15:30.07	201.52	20.17	
2025-01-16 12:15:30.27	201.55	20.19	
2025-01-16 12:15:30.48	201.58	20.22	
2025-01-16 12:15:30.68	201.61	20.24	
2025-01-16 12:15:30.88	201.65	20.27	
2025-01-16 12:15:31.09	201.68	20.30	
2025-01-16 12:15:31.29	201.71	20.32	
2025-01-16 12:15:31.49	201.74	20.35	
2025-01-16 12:15:31.70	201.77	20.37	
2025-01-16 12:15:31.90	201.80	20.40	
2025-01-16 12:15:32.10	201.83	20.42	
2025-01-16 12:15:32.30	201.87	20.45	
2025-01-16 12:15:32.51	201.90	20.48	
2025-01-16 12:15:32.71	201.93	20.50	
2025-01-16 12:15:32.91	201.96	20.53	
2025-01-16 12:15:33.12	201.99	20.55	
2025-01-16 12:15:33.32	202.03	20.58	
2025-01-16 12:15:33.52	202.06	20.61	
2025-01-16 12:15:33.73	202.09	20.63	
2025-01-16 12:15:33.93	202.12	20.66	
2025-01-16 12:15:34.13	202.15	20.68	
2025-01-16 12:15:34.33	202.18	20.71	
2025-01-16 12:15:34.54	202.22	20.74	
2025-01-16 12:15:34.74	202.25	20.76	
2025-01-16 12:15:34.94	202.28	20.79	
2025-01-16 12:15:35.15	202.32	20.82	
2025-01-16 12:15:35.35	202.35	20.84	
2025-01-16 12:15:35.55	202.38	20.87	
2025-01-16 12:15:35.76	202.41	20.89	
2025-01-16 12:15:35.96	202.44	20.92	
2025-01-16 12:15:36.16	202.48	20.95	
2025-01-16 12:15:36.36	202.51	20.97	
2025-01-16 12:15:36.57	202.54	21.00	
2025-01-16 12:15:36.77	202.58	21.03	
2025-01-16 12:15:36.97	202.61	21.05	
2025-01-16 12:15:37.18	202.64	21.08	
2025-01-16 12:15:37.38	202.67	21.10	
2025-01-16 12:15:37.58	202.71	21.13	
2025-01-16 12:15:37.78	202.74	21.16	
2025-01-16 12:15:37.99	202.77	21.18	
2025-01-16 12:15:38.19	202.81	21.21	
2025-01-16 12:15:38.39	202.84	21.24	
2025-01-16 12:15:38.60	202.87	21.26	
2025-01-16 12:15:38.80	202.91	21.29	
2025-01-16 12:15:39.00	202.94	21.32	
2025-01-16 12:15:39.21	202.98	21.34	
2025-01-16 12:15:39.41	203.01	21.37	
2025-01-16 12:15:39.61	203.04	21.40	
2025-01-16 12:15:39.83	203.08	21.42	
2025-01-16 12:15:40.03	203.11	21.45	
2025-01-16 12:15:40.24	203.15	21.48	
2025-01-16 12:15:40.44	203.18	21.51	
2025-01-16 12:15:40.64	203.21	21.53	
2025-01-16 12:15:40.84	203.25	21.56	
2025-01-16 12:15:41.05	203.28	21.59	
2025-01-16 12:15:41.25	203.32	21.61	
2025-01-16 12:15:41.45	203.35	21.64	
2025-01-16 12:15:41.66	203.38	21.67	
2025-01-16 12:15:41.86	203.42	21.69	
2025-01-16 12:15:42.06	203.45	21.72	
2025-01-16 12:15:42.27	203.49	21.75	
2025-01-16 12:15:42.47	203.52	21.77	
2025-01-16 12:15:42.67	203.56	21.80	
2025-01-16 12:15:42.87	203.59	21.83	
2025-01-16 12:15:43.08	203.63	21.85	
2025-01-16 12:15:43.28	203.66	21.88	
2025-01-16 12:15:43.48	203.69	21.91	
2025-01-16 12:15:43.69	203.73	21.94	
2025-01-16 12:15:43.89	203.77	21.96	
2025-01-16 12:15:44.09	203.80	21.99	
2025-01-16 12:15:44.30	203.84	22.02	
2025-01-16 12:15:44.50	203.87	22.04	
2025-01-16 12:15:44.70	203.91	22.07	
2025-01-16 12:15:44.90	203.94	22.10	
2025-01-16 12:15:45.11	203.98	22.13	
2025-01-16 12:15:45.31	204.01	22.15	
2025-01-16 12:15:45.51	204.05	22.18	
2025-01-16 12:15:45.72	204.08	22.21	
2025-01-16 12:15:45.92	204.12	22.23	
2025-01-16 12:15:46.12	204.15	22.26	
2025-01-16 12:15:46.32	204.19	22.29	
2025-01-16 12:15:46.53	204.23	22.32	
2025-01-16 12:15:46.73	204.26	22.34	
2025-01-16 12:15:46.93	204.30	22.37	
2025-01-16 12:15:47.14	204.33	22.40	
2025-01-16 12:15:47.34	204.37	22.43	
2025-01-16 12:15:47.54	204.40	22.45	
2025-01-16 12:15:47.75	204.44	22.48	
2025-01-16 12:15:47.95	204.48	22.51	
2025-01-16 12:15:48.15	204.51	22.54	
2025-01-16 12:15:48.35	204.55	22.56	
2025-01-16 12:15:48.56	204.59	22.59	
2025-01-16 12:15:48.76	204.62	22.62	
2025-01-16 12:15:48.96	204.66	22.65	
2025-01-16 12:15:49.17	204.70	22.67	
2025-01-16 12:15:49.37	204.73	22.70	
2025-01-16 12:15:49.57	204.77	22.73	
2025-01-16 12:15:49.78	204.81	22.76	
2025-01-16 12:15:49.98	204.84	22.79	
2025-01-16 12:15:50.18	204.88	22.81	
2025-01-16 12:15:50.38	204.92	22.84	
2025-01-16 12:15:50.59	204.95	22.87	
2025-01-16 12:15:50.79	204.99	22.90	
2025-01-16 12:15:50.99	205.03	22.92	
2025-01-16 12:15:51.20	205.07	22.95	
2025-01-16 12:15:51.40	205.10	22.98	
2025-01-16 12:15:51.60	205.14	23.01	
2025-01-16 12:15:51.81	205.18	23.04	
2025-01-16 12:15:52.01	205.22	23.06	
2025-01-16 12:15:52.21	205.25	23.09	
2025-01-16 12:15:52.41	205.29	23.12	
2025-01-16 12:15:52.62	205.33	23.15	
2025-01-16 12:15:52.82	205.37	23.18	
2025-01-16 12:15:53.02	205.40	23.20	
2025-01-16 12:15:53.23	205.44	23.23	
2025-01-16 12:15:53.43	205.48	23.26	
2025-01-16 12:15:53.63	205.52	23.29	
2025-01-16 12:15:53.84	205.56	23.32	
2025-01-16 12:15:54.04	205.59	23.34	
2025-01-16 12:15:54.24	205.63	23.37	
2025-01-16 12:15:54.44	205.67	23.40	
2025-01-16 12:15:54.65	205.71	23.43	
2025-01-16 12:15:54.85	205.75	23.46	
2025-01-16 12:15:55.05	205.79	23.48	
2025-01-16 12:15:55.26	205.83	23.51	
2025-01-16 12:15:55.46	205.86	23.54	
2025-01-16 12:15:55.66	205.90	23.57	
2025-01-16 12:15:55.86	205.94	23.60	
2025-01-16 12:15:56.07	205.98	23.63	
2025-01-16 12:15:56.27	206.02	23.65	
2025-01-16 12:15:56.47	206.06	23.68	
2025-01-16 12:15:56.68	206.10	23.71	
2025-01-16 12:15:56.88	206.14	23.74	
2025-01-16 12:15:57.08	206.18	23.77	
2025-01-16 12:15:57.29	206.22	23.80	
2025-01-16 12:15:57.49	206.26	23.83	
2025-01-16 12:15:57.69	206.29	23.85	
2025-01-16 12:15:57.89	206.33	23.88	
2025-01-16 12:15:58.10	206.37	23.91	
2025-01-16 12:15:58.30	206.41	23.94	
2025-01-16 12:15:58.50	206.45	23.97	
2025-01-16 12:15:58.71	206.49	24.00	
2025-01-16 12:15:58.91	206.53	24.02	
2025-01-16 12:15:59.11	206.57	24.05	
2025-01-16 12:15:59.32	206.61	24.08	
2025-01-16 12:15:59.52	206.65	24.11	
2025-01-16 12:15:59.72	206.69	24.14	
2025-01-16 12:15:59.92	206.73	24.17	
2025-01-16 12:16:00.13	206.78	24.20	
2025-01-16 12:16:00.33	206.82	24.23	
2025-01-16 12:16:00.53	206.86	24.25	
2025-01-16 12:16:00.74	206.90	24.28	
2025-01-16 12:16:00.94	206.94	24.31	
2025-01-16 12:16:01.14	206.98	24.34	
2025-01-16 12:16:01.35	207.02	24.37	
2025-01-16 12:16:01.55	207.06	24.40	
2025-01-16 12:16:01.75	207.10	24.43	
2025-01-16 12:16:01.95	207.14	24.46	
2025-01-16 12:16:02.16	207.18	24.49	
2025-01-16 12:16:02.36	207.22	24.51	
2025-01-16 12:16:02.56	207.27	24.54	
2025-01-16 12:16:02.77	207.31	24.57	
2025-01-16 12:16:02.97	207.35	24.60	
2025-01-16 12:16:03.17	207.39	24.63	
2025-01-16 12:16:03.37	207.43	24.66	
2025-01-16 12:16:03.58	207.47	24.69	
2025-01-16 12:16:03.78	207.52	24.72	
2025-01-16 12:16:03.98	207.56	24.75	
2025-01-16 12:16:04.19	207.60	24.78	
2025-01-16 12:16:04.39	207.64	24.81	
2025-01-16 12:16:04.59	207.68	24.83	
2025-01-16 12:16:04.80	207.73	24.86	
2025-01-16 12:16:05.00	207.77	24.89	
2025-01-16 12:16:05.20	207.81	24.92	
2025-01-16 12:16:05.40	207.85	24.95	
2025-01-16 12:16:05.61	207.90	24.98	
2025-01-16 12:16:05.81	207.94	25.01	
2025-01-16 12:16:06.01	207.98	25.04	
2025-01-16 12:16:06.22	208.02	25.07	
2025-01-16 12:16:06.42	208.07	25.10	
2025-01-16 12:16:06.62	208.11	25.13	
2025-01-16 12:16:06.83	208.15	25.16	
2025-01-16 12:16:07.03	208.20	25.19	
2025-01-16 12:16:07.23	208.24	25.22	
2025-01-16 12:16:07.43	208.28	25.24	
2025-01-16 12:16:07.64	208.33	25.27	
2025-01-16 12:16:07.84	208.37	25.30	
2025-01-16 12:16:08.04	208.41	25.33	
2025-01-16 12:16:08.25	208.46	25.36	
2025-01-16 12:16:08.45	208.50	25.39	
2025-01-16 12:16:08.65	208.54	25.42	
2025-01-16 12:16:08.86	208.59	25.45	
2025-01-16 12:16:09.06	208.63	25.48	
2025-01-16 12:16:09.26	208.67	25.51	
2025-01-16 12:16:09.46	208.72	25.54	
2025-01-16 12:16:09.67	208.76	25.57	
2025-01-16 12:16:09.87	208.81	25.60	
2025-01-16 12:16:10.07	208.85	25.63	
2025-01-16 12:16:10.28	208.90	25.66	
2025-01-16 12:16:10.48	208.94	25.69	
2025-01-16 12:16:10.68	208.99	25.72	
2025-01-16 12:16:10.89	209.03	25.75	
2025-01-16 12:16:11.09	209.08	25.78	
2025-01-16 12:16:11.29	209.12	25.81	
2025-01-16 12:16:11.49	209.16	25.84	
2025-01-16 12:16:11.70	209.21	25.87	
2025-01-16 12:16:11.90	209.25	25.90	
2025-01-16 12:16:12.10	209.30	25.93	
2025-01-16 12:16:12.31	209.35	25.96	
2025-01-16 12:16:12.51	209.39	25.99	
2025-01-16 12:16:12.71	209.44	26.02	
2025-01-16 12:16:12.92	209.48	26.05	
2025-01-16 12:16:13.12	209.53	26.08	
2025-01-16 12:16:13.32	209.57	26.11	
2025-01-16 12:16:13.52	209.62	26.14	
2025-01-16 12:16:13.73	209.67	26.17	
2025-01-16 12:16:13.93	209.71	26.20	
2025-01-16 12:16:14.13	209.76	26.23	
2025-01-16 12:16:14.34	209.80	26.26	
2025-01-16 12:16:14.54	209.85	26.29	
2025-01-16 12:16:14.74	209.90	26.32	
2025-01-16 12:16:14.95	209.94	26.35	
2025-01-16 12:16:15.15	209.99	26.38	
2025-01-16 12:16:15.35	210.03	26.41	
2025-01-16 12:16:15.55	210.08	26.44	
2025-01-16 12:16:15.76	210.13	26.47	
2025-01-16 12:16:15.96	210.18	26.50	
2025-01-16 12:16:16.16	210.22	26.53	
2025-01-16 12:16:16.37	210.27	26.56	
2025-01-16 12:16:16.57	210.32	26.59	
2025-01-16 12:16:16.77	210.36	26.62	
2025-01-16 12:16:16.97	210.41	26.65	
2025-01-16 12:16:17.18	210.46	26.68	
2025-01-16 12:16:17.38	210.51	26.71	
2025-01-16 12:16:17.58	210.55	26.74	
2025-01-16 12:16:17.79	210.60	26.77	
2025-01-16 12:16:17.99	210.65	26.80	
2025-01-16 12:16:18.19	210.70	26.83	
2025-01-16 12:16:18.40	210.75	26.86	
2025-01-16 12:16:18.60	210.79	26.89	
2025-01-16 12:16:18.80	210.84	26.92	
2025-01-16 12:16:19.00	210.89	26.95	
2025-01-16 12:16:19.21	210.94	26.98	
2025-01-16 12:16:19.41	210.99	27.01	
2025-01-16 12:16:19.61	211.03	27.04	
2025-01-16 12:16:19.82	211.08	27.08	
2025-01-16 12:16:20.02	211.13	27.11	
2025-01-16 12:16:20.22	211.18	27.14	
2025-01-16 12:16:20.43	211.23	27.17	
2025-01-16 12:16:20.63	211.28	27.20	
2025-01-16 12:16:20.83	211.33	27.23	
2025-01-16 12:16:21.03	211.38	27.26	
2025-01-16 12:16:21.24	211.43	27.29	
2025-01-16 12:16:21.44	211.48	27.32	
2025-01-16 12:16:21.64	211.52	27.35	
2025-01-16 12:16:21.85	211.58	27.38	
2025-01-16 12:16:22.05	211.63	27.41	
2025-01-16 12:16:22.25	211.67	27.44	
2025-01-16 12:16:22.46	211.73	27.47	
2025-01-16 12:16:22.66	211.77	27.50	
2025-01-16 12:16:22.86	211.82	27.54	
2025-01-16 12:16:23.06	211.87	27.57	
2025-01-16 12:16:23.27	211.93	27.60	
2025-01-16 12:16:23.47	211.98	27.63	
2025-01-16 12:16:23.67	212.03	27.66	
2025-01-16 12:16:23.88	212.08	27.69	
2025-01-16 12:16:24.08	212.13	27.72	
2025-01-16 12:16:24.28	212.18	27.75	
2025-01-16 12:16:24.49	212.23	27.78	
2025-01-16 12:16:24.69	212.28	27.81	
2025-01-16 12:16:24.89	212.33	27.84	
2025-01-16 12:16:25.09	212.38	27.87	
2025-01-16 12:16:25.30	212.43	27.91	
2025-01-16 12:16:25.50	212.48	27.94	
2025-01-16 12:16:25.70	212.54	27.97	
2025-01-16 12:16:25.91	212.59	28.00	
2025-01-16 12:16:26.11	212.64	28.03	
2025-01-16 12:16:26.31	212.69	28.06	
2025-01-16 12:16:26.51	212.74	28.09	
2025-01-16 12:16:26.72	212.80	28.12	
2025-01-16 12:16:26.92	212.85	28.15	
2025-01-16 12:16:27.12	212.90	28.18	
2025-01-16 12:16:27.33	212.95	28.22	
2025-01-16 12:16:27.53	213.00	28.25	
2025-01-16 12:16:27.73	213.06	28.28	
2025-01-16 12:16:27.94	213.11	28.31	
2025-01-16 12:16:28.14	213.16	28.34	
2025-01-16 12:16:28.34	213.21	28.37	
2025-01-16 12:16:28.54	213.27	28.40	
2025-01-16 12:16:28.75	213.32	28.43	
2025-01-16 12:16:28.95	213.37	28.46	
2025-01-16 12:16:29.15	213.43	28.49	
2025-01-16 12:16:29.36	213.48	28.53	
2025-01-16 12:16:29.56	213.53	28.56	
2025-01-16 12:16:29.76	213.59	28.59	
2025-01-16 12:16:29.97	213.64	28.62	
2025-01-16 12:16:30.17	213.69	28.65	
2025-01-16 12:16:30.37	213.75	28.68	
2025-01-16 12:16:30.57	213.80	28.71	
2025-01-16 12:16:30.78	213.86	28.75	
2025-01-16 12:16:30.98	213.91	28.78	
2025-01-16 12:16:31.18	213.96	28.81	
2025-01-16 12:16:31.39	214.02	28.84	
2025-01-16 12:16:31.59	214.07	28.87	
2025-01-16 12:16:31.79	214.13	28.90	
2025-01-16 12:16:32.00	214.18	28.93	
2025-01-16 12:16:32.20	214.24	28.96	
2025-01-16 12:16:32.40	214.29	29.00	
2025-01-16 12:16:32.60	214.35	29.03	
2025-01-16 12:16:32.81	214.40	29.06	
2025-01-16 12:16:33.01	214.46	29.09	
2025-01-16 12:16:33.21	214.51	29.12	
2025-01-16 12:16:33.42	214.57	29.15	
2025-01-16 12:16:33.62	214.62	29.18	
2025-01-16 12:16:33.82	214.68	29.21	
2025-01-16 12:16:34.03	214.74	29.25	
2025-01-16 12:16:34.23	214.79	29.28	
2025-01-16 12:16:34.43	214.85	29.31	
2025-01-16 12:16:34.63	214.90	29.34	
2025-01-16 12:16:34.84	214.96	29.37	
2025-01-16 12:16:35.04	215.02	29.40	
2025-01-16 12:16:35.24	215.07	29.43	
2025-01-16 12:16:35.45	215.13	29.47	
2025-01-16 12:16:35.65	215.19	29.50	
2025-01-16 12:16:35.85	215.24	29.53	
2025-01-16 12:16:36.05	215.30	29.56	
2025-01-16 12:16:36.26	215.36	29.59	
2025-01-16 12:16:36.46	215.41	29.62	
2025-01-16 12:16:36.66	215.47	29.65	
2025-01-16 12:16:36.87	215.53	29.69	
2025-01-16 12:16:37.07	215.59	29.72	
2025-01-16 12:16:37.27	215.64	29.75	
2025-01-16 12:16:37.48	215.70	29.78	
2025-01-16 12:16:37.68	215.76	29.81	
2025-01-16 12:16:37.88	215.82	29.84	
2025-01-16 12:16:38.08	215.87	29.88	
2025-01-16 12:16:38.29	215.93	29.91	
2025-01-16 12:16:38.49	215.99	29.94	
2025-01-16 12:16:38.69	216.05	29.97	
2025-01-16 12:16:38.90	216.11	30.00	
2025-01-16 12:16:39.10	216.17	30.03	
2025-01-16 12:16:39.30	216.23	30.07	
2025-01-16 12:16:39.51	216.29	30.10	
2025-01-16 12:16:39.71	216.34	30.13	
2025-01-16 12:16:39.91	216.40	30.16	
2025-01-16 12:16:40.11	216.46	30.19	
2025-01-16 12:16:40.32	216.52	30.22	
2025-01-16 12:16:40.52	216.58	30.26	
2025-01-16 12:16:40.72	216.64	30.29	
2025-01-16 12:16:40.93	216.70	30.32	
2025-01-16 12:16:41.13	216.76	30.35	
2025-01-16 12:16:41.33	216.82	30.38	
2025-01-16 12:16:41.54	216.88	30.41	
2025-01-16 12:16:41.74	216.94	30.45	
2025-01-16 12:16:41.94	217.00	30.48	
2025-01-16 12:16:42.14	217.06	30.51	
2025-01-16 12:16:42.35	217.12	30.54	
2025-01-16 12:16:42.55	217.18	30.57	
2025-01-16 12:16:42.75	217.24	30.60	
2025-01-16 12:16:42.96	217.30	30.64	
2025-01-16 12:16:43.16	217.36	30.67	
2025-01-16 12:16:43.36	217.43	30.70	
2025-01-16 12:16:43.57	217.49	30.73	
2025-01-16 12:16:43.77	217.55	30.76	
2025-01-16 12:16:43.97	217.61	30.79	
2025-01-16 12:16:44.17	217.67	30.82	
2025-01-16 12:16:44.38	217.73	30.86	
2025-01-16 12:16:44.58	217.80	30.89	
2025-01-16 12:16:44.78	217.86	30.92	
2025-01-16 12:16:44.99	217.92	30.95	
2025-01-16 12:16:45.19	217.98	30.98	
2025-01-16 12:16:45.39	218.04	31.02	
2025-01-16 12:16:45.60	218.11	31.05	
2025-01-16 12:16:45.80	218.17	31.08	
2025-01-16 12:16:46.00	218.23	31.11	
2025-01-16 12:16:46.20	218.29	31.14	
2025-01-16 12:16:46.41	218.36	31.17	
2025-01-16 12:16:46.61	218.42	31.21	
2025-01-16 12:16:46.81	218.48	31.24	
2025-01-16 12:16:47.02	218.55	31.27	
2025-01-16 12:16:47.22	218.61	31.30	
2025-01-16 12:16:47.42	218.67	31.33	
2025-01-16 12:16:47.62	218.74	31.36	
2025-01-16 12:16:47.83	218.80	31.40	
2025-01-16 12:16:48.03	218.87	31.43	
2025-01-16 12:16:48.23	218.93	31.46	
2025-01-16 12:16:48.44	219.00	31.49	
2025-01-16 12:16:48.64	219.06	31.52	
2025-01-16 12:16:48.84	219.12	31.55	
2025-01-16 12:16:49.05	219.19	31.59	
2025-01-16 12:16:49.25	219.25	31.62	
2025-01-16 12:16:49.45	219.32	31.65	
2025-01-16 12:16:49.65	219.38	31.68	
2025-01-16 12:16:49.86	219.45	31.71	
2025-01-16 12:16:50.06	219.51	31.74	
2025-01-16 12:16:50.26	219.58	31.78	
2025-01-16 12:16:50.47	219.64	31.81	
2025-01-16 12:16:50.67	219.71	31.84	
2025-01-16 12:16:50.87	219.77	31.87	
2025-01-16 12:16:51.08	219.84	31.90	
2025-01-16 12:16:51.28	219.91	31.94	
2025-01-16 12:16:51.48	219.97	31.97	
2025-01-16 12:16:51.68	220.04	32.00	
2025-01-16 12:16:51.89	220.11	32.03	
2025-01-16 12:16:52.09	220.17	32.06	
2025-01-16 12:16:52.29	220.24	32.09	
2025-01-16 12:16:52.50	220.31	32.13	
2025-01-16 12:16:52.70	220.37	32.16	
2025-01-16 12:16:52.90	220.44	32.19	
2025-01-16 12:16:53.11	220.51	32.22	
2025-01-16 12:16:53.31	220.57	32.25	
2025-01-16 12:16:53.51	220.64	32.28	
2025-01-16 12:16:53.71	220.71	32.31	
2025-01-16 12:16:53.92	220.78	32.35	
2025-01-16 12:16:54.12	220.84	32.38	
2025-01-16 12:16:54.32	220.91	32.41	
2025-01-16 12:16:54.53	220.98	32.44	
2025-01-16 12:16:54.73	221.05	32.47	
2025-01-16 12:16:54.93	221.12	32.50	
2025-01-16 12:16:55.14	221.19	32.54	
2025-01-16 12:16:55.34	221.26	32.57	
2025-01-16 12:16:55.54	221.32	32.60	
2025-01-16 12:16:55.74	221.39	32.63	
2025-01-16 12:16:55.95	221.46	32.66	
2025-01-16 12:16:56.15	221.53	32.69	
2025-01-16 12:16:56.35	221.60	32.72	
2025-01-16 12:16:56.56	221.67	32.76	
2025-01-16 12:16:56.76	221.74	32.79	
2025-01-16 12:16:56.96	221.81	32.82	
2025-01-16 12:16:57.18	221.88	32.85	
2025-01-16 12:16:57.38	221.95	32.88	
2025-01-16 12:16:57.59	222.03	32.92	
2025-01-16 12:16:57.79	222.10	32.95	
2025-01-16 12:16:57.99	222.16	32.98	
2025-01-16 12:16:58.20	222.24	33.01	
2025-01-16 12:16:58.40	222.31	33.04	
2025-01-16 12:16:58.60	222.38	33.07	
2025-01-16 12:16:58.80	222.45	33.10	
2025-01-16 12:16:59.01	222.52	33.14	
2025-01-16 12:16:59.21	222.59	33.17	
2025-01-16 12:16:59.41	222.66	33.20	
2025-01-16 12:16:59.62	222.74	33.23	
2025-01-16 12:16:59.82	222.81	33.26	
2025-01-16 12:17:00.02	222.88	33.29	
2025-01-16 12:17:00.23	222.95	33.32	
2025-01-16 12:17:00.43	223.02	33.35	
2025-01-16 12:17:00.63	223.09	33.39	
2025-01-16 12:17:00.83	223.17	33.42	
2025-01-16 12:17:01.04	223.24	33.45	
2025-01-16 12:17:01.24	223.31	33.48	
2025-01-16 12:17:01.44	223.38	33.51	
2025-01-16 12:17:01.65	223.46	33.54	
2025-01-16 12:17:01.85	223.53	33.57	
2025-01-16 12:17:02.05	223.60	33.60	
2025-01-16 12:17:02.25	223.68	33.63	
2025-01-16 12:17:02.46	223.75	33.67	
2025-01-16 12:17:02.66	223.82	33.70	
2025-01-16 12:17:02.86	223.90	33.73	
2025-01-16 12:17:03.07	223.97	33.76	
2025-01-16 12:17:03.27	224.05	33.79	
2025-01-16 12:17:03.47	224.12	33.82	
2025-01-16 12:17:03.68	224.20	33.85	
2025-01-16 12:17:03.88	224.27	33.88	
2025-01-16 12:17:04.08	224.34	33.91	
2025-01-16 12:17:04.28	224.42	33.94	
2025-01-16 12:17:04.49	224.50	33.98	
2025-01-16 12:17:04.69	224.57	34.01	
2025-01-16 12:17:04.89	224.64	34.04	
2025-01-16 12:17:05.10	224.72	34.07	
2025-01-16 12:17:05.30	224.80	34.10	
2025-01-16 12:17:05.50	224.87	34.13	
2025-01-16 12:17:05.71	224.95	34.16	
2025-01-16 12:17:05.91	225.02	34.19	
2025-01-16 12:17:06.11	225.10	34.22	
2025-01-16 12:17:06.31	225.17	34.25	
2025-01-16 12:17:06.52	225.25	34.28	
2025-01-16 12:17:06.72	225.33	34.31	
2025-01-16 12:17:06.92	225.40	34.34	
2025-01-16 12:17:07.13	225.48	34.38	
2025-01-16 12:17:07.33	225.56	34.41	
2025-01-16 12:17:07.53	225.64	34.44	
2025-01-16 12:17:07.74	225.72	34.47	
2025-01-16 12:17:07.94	225.79	34.50	
2025-01-16 12:17:08.14	225.87	34.53	
2025-01-16 12:17:08.34	225.94	34.56	
2025-01-16 12:17:08.55	226.03	34.59	
2025-01-16 12:17:08.75	226.10	34.62	
2025-01-16 12:17:08.95	226.18	34.65	
2025-01-16 12:17:09.16	226.26	34.68	
2025-01-16 12:17:09.36	226.34	34.71	
2025-01-16 12:17:09.56	226.41	34.74	
2025-01-16 12:17:09.77	226.50	34.77	
2025-01-16 12:17:09.97	226.57	34.80	
2025-01-16 12:17:10.17	226.65	34.83	
2025-01-16 12:17:10.37	226.73	34.86	
2025-01-16 12:17:10.58	226.81	34.89	
2025-01-16 12:17:10.78	226.89	34.92	
2025-01-16 12:17:10.98	226.97	34.95	
2025-01-16 12:17:11.19	227.05	34.98	
2025-01-16 12:17:11.39	227.13	35.01	
2025-01-16 12:17:11.59	227.21	35.04	
2025-01-16 12:17:11.80	227.29	35.07	
2025-01-16 12:17:12.00	227.37	35.10	
2025-01-16 12:17:12.20	227.45	35.13	
2025-01-16 12:17:12.40	227.53	35.16	
2025-01-16 12:17:12.61	227.61	35.19	
2025-01-16 12:17:12.81	227.69	35.22	
2025-01-16 12:17:13.01	227.77	35.25	
2025-01-16 12:17:13.22	227.86	35.28	
2025-01-16 12:17:13.42	227.94	35.31	
2025-01-16 12:17:13.62	228.02	35.34	
2025-01-16 12:17:13.82	228.10	35.37	
2025-01-16 12:17:14.03	228.18	35.40	
2025-01-16 12:17:14.23	228.26	35.43	
2025-01-16 12:17:14.43	228.35	35.46	
2025-01-16 12:17:14.64	228.43	35.49	
2025-01-16 12:17:14.84	228.51	35.52	
2025-01-16 12:17:15.04	228.59	35.55	
2025-01-16 12:17:15.25	228.68	35.58	
2025-01-16 12:17:15.45	228.76	35.61	
2025-01-16 12:17:15.65	228.84	35.64	
2025-01-16 12:17:15.85	228.92	35.67	
2025-01-16 12:17:16.06	229.01	35.70	
2025-01-16 12:17:16.26	229.09	35.72	
2025-01-16 12:17:16.46	229.18	35.75	
2025-01-16 12:17:16.67	229.26	35.78	
2025-01-16 12:17:16.87	229.34	35.81	
2025-01-16 12:17:17.07	229.43	35.84	
2025-01-16 12:17:17.28	229.51	35.87	
2025-01-16 12:17:17.48	229.60	35.90	
2025-01-16 12:17:17.68	229.68	35.93	
2025-01-16 12:17:17.88	229.77	35.96	
2025-01-16 12:17:18.09	229.85	35.99	
2025-01-16 12:17:18.29	229.94	36.01	
2025-01-16 12:17:18.49	230.02	36.04	
2025-01-16 12:17:18.70	230.11	36.07	
2025-01-16 12:17:18.90	230.19	36.10	
2025-01-16 12:17:19.10	230.28	36.13	
2025-01-16 12:17:19.31	230.37	36.16	
2025-01-16 12:17:19.51	230.45	36.19	
2025-01-16 12:17:19.71	230.54	36.22	
2025-01-16 12:17:19.91	230.62	36.24	
2025-01-16 12:17:20.12	230.71	36.27	
2025-01-16 12:17:20.32	230.80	36.30	
2025-01-16 12:17:20.52	230.88	36.33	
2025-01-16 12:17:20.73	230.97	36.36	
2025-01-16 12:17:20.93	231.06	36.39	
2025-01-16 12:17:21.13	231.14	36.41	
2025-01-16 12:17:21.34	231.23	36.44	
2025-01-16 12:17:21.54	231.32	36.47	
2025-01-16 12:17:21.74	231.41	36.50	
2025-01-16 12:17:21.94	231.49	36.53	
2025-01-16 12:17:22.15	231.58	36.56	
2025-01-16 12:17:22.35	231.67	36.58	
2025-01-16 12:17:22.55	231.76	36.61	
2025-01-16 12:17:22.76	231.85	36.64	
2025-01-16 12:17:22.96	231.94	36.67	
2025-01-16 12:17:23.16	232.02	36.69	
2025-01-16 12:17:23.36	232.11	36.72	
2025-01-16 12:17:23.57	232.20	36.75	
2025-01-16 12:17:23.77	232.29	36.78	
2025-01-16 12:17:23.97	232.38	36.80	
2025-01-16 12:17:24.18	232.47	36.83	
2025-01-16 12:17:24.38	232.56	36.86	
2025-01-16 12:17:24.58	232.65	36.89	
2025-01-16 12:17:24.79	232.74	36.92	
2025-01-16 12:17:24.99	232.83	36.94	
2025-01-16 12:17:25.19	232.92	36.97	
2025-01-16 12:17:25.39	233.01	37.00	
2025-01-16 12:17:25.60	233.10	37.02	
2025-01-16 12:17:25.80	233.19	37.05	
2025-01-16 12:17:26.00	233.28	37.08	
2025-01-16 12:17:26.21	233.37	37.11	
2025-01-16 12:17:26.41	233.46	37.13	
2025-01-16 12:17:26.61	233.55	37.16	
2025-01-16 12:17:26.82	233.65	37.19	
2025-01-16 12:17:27.02	233.74	37.21	
2025-01-16 12:17:27.22	233.83	37.24	
2025-01-16 12:17:27.42	233.92	37.27	
2025-01-16 12:17:27.63	234.01	37.29	
2025-01-16 12:17:27.83	234.11	37.32	
2025-01-16 12:17:28.03	234.20	37.34	
2025-01-16 12:17:28.24	234.29	37.37	
2025-01-16 12:17:28.44	234.38	37.40	
2025-01-16 12:17:28.64	234.48	37.42	
2025-01-16 12:17:28.85	234.57	37.45	
2025-01-16 12:17:29.05	234.66	37.48	
2025-01-16 12:17:29.25	234.75	37.50	
2025-01-16 12:17:29.45	234.85	37.53	
2025-01-16 12:17:29.66	234.94	37.56	
2025-01-16 12:17:29.86	235.04	37.58	
2025-01-16 12:17:30.06	235.13	37.61	
2025-01-16 12:17:30.27	235.23	37.63	
2025-01-16 12:17:30.47	235.32	37.66	
2025-01-16 12:17:30.67	235.41	37.68	
2025-01-16 12:17:30.88	235.51	37.71	
2025-01-16 12:17:31.08	235.60	37.74	
2025-01-16 12:17:31.28	235.70	37.76	
2025-01-16 12:17:31.48	235.79	37.79	
2025-01-16 12:17:31.69	235.89	37.81	
2025-01-16 12:17:31.89	235.98	37.84	
2025-01-16 12:17:32.09	236.08	37.86	
2025-01-16 12:17:32.30	236.17	37.89	
2025-01-16 12:17:32.50	236.27	37.91	
2025-01-16 12:17:32.70	236.36	37.94	
2025-01-16 12:17:32.90	236.46	37.96	
2025-01-16 12:17:33.11	236.56	37.99	
2025-01-16 12:17:33.31	236.65	38.01	
2025-01-16 12:17:33.51	236.75	38.04	
2025-01-16 12:17:33.72	236.85	38.06	
2025-01-16 12:17:33.92	236.94	38.09	
2025-01-16 12:17:34.12	237.04	38.11	
2025-01-16 12:17:34.33	237.14	38.14	
2025-01-16 12:17:34.53	237.23	38.16	
2025-01-16 12:17:34.73	237.33	38.18	
2025-01-16 12:17:34.93	237.42	38.21	
2025-01-16 12:17:35.14	237.53	38.23	
2025-01-16 12:17:35.34	237.62	38.26	
2025-01-16 12:17:35.54	237.72	38.28	
2025-01-16 12:17:35.75	237.82	38.31	
2025-01-16 12:17:35.95	237.92	38.33	
2025-01-16 12:17:36.15	238.01	38.35	
2025-01-16 12:17:36.36	238.12	38.38	
2025-01-16 12:17:36.56	238.21	38.40	
2025-01-16 12:17:36.76	238.31	38.42	
2025-01-16 12:17:36.96	238.41	38.45	
2025-01-16 12:17:37.17	238.51	38.47	
2025-01-16 12:17:37.37	238.61	38.49	
2025-01-16 12:17:37.57	238.70	38.52	
2025-01-16 12:17:37.78	238.81	38.54	
2025-01-16 12:17:37.98	238.91	38.56	
2025-01-16 12:17:38.18	239.00	38.59	
2025-01-16 12:17:38.39	239.11	38.61	
2025-01-16 12:17:38.59	239.21	38.63	
2025-01-16 12:17:38.79	239.30	38.66	
2025-01-16 12:17:38.99	239.40	38.68	
2025-01-16 12:17:39.20	239.51	38.70	
2025-01-16 12:17:39.40	239.61	38.72	
2025-01-16 12:17:39.60	239.71	38.75	
2025-01-16 12:17:39.81	239.81	38.77	
2025-01-16 12:17:40.01	239.91	38.79	
2025-01-16 12:17:40.21	240.01	38.81	
2025-01-16 12:17:40.42	240.11	38.84	
2025-01-16 12:17:40.62	240.21	38.86	
2025-01-16 12:17:40.82	240.31	38.88	
2025-01-16 12:17:41.02	240.41	38.90	
2025-01-16 12:17:41.23	240.52	38.92	
2025-01-16 12:17:41.43	240.62	38.95	
2025-01-16 12:17:41.63	240.72	38.97	
2025-01-16 12:17:41.84	240.83	38.99	
2025-01-16 12:17:42.04	240.93	39.01	
2025-01-16 12:17:42.24	241.03	39.03	
2025-01-16 12:17:42.44	241.13	39.05	
2025-01-16 12:17:42.65	241.24	39.07	
2025-01-16 12:17:42.85	241.34	39.10	
2025-01-16 12:17:43.05	241.44	39.12	
2025-01-16 12:17:43.26	241.54	39.14	
2025-01-16 12:17:43.46	241.65	39.16	
2025-01-16 12:17:43.66	241.75	39.18	
2025-01-16 12:17:43.87	241.86	39.20	
2025-01-16 12:17:44.07	241.96	39.22	
2025-01-16 12:17:44.27	242.06	39.24	
2025-01-16 12:17:44.47	242.16	39.26	
2025-01-16 12:17:44.68	242.27	39.28	
2025-01-16 12:17:44.88	242.37	39.30	
2025-01-16 12:17:45.08	242.48	39.32	
2025-01-16 12:17:45.29	242.58	39.34	
2025-01-16 12:17:45.49	242.69	39.36	
2025-01-16 12:17:45.69	242.79	39.38	
2025-01-16 12:17:45.90	242.90	39.40	
2025-01-16 12:17:46.10	243.00	39.42	
2025-01-16 12:17:46.30	243.11	39.44	
2025-01-16 12:17:46.50	243.21	39.46	
2025-01-16 12:17:46.71	243.32	39.48	
2025-01-16 12:17:46.91	243.42	39.50	
2025-01-16 12:17:47.11	243.53	39.52	
2025-01-16 12:17:47.32	243.64	39.54	
2025-01-16 12:17:47.52	243.74	39.56	
2025-01-16 12:17:47.72	243.84	39.58	
2025-01-16 12:17:47.93	243.95	39.60	
2025-01-16 12:17:48.13	244.06	39.61	
2025-01-16 12:17:48.33	244.16	39.63	
2025-01-16 12:17:48.53	244.27	39.65	
2025-01-16 12:17:48.74	244.38	39.67	
2025-01-16 12:17:48.94	244.48	39.69	
2025-01-16 12:17:49.14	244.59	39.71	
2025-01-16 12:17:49.35	244.70	39.73	
2025-01-16 12:17:49.55	244.81	39.74	
2025-01-16 12:17:49.75	244.91	39.76	
2025-01-16 12:17:49.96	245.02	39.78	
2025-01-16 12:17:50.16	245.13	39.80	
2025-01-16 12:17:50.36	245.23	39.81	
2025-01-16 12:17:50.56	245.34	39.83	
2025-01-16 12:17:50.77	245.45	39.85	
2025-01-16 12:17:50.97	245.56	39.87	
2025-01-16 12:17:51.17	245.67	39.88	
2025-01-16 12:17:51.38	245.78	39.90	
2025-01-16 12:17:51.58	245.88	39.92	
2025-01-16 12:17:51.78	245.99	39.94	
2025-01-16 12:17:51.99	246.10	39.95	
2025-01-16 12:17:52.19	246.21	39.97	
2025-01-16 12:17:52.39	246.32	39.99	
2025-01-16 12:17:52.59	246.42	40.00	
2025-01-16 12:17:52.80	246.54	40.02	
2025-01-16 12:17:53.00	246.64	40.04	
2025-01-16 12:17:53.20	246.75	40.05	
2025-01-16 12:17:53.41	246.87	40.07	
2025-01-16 12:17:53.61	246.97	40.08	
2025-01-16 12:17:53.81	247.08	40.10	
2025-01-16 12:17:54.01	247.19	40.12	
2025-01-16 12:17:54.22	247.30	40.13	
2025-01-16 12:17:54.42	247.41	40.15	
2025-01-16 12:17:54.62	247.52	40.16	
2025-01-16 12:17:54.83	247.63	40.18	
2025-01-16 12:17:55.03	247.74	40.19	
2025-01-16 12:17:55.23	247.85	40.21	
2025-01-16 12:17:55.44	247.96	40.22	
2025-01-16 12:17:55.64	248.07	40.24	
2025-01-16 12:17:55.84	248.18	40.25	
2025-01-16 12:17:56.04	248.29	40.27	
2025-01-16 12:17:56.25	248.41	40.28	
2025-01-16 12:17:56.45	248.51	40.30	
2025-01-16 12:17:56.65	248.62	40.31	
2025-01-16 12:17:56.86	248.74	40.33	
2025-01-16 12:17:57.06	248.85	40.34	
2025-01-16 12:17:57.26	248.96	40.35	
2025-01-16 12:17:57.47	249.07	40.37	
2025-01-16 12:17:57.67	249.18	40.38	
2025-01-16 12:17:57.87	249.29	40.40	
2025-01-16 12:17:58.07	249.40	40.41	
2025-01-16 12:17:58.28	249.52	40.42	
2025-01-16 12:17:58.48	249.63	40.44	
2025-01-16 12:17:58.68	249.74	40.45	
2025-01-16 12:17:58.89	249.86	40.46	
2025-01-16 12:17:59.09	249.97	40.48	
2025-01-16 12:17:59.29	250.08	40.49	
2025-01-16 12:17:59.50	250.19	40.50	
2025-01-16 12:17:59.70	250.30	40.52	
2025-01-16 12:17:59.90	250.41	40.53	
2025-01-16 12:18:00.10	250.52	40.54	
2025-01-16 12:18:00.31	250.64	40.55	
2025-01-16 12:18:00.51	250.75	40.57	
2025-01-16 12:18:00.71	250.86	40.58	
2025-01-16 12:18:00.92	250.98	40.59	
2025-01-16 12:18:01.12	251.09	40.60	
2025-01-16 12:18:01.32	251.20	40.61	
2025-01-16 12:18:01.52	251.31	40.62	
2025-01-16 12:18:01.73	251.43	40.64	
2025-01-16 12:18:01.93	251.54	40.65	
2025-01-16 12:18:02.13	251.65	40.66	
2025-01-16 12:18:02.34	251.77	40.67	
2025-01-16 12:18:02.54	251.88	40.68	
2025-01-16 12:18:02.74	252.00	40.69	
2025-01-16 12:18:02.95	252.11	40.70	
2025-01-16 12:18:03.15	252.23	40.71	
2025-01-16 12:18:03.35	252.34	40.72	
2025-01-16 12:18:03.55	252.45	40.73	
2025-01-16 12:18:03.76	252.57	40.75	
2025-01-16 12:18:03.96	252.68	40.76	
2025-01-16 12:18:04.16	252.79	40.77	
2025-01-16 12:18:04.37	252.91	40.78	
2025-01-16 12:18:04.57	253.02	40.79	
2025-01-16 12:18:04.77	253.14	40.80	
2025-01-16 12:18:04.98	253.25	40.81	
2025-01-16 12:18:05.18	253.37	40.81	
2025-01-16 12:18:05.38	253.48	40.82	
2025-01-16 12:18:05.58	253.59	40.83	
2025-01-16 12:18:05.79	253.71	40.84	
2025-01-16 12:18:05.99	253.82	40.85	
