passes_logs/2025/01/16/SPB_Silybum_02/SPB_Silybum_02__20250116_023609_AQUA_rec.log

#Pass ID: 20250116_023609_AQUA
#Satellite: AQUA
#Configuration: AQUA
#Start time: 2025-01-16 02:36:10

#Version: 2.0.20230423
#Station: SPB_Silybum_02
#Location: 30.233357 lon 59.946436 lat
#TLE: 1 27424U 02022A   25015.14217918  .00001674  00000+0  35361-3 0  9999
#TLE: 2 27424  98.3589 331.8074 0001731 111.2907 305.4435 14.60682485207649

#Time	Az	El	Level	Level2	SNR	BER	Gain	Gain2
2025-01-16 02:36:12.16	11.78	4.20	
2025-01-16 02:36:12.37	11.76	4.21	
2025-01-16 02:36:12.57	11.75	4.23	
2025-01-16 02:36:12.77	11.74	4.24	
2025-01-16 02:36:12.98	11.73	4.25	
2025-01-16 02:36:13.18	11.71	4.27	
2025-01-16 02:36:13.38	11.70	4.28	
2025-01-16 02:36:13.58	11.69	4.29	
2025-01-16 02:36:13.79	11.67	4.31	
2025-01-16 02:36:13.99	11.66	4.32	
2025-01-16 02:36:14.19	11.65	4.33	
2025-01-16 02:36:14.40	11.64	4.35	
2025-01-16 02:36:14.60	11.62	4.36	
2025-01-16 02:36:14.80	11.61	4.38	
2025-01-16 02:36:15.01	11.60	4.39	
2025-01-16 02:36:15.21	11.58	4.40	
2025-01-16 02:36:15.41	11.57	4.42	
2025-01-16 02:36:15.61	11.56	4.43	
2025-01-16 02:36:15.82	11.55	4.44	
2025-01-16 02:36:16.02	11.53	4.46	
2025-01-16 02:36:16.22	11.52	4.47	
2025-01-16 02:36:16.43	11.51	4.48	
2025-01-16 02:36:16.63	11.49	4.50	
2025-01-16 02:36:16.83	11.48	4.51	
2025-01-16 02:36:17.04	11.47	4.53	
2025-01-16 02:36:17.24	11.45	4.54	
2025-01-16 02:36:17.44	11.44	4.55	
2025-01-16 02:36:17.64	11.43	4.57	
2025-01-16 02:36:17.85	11.42	4.58	
2025-01-16 02:36:18.05	11.40	4.59	
2025-01-16 02:36:18.25	11.39	4.61	
2025-01-16 02:36:18.46	11.38	4.62	
2025-01-16 02:36:18.66	11.36	4.64	
2025-01-16 02:36:18.86	11.35	4.65	
2025-01-16 02:36:19.07	11.34	4.66	
2025-01-16 02:36:19.27	11.32	4.68	
2025-01-16 02:36:19.47	11.31	4.69	
2025-01-16 02:36:19.67	11.30	4.70	
2025-01-16 02:36:19.88	11.28	4.72	
2025-01-16 02:36:20.08	11.27	4.73	
2025-01-16 02:36:20.28	11.26	4.74	
2025-01-16 02:36:20.49	11.24	4.76	
2025-01-16 02:36:20.69	11.23	4.77	
2025-01-16 02:36:20.89	11.22	4.79	
2025-01-16 02:36:21.09	11.20	4.80	
2025-01-16 02:36:21.30	11.19	4.81	
2025-01-16 02:36:21.50	11.18	4.83	
2025-01-16 02:36:21.70	11.16	4.84	
2025-01-16 02:36:21.91	11.15	4.86	
2025-01-16 02:36:22.11	11.14	4.87	
2025-01-16 02:36:22.31	11.12	4.88	
2025-01-16 02:36:22.52	11.11	4.90	
2025-01-16 02:36:22.72	11.10	4.91	
2025-01-16 02:36:22.92	11.08	4.92	
2025-01-16 02:36:23.12	11.07	4.94	
2025-01-16 02:36:23.33	11.06	4.95	
2025-01-16 02:36:23.53	11.04	4.97	
2025-01-16 02:36:23.73	11.03	4.98	
2025-01-16 02:36:23.94	11.02	4.99	
2025-01-16 02:36:24.14	11.00	5.01	
2025-01-16 02:36:24.34	10.99	5.02	
2025-01-16 02:36:24.55	10.97	5.04	
2025-01-16 02:36:24.75	10.96	5.05	
2025-01-16 02:36:24.95	10.95	5.06	
2025-01-16 02:36:25.15	10.93	5.08	
2025-01-16 02:36:25.36	10.92	5.09	
2025-01-16 02:36:25.56	10.91	5.11	
2025-01-16 02:36:25.76	10.89	5.12	
2025-01-16 02:36:25.97	10.88	5.13	
2025-01-16 02:36:26.17	10.87	5.15	
2025-01-16 02:36:26.37	10.85	5.16	
2025-01-16 02:36:26.58	10.84	5.18	
2025-01-16 02:36:26.78	10.82	5.19	
2025-01-16 02:36:26.98	10.81	5.20	
2025-01-16 02:36:27.18	10.80	5.22	
2025-01-16 02:36:27.39	10.78	5.23	
2025-01-16 02:36:27.59	10.77	5.25	
2025-01-16 02:36:27.79	10.76	5.26	
2025-01-16 02:36:28.00	10.74	5.27	
2025-01-16 02:36:28.20	10.73	5.29	
2025-01-16 02:36:28.40	10.71	5.30	
2025-01-16 02:36:28.61	10.70	5.32	
2025-01-16 02:36:28.81	10.69	5.33	
2025-01-16 02:36:29.01	10.67	5.34	
2025-01-16 02:36:29.21	10.66	5.36	
2025-01-16 02:36:29.42	10.64	5.37	
2025-01-16 02:36:29.62	10.63	5.39	
2025-01-16 02:36:29.82	10.62	5.40	
2025-01-16 02:36:30.03	10.60	5.41	
2025-01-16 02:36:30.23	10.59	5.43	
2025-01-16 02:36:30.43	10.57	5.44	
2025-01-16 02:36:30.64	10.56	5.46	
2025-01-16 02:36:30.84	10.55	5.47	
2025-01-16 02:36:31.04	10.53	5.48	
2025-01-16 02:36:31.24	10.52	5.50	
2025-01-16 02:36:31.45	10.50	5.51	
2025-01-16 02:36:31.65	10.49	5.53	
2025-01-16 02:36:31.85	10.48	5.54	
2025-01-16 02:36:32.06	10.46	5.56	
2025-01-16 02:36:32.26	10.45	5.57	
2025-01-16 02:36:32.46	10.43	5.58	
2025-01-16 02:36:32.67	10.42	5.60	
2025-01-16 02:36:32.87	10.40	5.61	
2025-01-16 02:36:33.07	10.39	5.63	
2025-01-16 02:36:33.27	10.38	5.64	
2025-01-16 02:36:33.48	10.36	5.65	
2025-01-16 02:36:33.68	10.35	5.67	
2025-01-16 02:36:33.88	10.33	5.68	
2025-01-16 02:36:34.09	10.32	5.70	
2025-01-16 02:36:34.29	10.30	5.71	
2025-01-16 02:36:34.49	10.29	5.73	
2025-01-16 02:36:34.70	10.28	5.74	
2025-01-16 02:36:34.90	10.26	5.75	
2025-01-16 02:36:35.10	10.25	5.77	
2025-01-16 02:36:35.30	10.23	5.78	
2025-01-16 02:36:35.51	10.22	5.80	
2025-01-16 02:36:35.71	10.20	5.81	
2025-01-16 02:36:35.91	10.19	5.83	
2025-01-16 02:36:36.12	10.17	5.84	
2025-01-16 02:36:36.32	10.16	5.85	
2025-01-16 02:36:36.52	10.15	5.87	
2025-01-16 02:36:36.72	10.13	5.88	
2025-01-16 02:36:36.93	10.12	5.90	
2025-01-16 02:36:37.13	10.10	5.91	
2025-01-16 02:36:37.33	10.09	5.93	
2025-01-16 02:36:37.54	10.07	5.94	
2025-01-16 02:36:37.74	10.06	5.95	
2025-01-16 02:36:37.94	10.04	5.97	
2025-01-16 02:36:38.15	10.03	5.98	
2025-01-16 02:36:38.35	10.01	6.00	
2025-01-16 02:36:38.55	10.00	6.01	
2025-01-16 02:36:38.75	9.99	6.03	
2025-01-16 02:36:38.96	9.97	6.04	
2025-01-16 02:36:39.16	9.96	6.05	
2025-01-16 02:36:39.36	9.94	6.07	
2025-01-16 02:36:39.57	9.93	6.08	
2025-01-16 02:36:39.77	9.91	6.10	
2025-01-16 02:36:39.97	9.90	6.11	
2025-01-16 02:36:40.18	9.88	6.13	
2025-01-16 02:36:40.38	9.87	6.14	
2025-01-16 02:36:40.58	9.85	6.16	
2025-01-16 02:36:40.78	9.84	6.17	
2025-01-16 02:36:40.99	9.82	6.19	
2025-01-16 02:36:41.19	9.81	6.20	
2025-01-16 02:36:41.39	9.79	6.21	
2025-01-16 02:36:41.60	9.78	6.23	
2025-01-16 02:36:41.80	9.76	6.24	
2025-01-16 02:36:42.00	9.75	6.26	
2025-01-16 02:36:42.21	9.73	6.27	
2025-01-16 02:36:42.41	9.72	6.29	
2025-01-16 02:36:42.61	9.70	6.30	
2025-01-16 02:36:42.81	9.69	6.32	
2025-01-16 02:36:43.02	9.67	6.33	
2025-01-16 02:36:43.22	9.66	6.34	
2025-01-16 02:36:43.42	9.64	6.36	
2025-01-16 02:36:43.63	9.63	6.37	
2025-01-16 02:36:43.83	9.61	6.39	
2025-01-16 02:36:44.03	9.60	6.40	
2025-01-16 02:36:44.24	9.58	6.42	
2025-01-16 02:36:44.44	9.57	6.43	
2025-01-16 02:36:44.64	9.55	6.45	
2025-01-16 02:36:44.84	9.54	6.46	
2025-01-16 02:36:45.05	9.52	6.48	
2025-01-16 02:36:45.25	9.51	6.49	
2025-01-16 02:36:45.45	9.49	6.50	
2025-01-16 02:36:45.66	9.48	6.52	
2025-01-16 02:36:45.86	9.46	6.53	
2025-01-16 02:36:46.06	9.45	6.55	
2025-01-16 02:36:46.27	9.43	6.56	
2025-01-16 02:36:46.47	9.41	6.58	
2025-01-16 02:36:46.67	9.40	6.59	
2025-01-16 02:36:46.87	9.38	6.61	
2025-01-16 02:36:47.08	9.37	6.62	
2025-01-16 02:36:47.28	9.35	6.64	
2025-01-16 02:36:47.48	9.34	6.65	
2025-01-16 02:36:47.69	9.32	6.67	
2025-01-16 02:36:47.89	9.31	6.68	
2025-01-16 02:36:48.09	9.29	6.70	
2025-01-16 02:36:48.30	9.28	6.71	
2025-01-16 02:36:48.50	9.26	6.73	
2025-01-16 02:36:48.70	9.24	6.74	
2025-01-16 02:36:48.90	9.23	6.75	
2025-01-16 02:36:49.11	9.21	6.77	
2025-01-16 02:36:49.31	9.20	6.78	
2025-01-16 02:36:49.51	9.18	6.80	
2025-01-16 02:36:49.72	9.17	6.81	
2025-01-16 02:36:49.92	9.15	6.83	
2025-01-16 02:36:50.12	9.14	6.84	
2025-01-16 02:36:50.32	9.12	6.86	
2025-01-16 02:36:50.53	9.10	6.87	
2025-01-16 02:36:50.73	9.09	6.89	
2025-01-16 02:36:50.93	9.07	6.90	
2025-01-16 02:36:51.14	9.06	6.92	
2025-01-16 02:36:51.34	9.04	6.93	
2025-01-16 02:36:51.54	9.03	6.95	
2025-01-16 02:36:51.75	9.01	6.96	
2025-01-16 02:36:51.95	8.99	6.98	
2025-01-16 02:36:52.15	8.98	6.99	
2025-01-16 02:36:52.35	8.96	7.01	
2025-01-16 02:36:52.56	8.95	7.02	
2025-01-16 02:36:52.76	8.93	7.04	
2025-01-16 02:36:52.96	8.91	7.05	
2025-01-16 02:36:53.17	8.90	7.07	
2025-01-16 02:36:53.37	8.88	7.08	
2025-01-16 02:36:53.57	8.87	7.10	
2025-01-16 02:36:53.78	8.85	7.11	
2025-01-16 02:36:53.98	8.83	7.13	
2025-01-16 02:36:54.18	8.82	7.14	
2025-01-16 02:36:54.38	8.80	7.16	
2025-01-16 02:36:54.59	8.79	7.17	
2025-01-16 02:36:54.79	8.77	7.19	
2025-01-16 02:36:54.99	8.75	7.20	
2025-01-16 02:36:55.20	8.74	7.22	
2025-01-16 02:36:55.40	8.72	7.23	
2025-01-16 02:36:55.60	8.71	7.25	
2025-01-16 02:36:55.81	8.69	7.26	
2025-01-16 02:36:56.01	8.67	7.28	
2025-01-16 02:36:56.21	8.66	7.29	
2025-01-16 02:36:56.41	8.64	7.31	
2025-01-16 02:36:56.62	8.62	7.32	
2025-01-16 02:36:56.82	8.61	7.34	
2025-01-16 02:36:57.02	8.59	7.35	
2025-01-16 02:36:57.23	8.58	7.37	
2025-01-16 02:36:57.43	8.56	7.38	
2025-01-16 02:36:57.63	8.54	7.40	
2025-01-16 02:36:57.84	8.53	7.41	
2025-01-16 02:36:58.04	8.51	7.43	
2025-01-16 02:36:58.24	8.49	7.44	
2025-01-16 02:36:58.44	8.48	7.46	
2025-01-16 02:36:58.65	8.46	7.47	
2025-01-16 02:36:58.85	8.44	7.49	
2025-01-16 02:36:59.05	8.43	7.50	
2025-01-16 02:36:59.26	8.41	7.52	
2025-01-16 02:36:59.46	8.40	7.53	
2025-01-16 02:36:59.66	8.38	7.55	
2025-01-16 02:36:59.87	8.36	7.56	
2025-01-16 02:37:00.07	8.35	7.58	
2025-01-16 02:37:00.27	8.33	7.59	
2025-01-16 02:37:00.47	8.31	7.61	
2025-01-16 02:37:00.68	8.30	7.62	
2025-01-16 02:37:00.88	8.28	7.64	
2025-01-16 02:37:01.08	8.26	7.65	
2025-01-16 02:37:01.29	8.25	7.67	
2025-01-16 02:37:01.49	8.23	7.68	
2025-01-16 02:37:01.69	8.21	7.70	
2025-01-16 02:37:01.90	8.19	7.71	
2025-01-16 02:37:02.10	8.18	7.73	
2025-01-16 02:37:02.30	8.16	7.75	
2025-01-16 02:37:02.50	8.15	7.76	
2025-01-16 02:37:02.71	8.13	7.78	
2025-01-16 02:37:02.91	8.11	7.79	
2025-01-16 02:37:03.11	8.09	7.81	
2025-01-16 02:37:03.32	8.08	7.82	
2025-01-16 02:37:03.52	8.06	7.84	
2025-01-16 02:37:03.72	8.04	7.85	
2025-01-16 02:37:03.92	8.03	7.87	
2025-01-16 02:37:04.13	8.01	7.88	
2025-01-16 02:37:04.33	7.99	7.90	
2025-01-16 02:37:04.53	7.98	7.91	
2025-01-16 02:37:04.74	7.96	7.93	
2025-01-16 02:37:04.94	7.94	7.94	
2025-01-16 02:37:05.14	7.92	7.96	
2025-01-16 02:37:05.35	7.91	7.98	
2025-01-16 02:37:05.55	7.89	7.99	
2025-01-16 02:37:05.75	7.87	8.01	
2025-01-16 02:37:05.95	7.86	8.02	
2025-01-16 02:37:06.16	7.84	8.04	
2025-01-16 02:37:06.36	7.82	8.05	
2025-01-16 02:37:06.56	7.80	8.07	
2025-01-16 02:37:06.77	7.79	8.08	
2025-01-16 02:37:06.97	7.77	8.10	
2025-01-16 02:37:07.17	7.75	8.11	
2025-01-16 02:37:07.38	7.73	8.13	
2025-01-16 02:37:07.58	7.72	8.14	
2025-01-16 02:37:07.78	7.70	8.16	
2025-01-16 02:37:07.98	7.68	8.18	
2025-01-16 02:37:08.19	7.67	8.19	
2025-01-16 02:37:08.39	7.65	8.21	
2025-01-16 02:37:08.59	7.63	8.22	
2025-01-16 02:37:08.80	7.61	8.24	
2025-01-16 02:37:09.00	7.60	8.25	
2025-01-16 02:37:09.20	7.58	8.27	
2025-01-16 02:37:09.41	7.56	8.28	
2025-01-16 02:37:09.61	7.54	8.30	
2025-01-16 02:37:09.81	7.53	8.32	
2025-01-16 02:37:10.01	7.51	8.33	
2025-01-16 02:37:10.22	7.49	8.35	
2025-01-16 02:37:10.42	7.47	8.36	
2025-01-16 02:37:10.62	7.46	8.38	
2025-01-16 02:37:10.83	7.44	8.39	
2025-01-16 02:37:11.03	7.42	8.41	
2025-01-16 02:37:11.23	7.40	8.42	
2025-01-16 02:37:11.44	7.38	8.44	
2025-01-16 02:37:11.64	7.37	8.46	
2025-01-16 02:37:11.84	7.35	8.47	
2025-01-16 02:37:12.04	7.33	8.49	
2025-01-16 02:37:12.25	7.31	8.50	
2025-01-16 02:37:12.45	7.30	8.52	
2025-01-16 02:37:12.65	7.28	8.53	
2025-01-16 02:37:12.86	7.26	8.55	
2025-01-16 02:37:13.06	7.24	8.57	
2025-01-16 02:37:13.26	7.22	8.58	
2025-01-16 02:37:13.47	7.21	8.60	
2025-01-16 02:37:13.67	7.19	8.61	
2025-01-16 02:37:13.87	7.17	8.63	
2025-01-16 02:37:14.07	7.15	8.64	
2025-01-16 02:37:14.28	7.13	8.66	
2025-01-16 02:37:14.48	7.12	8.68	
2025-01-16 02:37:14.68	7.10	8.69	
2025-01-16 02:37:14.89	7.08	8.71	
2025-01-16 02:37:15.09	7.06	8.72	
2025-01-16 02:37:15.29	7.04	8.74	
2025-01-16 02:37:15.50	7.02	8.75	
2025-01-16 02:37:15.70	7.01	8.77	
2025-01-16 02:37:15.90	6.99	8.79	
2025-01-16 02:37:16.10	6.97	8.80	
2025-01-16 02:37:16.31	6.95	8.82	
2025-01-16 02:37:16.51	6.93	8.83	
2025-01-16 02:37:16.71	6.92	8.85	
2025-01-16 02:37:16.92	6.90	8.87	
2025-01-16 02:37:17.12	6.88	8.88	
2025-01-16 02:37:17.32	6.86	8.90	
2025-01-16 02:37:17.53	6.84	8.91	
2025-01-16 02:37:17.73	6.82	8.93	
2025-01-16 02:37:17.93	6.81	8.94	
2025-01-16 02:37:18.13	6.79	8.96	
2025-01-16 02:37:18.34	6.77	8.98	
2025-01-16 02:37:18.54	6.75	8.99	
2025-01-16 02:37:18.74	6.73	9.01	
2025-01-16 02:37:18.95	6.71	9.02	
2025-01-16 02:37:19.15	6.69	9.04	
2025-01-16 02:37:19.35	6.68	9.06	
2025-01-16 02:37:19.56	6.66	9.07	
2025-01-16 02:37:19.76	6.64	9.09	
2025-01-16 02:37:19.96	6.62	9.10	
2025-01-16 02:37:20.16	6.60	9.12	
2025-01-16 02:37:20.37	6.58	9.14	
2025-01-16 02:37:20.57	6.56	9.15	
2025-01-16 02:37:20.77	6.55	9.17	
2025-01-16 02:37:20.98	6.53	9.18	
2025-01-16 02:37:21.18	6.51	9.20	
2025-01-16 02:37:21.38	6.49	9.22	
2025-01-16 02:37:21.58	6.47	9.23	
2025-01-16 02:37:21.79	6.45	9.25	
2025-01-16 02:37:21.99	6.43	9.26	
2025-01-16 02:37:22.19	6.41	9.28	
2025-01-16 02:37:22.40	6.39	9.30	
2025-01-16 02:37:22.60	6.37	9.31	
2025-01-16 02:37:22.80	6.36	9.33	
2025-01-16 02:37:23.01	6.34	9.34	
2025-01-16 02:37:23.21	6.32	9.36	
2025-01-16 02:37:23.41	6.30	9.38	
2025-01-16 02:37:23.61	6.28	9.39	
2025-01-16 02:37:23.82	6.26	9.41	
2025-01-16 02:37:24.02	6.24	9.42	
2025-01-16 02:37:24.22	6.22	9.44	
2025-01-16 02:37:24.43	6.20	9.46	
2025-01-16 02:37:24.63	6.18	9.47	
2025-01-16 02:37:24.83	6.16	9.49	
2025-01-16 02:37:25.04	6.15	9.51	
2025-01-16 02:37:25.24	6.13	9.52	
2025-01-16 02:37:25.44	6.11	9.54	
2025-01-16 02:37:25.64	6.09	9.55	
2025-01-16 02:37:25.85	6.07	9.57	
2025-01-16 02:37:26.05	6.05	9.59	
2025-01-16 02:37:26.25	6.03	9.60	
2025-01-16 02:37:26.46	6.01	9.62	
2025-01-16 02:37:26.66	5.99	9.64	
2025-01-16 02:37:26.86	5.97	9.65	
2025-01-16 02:37:27.07	5.95	9.67	
2025-01-16 02:37:27.27	5.93	9.68	
2025-01-16 02:37:27.47	5.91	9.70	
2025-01-16 02:37:27.67	5.89	9.72	
2025-01-16 02:37:27.88	5.87	9.73	
2025-01-16 02:37:28.08	5.85	9.75	
2025-01-16 02:37:28.28	5.83	9.77	
2025-01-16 02:37:28.49	5.81	9.78	
2025-01-16 02:37:28.69	5.79	9.80	
2025-01-16 02:37:28.89	5.78	9.81	
2025-01-16 02:37:29.10	5.75	9.83	
2025-01-16 02:37:29.30	5.74	9.85	
2025-01-16 02:37:29.50	5.72	9.86	
2025-01-16 02:37:29.70	5.70	9.88	
2025-01-16 02:37:29.91	5.68	9.90	
2025-01-16 02:37:30.11	5.66	9.91	
2025-01-16 02:37:30.31	5.64	9.93	
2025-01-16 02:37:30.52	5.62	9.95	
2025-01-16 02:37:30.72	5.60	9.96	
2025-01-16 02:37:30.92	5.58	9.98	
2025-01-16 02:37:31.13	5.56	10.00	
2025-01-16 02:37:31.33	5.54	10.01	
2025-01-16 02:37:31.53	5.52	10.03	
2025-01-16 02:37:31.73	5.50	10.04	
2025-01-16 02:37:31.94	5.48	10.06	
2025-01-16 02:37:32.14	5.46	10.08	
2025-01-16 02:37:32.34	5.44	10.09	
2025-01-16 02:37:32.55	5.42	10.11	
2025-01-16 02:37:32.75	5.40	10.13	
2025-01-16 02:37:32.95	5.38	10.14	
2025-01-16 02:37:33.16	5.35	10.16	
2025-01-16 02:37:33.36	5.33	10.18	
2025-01-16 02:37:33.56	5.31	10.19	
2025-01-16 02:37:33.76	5.29	10.21	
2025-01-16 02:37:33.97	5.27	10.23	
2025-01-16 02:37:34.17	5.25	10.24	
2025-01-16 02:37:34.37	5.23	10.26	
2025-01-16 02:37:34.58	5.21	10.28	
2025-01-16 02:37:34.78	5.19	10.29	
2025-01-16 02:37:34.98	5.17	10.31	
2025-01-16 02:37:35.18	5.15	10.33	
2025-01-16 02:37:35.39	5.13	10.34	
2025-01-16 02:37:35.59	5.11	10.36	
2025-01-16 02:37:35.79	5.09	10.38	
2025-01-16 02:37:36.00	5.07	10.39	
2025-01-16 02:37:36.20	5.05	10.41	
2025-01-16 02:37:36.40	5.03	10.43	
2025-01-16 02:37:36.61	5.01	10.44	
2025-01-16 02:37:36.81	4.99	10.46	
2025-01-16 02:37:37.01	4.97	10.48	
2025-01-16 02:37:37.21	4.95	10.49	
2025-01-16 02:37:37.42	4.92	10.51	
2025-01-16 02:37:37.62	4.90	10.53	
2025-01-16 02:37:37.82	4.88	10.54	
2025-01-16 02:37:38.03	4.86	10.56	
2025-01-16 02:37:38.23	4.84	10.58	
2025-01-16 02:37:38.43	4.82	10.59	
2025-01-16 02:37:38.64	4.80	10.61	
2025-01-16 02:37:38.84	4.78	10.63	
2025-01-16 02:37:39.04	4.76	10.64	
2025-01-16 02:37:39.24	4.74	10.66	
2025-01-16 02:37:39.45	4.71	10.68	
2025-01-16 02:37:39.65	4.69	10.69	
2025-01-16 02:37:39.85	4.67	10.71	
2025-01-16 02:37:40.06	4.65	10.73	
2025-01-16 02:37:40.26	4.63	10.74	
2025-01-16 02:37:40.46	4.61	10.76	
2025-01-16 02:37:40.67	4.59	10.78	
2025-01-16 02:37:40.87	4.57	10.80	
2025-01-16 02:37:41.07	4.55	10.81	
2025-01-16 02:37:41.27	4.52	10.83	
2025-01-16 02:37:41.48	4.50	10.85	
2025-01-16 02:37:41.68	4.48	10.86	
2025-01-16 02:37:41.88	4.46	10.88	
2025-01-16 02:37:42.09	4.44	10.90	
2025-01-16 02:37:42.29	4.42	10.91	
2025-01-16 02:37:42.49	4.40	10.93	
2025-01-16 02:37:42.70	4.37	10.95	
2025-01-16 02:37:42.90	4.35	10.97	
2025-01-16 02:37:43.10	4.33	10.98	
2025-01-16 02:37:43.30	4.31	11.00	
2025-01-16 02:37:43.51	4.29	11.02	
2025-01-16 02:37:43.71	4.27	11.03	
2025-01-16 02:37:43.91	4.24	11.05	
2025-01-16 02:37:44.12	4.22	11.07	
2025-01-16 02:37:44.32	4.20	11.08	
2025-01-16 02:37:44.52	4.18	11.10	
2025-01-16 02:37:44.73	4.16	11.12	
2025-01-16 02:37:44.93	4.14	11.14	
2025-01-16 02:37:45.13	4.11	11.15	
2025-01-16 02:37:45.33	4.09	11.17	
2025-01-16 02:37:45.54	4.07	11.19	
2025-01-16 02:37:45.74	4.05	11.20	
2025-01-16 02:37:45.94	4.03	11.22	
2025-01-16 02:37:46.15	4.00	11.24	
2025-01-16 02:37:46.35	3.98	11.25	
2025-01-16 02:37:46.55	3.96	11.27	
2025-01-16 02:37:46.76	3.94	11.29	
2025-01-16 02:37:46.96	3.92	11.31	
2025-01-16 02:37:47.16	3.89	11.32	
2025-01-16 02:37:47.36	3.87	11.34	
2025-01-16 02:37:47.57	3.85	11.36	
2025-01-16 02:37:47.77	3.83	11.38	
2025-01-16 02:37:47.97	3.81	11.39	
2025-01-16 02:37:48.18	3.78	11.41	
2025-01-16 02:37:48.38	3.76	11.43	
2025-01-16 02:37:48.58	3.74	11.44	
2025-01-16 02:37:48.79	3.72	11.46	
2025-01-16 02:37:48.99	3.69	11.48	
2025-01-16 02:37:49.19	3.67	11.50	
2025-01-16 02:37:49.39	3.65	11.51	
2025-01-16 02:37:49.60	3.63	11.53	
2025-01-16 02:37:49.80	3.60	11.55	
2025-01-16 02:37:50.00	3.58	11.56	
2025-01-16 02:37:50.21	3.56	11.58	
2025-01-16 02:37:50.41	3.54	11.60	
2025-01-16 02:37:50.61	3.51	11.62	
2025-01-16 02:37:50.81	3.49	11.63	
2025-01-16 02:37:51.02	3.47	11.65	
2025-01-16 02:37:51.22	3.45	11.67	
2025-01-16 02:37:51.42	3.42	11.69	
2025-01-16 02:37:51.63	3.40	11.70	
2025-01-16 02:37:51.83	3.38	11.72	
2025-01-16 02:37:52.03	3.35	11.74	
2025-01-16 02:37:52.24	3.33	11.76	
2025-01-16 02:37:52.44	3.31	11.77	
2025-01-16 02:37:52.64	3.29	11.79	
2025-01-16 02:37:52.84	3.26	11.81	
2025-01-16 02:37:53.05	3.24	11.83	
2025-01-16 02:37:53.25	3.22	11.84	
2025-01-16 02:37:53.45	3.19	11.86	
2025-01-16 02:37:53.66	3.17	11.88	
2025-01-16 02:37:53.86	3.15	11.90	
2025-01-16 02:37:54.06	3.12	11.91	
2025-01-16 02:37:54.27	3.10	11.93	
2025-01-16 02:37:54.47	3.08	11.95	
2025-01-16 02:37:54.67	3.05	11.97	
2025-01-16 02:37:54.87	3.03	11.98	
2025-01-16 02:37:55.08	3.01	12.00	
2025-01-16 02:37:55.28	2.98	12.02	
2025-01-16 02:37:55.48	2.96	12.04	
2025-01-16 02:37:55.69	2.94	12.05	
2025-01-16 02:37:55.89	2.91	12.07	
2025-01-16 02:37:56.09	2.89	12.09	
2025-01-16 02:37:56.30	2.87	12.11	
2025-01-16 02:37:56.50	2.84	12.12	
2025-01-16 02:37:56.70	2.82	12.14	
2025-01-16 02:37:56.90	2.80	12.16	
2025-01-16 02:37:57.11	2.77	12.18	
2025-01-16 02:37:57.31	2.75	12.19	
2025-01-16 02:37:57.51	2.73	12.21	
2025-01-16 02:37:57.72	2.70	12.23	
2025-01-16 02:37:57.92	2.68	12.25	
2025-01-16 02:37:58.12	2.66	12.26	
2025-01-16 02:37:58.33	2.63	12.28	
2025-01-16 02:37:58.53	2.61	12.30	
2025-01-16 02:37:58.73	2.58	12.32	
2025-01-16 02:37:58.93	2.56	12.34	
2025-01-16 02:37:59.14	2.54	12.35	
2025-01-16 02:37:59.34	2.51	12.37	
2025-01-16 02:37:59.54	2.49	12.39	
2025-01-16 02:37:59.75	2.46	12.41	
2025-01-16 02:37:59.95	2.44	12.42	
2025-01-16 02:38:00.15	2.42	12.44	
2025-01-16 02:38:00.36	2.39	12.46	
2025-01-16 02:38:00.56	2.37	12.48	
2025-01-16 02:38:00.76	2.34	12.50	
2025-01-16 02:38:00.96	2.32	12.51	
2025-01-16 02:38:01.17	2.29	12.53	
2025-01-16 02:38:01.37	2.27	12.55	
2025-01-16 02:38:01.57	2.25	12.57	
2025-01-16 02:38:01.78	2.22	12.58	
2025-01-16 02:38:01.98	2.20	12.60	
2025-01-16 02:38:02.18	2.17	12.62	
2025-01-16 02:38:02.39	2.15	12.64	
2025-01-16 02:38:02.59	2.12	12.66	
2025-01-16 02:38:02.79	2.10	12.67	
2025-01-16 02:38:02.99	2.08	12.69	
2025-01-16 02:38:03.20	2.05	12.71	
2025-01-16 02:38:03.40	2.03	12.73	
2025-01-16 02:38:03.60	2.00	12.75	
2025-01-16 02:38:03.81	1.98	12.76	
2025-01-16 02:38:04.01	1.95	12.78	
2025-01-16 02:38:04.21	1.93	12.80	
2025-01-16 02:38:04.42	1.90	12.82	
2025-01-16 02:38:04.62	1.88	12.84	
2025-01-16 02:38:04.82	1.85	12.85	
2025-01-16 02:38:05.02	1.83	12.87	
2025-01-16 02:38:05.23	1.80	12.89	
2025-01-16 02:38:05.43	1.78	12.91	
2025-01-16 02:38:05.63	1.75	12.93	
2025-01-16 02:38:05.84	1.73	12.94	
2025-01-16 02:38:06.04	1.70	12.96	
2025-01-16 02:38:06.24	1.68	12.98	
2025-01-16 02:38:06.44	1.65	13.00	
2025-01-16 02:38:06.65	1.63	13.02	
2025-01-16 02:38:06.85	1.60	13.03	
2025-01-16 02:38:07.05	1.58	13.05	
2025-01-16 02:38:07.26	1.55	13.07	
2025-01-16 02:38:07.46	1.53	13.09	
2025-01-16 02:38:07.66	1.50	13.11	
2025-01-16 02:38:07.87	1.48	13.12	
2025-01-16 02:38:08.07	1.45	13.14	
2025-01-16 02:38:08.27	1.43	13.16	
2025-01-16 02:38:08.47	1.40	13.18	
2025-01-16 02:38:08.68	1.38	13.20	
2025-01-16 02:38:08.88	1.35	13.22	
2025-01-16 02:38:09.08	1.32	13.23	
2025-01-16 02:38:09.29	1.30	13.25	
2025-01-16 02:38:09.49	1.27	13.27	
2025-01-16 02:38:09.69	1.25	13.29	
2025-01-16 02:38:09.90	1.22	13.31	
2025-01-16 02:38:10.10	1.20	13.32	
2025-01-16 02:38:10.30	1.17	13.34	
2025-01-16 02:38:10.50	1.15	13.36	
2025-01-16 02:38:10.71	1.12	13.38	
2025-01-16 02:38:10.91	1.09	13.40	
2025-01-16 02:38:11.11	1.07	13.42	
2025-01-16 02:38:11.32	1.04	13.43	
2025-01-16 02:38:11.52	1.02	13.45	
2025-01-16 02:38:11.72	0.99	13.47	
2025-01-16 02:38:11.93	0.96	13.49	
2025-01-16 02:38:12.13	0.94	13.51	
2025-01-16 02:38:12.33	0.91	13.53	
2025-01-16 02:38:12.53	0.89	13.54	
2025-01-16 02:38:12.74	0.86	13.56	
2025-01-16 02:38:12.94	0.83	13.58	
2025-01-16 02:38:13.14	0.81	13.60	
2025-01-16 02:38:13.35	0.78	13.62	
2025-01-16 02:38:13.55	0.75	13.64	
2025-01-16 02:38:13.75	0.73	13.65	
2025-01-16 02:38:13.96	0.70	13.67	
2025-01-16 02:38:14.16	0.67	13.69	
2025-01-16 02:38:14.36	0.65	13.71	
2025-01-16 02:38:14.56	0.62	13.73	
2025-01-16 02:38:14.77	0.59	13.75	
2025-01-16 02:38:14.97	0.57	13.77	
2025-01-16 02:38:15.17	0.54	13.78	
2025-01-16 02:38:15.38	0.51	13.80	
2025-01-16 02:38:15.58	0.49	13.82	
2025-01-16 02:38:15.78	0.46	13.84	
2025-01-16 02:38:15.99	0.43	13.86	
2025-01-16 02:38:16.19	0.41	13.88	
2025-01-16 02:38:16.39	0.38	13.89	
2025-01-16 02:38:16.59	0.36	13.91	
2025-01-16 02:38:16.80	0.33	13.93	
2025-01-16 02:38:17.00	0.30	13.95	
2025-01-16 02:38:17.20	0.27	13.97	
2025-01-16 02:38:17.41	0.25	13.99	
2025-01-16 02:38:17.61	0.22	14.01	
2025-01-16 02:38:17.81	0.19	14.02	
2025-01-16 02:38:18.02	0.17	14.04	
2025-01-16 02:38:18.22	0.14	14.06	
2025-01-16 02:38:18.42	0.11	14.08	
2025-01-16 02:38:18.62	0.08	14.10	
2025-01-16 02:38:18.83	0.06	14.12	
2025-01-16 02:38:19.03	0.03	14.14	
2025-01-16 02:38:19.23	0.00	14.16	
2025-01-16 02:38:19.44	359.97	14.17	
2025-01-16 02:38:19.64	359.95	14.19	
2025-01-16 02:38:19.84	359.92	14.21	
2025-01-16 02:38:20.04	359.89	14.23	
2025-01-16 02:38:20.25	359.86	14.25	
2025-01-16 02:38:20.45	359.84	14.27	
2025-01-16 02:38:20.65	359.81	14.29	
2025-01-16 02:38:20.86	359.78	14.31	
2025-01-16 02:38:21.06	359.75	14.32	
2025-01-16 02:38:21.26	359.73	14.34	
2025-01-16 02:38:21.47	359.70	14.36	
2025-01-16 02:38:21.67	359.67	14.38	
2025-01-16 02:38:21.87	359.64	14.40	
2025-01-16 02:38:22.07	359.62	14.42	
2025-01-16 02:38:22.28	359.59	14.44	
2025-01-16 02:38:22.48	359.56	14.46	
2025-01-16 02:38:22.68	359.53	14.47	
2025-01-16 02:38:22.89	359.50	14.49	
2025-01-16 02:38:23.09	359.48	14.51	
2025-01-16 02:38:23.29	359.45	14.53	
2025-01-16 02:38:23.50	359.42	14.55	
2025-01-16 02:38:23.70	359.39	14.57	
2025-01-16 02:38:23.90	359.36	14.59	
2025-01-16 02:38:24.10	359.34	14.61	
2025-01-16 02:38:24.31	359.31	14.63	
2025-01-16 02:38:24.51	359.28	14.64	
2025-01-16 02:38:24.71	359.25	14.66	
2025-01-16 02:38:24.92	359.22	14.68	
2025-01-16 02:38:25.12	359.19	14.70	
2025-01-16 02:38:25.32	359.16	14.72	
2025-01-16 02:38:25.53	359.14	14.74	
2025-01-16 02:38:25.73	359.11	14.76	
2025-01-16 02:38:25.93	359.08	14.78	
2025-01-16 02:38:26.13	359.05	14.80	
2025-01-16 02:38:26.34	359.02	14.82	
2025-01-16 02:38:26.54	358.99	14.83	
2025-01-16 02:38:26.74	358.96	14.85	
2025-01-16 02:38:26.95	358.93	14.87	
2025-01-16 02:38:27.15	358.91	14.89	
2025-01-16 02:38:27.35	358.88	14.91	
2025-01-16 02:38:27.56	358.85	14.93	
2025-01-16 02:38:27.76	358.82	14.95	
2025-01-16 02:38:27.96	358.79	14.97	
2025-01-16 02:38:28.16	358.76	14.99	
2025-01-16 02:38:28.37	358.73	15.01	
2025-01-16 02:38:28.57	358.70	15.02	
2025-01-16 02:38:28.77	358.67	15.04	
2025-01-16 02:38:28.98	358.64	15.06	
2025-01-16 02:38:29.18	358.61	15.08	
2025-01-16 02:38:29.38	358.59	15.10	
2025-01-16 02:38:29.59	358.56	15.12	
2025-01-16 02:38:29.79	358.53	15.14	
2025-01-16 02:38:29.99	358.50	15.16	
2025-01-16 02:38:30.19	358.47	15.18	
2025-01-16 02:38:30.40	358.44	15.20	
2025-01-16 02:38:30.60	358.41	15.22	
2025-01-16 02:38:30.80	358.38	15.24	
2025-01-16 02:38:31.01	358.35	15.26	
2025-01-16 02:38:31.21	358.32	15.27	
2025-01-16 02:38:31.41	358.29	15.29	
2025-01-16 02:38:31.62	358.26	15.31	
2025-01-16 02:38:31.82	358.23	15.33	
2025-01-16 02:38:32.02	358.20	15.35	
2025-01-16 02:38:32.22	358.17	15.37	
2025-01-16 02:38:32.43	358.14	15.39	
2025-01-16 02:38:32.63	358.11	15.41	
2025-01-16 02:38:32.83	358.08	15.43	
2025-01-16 02:38:33.04	358.05	15.45	
2025-01-16 02:38:33.24	358.02	15.47	
2025-01-16 02:38:33.44	357.99	15.49	
2025-01-16 02:38:33.65	357.96	15.51	
2025-01-16 02:38:33.85	357.93	15.53	
2025-01-16 02:38:34.05	357.90	15.54	
2025-01-16 02:38:34.25	357.87	15.56	
2025-01-16 02:38:34.46	357.84	15.58	
2025-01-16 02:38:34.66	357.81	15.60	
2025-01-16 02:38:34.86	357.78	15.62	
2025-01-16 02:38:35.07	357.75	15.64	
2025-01-16 02:38:35.27	357.72	15.66	
2025-01-16 02:38:35.47	357.69	15.68	
2025-01-16 02:38:35.67	357.66	15.70	
2025-01-16 02:38:35.88	357.63	15.72	
2025-01-16 02:38:36.08	357.60	15.74	
2025-01-16 02:38:36.28	357.56	15.76	
2025-01-16 02:38:36.49	357.53	15.78	
2025-01-16 02:38:36.69	357.50	15.80	
2025-01-16 02:38:36.89	357.47	15.82	
2025-01-16 02:38:37.10	357.44	15.84	
2025-01-16 02:38:37.30	357.41	15.86	
2025-01-16 02:38:37.50	357.38	15.87	
2025-01-16 02:38:37.70	357.35	15.89	
2025-01-16 02:38:37.91	357.32	15.91	
2025-01-16 02:38:38.11	357.29	15.93	
2025-01-16 02:38:38.31	357.26	15.95	
2025-01-16 02:38:38.52	357.22	15.97	
2025-01-16 02:38:38.72	357.19	15.99	
2025-01-16 02:38:38.92	357.16	16.01	
2025-01-16 02:38:39.13	357.13	16.03	
2025-01-16 02:38:39.33	357.10	16.05	
2025-01-16 02:38:39.53	357.07	16.07	
2025-01-16 02:38:39.73	357.04	16.09	
2025-01-16 02:38:39.94	357.00	16.11	
2025-01-16 02:38:40.14	356.97	16.13	
2025-01-16 02:38:40.34	356.94	16.15	
2025-01-16 02:38:40.55	356.91	16.17	
2025-01-16 02:38:40.75	356.88	16.19	
2025-01-16 02:38:40.95	356.85	16.21	
2025-01-16 02:38:41.16	356.81	16.23	
2025-01-16 02:38:41.36	356.78	16.25	
2025-01-16 02:38:41.56	356.75	16.27	
2025-01-16 02:38:41.76	356.72	16.29	
2025-01-16 02:38:41.97	356.69	16.31	
2025-01-16 02:38:42.17	356.65	16.33	
2025-01-16 02:38:42.37	356.62	16.35	
2025-01-16 02:38:42.58	356.59	16.37	
2025-01-16 02:38:42.78	356.56	16.39	
2025-01-16 02:38:42.98	356.53	16.41	
2025-01-16 02:38:43.19	356.49	16.43	
2025-01-16 02:38:43.39	356.46	16.45	
2025-01-16 02:38:43.59	356.43	16.46	
2025-01-16 02:38:43.79	356.40	16.48	
2025-01-16 02:38:44.00	356.36	16.50	
2025-01-16 02:38:44.20	356.33	16.52	
2025-01-16 02:38:44.40	356.30	16.54	
2025-01-16 02:38:44.61	356.26	16.56	
2025-01-16 02:38:44.81	356.23	16.58	
2025-01-16 02:38:45.01	356.20	16.60	
2025-01-16 02:38:45.22	356.17	16.62	
2025-01-16 02:38:45.42	356.13	16.64	
2025-01-16 02:38:45.62	356.10	16.66	
2025-01-16 02:38:45.82	356.07	16.68	
2025-01-16 02:38:46.03	356.04	16.70	
2025-01-16 02:38:46.23	356.00	16.72	
2025-01-16 02:38:46.43	355.97	16.74	
2025-01-16 02:38:46.64	355.94	16.76	
2025-01-16 02:38:46.84	355.90	16.78	
2025-01-16 02:38:47.04	355.87	16.80	
2025-01-16 02:38:47.25	355.84	16.82	
2025-01-16 02:38:47.45	355.80	16.84	
2025-01-16 02:38:47.65	355.77	16.86	
2025-01-16 02:38:47.85	355.74	16.88	
2025-01-16 02:38:48.06	355.70	16.90	
2025-01-16 02:38:48.26	355.67	16.92	
2025-01-16 02:38:48.46	355.64	16.94	
2025-01-16 02:38:48.67	355.60	16.96	
2025-01-16 02:38:48.87	355.57	16.98	
2025-01-16 02:38:49.07	355.54	17.00	
2025-01-16 02:38:49.27	355.50	17.02	
2025-01-16 02:38:49.48	355.47	17.04	
2025-01-16 02:38:49.68	355.44	17.06	
2025-01-16 02:38:49.88	355.40	17.08	
2025-01-16 02:38:50.09	355.37	17.10	
2025-01-16 02:38:50.29	355.33	17.12	
2025-01-16 02:38:50.49	355.30	17.14	
2025-01-16 02:38:50.70	355.26	17.16	
2025-01-16 02:38:50.90	355.23	17.18	
2025-01-16 02:38:51.10	355.20	17.20	
2025-01-16 02:38:51.30	355.16	17.22	
2025-01-16 02:38:51.51	355.13	17.24	
2025-01-16 02:38:51.71	355.09	17.26	
2025-01-16 02:38:51.91	355.06	17.28	
2025-01-16 02:38:52.12	355.03	17.30	
2025-01-16 02:38:52.32	354.99	17.32	
2025-01-16 02:38:52.52	354.96	17.34	
2025-01-16 02:38:52.73	354.92	17.36	
2025-01-16 02:38:52.93	354.89	17.38	
2025-01-16 02:38:53.13	354.85	17.40	
2025-01-16 02:38:53.33	354.82	17.42	
2025-01-16 02:38:53.54	354.78	17.44	
2025-01-16 02:38:53.74	354.75	17.46	
2025-01-16 02:38:53.94	354.71	17.48	
2025-01-16 02:38:54.15	354.68	17.51	
2025-01-16 02:38:54.35	354.64	17.53	
2025-01-16 02:38:54.55	354.61	17.55	
2025-01-16 02:38:54.76	354.57	17.57	
2025-01-16 02:38:54.96	354.54	17.59	
2025-01-16 02:38:55.16	354.50	17.61	
2025-01-16 02:38:55.36	354.47	17.63	
2025-01-16 02:38:55.57	354.43	17.65	
2025-01-16 02:38:55.77	354.40	17.67	
2025-01-16 02:38:55.97	354.36	17.69	
2025-01-16 02:38:56.18	354.33	17.71	
2025-01-16 02:38:56.38	354.29	17.73	
2025-01-16 02:38:56.58	354.26	17.75	
2025-01-16 02:38:56.79	354.22	17.77	
2025-01-16 02:38:56.99	354.19	17.79	
2025-01-16 02:38:57.19	354.15	17.81	
2025-01-16 02:38:57.39	354.12	17.83	
2025-01-16 02:38:57.60	354.08	17.85	
2025-01-16 02:38:57.80	354.04	17.87	
2025-01-16 02:38:58.00	354.01	17.89	
2025-01-16 02:38:58.21	353.97	17.91	
2025-01-16 02:38:58.41	353.94	17.93	
2025-01-16 02:38:58.61	353.90	17.95	
2025-01-16 02:38:58.82	353.86	17.97	
2025-01-16 02:38:59.02	353.83	17.99	
2025-01-16 02:38:59.22	353.79	18.01	
2025-01-16 02:38:59.42	353.76	18.03	
2025-01-16 02:38:59.63	353.72	18.05	
2025-01-16 02:38:59.83	353.68	18.07	
2025-01-16 02:39:00.03	353.65	18.09	
2025-01-16 02:39:00.24	353.61	18.12	
2025-01-16 02:39:00.44	353.57	18.14	
2025-01-16 02:39:00.64	353.54	18.16	
2025-01-16 02:39:00.85	353.50	18.18	
2025-01-16 02:39:01.05	353.46	18.20	
2025-01-16 02:39:01.25	353.43	18.22	
2025-01-16 02:39:01.45	353.39	18.24	
2025-01-16 02:39:01.66	353.35	18.26	
2025-01-16 02:39:01.86	353.32	18.28	
2025-01-16 02:39:02.06	353.28	18.30	
2025-01-16 02:39:02.27	353.24	18.32	
2025-01-16 02:39:02.47	353.21	18.34	
2025-01-16 02:39:02.67	353.17	18.36	
2025-01-16 02:39:02.87	353.13	18.38	
2025-01-16 02:39:03.08	353.09	18.40	
2025-01-16 02:39:03.28	353.06	18.42	
2025-01-16 02:39:03.48	353.02	18.44	
2025-01-16 02:39:03.69	352.98	18.46	
2025-01-16 02:39:03.89	352.94	18.48	
2025-01-16 02:39:04.09	352.91	18.50	
2025-01-16 02:39:04.30	352.87	18.53	
2025-01-16 02:39:04.50	352.83	18.55	
2025-01-16 02:39:04.70	352.79	18.57	
2025-01-16 02:39:04.90	352.76	18.59	
2025-01-16 02:39:05.11	352.72	18.61	
2025-01-16 02:39:05.31	352.68	18.63	
2025-01-16 02:39:05.51	352.64	18.65	
2025-01-16 02:39:05.72	352.61	18.67	
2025-01-16 02:39:05.92	352.57	18.69	
2025-01-16 02:39:06.12	352.53	18.71	
2025-01-16 02:39:06.33	352.49	18.73	
2025-01-16 02:39:06.53	352.45	18.75	
2025-01-16 02:39:06.73	352.42	18.77	
2025-01-16 02:39:06.93	352.38	18.79	
2025-01-16 02:39:07.14	352.34	18.81	
2025-01-16 02:39:07.34	352.30	18.83	
2025-01-16 02:39:07.54	352.26	18.86	
2025-01-16 02:39:07.75	352.22	18.88	
2025-01-16 02:39:07.95	352.19	18.90	
2025-01-16 02:39:08.15	352.15	18.92	
2025-01-16 02:39:08.36	352.11	18.94	
2025-01-16 02:39:08.56	352.07	18.96	
2025-01-16 02:39:08.76	352.03	18.98	
2025-01-16 02:39:08.96	351.99	19.00	
2025-01-16 02:39:09.17	351.95	19.02	
2025-01-16 02:39:09.37	351.91	19.04	
2025-01-16 02:39:09.57	351.88	19.06	
2025-01-16 02:39:09.78	351.84	19.08	
2025-01-16 02:39:09.98	351.80	19.10	
2025-01-16 02:39:10.18	351.76	19.12	
2025-01-16 02:39:10.39	351.72	19.15	
2025-01-16 02:39:10.59	351.68	19.17	
2025-01-16 02:39:10.79	351.64	19.19	
2025-01-16 02:39:10.99	351.60	19.21	
2025-01-16 02:39:11.20	351.56	19.23	
2025-01-16 02:39:11.40	351.52	19.25	
2025-01-16 02:39:11.60	351.48	19.27	
2025-01-16 02:39:11.81	351.44	19.29	
2025-01-16 02:39:12.01	351.40	19.31	
2025-01-16 02:39:12.21	351.36	19.33	
2025-01-16 02:39:12.42	351.32	19.35	
2025-01-16 02:39:12.62	351.28	19.37	
2025-01-16 02:39:12.82	351.24	19.39	
2025-01-16 02:39:13.02	351.21	19.42	
2025-01-16 02:39:13.23	351.16	19.44	
2025-01-16 02:39:13.43	351.12	19.46	
2025-01-16 02:39:13.63	351.09	19.48	
2025-01-16 02:39:13.84	351.04	19.50	
2025-01-16 02:39:14.04	351.00	19.52	
2025-01-16 02:39:14.24	350.96	19.54	
2025-01-16 02:39:14.45	350.92	19.56	
2025-01-16 02:39:14.65	350.88	19.58	
2025-01-16 02:39:14.85	350.84	19.60	
2025-01-16 02:39:15.05	350.80	19.62	
2025-01-16 02:39:15.26	350.76	19.65	
2025-01-16 02:39:15.46	350.72	19.67	
2025-01-16 02:39:15.66	350.68	19.69	
2025-01-16 02:39:15.87	350.64	19.71	
2025-01-16 02:39:16.07	350.60	19.73	
2025-01-16 02:39:16.27	350.56	19.75	
2025-01-16 02:39:16.48	350.52	19.77	
2025-01-16 02:39:16.68	350.48	19.79	
2025-01-16 02:39:16.88	350.43	19.81	
2025-01-16 02:39:17.08	350.39	19.83	
2025-01-16 02:39:17.29	350.35	19.85	
2025-01-16 02:39:17.49	350.31	19.88	
2025-01-16 02:39:17.69	350.27	19.90	
2025-01-16 02:39:17.90	350.23	19.92	
2025-01-16 02:39:18.10	350.19	19.94	
2025-01-16 02:39:18.30	350.15	19.96	
2025-01-16 02:39:18.51	350.10	19.98	
2025-01-16 02:39:18.71	350.06	20.00	
2025-01-16 02:39:18.91	350.02	20.02	
2025-01-16 02:39:19.11	349.98	20.04	
2025-01-16 02:39:19.32	349.94	20.06	
2025-01-16 02:39:19.52	349.90	20.08	
2025-01-16 02:39:19.72	349.85	20.11	
2025-01-16 02:39:19.93	349.81	20.13	
2025-01-16 02:39:20.13	349.77	20.15	
2025-01-16 02:39:20.33	349.73	20.17	
2025-01-16 02:39:20.53	349.69	20.19	
2025-01-16 02:39:20.74	349.64	20.21	
2025-01-16 02:39:20.94	349.60	20.23	
2025-01-16 02:39:21.14	349.56	20.25	
2025-01-16 02:39:21.35	349.52	20.27	
2025-01-16 02:39:21.55	349.47	20.29	
2025-01-16 02:39:21.75	349.43	20.32	
2025-01-16 02:39:21.96	349.39	20.34	
2025-01-16 02:39:22.16	349.35	20.36	
2025-01-16 02:39:22.36	349.30	20.38	
2025-01-16 02:39:22.56	349.26	20.40	
2025-01-16 02:39:22.77	349.22	20.42	
2025-01-16 02:39:22.97	349.18	20.44	
2025-01-16 02:39:23.17	349.13	20.46	
2025-01-16 02:39:23.38	349.09	20.48	
2025-01-16 02:39:23.58	349.05	20.51	
2025-01-16 02:39:23.78	349.00	20.53	
2025-01-16 02:39:23.99	348.96	20.55	
2025-01-16 02:39:24.19	348.92	20.57	
2025-01-16 02:39:24.39	348.87	20.59	
2025-01-16 02:39:24.59	348.83	20.61	
2025-01-16 02:39:24.80	348.79	20.63	
2025-01-16 02:39:25.00	348.74	20.65	
2025-01-16 02:39:25.20	348.70	20.67	
2025-01-16 02:39:25.41	348.65	20.69	
2025-01-16 02:39:25.61	348.61	20.72	
2025-01-16 02:39:25.81	348.57	20.74	
2025-01-16 02:39:26.02	348.52	20.76	
2025-01-16 02:39:26.22	348.48	20.78	
2025-01-16 02:39:26.42	348.44	20.80	
2025-01-16 02:39:26.62	348.39	20.82	
2025-01-16 02:39:26.83	348.35	20.84	
2025-01-16 02:39:27.03	348.30	20.86	
2025-01-16 02:39:27.23	348.26	20.88	
2025-01-16 02:39:27.44	348.21	20.91	
2025-01-16 02:39:27.64	348.17	20.93	
2025-01-16 02:39:27.84	348.13	20.95	
2025-01-16 02:39:28.05	348.08	20.97	
2025-01-16 02:39:28.25	348.04	20.99	
2025-01-16 02:39:28.45	347.99	21.01	
2025-01-16 02:39:28.65	347.95	21.03	
2025-01-16 02:39:28.86	347.90	21.05	
2025-01-16 02:39:29.06	347.86	21.07	
2025-01-16 02:39:29.26	347.81	21.09	
2025-01-16 02:39:29.47	347.77	21.12	
2025-01-16 02:39:29.67	347.72	21.14	
2025-01-16 02:39:29.87	347.68	21.16	
2025-01-16 02:39:30.08	347.63	21.18	
2025-01-16 02:39:30.28	347.59	21.20	
2025-01-16 02:39:30.48	347.54	21.22	
2025-01-16 02:39:30.68	347.50	21.24	
2025-01-16 02:39:30.89	347.45	21.26	
2025-01-16 02:39:31.09	347.41	21.28	
2025-01-16 02:39:31.29	347.36	21.31	
2025-01-16 02:39:31.50	347.31	21.33	
2025-01-16 02:39:31.70	347.27	21.35	
2025-01-16 02:39:31.90	347.22	21.37	
2025-01-16 02:39:32.11	347.18	21.39	
2025-01-16 02:39:32.31	347.13	21.41	
2025-01-16 02:39:32.51	347.09	21.43	
2025-01-16 02:39:32.71	347.04	21.45	
2025-01-16 02:39:32.92	346.99	21.48	
2025-01-16 02:39:33.12	346.95	21.50	
2025-01-16 02:39:33.32	346.90	21.52	
2025-01-16 02:39:33.53	346.86	21.54	
2025-01-16 02:39:33.73	346.81	21.56	
2025-01-16 02:39:33.93	346.76	21.58	
2025-01-16 02:39:34.13	346.72	21.60	
2025-01-16 02:39:34.34	346.67	21.62	
2025-01-16 02:39:34.54	346.62	21.64	
2025-01-16 02:39:34.74	346.58	21.66	
2025-01-16 02:39:34.95	346.53	21.69	
2025-01-16 02:39:35.15	346.48	21.71	
2025-01-16 02:39:35.35	346.44	21.73	
2025-01-16 02:39:35.56	346.39	21.75	
2025-01-16 02:39:35.76	346.34	21.77	
2025-01-16 02:39:35.96	346.30	21.79	
2025-01-16 02:39:36.16	346.25	21.81	
2025-01-16 02:39:36.37	346.20	21.83	
2025-01-16 02:39:36.57	346.15	21.85	
2025-01-16 02:39:36.77	346.11	21.88	
2025-01-16 02:39:36.98	346.06	21.90	
2025-01-16 02:39:37.18	346.01	21.92	
2025-01-16 02:39:37.38	345.96	21.94	
2025-01-16 02:39:37.59	345.92	21.96	
2025-01-16 02:39:37.79	345.87	21.98	
2025-01-16 02:39:37.99	345.82	22.00	
2025-01-16 02:39:38.19	345.77	22.02	
2025-01-16 02:39:38.40	345.72	22.04	
2025-01-16 02:39:38.60	345.68	22.07	
2025-01-16 02:39:38.80	345.63	22.09	
2025-01-16 02:39:39.01	345.58	22.11	
2025-01-16 02:39:39.21	345.53	22.13	
2025-01-16 02:39:39.41	345.49	22.15	
2025-01-16 02:39:39.62	345.44	22.17	
2025-01-16 02:39:39.82	345.39	22.19	
2025-01-16 02:39:40.02	345.34	22.21	
2025-01-16 02:39:40.22	345.29	22.23	
2025-01-16 02:39:40.43	345.24	22.26	
2025-01-16 02:39:40.63	345.19	22.28	
2025-01-16 02:39:40.83	345.15	22.30	
2025-01-16 02:39:41.04	345.10	22.32	
2025-01-16 02:39:41.24	345.05	22.34	
2025-01-16 02:39:41.44	345.00	22.36	
2025-01-16 02:39:41.65	344.95	22.38	
2025-01-16 02:39:41.85	344.90	22.40	
2025-01-16 02:39:42.05	344.85	22.42	
2025-01-16 02:39:42.25	344.80	22.44	
2025-01-16 02:39:42.46	344.75	22.47	
2025-01-16 02:39:42.66	344.70	22.49	
2025-01-16 02:39:42.86	344.65	22.51	
2025-01-16 02:39:43.07	344.60	22.53	
2025-01-16 02:39:43.27	344.55	22.55	
2025-01-16 02:39:43.47	344.51	22.57	
2025-01-16 02:39:43.68	344.45	22.59	
2025-01-16 02:39:43.88	344.41	22.61	
2025-01-16 02:39:44.08	344.36	22.63	
2025-01-16 02:39:44.28	344.31	22.65	
2025-01-16 02:39:44.49	344.25	22.68	
2025-01-16 02:39:44.69	344.21	22.70	
2025-01-16 02:39:44.89	344.16	22.72	
2025-01-16 02:39:45.10	344.10	22.74	
2025-01-16 02:39:45.30	344.05	22.76	
2025-01-16 02:39:45.50	344.01	22.78	
2025-01-16 02:39:45.71	343.95	22.80	
2025-01-16 02:39:45.91	343.90	22.82	
2025-01-16 02:39:46.11	343.85	22.84	
2025-01-16 02:39:46.31	343.80	22.86	
2025-01-16 02:39:46.52	343.75	22.89	
2025-01-16 02:39:46.72	343.70	22.91	
2025-01-16 02:39:46.92	343.65	22.93	
2025-01-16 02:39:47.13	343.60	22.95	
2025-01-16 02:39:47.33	343.55	22.97	
2025-01-16 02:39:47.53	343.50	22.99	
2025-01-16 02:39:47.74	343.44	23.01	
2025-01-16 02:39:47.94	343.39	23.03	
2025-01-16 02:39:48.14	343.34	23.05	
2025-01-16 02:39:48.34	343.29	23.07	
2025-01-16 02:39:48.55	343.24	23.10	
2025-01-16 02:39:48.75	343.19	23.12	
2025-01-16 02:39:48.95	343.14	23.14	
2025-01-16 02:39:49.16	343.08	23.16	
2025-01-16 02:39:49.36	343.03	23.18	
2025-01-16 02:39:49.56	342.98	23.20	
2025-01-16 02:39:49.76	342.93	23.22	
2025-01-16 02:39:49.97	342.88	23.24	
2025-01-16 02:39:50.17	342.83	23.26	
2025-01-16 02:39:50.37	342.77	23.28	
2025-01-16 02:39:50.58	342.72	23.30	
2025-01-16 02:39:50.78	342.67	23.32	
2025-01-16 02:39:50.98	342.62	23.35	
2025-01-16 02:39:51.19	342.56	23.37	
2025-01-16 02:39:51.39	342.51	23.39	
2025-01-16 02:39:51.59	342.46	23.41	
2025-01-16 02:39:51.79	342.41	23.43	
2025-01-16 02:39:52.00	342.35	23.45	
2025-01-16 02:39:52.20	342.30	23.47	
2025-01-16 02:39:52.40	342.25	23.49	
2025-01-16 02:39:52.61	342.19	23.51	
2025-01-16 02:39:52.81	342.14	23.53	
2025-01-16 02:39:53.01	342.09	23.55	
2025-01-16 02:39:53.22	342.04	23.57	
2025-01-16 02:39:53.42	341.98	23.60	
2025-01-16 02:39:53.62	341.93	23.62	
2025-01-16 02:39:53.82	341.88	23.64	
2025-01-16 02:39:54.03	341.82	23.66	
2025-01-16 02:39:54.23	341.77	23.68	
2025-01-16 02:39:54.43	341.72	23.70	
2025-01-16 02:39:54.64	341.66	23.72	
2025-01-16 02:39:54.84	341.61	23.74	
2025-01-16 02:39:55.04	341.56	23.76	
2025-01-16 02:39:55.25	341.50	23.78	
2025-01-16 02:39:55.45	341.45	23.80	
2025-01-16 02:39:55.65	341.39	23.82	
2025-01-16 02:39:55.85	341.34	23.84	
2025-01-16 02:39:56.06	341.28	23.86	
2025-01-16 02:39:56.26	341.23	23.88	
2025-01-16 02:39:56.46	341.18	23.90	
2025-01-16 02:39:56.67	341.12	23.93	
2025-01-16 02:39:56.87	341.07	23.95	
2025-01-16 02:39:57.07	341.01	23.97	
2025-01-16 02:39:57.28	340.96	23.99	
2025-01-16 02:39:57.48	340.90	24.01	
2025-01-16 02:39:57.68	340.85	24.03	
2025-01-16 02:39:57.88	340.79	24.05	
2025-01-16 02:39:58.09	340.74	24.07	
2025-01-16 02:39:58.29	340.68	24.09	
2025-01-16 02:39:58.49	340.63	24.11	
2025-01-16 02:39:58.70	340.57	24.13	
2025-01-16 02:39:58.90	340.52	24.15	
2025-01-16 02:39:59.10	340.46	24.17	
2025-01-16 02:39:59.31	340.41	24.19	
2025-01-16 02:39:59.51	340.35	24.21	
2025-01-16 02:39:59.71	340.30	24.23	
2025-01-16 02:39:59.91	340.24	24.25	
2025-01-16 02:40:00.12	340.18	24.28	
2025-01-16 02:40:00.32	340.13	24.30	
2025-01-16 02:40:00.52	340.07	24.32	
2025-01-16 02:40:00.73	340.02	24.34	
2025-01-16 02:40:00.93	339.96	24.36	
2025-01-16 02:40:01.13	339.90	24.38	
2025-01-16 02:40:01.34	339.85	24.40	
2025-01-16 02:40:01.54	339.79	24.42	
2025-01-16 02:40:01.74	339.74	24.44	
2025-01-16 02:40:01.94	339.68	24.46	
2025-01-16 02:40:02.15	339.62	24.48	
2025-01-16 02:40:02.35	339.57	24.50	
2025-01-16 02:40:02.55	339.51	24.52	
2025-01-16 02:40:02.76	339.45	24.54	
2025-01-16 02:40:02.96	339.40	24.56	
2025-01-16 02:40:03.16	339.34	24.58	
2025-01-16 02:40:03.36	339.28	24.60	
2025-01-16 02:40:03.57	339.22	24.62	
2025-01-16 02:40:03.77	339.17	24.64	
2025-01-16 02:40:03.97	339.11	24.66	
2025-01-16 02:40:04.18	339.05	24.68	
2025-01-16 02:40:04.38	339.00	24.70	
2025-01-16 02:40:04.58	338.94	24.72	
2025-01-16 02:40:04.79	338.88	24.74	
2025-01-16 02:40:04.99	338.82	24.76	
2025-01-16 02:40:05.19	338.77	24.78	
2025-01-16 02:40:05.39	338.71	24.80	
2025-01-16 02:40:05.60	338.65	24.82	
2025-01-16 02:40:05.80	338.59	24.84	
2025-01-16 02:40:06.00	338.54	24.86	
2025-01-16 02:40:06.21	338.48	24.88	
2025-01-16 02:40:06.41	338.42	24.90	
2025-01-16 02:40:06.61	338.36	24.92	
2025-01-16 02:40:06.82	338.30	24.94	
2025-01-16 02:40:07.02	338.24	24.96	
2025-01-16 02:40:07.22	338.19	24.98	
2025-01-16 02:40:07.42	338.13	25.00	
2025-01-16 02:40:07.63	338.07	25.02	
2025-01-16 02:40:07.83	338.01	25.04	
2025-01-16 02:40:08.03	337.95	25.06	
2025-01-16 02:40:08.24	337.89	25.08	
2025-01-16 02:40:08.44	337.83	25.10	
2025-01-16 02:40:08.64	337.77	25.12	
2025-01-16 02:40:08.85	337.71	25.14	
2025-01-16 02:40:09.05	337.66	25.16	
2025-01-16 02:40:09.25	337.60	25.18	
2025-01-16 02:40:09.45	337.54	25.20	
2025-01-16 02:40:09.66	337.48	25.22	
2025-01-16 02:40:09.86	337.42	25.24	
2025-01-16 02:40:10.06	337.36	25.26	
2025-01-16 02:40:10.27	337.30	25.28	
2025-01-16 02:40:10.47	337.24	25.30	
2025-01-16 02:40:10.67	337.18	25.32	
2025-01-16 02:40:10.88	337.12	25.34	
2025-01-16 02:40:11.08	337.06	25.36	
2025-01-16 02:40:11.28	337.00	25.38	
2025-01-16 02:40:11.48	336.94	25.40	
2025-01-16 02:40:11.69	336.88	25.42	
2025-01-16 02:40:11.89	336.82	25.44	
2025-01-16 02:40:12.09	336.76	25.46	
2025-01-16 02:40:12.30	336.70	25.48	
2025-01-16 02:40:12.50	336.64	25.50	
2025-01-16 02:40:12.70	336.58	25.52	
2025-01-16 02:40:12.91	336.52	25.54	
2025-01-16 02:40:13.11	336.46	25.55	
2025-01-16 02:40:13.31	336.40	25.57	
2025-01-16 02:40:13.51	336.34	25.59	
2025-01-16 02:40:13.72	336.27	25.61	
2025-01-16 02:40:13.92	336.21	25.63	
2025-01-16 02:40:14.12	336.15	25.65	
2025-01-16 02:40:14.33	336.09	25.67	
2025-01-16 02:40:14.53	336.03	25.69	
2025-01-16 02:40:14.73	335.97	25.71	
2025-01-16 02:40:14.94	335.91	25.73	
2025-01-16 02:40:15.14	335.84	25.75	
2025-01-16 02:40:15.34	335.78	25.77	
2025-01-16 02:40:15.54	335.72	25.79	
2025-01-16 02:40:15.75	335.66	25.81	
2025-01-16 02:40:15.95	335.60	25.83	
2025-01-16 02:40:16.15	335.54	25.84	
2025-01-16 02:40:16.36	335.47	25.86	
2025-01-16 02:40:16.56	335.41	25.88	
2025-01-16 02:40:16.76	335.35	25.90	
2025-01-16 02:40:16.97	335.29	25.92	
2025-01-16 02:40:17.17	335.23	25.94	
2025-01-16 02:40:17.37	335.16	25.96	
2025-01-16 02:40:17.57	335.10	25.98	
2025-01-16 02:40:17.78	335.04	26.00	
2025-01-16 02:40:17.98	334.98	26.02	
2025-01-16 02:40:18.18	334.91	26.04	
2025-01-16 02:40:18.39	334.85	26.05	
2025-01-16 02:40:18.59	334.79	26.07	
2025-01-16 02:40:18.79	334.73	26.09	
2025-01-16 02:40:18.99	334.66	26.11	
2025-01-16 02:40:19.20	334.60	26.13	
2025-01-16 02:40:19.40	334.54	26.15	
2025-01-16 02:40:19.60	334.47	26.17	
2025-01-16 02:40:19.81	334.41	26.19	
2025-01-16 02:40:20.01	334.35	26.21	
2025-01-16 02:40:20.21	334.28	26.22	
2025-01-16 02:40:20.42	334.22	26.24	
2025-01-16 02:40:20.62	334.15	26.26	
2025-01-16 02:40:20.82	334.09	26.28	
2025-01-16 02:40:21.02	334.03	26.30	
2025-01-16 02:40:21.23	333.96	26.32	
2025-01-16 02:40:21.43	333.90	26.34	
2025-01-16 02:40:21.63	333.84	26.35	
2025-01-16 02:40:21.84	333.77	26.37	
2025-01-16 02:40:22.04	333.71	26.39	
2025-01-16 02:40:22.24	333.64	26.41	
2025-01-16 02:40:22.45	333.58	26.43	
2025-01-16 02:40:22.65	333.51	26.45	
2025-01-16 02:40:22.85	333.45	26.47	
2025-01-16 02:40:23.05	333.39	26.48	
2025-01-16 02:40:23.26	333.32	26.50	
2025-01-16 02:40:23.46	333.26	26.52	
2025-01-16 02:40:23.66	333.19	26.54	
2025-01-16 02:40:23.87	333.13	26.56	
2025-01-16 02:40:24.07	333.06	26.58	
2025-01-16 02:40:24.27	333.00	26.59	
2025-01-16 02:40:24.48	332.93	26.61	
2025-01-16 02:40:24.68	332.87	26.63	
2025-01-16 02:40:24.88	332.80	26.65	
2025-01-16 02:40:25.08	332.74	26.67	
2025-01-16 02:40:25.29	332.67	26.69	
2025-01-16 02:40:25.49	332.60	26.70	
2025-01-16 02:40:25.69	332.54	26.72	
2025-01-16 02:40:25.90	332.47	26.74	
2025-01-16 02:40:26.10	332.41	26.76	
2025-01-16 02:40:26.30	332.34	26.77	
2025-01-16 02:40:26.51	332.27	26.79	
2025-01-16 02:40:26.71	332.21	26.81	
2025-01-16 02:40:26.91	332.14	26.83	
2025-01-16 02:40:27.11	332.08	26.85	
2025-01-16 02:40:27.32	332.01	26.86	
2025-01-16 02:40:27.52	331.95	26.88	
2025-01-16 02:40:27.72	331.88	26.90	
2025-01-16 02:40:27.93	331.81	26.92	
2025-01-16 02:40:28.13	331.75	26.94	
2025-01-16 02:40:28.33	331.68	26.95	
2025-01-16 02:40:28.54	331.61	26.97	
2025-01-16 02:40:28.74	331.55	26.99	
2025-01-16 02:40:28.94	331.48	27.01	
2025-01-16 02:40:29.14	331.41	27.02	
2025-01-16 02:40:29.35	331.34	27.04	
2025-01-16 02:40:29.55	331.28	27.06	
2025-01-16 02:40:29.75	331.21	27.08	
2025-01-16 02:40:29.96	331.14	27.09	
2025-01-16 02:40:30.16	331.08	27.11	
2025-01-16 02:40:30.36	331.01	27.13	
2025-01-16 02:40:30.57	330.94	27.15	
2025-01-16 02:40:30.77	330.87	27.16	
2025-01-16 02:40:30.97	330.81	27.18	
2025-01-16 02:40:31.17	330.74	27.20	
2025-01-16 02:40:31.38	330.67	27.22	
2025-01-16 02:40:31.58	330.60	27.23	
2025-01-16 02:40:31.78	330.54	27.25	
2025-01-16 02:40:31.99	330.47	27.27	
2025-01-16 02:40:32.19	330.40	27.28	
2025-01-16 02:40:32.39	330.33	27.30	
2025-01-16 02:40:32.60	330.26	27.32	
2025-01-16 02:40:32.80	330.19	27.34	
2025-01-16 02:40:33.00	330.13	27.35	
2025-01-16 02:40:33.20	330.06	27.37	
2025-01-16 02:40:33.41	329.99	27.39	
2025-01-16 02:40:33.61	329.92	27.40	
2025-01-16 02:40:33.81	329.85	27.42	
2025-01-16 02:40:34.02	329.78	27.44	
2025-01-16 02:40:34.22	329.71	27.45	
2025-01-16 02:40:34.42	329.65	27.47	
2025-01-16 02:40:34.62	329.58	27.49	
2025-01-16 02:40:34.83	329.51	27.50	
2025-01-16 02:40:35.03	329.44	27.52	
2025-01-16 02:40:35.23	329.37	27.54	
2025-01-16 02:40:35.44	329.30	27.55	
2025-01-16 02:40:35.64	329.23	27.57	
2025-01-16 02:40:35.84	329.16	27.59	
2025-01-16 02:40:36.05	329.09	27.60	
2025-01-16 02:40:36.25	329.02	27.62	
2025-01-16 02:40:36.45	328.95	27.64	
2025-01-16 02:40:36.65	328.88	27.65	
2025-01-16 02:40:36.86	328.81	27.67	
2025-01-16 02:40:37.06	328.74	27.69	
2025-01-16 02:40:37.26	328.67	27.70	
2025-01-16 02:40:37.47	328.60	27.72	
2025-01-16 02:40:37.67	328.53	27.73	
2025-01-16 02:40:37.87	328.46	27.75	
2025-01-16 02:40:38.08	328.39	27.77	
2025-01-16 02:40:38.28	328.32	27.78	
2025-01-16 02:40:38.48	328.25	27.80	
2025-01-16 02:40:38.68	328.18	27.81	
2025-01-16 02:40:38.89	328.11	27.83	
2025-01-16 02:40:39.09	328.04	27.85	
2025-01-16 02:40:39.29	327.97	27.86	
2025-01-16 02:40:39.50	327.90	27.88	
2025-01-16 02:40:39.70	327.83	27.89	
2025-01-16 02:40:39.90	327.76	27.91	
2025-01-16 02:40:40.11	327.68	27.93	
2025-01-16 02:40:40.31	327.61	27.94	
2025-01-16 02:40:40.51	327.54	27.96	
2025-01-16 02:40:40.71	327.47	27.97	
2025-01-16 02:40:40.92	327.40	27.99	
2025-01-16 02:40:41.12	327.33	28.00	
2025-01-16 02:40:41.32	327.26	28.02	
2025-01-16 02:40:41.53	327.18	28.04	
2025-01-16 02:40:41.73	327.11	28.05	
2025-01-16 02:40:41.93	327.04	28.07	
2025-01-16 02:40:42.14	326.97	28.08	
2025-01-16 02:40:42.34	326.90	28.10	
2025-01-16 02:40:42.54	326.83	28.11	
2025-01-16 02:40:42.74	326.76	28.13	
2025-01-16 02:40:42.95	326.68	28.14	
2025-01-16 02:40:43.15	326.61	28.16	
2025-01-16 02:40:43.35	326.54	28.17	
2025-01-16 02:40:43.56	326.47	28.19	
2025-01-16 02:40:43.76	326.39	28.20	
2025-01-16 02:40:43.96	326.32	28.22	
2025-01-16 02:40:44.17	326.25	28.23	
2025-01-16 02:40:44.37	326.18	28.25	
2025-01-16 02:40:44.57	326.11	28.26	
2025-01-16 02:40:44.77	326.03	28.28	
2025-01-16 02:40:44.98	325.96	28.29	
2025-01-16 02:40:45.18	325.89	28.31	
2025-01-16 02:40:45.38	325.82	28.32	
2025-01-16 02:40:45.59	325.74	28.34	
2025-01-16 02:40:45.79	325.67	28.35	
2025-01-16 02:40:45.99	325.60	28.37	
2025-01-16 02:40:46.20	325.52	28.38	
2025-01-16 02:40:46.40	325.45	28.40	
2025-01-16 02:40:46.60	325.38	28.41	
2025-01-16 02:40:46.80	325.30	28.42	
2025-01-16 02:40:47.01	325.23	28.44	
2025-01-16 02:40:47.21	325.16	28.45	
2025-01-16 02:40:47.41	325.08	28.47	
2025-01-16 02:40:47.62	325.01	28.48	
2025-01-16 02:40:47.82	324.93	28.50	
2025-01-16 02:40:48.02	324.86	28.51	
2025-01-16 02:40:48.22	324.79	28.52	
2025-01-16 02:40:48.43	324.71	28.54	
2025-01-16 02:40:48.63	324.64	28.55	
2025-01-16 02:40:48.83	324.57	28.57	
2025-01-16 02:40:49.04	324.49	28.58	
2025-01-16 02:40:49.24	324.42	28.59	
2025-01-16 02:40:49.44	324.34	28.61	
2025-01-16 02:40:49.65	324.27	28.62	
2025-01-16 02:40:49.85	324.19	28.64	
2025-01-16 02:40:50.05	324.12	28.65	
2025-01-16 02:40:50.25	324.05	28.66	
2025-01-16 02:40:50.46	323.97	28.68	
2025-01-16 02:40:50.66	323.90	28.69	
2025-01-16 02:40:50.86	323.82	28.70	
2025-01-16 02:40:51.07	323.74	28.72	
2025-01-16 02:40:51.27	323.67	28.73	
2025-01-16 02:40:51.47	323.60	28.74	
2025-01-16 02:40:51.68	323.52	28.76	
2025-01-16 02:40:51.88	323.45	28.77	
2025-01-16 02:40:52.08	323.37	28.78	
2025-01-16 02:40:52.28	323.30	28.80	
2025-01-16 02:40:52.49	323.22	28.81	
2025-01-16 02:40:52.69	323.15	28.82	
2025-01-16 02:40:52.89	323.07	28.84	
2025-01-16 02:40:53.10	322.99	28.85	
2025-01-16 02:40:53.30	322.92	28.86	
2025-01-16 02:40:53.50	322.84	28.88	
2025-01-16 02:40:53.71	322.77	28.89	
2025-01-16 02:40:53.91	322.69	28.90	
2025-01-16 02:40:54.11	322.62	28.92	
2025-01-16 02:40:54.31	322.54	28.93	
2025-01-16 02:40:54.52	322.46	28.94	
2025-01-16 02:40:54.72	322.39	28.95	
2025-01-16 02:40:54.92	322.31	28.97	
2025-01-16 02:40:55.13	322.24	28.98	
2025-01-16 02:40:55.33	322.16	28.99	
2025-01-16 02:40:55.53	322.09	29.00	
2025-01-16 02:40:55.74	322.01	29.02	
2025-01-16 02:40:55.94	321.93	29.03	
2025-01-16 02:40:56.14	321.86	29.04	
2025-01-16 02:40:56.34	321.78	29.05	
2025-01-16 02:40:56.55	321.70	29.07	
2025-01-16 02:40:56.75	321.63	29.08	
2025-01-16 02:40:56.95	321.55	29.09	
2025-01-16 02:40:57.16	321.47	29.10	
2025-01-16 02:40:57.36	321.40	29.11	
2025-01-16 02:40:57.56	321.32	29.13	
2025-01-16 02:40:57.77	321.24	29.14	
2025-01-16 02:40:57.97	321.16	29.15	
2025-01-16 02:40:58.17	321.09	29.16	
2025-01-16 02:40:58.37	321.01	29.17	
2025-01-16 02:40:58.58	320.93	29.19	
2025-01-16 02:40:58.78	320.86	29.20	
2025-01-16 02:40:58.98	320.78	29.21	
2025-01-16 02:40:59.19	320.70	29.22	
2025-01-16 02:40:59.39	320.63	29.23	
2025-01-16 02:40:59.59	320.55	29.24	
2025-01-16 02:40:59.80	320.47	29.25	
2025-01-16 02:41:00.00	320.39	29.27	
2025-01-16 02:41:00.20	320.32	29.28	
2025-01-16 02:41:00.40	320.24	29.29	
2025-01-16 02:41:00.61	320.16	29.30	
2025-01-16 02:41:00.81	320.08	29.31	
2025-01-16 02:41:01.01	320.01	29.32	
2025-01-16 02:41:01.22	319.93	29.33	
2025-01-16 02:41:01.42	319.85	29.34	
2025-01-16 02:41:01.62	319.77	29.35	
2025-01-16 02:41:01.83	319.69	29.37	
2025-01-16 02:41:02.03	319.61	29.38	
2025-01-16 02:41:02.23	319.54	29.39	
2025-01-16 02:41:02.43	319.46	29.40	
2025-01-16 02:41:02.64	319.38	29.41	
2025-01-16 02:41:02.84	319.30	29.42	
2025-01-16 02:41:03.04	319.23	29.43	
2025-01-16 02:41:03.25	319.14	29.44	
2025-01-16 02:41:03.45	319.07	29.45	
2025-01-16 02:41:03.65	318.99	29.46	
2025-01-16 02:41:03.85	318.91	29.47	
2025-01-16 02:41:04.06	318.83	29.48	
2025-01-16 02:41:04.26	318.75	29.49	
2025-01-16 02:41:04.46	318.68	29.50	
2025-01-16 02:41:04.67	318.59	29.51	
2025-01-16 02:41:04.87	318.52	29.52	
2025-01-16 02:41:05.07	318.44	29.53	
2025-01-16 02:41:05.28	318.36	29.54	
2025-01-16 02:41:05.48	318.28	29.55	
2025-01-16 02:41:05.68	318.20	29.56	
2025-01-16 02:41:05.88	318.12	29.57	
2025-01-16 02:41:06.09	318.04	29.58	
2025-01-16 02:41:06.29	317.96	29.59	
2025-01-16 02:41:06.49	317.89	29.60	
2025-01-16 02:41:06.70	317.80	29.61	
2025-01-16 02:41:06.90	317.73	29.62	
2025-01-16 02:41:07.10	317.65	29.63	
2025-01-16 02:41:07.31	317.57	29.64	
2025-01-16 02:41:07.51	317.49	29.65	
2025-01-16 02:41:07.71	317.41	29.66	
2025-01-16 02:41:07.91	317.33	29.67	
2025-01-16 02:41:08.12	317.25	29.68	
2025-01-16 02:41:08.32	317.17	29.69	
2025-01-16 02:41:08.52	317.09	29.69	
2025-01-16 02:41:08.73	317.01	29.70	
2025-01-16 02:41:08.93	316.93	29.71	
2025-01-16 02:41:09.13	316.85	29.72	
2025-01-16 02:41:09.34	316.77	29.73	
2025-01-16 02:41:09.54	316.69	29.74	
2025-01-16 02:41:09.74	316.61	29.75	
2025-01-16 02:41:09.94	316.53	29.76	
2025-01-16 02:41:10.15	316.45	29.76	
2025-01-16 02:41:10.35	316.37	29.77	
2025-01-16 02:41:10.55	316.29	29.78	
2025-01-16 02:41:10.76	316.21	29.79	
2025-01-16 02:41:10.96	316.13	29.80	
2025-01-16 02:41:11.16	316.05	29.81	
2025-01-16 02:41:11.37	315.97	29.82	
2025-01-16 02:41:11.57	315.89	29.82	
2025-01-16 02:41:11.77	315.81	29.83	
2025-01-16 02:41:11.97	315.73	29.84	
2025-01-16 02:41:12.18	315.65	29.85	
2025-01-16 02:41:12.38	315.57	29.86	
2025-01-16 02:41:12.58	315.49	29.86	
2025-01-16 02:41:12.79	315.40	29.87	
2025-01-16 02:41:12.99	315.32	29.88	
2025-01-16 02:41:13.19	315.25	29.89	
2025-01-16 02:41:13.40	315.16	29.89	
2025-01-16 02:41:13.60	315.08	29.90	
2025-01-16 02:41:13.80	315.00	29.91	
2025-01-16 02:41:14.00	314.92	29.92	
2025-01-16 02:41:14.21	314.84	29.92	
2025-01-16 02:41:14.41	314.76	29.93	
2025-01-16 02:41:14.61	314.68	29.94	
2025-01-16 02:41:14.82	314.60	29.95	
2025-01-16 02:41:15.02	314.52	29.95	
2025-01-16 02:41:15.22	314.44	29.96	
2025-01-16 02:41:15.43	314.35	29.97	
2025-01-16 02:41:15.63	314.27	29.97	
2025-01-16 02:41:15.83	314.19	29.98	
2025-01-16 02:41:16.03	314.11	29.99	
2025-01-16 02:41:16.24	314.03	30.00	
2025-01-16 02:41:16.44	313.95	30.00	
2025-01-16 02:41:16.64	313.87	30.01	
2025-01-16 02:41:16.85	313.78	30.02	
2025-01-16 02:41:17.05	313.70	30.02	
2025-01-16 02:41:17.25	313.62	30.03	
2025-01-16 02:41:17.45	313.54	30.03	
2025-01-16 02:41:17.66	313.46	30.04	
2025-01-16 02:41:17.86	313.38	30.05	
2025-01-16 02:41:18.06	313.30	30.05	
2025-01-16 02:41:18.27	313.21	30.06	
2025-01-16 02:41:18.47	313.13	30.07	
2025-01-16 02:41:18.67	313.05	30.07	
2025-01-16 02:41:18.88	312.97	30.08	
2025-01-16 02:41:19.08	312.89	30.08	
2025-01-16 02:41:19.28	312.81	30.09	
2025-01-16 02:41:19.48	312.73	30.10	
2025-01-16 02:41:19.69	312.64	30.10	
2025-01-16 02:41:19.89	312.56	30.11	
2025-01-16 02:41:20.09	312.48	30.11	
2025-01-16 02:41:20.30	312.40	30.12	
2025-01-16 02:41:20.50	312.31	30.12	
2025-01-16 02:41:20.70	312.23	30.13	
2025-01-16 02:41:20.91	312.15	30.14	
2025-01-16 02:41:21.11	312.07	30.14	
2025-01-16 02:41:21.31	311.99	30.15	
2025-01-16 02:41:21.51	311.91	30.15	
2025-01-16 02:41:21.72	311.82	30.16	
2025-01-16 02:41:21.92	311.74	30.16	
2025-01-16 02:41:22.12	311.66	30.17	
2025-01-16 02:41:22.33	311.57	30.17	
2025-01-16 02:41:22.53	311.49	30.18	
2025-01-16 02:41:22.73	311.41	30.18	
2025-01-16 02:41:22.94	311.33	30.19	
2025-01-16 02:41:23.14	311.25	30.19	
2025-01-16 02:41:23.34	311.17	30.19	
2025-01-16 02:41:23.54	311.08	30.20	
2025-01-16 02:41:23.75	311.00	30.20	
2025-01-16 02:41:23.95	310.92	30.21	
2025-01-16 02:41:24.15	310.84	30.21	
2025-01-16 02:41:24.36	310.75	30.22	
2025-01-16 02:41:24.56	310.67	30.22	
2025-01-16 02:41:24.76	310.59	30.23	
2025-01-16 02:41:24.97	310.50	30.23	
2025-01-16 02:41:25.17	310.42	30.23	
2025-01-16 02:41:25.37	310.34	30.24	
2025-01-16 02:41:25.57	310.26	30.24	
2025-01-16 02:41:25.78	310.17	30.25	
2025-01-16 02:41:25.98	310.09	30.25	
2025-01-16 02:41:26.18	310.01	30.25	
2025-01-16 02:41:26.39	309.93	30.26	
2025-01-16 02:41:26.59	309.84	30.26	
2025-01-16 02:41:26.79	309.76	30.26	
2025-01-16 02:41:27.00	309.68	30.27	
2025-01-16 02:41:27.20	309.60	30.27	
2025-01-16 02:41:27.40	309.51	30.27	
2025-01-16 02:41:27.60	309.43	30.28	
2025-01-16 02:41:27.81	309.35	30.28	
2025-01-16 02:41:28.01	309.26	30.28	
2025-01-16 02:41:28.21	309.18	30.29	
2025-01-16 02:41:28.42	309.10	30.29	
2025-01-16 02:41:28.62	309.02	30.29	
2025-01-16 02:41:28.82	308.93	30.30	
2025-01-16 02:41:29.03	308.85	30.30	
2025-01-16 02:41:29.23	308.77	30.30	
2025-01-16 02:41:29.43	308.68	30.30	
2025-01-16 02:41:29.63	308.60	30.31	
2025-01-16 02:41:29.84	308.52	30.31	
2025-01-16 02:41:30.04	308.44	30.31	
2025-01-16 02:41:30.24	308.35	30.31	
2025-01-16 02:41:30.45	308.27	30.32	
2025-01-16 02:41:30.65	308.19	30.32	
2025-01-16 02:41:30.85	308.10	30.32	
2025-01-16 02:41:31.06	308.02	30.32	
2025-01-16 02:41:31.26	307.94	30.32	
2025-01-16 02:41:31.46	307.85	30.33	
2025-01-16 02:41:31.66	307.77	30.33	
2025-01-16 02:41:31.87	307.69	30.33	
2025-01-16 02:41:32.07	307.60	30.33	
2025-01-16 02:41:32.27	307.52	30.33	
2025-01-16 02:41:32.48	307.44	30.34	
2025-01-16 02:41:32.68	307.36	30.34	
2025-01-16 02:41:32.88	307.27	30.34	
2025-01-16 02:41:33.08	307.19	30.34	
2025-01-16 02:41:33.29	307.11	30.34	
2025-01-16 02:41:33.49	307.02	30.34	
2025-01-16 02:41:33.69	306.94	30.34	
2025-01-16 02:41:33.90	306.86	30.35	
2025-01-16 02:41:34.10	306.77	30.35	
2025-01-16 02:41:34.30	306.69	30.35	
2025-01-16 02:41:34.51	306.61	30.35	
2025-01-16 02:41:34.71	306.52	30.35	
2025-01-16 02:41:34.91	306.44	30.35	
2025-01-16 02:41:35.11	306.36	30.35	
2025-01-16 02:41:35.32	306.27	30.35	
2025-01-16 02:41:35.52	306.19	30.35	
2025-01-16 02:41:35.72	306.11	30.35	
2025-01-16 02:41:35.93	306.02	30.36	
2025-01-16 02:41:36.13	305.94	30.36	
2025-01-16 02:41:36.33	305.86	30.36	
2025-01-16 02:41:36.54	305.77	30.36	
2025-01-16 02:41:36.74	305.69	30.36	
2025-01-16 02:41:36.94	305.61	30.36	
2025-01-16 02:41:37.14	305.53	30.36	
2025-01-16 02:41:37.35	305.44	30.36	
2025-01-16 02:41:37.55	305.36	30.36	
2025-01-16 02:41:37.75	305.28	30.36	
2025-01-16 02:41:37.96	305.19	30.36	
2025-01-16 02:41:38.16	305.11	30.36	
2025-01-16 02:41:38.36	305.03	30.36	
2025-01-16 02:41:38.57	304.94	30.36	
2025-01-16 02:41:38.77	304.86	30.36	
2025-01-16 02:41:38.97	304.78	30.36	
2025-01-16 02:41:39.17	304.69	30.36	
2025-01-16 02:41:39.38	304.61	30.35	
2025-01-16 02:41:39.58	304.53	30.35	
2025-01-16 02:41:39.78	304.44	30.35	
2025-01-16 02:41:39.99	304.36	30.35	
2025-01-16 02:41:40.19	304.28	30.35	
2025-01-16 02:41:40.39	304.19	30.35	
2025-01-16 02:41:40.60	304.11	30.35	
2025-01-16 02:41:40.80	304.03	30.35	
2025-01-16 02:41:41.00	303.94	30.35	
2025-01-16 02:41:41.20	303.86	30.35	
2025-01-16 02:41:41.41	303.78	30.35	
2025-01-16 02:41:41.61	303.69	30.34	
2025-01-16 02:41:41.81	303.61	30.34	
2025-01-16 02:41:42.02	303.53	30.34	
2025-01-16 02:41:42.22	303.44	30.34	
2025-01-16 02:41:42.42	303.36	30.34	
2025-01-16 02:41:42.63	303.28	30.34	
2025-01-16 02:41:42.83	303.19	30.34	
2025-01-16 02:41:43.03	303.11	30.33	
2025-01-16 02:41:43.23	303.03	30.33	
2025-01-16 02:41:43.44	302.94	30.33	
2025-01-16 02:41:43.64	302.86	30.33	
2025-01-16 02:41:43.84	302.78	30.33	
2025-01-16 02:41:44.05	302.69	30.32	
2025-01-16 02:41:44.25	302.61	30.32	
2025-01-16 02:41:44.45	302.53	30.32	
2025-01-16 02:41:44.66	302.44	30.32	
2025-01-16 02:41:44.86	302.36	30.32	
2025-01-16 02:41:45.06	302.28	30.31	
2025-01-16 02:41:45.26	302.20	30.31	
2025-01-16 02:41:45.47	302.11	30.31	
2025-01-16 02:41:45.67	302.03	30.31	
2025-01-16 02:41:45.87	301.95	30.30	
2025-01-16 02:41:46.08	301.86	30.30	
2025-01-16 02:41:46.28	301.78	30.30	
2025-01-16 02:41:46.48	301.70	30.29	
2025-01-16 02:41:46.69	301.61	30.29	
2025-01-16 02:41:46.89	301.53	30.29	
2025-01-16 02:41:47.09	301.45	30.29	
2025-01-16 02:41:47.29	301.37	30.28	
