passes_logs/2025/01/16/SPB_Silybum_02/SPB_Silybum_02__20250116_101655_TERRA_rec.log

#Pass ID: 20250116_101655_TERRA
#Satellite: TERRA
#Configuration: TERRA
#Start time: 2025-01-16 10:16:56

#Version: 2.0.20230423
#Station: SPB_Silybum_02
#Location: 30.233357 lon 59.946436 lat
#TLE: 1 25994U 99068A   25015.81469206  .00000761  00000+0  16641-3 0  9994
#TLE: 2 25994  98.0214  78.8192 0003429  70.9720  38.3229 14.60396307334199

#Time	Az	El	Level	Level2	SNR	BER	Gain	Gain2
2025-01-16 10:16:58.11	8.72	4.14	
2025-01-16 10:16:58.32	8.70	4.15	
2025-01-16 10:16:58.52	8.68	4.16	
2025-01-16 10:16:58.72	8.66	4.18	
2025-01-16 10:16:58.93	8.64	4.19	
2025-01-16 10:16:59.13	8.62	4.20	
2025-01-16 10:16:59.33	8.61	4.21	
2025-01-16 10:16:59.54	8.59	4.23	
2025-01-16 10:16:59.74	8.57	4.24	
2025-01-16 10:16:59.94	8.55	4.25	
2025-01-16 10:17:00.14	8.53	4.26	
2025-01-16 10:17:00.35	8.51	4.27	
2025-01-16 10:17:00.55	8.49	4.29	
2025-01-16 10:17:00.75	8.48	4.30	
2025-01-16 10:17:00.96	8.46	4.31	
2025-01-16 10:17:01.16	8.44	4.32	
2025-01-16 10:17:01.36	8.42	4.33	
2025-01-16 10:17:01.56	8.40	4.35	
2025-01-16 10:17:01.77	8.38	4.36	
2025-01-16 10:17:01.97	8.36	4.37	
2025-01-16 10:17:02.17	8.34	4.38	
2025-01-16 10:17:02.38	8.32	4.40	
2025-01-16 10:17:02.58	8.30	4.41	
2025-01-16 10:17:02.78	8.29	4.42	
2025-01-16 10:17:02.99	8.27	4.43	
2025-01-16 10:17:03.19	8.25	4.44	
2025-01-16 10:17:03.39	8.23	4.46	
2025-01-16 10:17:03.59	8.21	4.47	
2025-01-16 10:17:03.80	8.19	4.48	
2025-01-16 10:17:04.00	8.17	4.49	
2025-01-16 10:17:04.20	8.15	4.51	
2025-01-16 10:17:04.41	8.13	4.52	
2025-01-16 10:17:04.61	8.11	4.53	
2025-01-16 10:17:04.81	8.10	4.54	
2025-01-16 10:17:05.02	8.08	4.55	
2025-01-16 10:17:05.22	8.06	4.57	
2025-01-16 10:17:05.42	8.04	4.58	
2025-01-16 10:17:05.62	8.02	4.59	
2025-01-16 10:17:05.83	8.00	4.60	
2025-01-16 10:17:06.03	7.98	4.62	
2025-01-16 10:17:06.23	7.96	4.63	
2025-01-16 10:17:06.44	7.94	4.64	
2025-01-16 10:17:06.64	7.92	4.65	
2025-01-16 10:17:06.84	7.90	4.66	
2025-01-16 10:17:07.05	7.88	4.68	
2025-01-16 10:17:07.25	7.86	4.69	
2025-01-16 10:17:07.45	7.84	4.70	
2025-01-16 10:17:07.65	7.83	4.71	
2025-01-16 10:17:07.86	7.80	4.73	
2025-01-16 10:17:08.06	7.79	4.74	
2025-01-16 10:17:08.26	7.77	4.75	
2025-01-16 10:17:08.47	7.75	4.76	
2025-01-16 10:17:08.67	7.73	4.77	
2025-01-16 10:17:08.87	7.71	4.79	
2025-01-16 10:17:09.08	7.69	4.80	
2025-01-16 10:17:09.28	7.67	4.81	
2025-01-16 10:17:09.48	7.65	4.82	
2025-01-16 10:17:09.68	7.63	4.84	
2025-01-16 10:17:09.89	7.61	4.85	
2025-01-16 10:17:10.09	7.59	4.86	
2025-01-16 10:17:10.29	7.57	4.87	
2025-01-16 10:17:10.50	7.55	4.89	
2025-01-16 10:17:10.70	7.53	4.90	
2025-01-16 10:17:10.90	7.51	4.91	
2025-01-16 10:17:11.10	7.49	4.92	
2025-01-16 10:17:11.31	7.47	4.93	
2025-01-16 10:17:11.51	7.45	4.95	
2025-01-16 10:17:11.71	7.43	4.96	
2025-01-16 10:17:11.92	7.41	4.97	
2025-01-16 10:17:12.12	7.39	4.98	
2025-01-16 10:17:12.32	7.37	5.00	
2025-01-16 10:17:12.53	7.35	5.01	
2025-01-16 10:17:12.73	7.33	5.02	
2025-01-16 10:17:12.93	7.31	5.03	
2025-01-16 10:17:13.13	7.29	5.05	
2025-01-16 10:17:13.34	7.27	5.06	
2025-01-16 10:17:13.54	7.25	5.07	
2025-01-16 10:17:13.74	7.23	5.08	
2025-01-16 10:17:13.95	7.21	5.10	
2025-01-16 10:17:14.15	7.19	5.11	
2025-01-16 10:17:14.35	7.17	5.12	
2025-01-16 10:17:14.56	7.15	5.13	
2025-01-16 10:17:14.76	7.13	5.14	
2025-01-16 10:17:14.96	7.11	5.16	
2025-01-16 10:17:15.16	7.09	5.17	
2025-01-16 10:17:15.37	7.07	5.18	
2025-01-16 10:17:15.57	7.05	5.19	
2025-01-16 10:17:15.77	7.03	5.21	
2025-01-16 10:17:15.98	7.01	5.22	
2025-01-16 10:17:16.18	6.99	5.23	
2025-01-16 10:17:16.38	6.97	5.24	
2025-01-16 10:17:16.59	6.95	5.26	
2025-01-16 10:17:16.79	6.93	5.27	
2025-01-16 10:17:16.99	6.91	5.28	
2025-01-16 10:17:17.19	6.89	5.29	
2025-01-16 10:17:17.40	6.87	5.31	
2025-01-16 10:17:17.60	6.85	5.32	
2025-01-16 10:17:17.80	6.83	5.33	
2025-01-16 10:17:18.01	6.81	5.34	
2025-01-16 10:17:18.21	6.79	5.36	
2025-01-16 10:17:18.41	6.77	5.37	
2025-01-16 10:17:18.62	6.75	5.38	
2025-01-16 10:17:18.82	6.73	5.39	
2025-01-16 10:17:19.02	6.71	5.41	
2025-01-16 10:17:19.22	6.69	5.42	
2025-01-16 10:17:19.43	6.67	5.43	
2025-01-16 10:17:19.63	6.64	5.44	
2025-01-16 10:17:19.83	6.62	5.46	
2025-01-16 10:17:20.04	6.60	5.47	
2025-01-16 10:17:20.24	6.58	5.48	
2025-01-16 10:17:20.44	6.56	5.49	
2025-01-16 10:17:20.65	6.54	5.51	
2025-01-16 10:17:20.85	6.52	5.52	
2025-01-16 10:17:21.05	6.50	5.53	
2025-01-16 10:17:21.25	6.48	5.54	
2025-01-16 10:17:21.46	6.46	5.56	
2025-01-16 10:17:21.66	6.44	5.57	
2025-01-16 10:17:21.86	6.42	5.58	
2025-01-16 10:17:22.07	6.40	5.59	
2025-01-16 10:17:22.27	6.38	5.61	
2025-01-16 10:17:22.47	6.36	5.62	
2025-01-16 10:17:22.67	6.33	5.63	
2025-01-16 10:17:22.88	6.31	5.64	
2025-01-16 10:17:23.08	6.29	5.66	
2025-01-16 10:17:23.28	6.27	5.67	
2025-01-16 10:17:23.49	6.25	5.68	
2025-01-16 10:17:23.69	6.23	5.69	
2025-01-16 10:17:23.89	6.21	5.71	
2025-01-16 10:17:24.10	6.19	5.72	
2025-01-16 10:17:24.30	6.17	5.73	
2025-01-16 10:17:24.50	6.15	5.74	
2025-01-16 10:17:24.70	6.13	5.76	
2025-01-16 10:17:24.91	6.10	5.77	
2025-01-16 10:17:25.11	6.08	5.78	
2025-01-16 10:17:25.31	6.06	5.79	
2025-01-16 10:17:25.52	6.04	5.81	
2025-01-16 10:17:25.72	6.02	5.82	
2025-01-16 10:17:25.92	6.00	5.83	
2025-01-16 10:17:26.13	5.98	5.84	
2025-01-16 10:17:26.33	5.96	5.86	
2025-01-16 10:17:26.53	5.93	5.87	
2025-01-16 10:17:26.73	5.91	5.88	
2025-01-16 10:17:26.94	5.89	5.89	
2025-01-16 10:17:27.14	5.87	5.91	
2025-01-16 10:17:27.34	5.85	5.92	
2025-01-16 10:17:27.55	5.83	5.93	
2025-01-16 10:17:27.75	5.81	5.94	
2025-01-16 10:17:27.95	5.79	5.96	
2025-01-16 10:17:28.16	5.76	5.97	
2025-01-16 10:17:28.36	5.74	5.98	
2025-01-16 10:17:28.56	5.72	5.99	
2025-01-16 10:17:28.76	5.70	6.01	
2025-01-16 10:17:28.97	5.68	6.02	
2025-01-16 10:17:29.17	5.66	6.03	
2025-01-16 10:17:29.37	5.63	6.04	
2025-01-16 10:17:29.58	5.61	6.06	
2025-01-16 10:17:29.78	5.59	6.07	
2025-01-16 10:17:29.98	5.57	6.08	
2025-01-16 10:17:30.19	5.55	6.10	
2025-01-16 10:17:30.39	5.53	6.11	
2025-01-16 10:17:30.59	5.50	6.12	
2025-01-16 10:17:30.79	5.48	6.13	
2025-01-16 10:17:31.00	5.46	6.15	
2025-01-16 10:17:31.20	5.44	6.16	
2025-01-16 10:17:31.40	5.42	6.17	
2025-01-16 10:17:31.61	5.40	6.18	
2025-01-16 10:17:31.81	5.37	6.20	
2025-01-16 10:17:32.01	5.35	6.21	
2025-01-16 10:17:32.21	5.33	6.22	
2025-01-16 10:17:32.42	5.31	6.23	
2025-01-16 10:17:32.62	5.29	6.25	
2025-01-16 10:17:32.82	5.27	6.26	
2025-01-16 10:17:33.03	5.24	6.27	
2025-01-16 10:17:33.23	5.22	6.29	
2025-01-16 10:17:33.43	5.20	6.30	
2025-01-16 10:17:33.64	5.18	6.31	
2025-01-16 10:17:33.84	5.16	6.32	
2025-01-16 10:17:34.04	5.13	6.34	
2025-01-16 10:17:34.24	5.11	6.35	
2025-01-16 10:17:34.45	5.09	6.36	
2025-01-16 10:17:34.65	5.07	6.37	
2025-01-16 10:17:34.85	5.05	6.39	
2025-01-16 10:17:35.06	5.02	6.40	
2025-01-16 10:17:35.26	5.00	6.41	
2025-01-16 10:17:35.46	4.98	6.42	
2025-01-16 10:17:35.67	4.96	6.44	
2025-01-16 10:17:35.87	4.93	6.45	
2025-01-16 10:17:36.07	4.91	6.46	
2025-01-16 10:17:36.27	4.89	6.48	
2025-01-16 10:17:36.48	4.87	6.49	
2025-01-16 10:17:36.68	4.85	6.50	
2025-01-16 10:17:36.88	4.82	6.51	
2025-01-16 10:17:37.09	4.80	6.53	
2025-01-16 10:17:37.29	4.78	6.54	
2025-01-16 10:17:37.49	4.76	6.55	
2025-01-16 10:17:37.70	4.73	6.56	
2025-01-16 10:17:37.90	4.71	6.58	
2025-01-16 10:17:38.10	4.69	6.59	
2025-01-16 10:17:38.30	4.67	6.60	
2025-01-16 10:17:38.51	4.64	6.62	
2025-01-16 10:17:38.71	4.62	6.63	
2025-01-16 10:17:38.91	4.60	6.64	
2025-01-16 10:17:39.12	4.58	6.65	
2025-01-16 10:17:39.32	4.55	6.67	
2025-01-16 10:17:39.52	4.53	6.68	
2025-01-16 10:17:39.73	4.51	6.69	
2025-01-16 10:17:39.93	4.49	6.70	
2025-01-16 10:17:40.13	4.46	6.72	
2025-01-16 10:17:40.33	4.44	6.73	
2025-01-16 10:17:40.54	4.42	6.74	
2025-01-16 10:17:40.74	4.39	6.76	
2025-01-16 10:17:40.94	4.37	6.77	
2025-01-16 10:17:41.15	4.35	6.78	
2025-01-16 10:17:41.35	4.33	6.79	
2025-01-16 10:17:41.55	4.30	6.81	
2025-01-16 10:17:41.75	4.28	6.82	
2025-01-16 10:17:41.96	4.26	6.83	
2025-01-16 10:17:42.16	4.23	6.85	
2025-01-16 10:17:42.36	4.21	6.86	
2025-01-16 10:17:42.57	4.19	6.87	
2025-01-16 10:17:42.77	4.17	6.88	
2025-01-16 10:17:42.97	4.14	6.90	
2025-01-16 10:17:43.18	4.12	6.91	
2025-01-16 10:17:43.38	4.10	6.92	
2025-01-16 10:17:43.58	4.07	6.94	
2025-01-16 10:17:43.78	4.05	6.95	
2025-01-16 10:17:43.99	4.03	6.96	
2025-01-16 10:17:44.19	4.00	6.97	
2025-01-16 10:17:44.39	3.98	6.99	
2025-01-16 10:17:44.60	3.96	7.00	
2025-01-16 10:17:44.80	3.93	7.01	
2025-01-16 10:17:45.00	3.91	7.02	
2025-01-16 10:17:45.21	3.89	7.04	
2025-01-16 10:17:45.41	3.86	7.05	
2025-01-16 10:17:45.61	3.84	7.06	
2025-01-16 10:17:45.81	3.82	7.08	
2025-01-16 10:17:46.02	3.79	7.09	
2025-01-16 10:17:46.22	3.77	7.10	
2025-01-16 10:17:46.42	3.75	7.11	
2025-01-16 10:17:46.63	3.72	7.13	
2025-01-16 10:17:46.83	3.70	7.14	
2025-01-16 10:17:47.03	3.68	7.15	
2025-01-16 10:17:47.24	3.65	7.17	
2025-01-16 10:17:47.44	3.63	7.18	
2025-01-16 10:17:47.64	3.61	7.19	
2025-01-16 10:17:47.84	3.58	7.21	
2025-01-16 10:17:48.05	3.56	7.22	
2025-01-16 10:17:48.25	3.54	7.23	
2025-01-16 10:17:48.45	3.51	7.24	
2025-01-16 10:17:48.66	3.49	7.26	
2025-01-16 10:17:48.86	3.47	7.27	
2025-01-16 10:17:49.06	3.44	7.28	
2025-01-16 10:17:49.27	3.42	7.30	
2025-01-16 10:17:49.47	3.39	7.31	
2025-01-16 10:17:49.67	3.37	7.32	
2025-01-16 10:17:49.87	3.35	7.33	
2025-01-16 10:17:50.08	3.32	7.35	
2025-01-16 10:17:50.28	3.30	7.36	
2025-01-16 10:17:50.48	3.28	7.37	
2025-01-16 10:17:50.69	3.25	7.39	
2025-01-16 10:17:50.89	3.23	7.40	
2025-01-16 10:17:51.09	3.20	7.41	
2025-01-16 10:17:51.29	3.18	7.42	
2025-01-16 10:17:51.50	3.16	7.44	
2025-01-16 10:17:51.70	3.13	7.45	
2025-01-16 10:17:51.90	3.11	7.46	
2025-01-16 10:17:52.11	3.08	7.48	
2025-01-16 10:17:52.31	3.06	7.49	
2025-01-16 10:17:52.51	3.04	7.50	
2025-01-16 10:17:52.72	3.01	7.52	
2025-01-16 10:17:52.92	2.99	7.53	
2025-01-16 10:17:53.12	2.96	7.54	
2025-01-16 10:17:53.32	2.94	7.55	
2025-01-16 10:17:53.53	2.91	7.57	
2025-01-16 10:17:53.73	2.89	7.58	
2025-01-16 10:17:53.93	2.87	7.59	
2025-01-16 10:17:54.14	2.84	7.61	
2025-01-16 10:17:54.34	2.82	7.62	
2025-01-16 10:17:54.54	2.79	7.63	
2025-01-16 10:17:54.75	2.77	7.65	
2025-01-16 10:17:54.95	2.74	7.66	
2025-01-16 10:17:55.15	2.72	7.67	
2025-01-16 10:17:55.35	2.70	7.68	
2025-01-16 10:17:55.56	2.67	7.70	
2025-01-16 10:17:55.76	2.65	7.71	
2025-01-16 10:17:55.96	2.62	7.72	
2025-01-16 10:17:56.17	2.60	7.74	
2025-01-16 10:17:56.37	2.57	7.75	
2025-01-16 10:17:56.57	2.55	7.76	
2025-01-16 10:17:56.78	2.52	7.78	
2025-01-16 10:17:56.98	2.50	7.79	
2025-01-16 10:17:57.18	2.48	7.80	
2025-01-16 10:17:57.38	2.45	7.81	
2025-01-16 10:17:57.59	2.43	7.83	
2025-01-16 10:17:57.79	2.40	7.84	
2025-01-16 10:17:57.99	2.38	7.85	
2025-01-16 10:17:58.20	2.35	7.87	
2025-01-16 10:17:58.40	2.33	7.88	
2025-01-16 10:17:58.60	2.30	7.89	
2025-01-16 10:17:58.81	2.28	7.91	
2025-01-16 10:17:59.01	2.25	7.92	
2025-01-16 10:17:59.21	2.23	7.93	
2025-01-16 10:17:59.41	2.20	7.94	
2025-01-16 10:17:59.62	2.18	7.96	
2025-01-16 10:17:59.82	2.15	7.97	
2025-01-16 10:18:00.02	2.13	7.98	
2025-01-16 10:18:00.23	2.10	8.00	
2025-01-16 10:18:00.43	2.08	8.01	
2025-01-16 10:18:00.63	2.05	8.02	
2025-01-16 10:18:00.84	2.03	8.04	
2025-01-16 10:18:01.04	2.00	8.05	
2025-01-16 10:18:01.24	1.98	8.06	
2025-01-16 10:18:01.44	1.95	8.07	
2025-01-16 10:18:01.65	1.93	8.09	
2025-01-16 10:18:01.85	1.90	8.10	
2025-01-16 10:18:02.05	1.88	8.11	
2025-01-16 10:18:02.26	1.85	8.13	
2025-01-16 10:18:02.46	1.83	8.14	
2025-01-16 10:18:02.66	1.80	8.15	
2025-01-16 10:18:02.86	1.78	8.17	
2025-01-16 10:18:03.07	1.75	8.18	
2025-01-16 10:18:03.27	1.72	8.19	
2025-01-16 10:18:03.47	1.70	8.21	
2025-01-16 10:18:03.68	1.67	8.22	
2025-01-16 10:18:03.88	1.65	8.23	
2025-01-16 10:18:04.08	1.62	8.24	
2025-01-16 10:18:04.29	1.60	8.26	
2025-01-16 10:18:04.49	1.57	8.27	
2025-01-16 10:18:04.69	1.55	8.28	
2025-01-16 10:18:04.89	1.52	8.30	
2025-01-16 10:18:05.10	1.49	8.31	
2025-01-16 10:18:05.30	1.47	8.32	
2025-01-16 10:18:05.50	1.44	8.34	
2025-01-16 10:18:05.71	1.42	8.35	
2025-01-16 10:18:05.91	1.39	8.36	
2025-01-16 10:18:06.11	1.37	8.38	
2025-01-16 10:18:06.32	1.34	8.39	
2025-01-16 10:18:06.52	1.31	8.40	
2025-01-16 10:18:06.72	1.29	8.42	
2025-01-16 10:18:06.92	1.26	8.43	
2025-01-16 10:18:07.13	1.24	8.44	
2025-01-16 10:18:07.33	1.21	8.45	
2025-01-16 10:18:07.53	1.19	8.47	
2025-01-16 10:18:07.74	1.16	8.48	
2025-01-16 10:18:07.94	1.13	8.49	
2025-01-16 10:18:08.14	1.11	8.51	
2025-01-16 10:18:08.35	1.08	8.52	
2025-01-16 10:18:08.55	1.05	8.53	
2025-01-16 10:18:08.75	1.03	8.55	
2025-01-16 10:18:08.95	1.00	8.56	
2025-01-16 10:18:09.16	0.98	8.57	
2025-01-16 10:18:09.36	0.95	8.59	
2025-01-16 10:18:09.56	0.92	8.60	
2025-01-16 10:18:09.77	0.90	8.61	
2025-01-16 10:18:09.97	0.87	8.63	
2025-01-16 10:18:10.17	0.85	8.64	
2025-01-16 10:18:10.38	0.82	8.65	
2025-01-16 10:18:10.58	0.79	8.67	
2025-01-16 10:18:10.78	0.77	8.68	
2025-01-16 10:18:10.98	0.74	8.69	
2025-01-16 10:18:11.19	0.71	8.71	
2025-01-16 10:18:11.39	0.69	8.72	
2025-01-16 10:18:11.59	0.66	8.73	
2025-01-16 10:18:11.80	0.63	8.74	
2025-01-16 10:18:12.00	0.61	8.76	
2025-01-16 10:18:12.20	0.58	8.77	
2025-01-16 10:18:12.40	0.55	8.78	
2025-01-16 10:18:12.61	0.53	8.80	
2025-01-16 10:18:12.81	0.50	8.81	
2025-01-16 10:18:13.01	0.47	8.82	
2025-01-16 10:18:13.22	0.45	8.84	
2025-01-16 10:18:13.42	0.42	8.85	
2025-01-16 10:18:13.62	0.39	8.86	
2025-01-16 10:18:13.83	0.37	8.88	
2025-01-16 10:18:14.03	0.34	8.89	
2025-01-16 10:18:14.23	0.31	8.90	
2025-01-16 10:18:14.43	0.29	8.92	
2025-01-16 10:18:14.64	0.26	8.93	
2025-01-16 10:18:14.84	0.23	8.94	
2025-01-16 10:18:15.04	0.21	8.96	
2025-01-16 10:18:15.25	0.18	8.97	
2025-01-16 10:18:15.45	0.15	8.98	
2025-01-16 10:18:15.65	0.13	9.00	
2025-01-16 10:18:15.86	0.10	9.01	
2025-01-16 10:18:16.06	0.07	9.02	
2025-01-16 10:18:16.26	0.04	9.04	
2025-01-16 10:18:16.46	0.02	9.05	
2025-01-16 10:18:16.67	359.99	9.06	
2025-01-16 10:18:16.87	359.96	9.07	
2025-01-16 10:18:17.07	359.94	9.09	
2025-01-16 10:18:17.28	359.91	9.10	
2025-01-16 10:18:17.48	359.88	9.11	
2025-01-16 10:18:17.68	359.85	9.13	
2025-01-16 10:18:17.89	359.83	9.14	
2025-01-16 10:18:18.09	359.80	9.15	
2025-01-16 10:18:18.29	359.77	9.17	
2025-01-16 10:18:18.49	359.75	9.18	
2025-01-16 10:18:18.70	359.72	9.19	
2025-01-16 10:18:18.90	359.69	9.21	
2025-01-16 10:18:19.10	359.66	9.22	
2025-01-16 10:18:19.31	359.63	9.23	
2025-01-16 10:18:19.51	359.61	9.25	
2025-01-16 10:18:19.71	359.58	9.26	
2025-01-16 10:18:19.92	359.55	9.27	
2025-01-16 10:18:20.12	359.52	9.29	
2025-01-16 10:18:20.32	359.50	9.30	
2025-01-16 10:18:20.52	359.47	9.31	
2025-01-16 10:18:20.73	359.44	9.33	
2025-01-16 10:18:20.93	359.41	9.34	
2025-01-16 10:18:21.13	359.39	9.35	
2025-01-16 10:18:21.34	359.36	9.37	
2025-01-16 10:18:21.54	359.33	9.38	
2025-01-16 10:18:21.74	359.30	9.39	
2025-01-16 10:18:21.94	359.28	9.41	
2025-01-16 10:18:22.15	359.25	9.42	
2025-01-16 10:18:22.35	359.22	9.43	
2025-01-16 10:18:22.55	359.19	9.45	
2025-01-16 10:18:22.76	359.16	9.46	
2025-01-16 10:18:22.96	359.13	9.47	
2025-01-16 10:18:23.16	359.11	9.49	
2025-01-16 10:18:23.37	359.08	9.50	
2025-01-16 10:18:23.57	359.05	9.51	
2025-01-16 10:18:23.77	359.02	9.53	
2025-01-16 10:18:23.97	359.00	9.54	
2025-01-16 10:18:24.18	358.97	9.55	
2025-01-16 10:18:24.38	358.94	9.57	
2025-01-16 10:18:24.58	358.91	9.58	
2025-01-16 10:18:24.79	358.88	9.59	
2025-01-16 10:18:24.99	358.85	9.61	
2025-01-16 10:18:25.19	358.83	9.62	
2025-01-16 10:18:25.40	358.80	9.63	
2025-01-16 10:18:25.60	358.77	9.65	
2025-01-16 10:18:25.80	358.74	9.66	
2025-01-16 10:18:26.00	358.71	9.67	
2025-01-16 10:18:26.21	358.68	9.69	
2025-01-16 10:18:26.41	358.65	9.70	
2025-01-16 10:18:26.61	358.63	9.71	
2025-01-16 10:18:26.82	358.60	9.73	
2025-01-16 10:18:27.02	358.57	9.74	
2025-01-16 10:18:27.22	358.54	9.75	
2025-01-16 10:18:27.43	358.51	9.77	
2025-01-16 10:18:27.63	358.48	9.78	
2025-01-16 10:18:27.83	358.45	9.79	
2025-01-16 10:18:28.03	358.43	9.81	
2025-01-16 10:18:28.24	358.40	9.82	
2025-01-16 10:18:28.44	358.37	9.83	
2025-01-16 10:18:28.64	358.34	9.85	
2025-01-16 10:18:28.85	358.31	9.86	
2025-01-16 10:18:29.05	358.28	9.87	
2025-01-16 10:18:29.25	358.25	9.89	
2025-01-16 10:18:29.46	358.22	9.90	
2025-01-16 10:18:29.66	358.19	9.91	
2025-01-16 10:18:29.86	358.17	9.93	
2025-01-16 10:18:30.06	358.14	9.94	
2025-01-16 10:18:30.27	358.11	9.95	
2025-01-16 10:18:30.47	358.08	9.97	
2025-01-16 10:18:30.67	358.05	9.98	
2025-01-16 10:18:30.88	358.02	9.99	
2025-01-16 10:18:31.08	357.99	10.01	
2025-01-16 10:18:31.28	357.96	10.02	
2025-01-16 10:18:31.48	357.93	10.03	
2025-01-16 10:18:31.69	357.90	10.05	
2025-01-16 10:18:31.89	357.87	10.06	
2025-01-16 10:18:32.09	357.85	10.07	
2025-01-16 10:18:32.30	357.82	10.09	
2025-01-16 10:18:32.50	357.79	10.10	
2025-01-16 10:18:32.70	357.76	10.11	
2025-01-16 10:18:32.91	357.73	10.13	
2025-01-16 10:18:33.11	357.70	10.14	
2025-01-16 10:18:33.31	357.67	10.15	
2025-01-16 10:18:33.51	357.64	10.17	
2025-01-16 10:18:33.72	357.61	10.18	
2025-01-16 10:18:33.92	357.58	10.19	
2025-01-16 10:18:34.12	357.55	10.21	
2025-01-16 10:18:34.33	357.52	10.22	
2025-01-16 10:18:34.53	357.49	10.23	
2025-01-16 10:18:34.73	357.46	10.25	
2025-01-16 10:18:34.94	357.43	10.26	
2025-01-16 10:18:35.14	357.40	10.27	
2025-01-16 10:18:35.34	357.37	10.29	
2025-01-16 10:18:35.54	357.34	10.30	
2025-01-16 10:18:35.75	357.31	10.31	
2025-01-16 10:18:35.95	357.28	10.33	
2025-01-16 10:18:36.15	357.25	10.34	
2025-01-16 10:18:36.36	357.22	10.35	
2025-01-16 10:18:36.56	357.19	10.37	
2025-01-16 10:18:36.76	357.16	10.38	
2025-01-16 10:18:36.97	357.13	10.39	
2025-01-16 10:18:37.17	357.10	10.41	
2025-01-16 10:18:37.37	357.07	10.42	
2025-01-16 10:18:37.57	357.04	10.43	
2025-01-16 10:18:37.78	357.01	10.45	
2025-01-16 10:18:37.98	356.98	10.46	
2025-01-16 10:18:38.18	356.95	10.47	
2025-01-16 10:18:38.39	356.92	10.49	
2025-01-16 10:18:38.59	356.89	10.50	
2025-01-16 10:18:38.79	356.86	10.51	
2025-01-16 10:18:39.00	356.83	10.53	
2025-01-16 10:18:39.20	356.80	10.54	
2025-01-16 10:18:39.40	356.77	10.55	
2025-01-16 10:18:39.60	356.74	10.57	
2025-01-16 10:18:39.81	356.71	10.58	
2025-01-16 10:18:40.01	356.68	10.59	
2025-01-16 10:18:40.21	356.65	10.61	
2025-01-16 10:18:40.42	356.62	10.62	
2025-01-16 10:18:40.62	356.59	10.63	
2025-01-16 10:18:40.82	356.56	10.65	
2025-01-16 10:18:41.03	356.53	10.66	
2025-01-16 10:18:41.23	356.50	10.67	
2025-01-16 10:18:41.43	356.47	10.69	
2025-01-16 10:18:41.63	356.43	10.70	
2025-01-16 10:18:41.84	356.40	10.71	
2025-01-16 10:18:42.04	356.37	10.73	
2025-01-16 10:18:42.24	356.34	10.74	
2025-01-16 10:18:42.45	356.31	10.75	
2025-01-16 10:18:42.65	356.28	10.77	
2025-01-16 10:18:42.85	356.25	10.78	
2025-01-16 10:18:43.05	356.22	10.79	
2025-01-16 10:18:43.26	356.19	10.81	
2025-01-16 10:18:43.46	356.16	10.82	
2025-01-16 10:18:43.66	356.13	10.83	
2025-01-16 10:18:43.87	356.09	10.85	
2025-01-16 10:18:44.07	356.06	10.86	
2025-01-16 10:18:44.27	356.03	10.88	
2025-01-16 10:18:44.48	356.00	10.89	
2025-01-16 10:18:44.68	355.97	10.90	
2025-01-16 10:18:44.88	355.94	10.92	
2025-01-16 10:18:45.08	355.91	10.93	
2025-01-16 10:18:45.29	355.88	10.94	
2025-01-16 10:18:45.49	355.84	10.96	
2025-01-16 10:18:45.69	355.81	10.97	
2025-01-16 10:18:45.90	355.78	10.98	
2025-01-16 10:18:46.10	355.75	11.00	
2025-01-16 10:18:46.30	355.72	11.01	
2025-01-16 10:18:46.51	355.69	11.02	
2025-01-16 10:18:46.71	355.66	11.04	
2025-01-16 10:18:46.91	355.62	11.05	
2025-01-16 10:18:47.11	355.59	11.06	
2025-01-16 10:18:47.32	355.56	11.08	
2025-01-16 10:18:47.52	355.53	11.09	
2025-01-16 10:18:47.72	355.50	11.10	
2025-01-16 10:18:47.93	355.47	11.12	
2025-01-16 10:18:48.13	355.43	11.13	
2025-01-16 10:18:48.33	355.40	11.14	
2025-01-16 10:18:48.54	355.37	11.16	
2025-01-16 10:18:48.74	355.34	11.17	
2025-01-16 10:18:48.94	355.31	11.18	
2025-01-16 10:18:49.14	355.28	11.20	
2025-01-16 10:18:49.35	355.24	11.21	
2025-01-16 10:18:49.55	355.21	11.22	
2025-01-16 10:18:49.75	355.18	11.24	
2025-01-16 10:18:49.96	355.15	11.25	
2025-01-16 10:18:50.16	355.12	11.26	
2025-01-16 10:18:50.36	355.08	11.28	
2025-01-16 10:18:50.57	355.05	11.29	
2025-01-16 10:18:50.77	355.02	11.30	
2025-01-16 10:18:50.97	354.99	11.32	
2025-01-16 10:18:51.17	354.96	11.33	
2025-01-16 10:18:51.38	354.92	11.34	
2025-01-16 10:18:51.58	354.89	11.36	
2025-01-16 10:18:51.78	354.86	11.37	
2025-01-16 10:18:51.99	354.82	11.38	
2025-01-16 10:18:52.19	354.79	11.40	
2025-01-16 10:18:52.39	354.76	11.41	
2025-01-16 10:18:52.59	354.73	11.42	
2025-01-16 10:18:52.80	354.70	11.44	
2025-01-16 10:18:53.00	354.66	11.45	
2025-01-16 10:18:53.20	354.63	11.46	
2025-01-16 10:18:53.41	354.60	11.48	
2025-01-16 10:18:53.61	354.57	11.49	
2025-01-16 10:18:53.81	354.53	11.50	
2025-01-16 10:18:54.02	354.50	11.52	
2025-01-16 10:18:54.22	354.47	11.53	
2025-01-16 10:18:54.42	354.44	11.54	
2025-01-16 10:18:54.62	354.40	11.56	
2025-01-16 10:18:54.83	354.37	11.57	
2025-01-16 10:18:55.03	354.34	11.59	
2025-01-16 10:18:55.23	354.30	11.60	
2025-01-16 10:18:55.44	354.27	11.61	
2025-01-16 10:18:55.64	354.24	11.63	
2025-01-16 10:18:55.84	354.21	11.64	
2025-01-16 10:18:56.05	354.17	11.65	
2025-01-16 10:18:56.25	354.14	11.67	
2025-01-16 10:18:56.45	354.11	11.68	
2025-01-16 10:18:56.65	354.07	11.69	
2025-01-16 10:18:56.86	354.04	11.71	
2025-01-16 10:18:57.06	354.01	11.72	
2025-01-16 10:18:57.26	353.97	11.73	
2025-01-16 10:18:57.47	353.94	11.75	
2025-01-16 10:18:57.67	353.91	11.76	
2025-01-16 10:18:57.87	353.87	11.77	
2025-01-16 10:18:58.08	353.84	11.79	
2025-01-16 10:18:58.28	353.81	11.80	
2025-01-16 10:18:58.48	353.77	11.81	
2025-01-16 10:18:58.68	353.74	11.83	
2025-01-16 10:18:58.89	353.71	11.84	
2025-01-16 10:18:59.09	353.67	11.85	
2025-01-16 10:18:59.29	353.64	11.87	
2025-01-16 10:18:59.50	353.61	11.88	
2025-01-16 10:18:59.70	353.57	11.89	
2025-01-16 10:18:59.90	353.54	11.91	
2025-01-16 10:19:00.11	353.50	11.92	
2025-01-16 10:19:00.31	353.47	11.93	
2025-01-16 10:19:00.51	353.44	11.95	
2025-01-16 10:19:00.71	353.40	11.96	
2025-01-16 10:19:00.92	353.37	11.97	
2025-01-16 10:19:01.12	353.34	11.99	
2025-01-16 10:19:01.32	353.30	12.00	
2025-01-16 10:19:01.53	353.27	12.01	
2025-01-16 10:19:01.73	353.23	12.03	
2025-01-16 10:19:01.93	353.20	12.04	
2025-01-16 10:19:02.13	353.17	12.05	
2025-01-16 10:19:02.34	353.13	12.07	
2025-01-16 10:19:02.54	353.10	12.08	
2025-01-16 10:19:02.74	353.07	12.09	
2025-01-16 10:19:02.95	353.03	12.11	
2025-01-16 10:19:03.15	353.00	12.12	
2025-01-16 10:19:03.35	352.96	12.13	
2025-01-16 10:19:03.56	352.93	12.15	
2025-01-16 10:19:03.76	352.89	12.16	
2025-01-16 10:19:03.96	352.86	12.17	
2025-01-16 10:19:04.16	352.83	12.19	
2025-01-16 10:19:04.37	352.79	12.20	
2025-01-16 10:19:04.57	352.76	12.21	
2025-01-16 10:19:04.77	352.72	12.23	
2025-01-16 10:19:04.98	352.69	12.24	
2025-01-16 10:19:05.18	352.65	12.25	
2025-01-16 10:19:05.38	352.62	12.27	
2025-01-16 10:19:05.59	352.58	12.28	
2025-01-16 10:19:05.79	352.55	12.29	
2025-01-16 10:19:05.99	352.51	12.31	
2025-01-16 10:19:06.19	352.48	12.32	
2025-01-16 10:19:06.40	352.44	12.33	
2025-01-16 10:19:06.60	352.41	12.35	
2025-01-16 10:19:06.80	352.38	12.36	
2025-01-16 10:19:07.01	352.34	12.37	
2025-01-16 10:19:07.21	352.31	12.39	
2025-01-16 10:19:07.41	352.27	12.40	
2025-01-16 10:19:07.62	352.24	12.41	
2025-01-16 10:19:07.82	352.20	12.43	
2025-01-16 10:19:08.02	352.17	12.44	
2025-01-16 10:19:08.22	352.13	12.45	
2025-01-16 10:19:08.43	352.10	12.47	
2025-01-16 10:19:08.63	352.06	12.48	
2025-01-16 10:19:08.83	352.03	12.49	
2025-01-16 10:19:09.04	351.99	12.51	
2025-01-16 10:19:09.24	351.96	12.52	
2025-01-16 10:19:09.44	351.92	12.53	
2025-01-16 10:19:09.65	351.88	12.55	
2025-01-16 10:19:09.85	351.85	12.56	
2025-01-16 10:19:10.05	351.81	12.57	
2025-01-16 10:19:10.25	351.78	12.59	
2025-01-16 10:19:10.46	351.74	12.60	
2025-01-16 10:19:10.66	351.71	12.61	
2025-01-16 10:19:10.86	351.67	12.63	
2025-01-16 10:19:11.07	351.64	12.64	
2025-01-16 10:19:11.27	351.60	12.65	
2025-01-16 10:19:11.47	351.57	12.67	
2025-01-16 10:19:11.67	351.53	12.68	
2025-01-16 10:19:11.88	351.49	12.69	
2025-01-16 10:19:12.08	351.46	12.71	
2025-01-16 10:19:12.28	351.42	12.72	
2025-01-16 10:19:12.49	351.39	12.73	
2025-01-16 10:19:12.69	351.35	12.75	
2025-01-16 10:19:12.89	351.32	12.76	
2025-01-16 10:19:13.10	351.28	12.77	
2025-01-16 10:19:13.30	351.24	12.79	
2025-01-16 10:19:13.50	351.21	12.80	
2025-01-16 10:19:13.70	351.17	12.81	
2025-01-16 10:19:13.91	351.14	12.83	
2025-01-16 10:19:14.11	351.10	12.84	
2025-01-16 10:19:14.31	351.06	12.85	
2025-01-16 10:19:14.52	351.03	12.86	
2025-01-16 10:19:14.72	350.99	12.88	
2025-01-16 10:19:14.92	350.96	12.89	
2025-01-16 10:19:15.13	350.92	12.90	
2025-01-16 10:19:15.33	350.88	12.92	
2025-01-16 10:19:15.53	350.85	12.93	
2025-01-16 10:19:15.73	350.81	12.94	
2025-01-16 10:19:15.94	350.77	12.96	
2025-01-16 10:19:16.14	350.74	12.97	
2025-01-16 10:19:16.34	350.70	12.98	
2025-01-16 10:19:16.55	350.66	13.00	
2025-01-16 10:19:16.75	350.63	13.01	
2025-01-16 10:19:16.95	350.59	13.02	
2025-01-16 10:19:17.16	350.55	13.04	
2025-01-16 10:19:17.36	350.52	13.05	
2025-01-16 10:19:17.56	350.48	13.06	
2025-01-16 10:19:17.76	350.45	13.08	
2025-01-16 10:19:17.97	350.41	13.09	
2025-01-16 10:19:18.17	350.37	13.10	
2025-01-16 10:19:18.37	350.34	13.12	
2025-01-16 10:19:18.58	350.30	13.13	
2025-01-16 10:19:18.78	350.26	13.14	
2025-01-16 10:19:18.98	350.23	13.15	
2025-01-16 10:19:19.19	350.19	13.17	
2025-01-16 10:19:19.39	350.15	13.18	
2025-01-16 10:19:19.59	350.11	13.19	
2025-01-16 10:19:19.79	350.08	13.21	
2025-01-16 10:19:20.00	350.04	13.22	
2025-01-16 10:19:20.20	350.00	13.23	
2025-01-16 10:19:20.40	349.97	13.25	
2025-01-16 10:19:20.61	349.93	13.26	
2025-01-16 10:19:20.81	349.89	13.27	
2025-01-16 10:19:21.01	349.85	13.29	
2025-01-16 10:19:21.22	349.82	13.30	
2025-01-16 10:19:21.42	349.78	13.31	
2025-01-16 10:19:21.62	349.74	13.33	
2025-01-16 10:19:21.82	349.71	13.34	
2025-01-16 10:19:22.03	349.67	13.35	
2025-01-16 10:19:22.23	349.63	13.37	
2025-01-16 10:19:22.43	349.59	13.38	
2025-01-16 10:19:22.64	349.55	13.39	
2025-01-16 10:19:22.84	349.52	13.40	
2025-01-16 10:19:23.04	349.48	13.42	
2025-01-16 10:19:23.24	349.44	13.43	
2025-01-16 10:19:23.45	349.40	13.44	
2025-01-16 10:19:23.65	349.37	13.46	
2025-01-16 10:19:23.85	349.33	13.47	
2025-01-16 10:19:24.06	349.29	13.48	
2025-01-16 10:19:24.26	349.25	13.50	
2025-01-16 10:19:24.46	349.22	13.51	
2025-01-16 10:19:24.67	349.18	13.52	
2025-01-16 10:19:24.87	349.14	13.54	
2025-01-16 10:19:25.07	349.10	13.55	
2025-01-16 10:19:25.27	349.06	13.56	
2025-01-16 10:19:25.48	349.02	13.57	
2025-01-16 10:19:25.68	348.99	13.59	
2025-01-16 10:19:25.88	348.95	13.60	
2025-01-16 10:19:26.09	348.91	13.61	
2025-01-16 10:19:26.29	348.87	13.63	
2025-01-16 10:19:26.49	348.84	13.64	
2025-01-16 10:19:26.70	348.80	13.65	
2025-01-16 10:19:26.90	348.76	13.67	
2025-01-16 10:19:27.10	348.72	13.68	
2025-01-16 10:19:27.30	348.68	13.69	
2025-01-16 10:19:27.51	348.64	13.70	
2025-01-16 10:19:27.71	348.60	13.72	
2025-01-16 10:19:27.91	348.57	13.73	
2025-01-16 10:19:28.12	348.53	13.74	
2025-01-16 10:19:28.32	348.49	13.76	
2025-01-16 10:19:28.52	348.45	13.77	
2025-01-16 10:19:28.73	348.41	13.78	
2025-01-16 10:19:28.93	348.37	13.80	
2025-01-16 10:19:29.13	348.33	13.81	
2025-01-16 10:19:29.33	348.30	13.82	
2025-01-16 10:19:29.54	348.26	13.83	
2025-01-16 10:19:29.74	348.22	13.85	
2025-01-16 10:19:29.94	348.18	13.86	
2025-01-16 10:19:30.15	348.14	13.87	
2025-01-16 10:19:30.35	348.10	13.89	
2025-01-16 10:19:30.55	348.06	13.90	
2025-01-16 10:19:30.76	348.02	13.91	
2025-01-16 10:19:30.96	347.98	13.93	
2025-01-16 10:19:31.16	347.95	13.94	
2025-01-16 10:19:31.36	347.91	13.95	
2025-01-16 10:19:31.57	347.87	13.96	
2025-01-16 10:19:31.77	347.83	13.98	
2025-01-16 10:19:31.97	347.79	13.99	
2025-01-16 10:19:32.18	347.75	14.00	
2025-01-16 10:19:32.38	347.71	14.02	
2025-01-16 10:19:32.58	347.67	14.03	
2025-01-16 10:19:32.78	347.63	14.04	
2025-01-16 10:19:32.99	347.59	14.05	
2025-01-16 10:19:33.19	347.55	14.07	
2025-01-16 10:19:33.39	347.51	14.08	
2025-01-16 10:19:33.60	347.47	14.09	
2025-01-16 10:19:33.80	347.43	14.11	
2025-01-16 10:19:34.00	347.39	14.12	
2025-01-16 10:19:34.21	347.35	14.13	
2025-01-16 10:19:34.41	347.31	14.14	
2025-01-16 10:19:34.61	347.28	14.16	
2025-01-16 10:19:34.81	347.24	14.17	
2025-01-16 10:19:35.02	347.20	14.18	
2025-01-16 10:19:35.22	347.16	14.20	
2025-01-16 10:19:35.42	347.12	14.21	
2025-01-16 10:19:35.63	347.08	14.22	
2025-01-16 10:19:35.83	347.04	14.23	
2025-01-16 10:19:36.03	347.00	14.25	
2025-01-16 10:19:36.24	346.96	14.26	
2025-01-16 10:19:36.44	346.92	14.27	
2025-01-16 10:19:36.64	346.88	14.28	
2025-01-16 10:19:36.84	346.84	14.30	
2025-01-16 10:19:37.05	346.80	14.31	
2025-01-16 10:19:37.25	346.76	14.32	
2025-01-16 10:19:37.45	346.72	14.34	
2025-01-16 10:19:37.66	346.67	14.35	
2025-01-16 10:19:37.86	346.63	14.36	
2025-01-16 10:19:38.06	346.60	14.37	
2025-01-16 10:19:38.27	346.55	14.39	
2025-01-16 10:19:38.47	346.51	14.40	
2025-01-16 10:19:38.67	346.47	14.41	
2025-01-16 10:19:38.87	346.43	14.42	
2025-01-16 10:19:39.08	346.39	14.44	
2025-01-16 10:19:39.28	346.35	14.45	
2025-01-16 10:19:39.48	346.31	14.46	
2025-01-16 10:19:39.69	346.27	14.48	
2025-01-16 10:19:39.89	346.23	14.49	
2025-01-16 10:19:40.09	346.19	14.50	
2025-01-16 10:19:40.30	346.15	14.51	
2025-01-16 10:19:40.50	346.11	14.53	
2025-01-16 10:19:40.70	346.07	14.54	
2025-01-16 10:19:40.90	346.03	14.55	
2025-01-16 10:19:41.11	345.98	14.56	
2025-01-16 10:19:41.31	345.94	14.58	
2025-01-16 10:19:41.51	345.90	14.59	
2025-01-16 10:19:41.72	345.86	14.60	
2025-01-16 10:19:41.92	345.82	14.61	
2025-01-16 10:19:42.12	345.78	14.63	
2025-01-16 10:19:42.32	345.74	14.64	
2025-01-16 10:19:42.53	345.70	14.65	
2025-01-16 10:19:42.73	345.66	14.66	
2025-01-16 10:19:42.93	345.62	14.68	
2025-01-16 10:19:43.14	345.57	14.69	
2025-01-16 10:19:43.34	345.53	14.70	
2025-01-16 10:19:43.54	345.49	14.72	
2025-01-16 10:19:43.75	345.45	14.73	
2025-01-16 10:19:43.95	345.41	14.74	
2025-01-16 10:19:44.15	345.37	14.75	
2025-01-16 10:19:44.35	345.33	14.77	
2025-01-16 10:19:44.56	345.28	14.78	
2025-01-16 10:19:44.76	345.24	14.79	
2025-01-16 10:19:44.96	345.20	14.80	
2025-01-16 10:19:45.17	345.16	14.82	
2025-01-16 10:19:45.37	345.12	14.83	
2025-01-16 10:19:45.57	345.08	14.84	
2025-01-16 10:19:45.78	345.03	14.85	
2025-01-16 10:19:45.98	344.99	14.87	
2025-01-16 10:19:46.18	344.95	14.88	
2025-01-16 10:19:46.38	344.91	14.89	
2025-01-16 10:19:46.59	344.87	14.90	
2025-01-16 10:19:46.79	344.82	14.91	
2025-01-16 10:19:46.99	344.78	14.93	
2025-01-16 10:19:47.20	344.74	14.94	
2025-01-16 10:19:47.40	344.70	14.95	
2025-01-16 10:19:47.60	344.66	14.96	
2025-01-16 10:19:47.81	344.61	14.98	
2025-01-16 10:19:48.01	344.57	14.99	
2025-01-16 10:19:48.21	344.53	15.00	
2025-01-16 10:19:48.41	344.49	15.01	
2025-01-16 10:19:48.62	344.44	15.03	
2025-01-16 10:19:48.82	344.40	15.04	
2025-01-16 10:19:49.02	344.36	15.05	
2025-01-16 10:19:49.23	344.32	15.06	
2025-01-16 10:19:49.43	344.28	15.08	
2025-01-16 10:19:49.63	344.23	15.09	
2025-01-16 10:19:49.84	344.19	15.10	
2025-01-16 10:19:50.04	344.15	15.11	
2025-01-16 10:19:50.24	344.11	15.13	
2025-01-16 10:19:50.44	344.06	15.14	
2025-01-16 10:19:50.65	344.02	15.15	
2025-01-16 10:19:50.85	343.98	15.16	
2025-01-16 10:19:51.05	343.93	15.17	
2025-01-16 10:19:51.26	343.89	15.19	
2025-01-16 10:19:51.46	343.85	15.20	
2025-01-16 10:19:51.66	343.81	15.21	
2025-01-16 10:19:51.86	343.76	15.22	
2025-01-16 10:19:52.07	343.72	15.24	
2025-01-16 10:19:52.27	343.68	15.25	
2025-01-16 10:19:52.47	343.63	15.26	
2025-01-16 10:19:52.68	343.59	15.27	
2025-01-16 10:19:52.88	343.55	15.28	
2025-01-16 10:19:53.08	343.51	15.30	
2025-01-16 10:19:53.29	343.46	15.31	
2025-01-16 10:19:53.49	343.42	15.32	
2025-01-16 10:19:53.69	343.38	15.33	
2025-01-16 10:19:53.89	343.33	15.34	
2025-01-16 10:19:54.10	343.29	15.36	
2025-01-16 10:19:54.30	343.25	15.37	
2025-01-16 10:19:54.50	343.20	15.38	
2025-01-16 10:19:54.71	343.16	15.39	
2025-01-16 10:19:54.91	343.11	15.41	
2025-01-16 10:19:55.11	343.07	15.42	
2025-01-16 10:19:55.32	343.03	15.43	
2025-01-16 10:19:55.52	342.98	15.44	
2025-01-16 10:19:55.72	342.94	15.45	
2025-01-16 10:19:55.92	342.90	15.47	
2025-01-16 10:19:56.13	342.85	15.48	
2025-01-16 10:19:56.33	342.81	15.49	
2025-01-16 10:19:56.53	342.77	15.50	
2025-01-16 10:19:56.74	342.72	15.51	
2025-01-16 10:19:56.94	342.68	15.53	
2025-01-16 10:19:57.14	342.63	15.54	
2025-01-16 10:19:57.35	342.59	15.55	
2025-01-16 10:19:57.55	342.55	15.56	
2025-01-16 10:19:57.75	342.50	15.57	
2025-01-16 10:19:57.95	342.46	15.59	
2025-01-16 10:19:58.16	342.41	15.60	
2025-01-16 10:19:58.36	342.37	15.61	
2025-01-16 10:19:58.56	342.33	15.62	
2025-01-16 10:19:58.77	342.28	15.63	
2025-01-16 10:19:58.97	342.24	15.65	
2025-01-16 10:19:59.17	342.19	15.66	
2025-01-16 10:19:59.38	342.15	15.67	
2025-01-16 10:19:59.58	342.10	15.68	
2025-01-16 10:19:59.78	342.06	15.69	
2025-01-16 10:19:59.98	342.02	15.70	
2025-01-16 10:20:00.19	341.97	15.72	
2025-01-16 10:20:00.39	341.93	15.73	
2025-01-16 10:20:00.59	341.88	15.74	
2025-01-16 10:20:00.80	341.84	15.75	
2025-01-16 10:20:01.00	341.79	15.76	
2025-01-16 10:20:01.20	341.75	15.78	
2025-01-16 10:20:01.41	341.70	15.79	
2025-01-16 10:20:01.61	341.66	15.80	
2025-01-16 10:20:01.81	341.61	15.81	
2025-01-16 10:20:02.01	341.57	15.82	
2025-01-16 10:20:02.22	341.52	15.83	
2025-01-16 10:20:02.42	341.48	15.85	
2025-01-16 10:20:02.62	341.43	15.86	
2025-01-16 10:20:02.83	341.39	15.87	
2025-01-16 10:20:03.03	341.34	15.88	
2025-01-16 10:20:03.23	341.30	15.89	
2025-01-16 10:20:03.43	341.25	15.90	
2025-01-16 10:20:03.64	341.21	15.92	
2025-01-16 10:20:03.84	341.16	15.93	
2025-01-16 10:20:04.04	341.12	15.94	
2025-01-16 10:20:04.25	341.07	15.95	
2025-01-16 10:20:04.45	341.03	15.96	
2025-01-16 10:20:04.65	340.98	15.97	
2025-01-16 10:20:04.86	340.94	15.99	
2025-01-16 10:20:05.06	340.89	16.00	
2025-01-16 10:20:05.26	340.85	16.01	
2025-01-16 10:20:05.46	340.80	16.02	
2025-01-16 10:20:05.67	340.75	16.03	
2025-01-16 10:20:05.87	340.71	16.04	
2025-01-16 10:20:06.07	340.67	16.06	
2025-01-16 10:20:06.28	340.62	16.07	
2025-01-16 10:20:06.48	340.57	16.08	
2025-01-16 10:20:06.68	340.53	16.09	
2025-01-16 10:20:06.89	340.48	16.10	
2025-01-16 10:20:07.09	340.44	16.11	
2025-01-16 10:20:07.29	340.39	16.12	
2025-01-16 10:20:07.49	340.35	16.14	
2025-01-16 10:20:07.70	340.30	16.15	
2025-01-16 10:20:07.90	340.25	16.16	
2025-01-16 10:20:08.10	340.21	16.17	
2025-01-16 10:20:08.31	340.16	16.18	
2025-01-16 10:20:08.51	340.11	16.19	
2025-01-16 10:20:08.71	340.07	16.20	
2025-01-16 10:20:08.92	340.02	16.22	
2025-01-16 10:20:09.12	339.98	16.23	
2025-01-16 10:20:09.32	339.93	16.24	
2025-01-16 10:20:09.52	339.88	16.25	
2025-01-16 10:20:09.73	339.84	16.26	
2025-01-16 10:20:09.93	339.79	16.27	
2025-01-16 10:20:10.13	339.75	16.28	
2025-01-16 10:20:10.34	339.70	16.29	
2025-01-16 10:20:10.54	339.65	16.31	
2025-01-16 10:20:10.74	339.61	16.32	
2025-01-16 10:20:10.95	339.56	16.33	
2025-01-16 10:20:11.15	339.51	16.34	
2025-01-16 10:20:11.35	339.47	16.35	
2025-01-16 10:20:11.55	339.42	16.36	
2025-01-16 10:20:11.76	339.37	16.37	
2025-01-16 10:20:11.96	339.33	16.38	
2025-01-16 10:20:12.16	339.28	16.40	
2025-01-16 10:20:12.37	339.23	16.41	
2025-01-16 10:20:12.57	339.19	16.42	
2025-01-16 10:20:12.77	339.14	16.43	
2025-01-16 10:20:12.97	339.09	16.44	
2025-01-16 10:20:13.18	339.05	16.45	
2025-01-16 10:20:13.38	339.00	16.46	
2025-01-16 10:20:13.58	338.95	16.47	
2025-01-16 10:20:13.79	338.90	16.48	
2025-01-16 10:20:13.99	338.86	16.50	
2025-01-16 10:20:14.19	338.81	16.51	
2025-01-16 10:20:14.40	338.76	16.52	
2025-01-16 10:20:14.60	338.72	16.53	
2025-01-16 10:20:14.80	338.67	16.54	
2025-01-16 10:20:15.00	338.62	16.55	
2025-01-16 10:20:15.21	338.57	16.56	
2025-01-16 10:20:15.41	338.53	16.57	
2025-01-16 10:20:15.61	338.48	16.58	
2025-01-16 10:20:15.82	338.43	16.59	
2025-01-16 10:20:16.02	338.39	16.60	
2025-01-16 10:20:16.22	338.34	16.62	
2025-01-16 10:20:16.43	338.29	16.63	
2025-01-16 10:20:16.63	338.24	16.64	
2025-01-16 10:20:16.83	338.20	16.65	
2025-01-16 10:20:17.03	338.15	16.66	
2025-01-16 10:20:17.24	338.10	16.67	
2025-01-16 10:20:17.44	338.05	16.68	
2025-01-16 10:20:17.64	338.01	16.69	
2025-01-16 10:20:17.85	337.96	16.70	
2025-01-16 10:20:18.05	337.91	16.71	
2025-01-16 10:20:18.25	337.86	16.72	
2025-01-16 10:20:18.46	337.81	16.73	
2025-01-16 10:20:18.66	337.77	16.75	
2025-01-16 10:20:18.86	337.72	16.76	
2025-01-16 10:20:19.06	337.67	16.77	
2025-01-16 10:20:19.27	337.62	16.78	
2025-01-16 10:20:19.47	337.57	16.79	
2025-01-16 10:20:19.67	337.53	16.80	
2025-01-16 10:20:19.88	337.48	16.81	
2025-01-16 10:20:20.08	337.43	16.82	
2025-01-16 10:20:20.28	337.38	16.83	
2025-01-16 10:20:20.49	337.33	16.84	
2025-01-16 10:20:20.69	337.28	16.85	
2025-01-16 10:20:20.89	337.24	16.86	
2025-01-16 10:20:21.09	337.19	16.87	
2025-01-16 10:20:21.30	337.14	16.88	
2025-01-16 10:20:21.50	337.09	16.89	
2025-01-16 10:20:21.70	337.04	16.90	
2025-01-16 10:20:21.91	336.99	16.92	
2025-01-16 10:20:22.11	336.95	16.93	
2025-01-16 10:20:22.31	336.90	16.94	
2025-01-16 10:20:22.51	336.85	16.95	
2025-01-16 10:20:22.72	336.80	16.96	
2025-01-16 10:20:22.92	336.75	16.97	
2025-01-16 10:20:23.12	336.70	16.98	
2025-01-16 10:20:23.33	336.65	16.99	
2025-01-16 10:20:23.53	336.61	17.00	
2025-01-16 10:20:23.73	336.56	17.01	
2025-01-16 10:20:23.94	336.51	17.02	
2025-01-16 10:20:24.14	336.46	17.03	
2025-01-16 10:20:24.34	336.41	17.04	
2025-01-16 10:20:24.54	336.36	17.05	
2025-01-16 10:20:24.75	336.31	17.06	
2025-01-16 10:20:24.95	336.26	17.07	
2025-01-16 10:20:25.15	336.21	17.08	
2025-01-16 10:20:25.36	336.16	17.09	
2025-01-16 10:20:25.56	336.12	17.10	
2025-01-16 10:20:25.76	336.07	17.11	
2025-01-16 10:20:25.97	336.02	17.12	
2025-01-16 10:20:26.17	335.97	17.13	
2025-01-16 10:20:26.37	335.92	17.14	
2025-01-16 10:20:26.57	335.87	17.15	
2025-01-16 10:20:26.78	335.82	17.16	
2025-01-16 10:20:26.98	335.77	17.17	
2025-01-16 10:20:27.18	335.72	17.18	
2025-01-16 10:20:27.39	335.67	17.19	
2025-01-16 10:20:27.59	335.62	17.20	
2025-01-16 10:20:27.79	335.57	17.21	
2025-01-16 10:20:28.00	335.52	17.22	
2025-01-16 10:20:28.20	335.47	17.23	
2025-01-16 10:20:28.40	335.42	17.24	
2025-01-16 10:20:28.60	335.38	17.25	
2025-01-16 10:20:28.81	335.32	17.26	
2025-01-16 10:20:29.01	335.28	17.27	
2025-01-16 10:20:29.21	335.23	17.28	
2025-01-16 10:20:29.42	335.17	17.29	
2025-01-16 10:20:29.62	335.13	17.30	
2025-01-16 10:20:29.82	335.08	17.31	
2025-01-16 10:20:30.03	335.02	17.32	
2025-01-16 10:20:30.23	334.98	17.33	
2025-01-16 10:20:30.43	334.93	17.34	
2025-01-16 10:20:30.63	334.88	17.35	
2025-01-16 10:20:30.84	334.83	17.36	
2025-01-16 10:20:31.04	334.78	17.37	
2025-01-16 10:20:31.24	334.73	17.38	
2025-01-16 10:20:31.45	334.67	17.39	
2025-01-16 10:20:31.65	334.63	17.40	
2025-01-16 10:20:31.85	334.58	17.41	
2025-01-16 10:20:32.05	334.53	17.42	
2025-01-16 10:20:32.26	334.47	17.43	
2025-01-16 10:20:32.46	334.42	17.44	
2025-01-16 10:20:32.66	334.38	17.45	
2025-01-16 10:20:32.87	334.32	17.46	
2025-01-16 10:20:33.07	334.27	17.47	
2025-01-16 10:20:33.27	334.22	17.48	
2025-01-16 10:20:33.48	334.17	17.49	
2025-01-16 10:20:33.68	334.12	17.50	
2025-01-16 10:20:33.88	334.07	17.51	
2025-01-16 10:20:34.08	334.02	17.51	
2025-01-16 10:20:34.29	333.97	17.52	
2025-01-16 10:20:34.49	333.92	17.53	
2025-01-16 10:20:34.69	333.87	17.54	
2025-01-16 10:20:34.90	333.82	17.55	
2025-01-16 10:20:35.10	333.77	17.56	
2025-01-16 10:20:35.30	333.72	17.57	
2025-01-16 10:20:35.51	333.66	17.58	
2025-01-16 10:20:35.71	333.61	17.59	
2025-01-16 10:20:35.91	333.56	17.60	
2025-01-16 10:20:36.11	333.51	17.61	
2025-01-16 10:20:36.32	333.46	17.62	
2025-01-16 10:20:36.52	333.41	17.63	
2025-01-16 10:20:36.72	333.36	17.64	
2025-01-16 10:20:36.93	333.31	17.65	
2025-01-16 10:20:37.13	333.26	17.66	
2025-01-16 10:20:37.33	333.21	17.66	
2025-01-16 10:20:37.54	333.15	17.67	
2025-01-16 10:20:37.74	333.10	17.68	
2025-01-16 10:20:37.94	333.05	17.69	
2025-01-16 10:20:38.14	333.00	17.70	
2025-01-16 10:20:38.35	332.95	17.71	
2025-01-16 10:20:38.55	332.90	17.72	
2025-01-16 10:20:38.75	332.85	17.73	
2025-01-16 10:20:38.96	332.80	17.74	
2025-01-16 10:20:39.16	332.74	17.75	
2025-01-16 10:20:39.36	332.69	17.76	
2025-01-16 10:20:39.57	332.64	17.76	
2025-01-16 10:20:39.77	332.59	17.77	
2025-01-16 10:20:39.97	332.54	17.78	
2025-01-16 10:20:40.17	332.49	17.79	
2025-01-16 10:20:40.38	332.43	17.80	
2025-01-16 10:20:40.58	332.38	17.81	
2025-01-16 10:20:40.78	332.33	17.82	
2025-01-16 10:20:40.99	332.28	17.83	
2025-01-16 10:20:41.19	332.23	17.84	
2025-01-16 10:20:41.39	332.18	17.84	
2025-01-16 10:20:41.60	332.12	17.85	
2025-01-16 10:20:41.80	332.07	17.86	
2025-01-16 10:20:42.00	332.02	17.87	
2025-01-16 10:20:42.20	331.97	17.88	
2025-01-16 10:20:42.41	331.92	17.89	
2025-01-16 10:20:42.61	331.87	17.90	
2025-01-16 10:20:42.81	331.81	17.91	
2025-01-16 10:20:43.02	331.76	17.91	
2025-01-16 10:20:43.22	331.71	17.92	
2025-01-16 10:20:43.42	331.66	17.93	
2025-01-16 10:20:43.62	331.61	17.94	
2025-01-16 10:20:43.83	331.55	17.95	
2025-01-16 10:20:44.03	331.50	17.96	
2025-01-16 10:20:44.23	331.45	17.97	
2025-01-16 10:20:44.44	331.40	17.98	
2025-01-16 10:20:44.64	331.34	17.98	
2025-01-16 10:20:44.84	331.29	17.99	
2025-01-16 10:20:45.05	331.24	18.00	
2025-01-16 10:20:45.25	331.19	18.01	
2025-01-16 10:20:45.45	331.13	18.02	
2025-01-16 10:20:45.65	331.08	18.03	
2025-01-16 10:20:45.86	331.03	18.03	
2025-01-16 10:20:46.06	330.98	18.04	
2025-01-16 10:20:46.26	330.93	18.05	
2025-01-16 10:20:46.47	330.87	18.06	
2025-01-16 10:20:46.67	330.82	18.07	
2025-01-16 10:20:46.87	330.77	18.08	
2025-01-16 10:20:47.08	330.71	18.08	
2025-01-16 10:20:47.28	330.66	18.09	
2025-01-16 10:20:47.48	330.61	18.10	
2025-01-16 10:20:47.68	330.56	18.11	
2025-01-16 10:20:47.89	330.50	18.12	
2025-01-16 10:20:48.09	330.45	18.12	
2025-01-16 10:20:48.29	330.40	18.13	
2025-01-16 10:20:48.50	330.34	18.14	
2025-01-16 10:20:48.70	330.29	18.15	
2025-01-16 10:20:48.90	330.24	18.16	
2025-01-16 10:20:49.11	330.18	18.17	
2025-01-16 10:20:49.31	330.13	18.17	
2025-01-16 10:20:49.51	330.08	18.18	
2025-01-16 10:20:49.71	330.03	18.19	
2025-01-16 10:20:49.92	329.97	18.20	
2025-01-16 10:20:50.12	329.92	18.21	
2025-01-16 10:20:50.32	329.87	18.21	
2025-01-16 10:20:50.53	329.81	18.22	
2025-01-16 10:20:50.73	329.76	18.23	
2025-01-16 10:20:50.93	329.71	18.24	
2025-01-16 10:20:51.14	329.65	18.24	
2025-01-16 10:20:51.34	329.60	18.25	
2025-01-16 10:20:51.54	329.55	18.26	
2025-01-16 10:20:51.74	329.50	18.27	
2025-01-16 10:20:51.95	329.44	18.28	
2025-01-16 10:20:52.15	329.39	18.28	
2025-01-16 10:20:52.35	329.33	18.29	
2025-01-16 10:20:52.56	329.28	18.30	
2025-01-16 10:20:52.76	329.23	18.31	
2025-01-16 10:20:52.96	329.17	18.31	
2025-01-16 10:20:53.16	329.12	18.32	
2025-01-16 10:20:53.37	329.07	18.33	
2025-01-16 10:20:53.57	329.01	18.34	
2025-01-16 10:20:53.77	328.96	18.34	
2025-01-16 10:20:53.98	328.90	18.35	
2025-01-16 10:20:54.18	328.85	18.36	
2025-01-16 10:20:54.38	328.80	18.37	
2025-01-16 10:20:54.59	328.74	18.37	
2025-01-16 10:20:54.79	328.69	18.38	
2025-01-16 10:20:54.99	328.64	18.39	
2025-01-16 10:20:55.19	328.58	18.40	
2025-01-16 10:20:55.40	328.53	18.40	
2025-01-16 10:20:55.60	328.47	18.41	
2025-01-16 10:20:55.80	328.42	18.42	
2025-01-16 10:20:56.01	328.37	18.43	
2025-01-16 10:20:56.21	328.31	18.43	
2025-01-16 10:20:56.41	328.26	18.44	
2025-01-16 10:20:56.62	328.20	18.45	
2025-01-16 10:20:56.82	328.15	18.46	
2025-01-16 10:20:57.02	328.10	18.46	
2025-01-16 10:20:57.22	328.04	18.47	
2025-01-16 10:20:57.43	327.99	18.48	
2025-01-16 10:20:57.63	327.93	18.48	
2025-01-16 10:20:57.83	327.88	18.49	
2025-01-16 10:20:58.04	327.82	18.50	
2025-01-16 10:20:58.24	327.77	18.51	
2025-01-16 10:20:58.44	327.72	18.51	
2025-01-16 10:20:58.65	327.66	18.52	
2025-01-16 10:20:58.85	327.61	18.53	
2025-01-16 10:20:59.05	327.55	18.53	
2025-01-16 10:20:59.25	327.50	18.54	
2025-01-16 10:20:59.46	327.44	18.55	
2025-01-16 10:20:59.66	327.39	18.55	
2025-01-16 10:20:59.86	327.34	18.56	
2025-01-16 10:21:00.07	327.28	18.57	
2025-01-16 10:21:00.27	327.23	18.57	
2025-01-16 10:21:00.47	327.17	18.58	
2025-01-16 10:21:00.68	327.12	18.59	
2025-01-16 10:21:00.88	327.06	18.59	
2025-01-16 10:21:01.08	327.01	18.60	
2025-01-16 10:21:01.28	326.95	18.61	
2025-01-16 10:21:01.49	326.90	18.61	
2025-01-16 10:21:01.69	326.84	18.62	
2025-01-16 10:21:01.89	326.79	18.63	
2025-01-16 10:21:02.10	326.73	18.63	
2025-01-16 10:21:02.30	326.68	18.64	
2025-01-16 10:21:02.50	326.63	18.65	
2025-01-16 10:21:02.70	326.57	18.65	
2025-01-16 10:21:02.91	326.51	18.66	
2025-01-16 10:21:03.11	326.46	18.67	
2025-01-16 10:21:03.31	326.41	18.67	
2025-01-16 10:21:03.52	326.35	18.68	
2025-01-16 10:21:03.72	326.30	18.69	
2025-01-16 10:21:03.92	326.24	18.69	
2025-01-16 10:21:04.13	326.18	18.70	
2025-01-16 10:21:04.33	326.13	18.71	
2025-01-16 10:21:04.53	326.08	18.71	
2025-01-16 10:21:04.73	326.02	18.72	
2025-01-16 10:21:04.94	325.96	18.72	
2025-01-16 10:21:05.14	325.91	18.73	
2025-01-16 10:21:05.34	325.86	18.74	
2025-01-16 10:21:05.55	325.80	18.74	
2025-01-16 10:21:05.75	325.74	18.75	
2025-01-16 10:21:05.95	325.69	18.76	
2025-01-16 10:21:06.16	325.63	18.76	
2025-01-16 10:21:06.36	325.58	18.77	
2025-01-16 10:21:06.56	325.52	18.77	
2025-01-16 10:21:06.76	325.47	18.78	
2025-01-16 10:21:06.97	325.41	18.79	
2025-01-16 10:21:07.17	325.36	18.79	
2025-01-16 10:21:07.37	325.30	18.80	
2025-01-16 10:21:07.58	325.25	18.80	
2025-01-16 10:21:07.78	325.19	18.81	
2025-01-16 10:21:07.98	325.14	18.82	
2025-01-16 10:21:08.19	325.08	18.82	
2025-01-16 10:21:08.39	325.02	18.83	
2025-01-16 10:21:08.59	324.97	18.83	
2025-01-16 10:21:08.79	324.91	18.84	
2025-01-16 10:21:09.00	324.86	18.84	
2025-01-16 10:21:09.20	324.80	18.85	
2025-01-16 10:21:09.40	324.75	18.86	
2025-01-16 10:21:09.61	324.69	18.86	
2025-01-16 10:21:09.81	324.64	18.87	
2025-01-16 10:21:10.01	324.58	18.87	
2025-01-16 10:21:10.22	324.52	18.88	
2025-01-16 10:21:10.42	324.47	18.88	
2025-01-16 10:21:10.62	324.41	18.89	
2025-01-16 10:21:10.82	324.36	18.90	
2025-01-16 10:21:11.03	324.30	18.90	
2025-01-16 10:21:11.23	324.25	18.91	
2025-01-16 10:21:11.43	324.19	18.91	
2025-01-16 10:21:11.64	324.13	18.92	
2025-01-16 10:21:11.84	324.08	18.92	
2025-01-16 10:21:12.04	324.02	18.93	
2025-01-16 10:21:12.25	323.96	18.93	
2025-01-16 10:21:12.45	323.91	18.94	
2025-01-16 10:21:12.65	323.85	18.94	
2025-01-16 10:21:12.85	323.80	18.95	
2025-01-16 10:21:13.06	323.74	18.95	
2025-01-16 10:21:13.26	323.69	18.96	
2025-01-16 10:21:13.46	323.63	18.96	
2025-01-16 10:21:13.67	323.57	18.97	
2025-01-16 10:21:13.87	323.52	18.98	
2025-01-16 10:21:14.07	323.46	18.98	
2025-01-16 10:21:14.27	323.41	18.99	
2025-01-16 10:21:14.48	323.35	18.99	
2025-01-16 10:21:14.68	323.29	19.00	
2025-01-16 10:21:14.88	323.24	19.00	
2025-01-16 10:21:15.09	323.18	19.01	
2025-01-16 10:21:15.29	323.12	19.01	
2025-01-16 10:21:15.49	323.07	19.02	
2025-01-16 10:21:15.70	323.01	19.02	
2025-01-16 10:21:15.90	322.95	19.03	
2025-01-16 10:21:16.10	322.90	19.03	
2025-01-16 10:21:16.30	322.84	19.03	
2025-01-16 10:21:16.51	322.79	19.04	
2025-01-16 10:21:16.71	322.73	19.04	
2025-01-16 10:21:16.91	322.67	19.05	
2025-01-16 10:21:17.12	322.62	19.05	
2025-01-16 10:21:17.32	322.56	19.06	
2025-01-16 10:21:17.52	322.50	19.06	
2025-01-16 10:21:17.73	322.45	19.07	
2025-01-16 10:21:17.93	322.39	19.07	
2025-01-16 10:21:18.13	322.34	19.08	
2025-01-16 10:21:18.33	322.28	19.08	
2025-01-16 10:21:18.54	322.22	19.09	
2025-01-16 10:21:18.74	322.17	19.09	
2025-01-16 10:21:18.94	322.11	19.10	
2025-01-16 10:21:19.15	322.05	19.10	
2025-01-16 10:21:19.35	322.00	19.10	
2025-01-16 10:21:19.55	321.94	19.11	
2025-01-16 10:21:19.76	321.88	19.11	
2025-01-16 10:21:19.96	321.82	19.12	
2025-01-16 10:21:20.16	321.77	19.12	
2025-01-16 10:21:20.36	321.71	19.13	
2025-01-16 10:21:20.57	321.65	19.13	
2025-01-16 10:21:20.77	321.60	19.13	
2025-01-16 10:21:20.97	321.54	19.14	
2025-01-16 10:21:21.18	321.48	19.14	
2025-01-16 10:21:21.38	321.43	19.15	
2025-01-16 10:21:21.58	321.37	19.15	
2025-01-16 10:21:21.79	321.31	19.16	
2025-01-16 10:21:21.99	321.26	19.16	
2025-01-16 10:21:22.19	321.20	19.16	
2025-01-16 10:21:22.39	321.15	19.17	
2025-01-16 10:21:22.60	321.09	19.17	
2025-01-16 10:21:22.80	321.03	19.18	
2025-01-16 10:21:23.00	320.97	19.18	
2025-01-16 10:21:23.21	320.92	19.18	
2025-01-16 10:21:23.41	320.86	19.19	
2025-01-16 10:21:23.61	320.80	19.19	
2025-01-16 10:21:23.81	320.75	19.19	
2025-01-16 10:21:24.02	320.69	19.20	
2025-01-16 10:21:24.22	320.63	19.20	
2025-01-16 10:21:24.42	320.58	19.21	
2025-01-16 10:21:24.63	320.52	19.21	
2025-01-16 10:21:24.83	320.46	19.21	
2025-01-16 10:21:25.03	320.40	19.22	
2025-01-16 10:21:25.24	320.34	19.22	
2025-01-16 10:21:25.44	320.29	19.22	
2025-01-16 10:21:25.64	320.23	19.23	
2025-01-16 10:21:25.84	320.18	19.23	
2025-01-16 10:21:26.05	320.12	19.23	
2025-01-16 10:21:26.25	320.06	19.24	
2025-01-16 10:21:26.45	320.00	19.24	
2025-01-16 10:21:26.66	319.95	19.25	
2025-01-16 10:21:26.86	319.89	19.25	
2025-01-16 10:21:27.06	319.83	19.25	
2025-01-16 10:21:27.27	319.77	19.26	
2025-01-16 10:21:27.47	319.72	19.26	
2025-01-16 10:21:27.67	319.66	19.26	
2025-01-16 10:21:27.87	319.60	19.27	
2025-01-16 10:21:28.08	319.54	19.27	
2025-01-16 10:21:28.28	319.49	19.27	
2025-01-16 10:21:28.48	319.43	19.27	
2025-01-16 10:21:28.69	319.37	19.28	
2025-01-16 10:21:28.89	319.32	19.28	
2025-01-16 10:21:29.09	319.26	19.28	
2025-01-16 10:21:29.30	319.20	19.29	
2025-01-16 10:21:29.50	319.14	19.29	
2025-01-16 10:21:29.70	319.09	19.29	
2025-01-16 10:21:29.90	319.03	19.30	
2025-01-16 10:21:30.11	318.97	19.30	
2025-01-16 10:21:30.31	318.91	19.30	
2025-01-16 10:21:30.51	318.86	19.31	
2025-01-16 10:21:30.72	318.80	19.31	
2025-01-16 10:21:30.92	318.74	19.31	
2025-01-16 10:21:31.12	318.69	19.31	
2025-01-16 10:21:31.33	318.63	19.32	
2025-01-16 10:21:31.53	318.57	19.32	
2025-01-16 10:21:31.73	318.51	19.32	
2025-01-16 10:21:31.93	318.46	19.32	
2025-01-16 10:21:32.14	318.40	19.33	
2025-01-16 10:21:32.34	318.34	19.33	
2025-01-16 10:21:32.54	318.28	19.33	
2025-01-16 10:21:32.75	318.22	19.34	
2025-01-16 10:21:32.95	318.17	19.34	
2025-01-16 10:21:33.15	318.11	19.34	
2025-01-16 10:21:33.35	318.05	19.34	
2025-01-16 10:21:33.56	317.99	19.35	
2025-01-16 10:21:33.76	317.94	19.35	
2025-01-16 10:21:33.96	317.88	19.35	
2025-01-16 10:21:34.17	317.82	19.35	
2025-01-16 10:21:34.37	317.76	19.35	
2025-01-16 10:21:34.57	317.71	19.36	
2025-01-16 10:21:34.78	317.65	19.36	
2025-01-16 10:21:34.98	317.59	19.36	
2025-01-16 10:21:35.18	317.53	19.36	
2025-01-16 10:21:35.38	317.48	19.37	
2025-01-16 10:21:35.59	317.42	19.37	
2025-01-16 10:21:35.79	317.36	19.37	
2025-01-16 10:21:35.99	317.30	19.37	
2025-01-16 10:21:36.20	317.24	19.37	
2025-01-16 10:21:36.40	317.19	19.38	
2025-01-16 10:21:36.60	317.13	19.38	
2025-01-16 10:21:36.81	317.07	19.38	
2025-01-16 10:21:37.01	317.01	19.38	
2025-01-16 10:21:37.21	316.96	19.38	
2025-01-16 10:21:37.41	316.90	19.39	
2025-01-16 10:21:37.62	316.84	19.39	
2025-01-16 10:21:37.82	316.78	19.39	
2025-01-16 10:21:38.02	316.73	19.39	
2025-01-16 10:21:38.23	316.67	19.39	
2025-01-16 10:21:38.43	316.61	19.40	
2025-01-16 10:21:38.63	316.55	19.40	
2025-01-16 10:21:38.84	316.49	19.40	
2025-01-16 10:21:39.04	316.44	19.40	
2025-01-16 10:21:39.24	316.38	19.40	
2025-01-16 10:21:39.44	316.32	19.40	
2025-01-16 10:21:39.65	316.26	19.41	
2025-01-16 10:21:39.85	316.20	19.41	
2025-01-16 10:21:40.05	316.15	19.41	
2025-01-16 10:21:40.26	316.09	19.41	
2025-01-16 10:21:40.46	316.03	19.41	
2025-01-16 10:21:40.66	315.97	19.41	
2025-01-16 10:21:40.87	315.91	19.42	
2025-01-16 10:21:41.07	315.86	19.42	
2025-01-16 10:21:41.27	315.80	19.42	
2025-01-16 10:21:41.47	315.74	19.42	
2025-01-16 10:21:41.68	315.68	19.42	
2025-01-16 10:21:41.88	315.63	19.42	
2025-01-16 10:21:42.08	315.57	19.42	
2025-01-16 10:21:42.29	315.51	19.42	
2025-01-16 10:21:42.49	315.45	19.43	
2025-01-16 10:21:42.69	315.39	19.43	
2025-01-16 10:21:42.89	315.34	19.43	
2025-01-16 10:21:43.10	315.28	19.43	
2025-01-16 10:21:43.30	315.22	19.43	
2025-01-16 10:21:43.50	315.16	19.43	
2025-01-16 10:21:43.71	315.10	19.43	
2025-01-16 10:21:43.91	315.05	19.43	
2025-01-16 10:21:44.11	314.99	19.43	
2025-01-16 10:21:44.32	314.93	19.44	
2025-01-16 10:21:44.52	314.87	19.44	
2025-01-16 10:21:44.72	314.81	19.44	
2025-01-16 10:21:44.92	314.76	19.44	
2025-01-16 10:21:45.13	314.70	19.44	
2025-01-16 10:21:45.33	314.64	19.44	
2025-01-16 10:21:45.53	314.58	19.44	
2025-01-16 10:21:45.74	314.52	19.44	
2025-01-16 10:21:45.94	314.47	19.44	
2025-01-16 10:21:46.14	314.41	19.44	
2025-01-16 10:21:46.35	314.35	19.44	
2025-01-16 10:21:46.55	314.29	19.44	
2025-01-16 10:21:46.75	314.23	19.44	
2025-01-16 10:21:46.95	314.18	19.44	
2025-01-16 10:21:47.16	314.12	19.45	
2025-01-16 10:21:47.36	314.06	19.45	
2025-01-16 10:21:47.56	314.00	19.45	
2025-01-16 10:21:47.77	313.94	19.45	
2025-01-16 10:21:47.97	313.89	19.45	
2025-01-16 10:21:48.17	313.83	19.45	
2025-01-16 10:21:48.38	313.77	19.45	
2025-01-16 10:21:48.58	313.71	19.45	
2025-01-16 10:21:48.78	313.65	19.45	
2025-01-16 10:21:48.98	313.60	19.45	
2025-01-16 10:21:49.19	313.54	19.45	
2025-01-16 10:21:49.39	313.48	19.45	
2025-01-16 10:21:49.59	313.42	19.45	
2025-01-16 10:21:49.80	313.36	19.45	
2025-01-16 10:21:50.00	313.31	19.45	
2025-01-16 10:21:50.20	313.25	19.45	
2025-01-16 10:21:50.41	313.19	19.45	
2025-01-16 10:21:50.61	313.13	19.45	
2025-01-16 10:21:50.81	313.07	19.45	
2025-01-16 10:21:51.01	313.02	19.45	
2025-01-16 10:21:51.22	312.96	19.45	
2025-01-16 10:21:51.42	312.90	19.45	
2025-01-16 10:21:51.62	312.84	19.45	
2025-01-16 10:21:51.83	312.78	19.45	
2025-01-16 10:21:52.03	312.72	19.45	
2025-01-16 10:21:52.23	312.67	19.45	
2025-01-16 10:21:52.44	312.61	19.45	
2025-01-16 10:21:52.64	312.55	19.45	
2025-01-16 10:21:52.84	312.49	19.45	
2025-01-16 10:21:53.04	312.44	19.45	
2025-01-16 10:21:53.25	312.38	19.45	
2025-01-16 10:21:53.45	312.32	19.45	
2025-01-16 10:21:53.65	312.26	19.45	
2025-01-16 10:21:53.86	312.20	19.45	
2025-01-16 10:21:54.06	312.14	19.45	
2025-01-16 10:21:54.26	312.09	19.45	
2025-01-16 10:21:54.46	312.03	19.44	
2025-01-16 10:21:54.67	311.97	19.44	
2025-01-16 10:21:54.87	311.91	19.44	
2025-01-16 10:21:55.07	311.86	19.44	
2025-01-16 10:21:55.28	311.80	19.44	
2025-01-16 10:21:55.48	311.74	19.44	
2025-01-16 10:21:55.68	311.68	19.44	
2025-01-16 10:21:55.89	311.62	19.44	
2025-01-16 10:21:56.09	311.56	19.44	
2025-01-16 10:21:56.29	311.51	19.44	
2025-01-16 10:21:56.49	311.45	19.44	
2025-01-16 10:21:56.70	311.39	19.44	
2025-01-16 10:21:56.90	311.33	19.44	
2025-01-16 10:21:57.10	311.28	19.44	
2025-01-16 10:21:57.31	311.22	19.43	
2025-01-16 10:21:57.51	311.16	19.43	
2025-01-16 10:21:57.71	311.10	19.43	
2025-01-16 10:21:57.92	311.04	19.43	
2025-01-16 10:21:58.12	310.98	19.43	
2025-01-16 10:21:58.32	310.93	19.43	
2025-01-16 10:21:58.52	310.87	19.43	
2025-01-16 10:21:58.73	310.81	19.43	
2025-01-16 10:21:58.93	310.75	19.43	
2025-01-16 10:21:59.13	310.70	19.42	
2025-01-16 10:21:59.34	310.64	19.42	
2025-01-16 10:21:59.54	310.58	19.42	
2025-01-16 10:21:59.74	310.52	19.42	
2025-01-16 10:21:59.95	310.46	19.42	
2025-01-16 10:22:00.15	310.40	19.42	
2025-01-16 10:22:00.35	310.35	19.42	
2025-01-16 10:22:00.55	310.29	19.42	
2025-01-16 10:22:00.76	310.23	19.41	
2025-01-16 10:22:00.96	310.17	19.41	
2025-01-16 10:22:01.16	310.12	19.41	
2025-01-16 10:22:01.37	310.06	19.41	
2025-01-16 10:22:01.57	310.00	19.41	
2025-01-16 10:22:01.77	309.94	19.41	
2025-01-16 10:22:01.97	309.89	19.40	
2025-01-16 10:22:02.18	309.83	19.40	
2025-01-16 10:22:02.38	309.77	19.40	
2025-01-16 10:22:02.58	309.71	19.40	
2025-01-16 10:22:02.79	309.65	19.40	
2025-01-16 10:22:02.99	309.60	19.40	
2025-01-16 10:22:03.19	309.54	19.39	
2025-01-16 10:22:03.40	309.48	19.39	
2025-01-16 10:22:03.60	309.42	19.39	
2025-01-16 10:22:03.80	309.36	19.39	
2025-01-16 10:22:04.00	309.31	19.39	
2025-01-16 10:22:04.21	309.25	19.39	
2025-01-16 10:22:04.41	309.19	19.38	
2025-01-16 10:22:04.61	309.13	19.38	
2025-01-16 10:22:04.82	309.07	19.38	
2025-01-16 10:22:05.02	309.02	19.38	
2025-01-16 10:22:05.22	308.96	19.38	
2025-01-16 10:22:05.43	308.90	19.37	
2025-01-16 10:22:05.63	308.84	19.37	
2025-01-16 10:22:05.83	308.79	19.37	
2025-01-16 10:22:06.03	308.73	19.37	
2025-01-16 10:22:06.24	308.67	19.36	
2025-01-16 10:22:06.44	308.61	19.36	
2025-01-16 10:22:06.64	308.56	19.36	
2025-01-16 10:22:06.85	308.50	19.36	
2025-01-16 10:22:07.05	308.44	19.36	
2025-01-16 10:22:07.25	308.38	19.35	
2025-01-16 10:22:07.46	308.32	19.35	
2025-01-16 10:22:07.66	308.27	19.35	
2025-01-16 10:22:07.86	308.21	19.35	
2025-01-16 10:22:08.06	308.15	19.34	
2025-01-16 10:22:08.27	308.09	19.34	
2025-01-16 10:22:08.47	308.04	19.34	
2025-01-16 10:22:08.67	307.98	19.34	
2025-01-16 10:22:08.88	307.92	19.33	
2025-01-16 10:22:09.08	307.86	19.33	
2025-01-16 10:22:09.28	307.81	19.33	
2025-01-16 10:22:09.49	307.75	19.32	
2025-01-16 10:22:09.69	307.69	19.32	
2025-01-16 10:22:09.89	307.63	19.32	
2025-01-16 10:22:10.09	307.58	19.32	
2025-01-16 10:22:10.30	307.52	19.31	
2025-01-16 10:22:10.50	307.46	19.31	
2025-01-16 10:22:10.70	307.40	19.31	
2025-01-16 10:22:10.91	307.34	19.31	
2025-01-16 10:22:11.11	307.29	19.30	
2025-01-16 10:22:11.31	307.23	19.30	
2025-01-16 10:22:11.52	307.17	19.30	
2025-01-16 10:22:11.72	307.12	19.29	
2025-01-16 10:22:11.92	307.06	19.29	
2025-01-16 10:22:12.12	307.00	19.29	
2025-01-16 10:22:12.33	306.94	19.28	
2025-01-16 10:22:12.53	306.89	19.28	
2025-01-16 10:22:12.73	306.83	19.28	
2025-01-16 10:22:12.94	306.77	19.28	
2025-01-16 10:22:13.14	306.71	19.27	
2025-01-16 10:22:13.34	306.66	19.27	
2025-01-16 10:22:13.54	306.60	19.27	
2025-01-16 10:22:13.75	306.54	19.26	
2025-01-16 10:22:13.95	306.49	19.26	
2025-01-16 10:22:14.15	306.43	19.26	
2025-01-16 10:22:14.36	306.37	19.25	
2025-01-16 10:22:14.56	306.31	19.25	
2025-01-16 10:22:14.76	306.26	19.25	
2025-01-16 10:22:14.97	306.20	19.24	
2025-01-16 10:22:15.17	306.14	19.24	
2025-01-16 10:22:15.37	306.08	19.24	
2025-01-16 10:22:15.57	306.03	19.23	
2025-01-16 10:22:15.78	305.97	19.23	
2025-01-16 10:22:15.98	305.91	19.22	
2025-01-16 10:22:16.18	305.86	19.22	
2025-01-16 10:22:16.39	305.80	19.22	
2025-01-16 10:22:16.59	305.74	19.21	
2025-01-16 10:22:16.79	305.68	19.21	
2025-01-16 10:22:17.00	305.63	19.21	
2025-01-16 10:22:17.20	305.57	19.20	
2025-01-16 10:22:17.40	305.51	19.20	
2025-01-16 10:22:17.60	305.46	19.19	
2025-01-16 10:22:17.81	305.40	19.19	
2025-01-16 10:22:18.01	305.34	19.19	
2025-01-16 10:22:18.21	305.29	19.18	
2025-01-16 10:22:18.42	305.23	19.18	
2025-01-16 10:22:18.62	305.17	19.18	
2025-01-16 10:22:18.82	305.11	19.17	
2025-01-16 10:22:19.03	305.06	19.17	
2025-01-16 10:22:19.23	305.00	19.16	
2025-01-16 10:22:19.43	304.94	19.16	
2025-01-16 10:22:19.63	304.89	19.16	
2025-01-16 10:22:19.84	304.83	19.15	
2025-01-16 10:22:20.04	304.77	19.15	
2025-01-16 10:22:20.24	304.72	19.14	
2025-01-16 10:22:20.45	304.66	19.14	
2025-01-16 10:22:20.65	304.60	19.13	
2025-01-16 10:22:20.85	304.55	19.13	
2025-01-16 10:22:21.06	304.49	19.13	
2025-01-16 10:22:21.26	304.43	19.12	
2025-01-16 10:22:21.46	304.37	19.12	
2025-01-16 10:22:21.66	304.32	19.11	
2025-01-16 10:22:21.87	304.26	19.11	
2025-01-16 10:22:22.07	304.20	19.10	
2025-01-16 10:22:22.27	304.15	19.10	
2025-01-16 10:22:22.48	304.09	19.10	
2025-01-16 10:22:22.68	304.03	19.09	
2025-01-16 10:22:22.88	303.98	19.09	
2025-01-16 10:22:23.08	303.92	19.08	
2025-01-16 10:22:23.29	303.86	19.08	
2025-01-16 10:22:23.49	303.81	19.07	
2025-01-16 10:22:23.69	303.75	19.07	
2025-01-16 10:22:23.90	303.69	19.06	
2025-01-16 10:22:24.10	303.64	19.06	
2025-01-16 10:22:24.30	303.58	19.05	
2025-01-16 10:22:24.51	303.52	19.05	
2025-01-16 10:22:24.71	303.47	19.04	
2025-01-16 10:22:24.91	303.41	19.04	
2025-01-16 10:22:25.11	303.36	19.04	
2025-01-16 10:22:25.32	303.30	19.03	
2025-01-16 10:22:25.52	303.24	19.03	
2025-01-16 10:22:25.72	303.19	19.02	
2025-01-16 10:22:25.93	303.13	19.02	
2025-01-16 10:22:26.13	303.07	19.01	
2025-01-16 10:22:26.33	303.02	19.01	
2025-01-16 10:22:26.54	302.96	19.00	
2025-01-16 10:22:26.74	302.90	19.00	
2025-01-16 10:22:26.94	302.85	18.99	
2025-01-16 10:22:27.14	302.79	18.99	
2025-01-16 10:22:27.35	302.74	18.98	
2025-01-16 10:22:27.55	302.68	18.98	
2025-01-16 10:22:27.75	302.63	18.97	
2025-01-16 10:22:27.96	302.57	18.96	
2025-01-16 10:22:28.16	302.51	18.96	
2025-01-16 10:22:28.36	302.46	18.95	
2025-01-16 10:22:28.57	302.40	18.95	
2025-01-16 10:22:28.77	302.34	18.94	
2025-01-16 10:22:28.97	302.29	18.94	
2025-01-16 10:22:29.17	302.23	18.93	
2025-01-16 10:22:29.38	302.17	18.93	
2025-01-16 10:22:29.58	302.12	18.92	
2025-01-16 10:22:29.78	302.06	18.92	
2025-01-16 10:22:29.99	302.01	18.91	
2025-01-16 10:22:30.19	301.95	18.91	
2025-01-16 10:22:30.39	301.90	18.90	
2025-01-16 10:22:30.60	301.84	18.90	
2025-01-16 10:22:30.80	301.78	18.89	
2025-01-16 10:22:31.00	301.73	18.88	
2025-01-16 10:22:31.20	301.67	18.88	
2025-01-16 10:22:31.41	301.62	18.87	
2025-01-16 10:22:31.61	301.56	18.87	
