passes_logs/2025/01/16/SPB_Silybum_02/SPB_Silybum_02__20250116_080843_SUOMI_NPP_rec.log

#Pass ID: 20250116_080843_SUOMI NPP
#Satellite: SUOMI NPP
#Configuration: NPP
#Start time: 2025-01-16 08:08:42

#Version: 2.0.20230423
#Station: SPB_Silybum_02
#Location: 30.233357 lon 59.946436 lat
#TLE: 1 37849U 11061A   25015.83617422  .00000154  00000+0  93894-4 0  9992
#TLE: 2 37849  98.7447 316.8141 0001652  39.8884 320.2413 14.19538521685036

#Time	Az	El	Level	Level2	SNR	BER	Gain	Gain2
2025-01-16 08:08:44.35	97.99	4.06	
2025-01-16 08:08:44.55	97.97	4.07	
2025-01-16 08:08:44.76	97.96	4.08	
2025-01-16 08:08:44.96	97.94	4.09	
2025-01-16 08:08:45.16	97.92	4.10	
2025-01-16 08:08:45.37	97.90	4.12	
2025-01-16 08:08:45.57	97.89	4.13	
2025-01-16 08:08:45.77	97.87	4.14	
2025-01-16 08:08:45.97	97.86	4.15	
2025-01-16 08:08:46.18	97.84	4.16	
2025-01-16 08:08:46.38	97.82	4.17	
2025-01-16 08:08:46.58	97.81	4.19	
2025-01-16 08:08:46.79	97.79	4.20	
2025-01-16 08:08:46.99	97.77	4.21	
2025-01-16 08:08:47.19	97.75	4.22	
2025-01-16 08:08:47.40	97.74	4.23	
2025-01-16 08:08:47.60	97.72	4.24	
2025-01-16 08:08:47.80	97.70	4.26	
2025-01-16 08:08:48.01	97.69	4.27	
2025-01-16 08:08:48.21	97.67	4.28	
2025-01-16 08:08:48.41	97.65	4.29	
2025-01-16 08:08:48.62	97.64	4.30	
2025-01-16 08:08:48.82	97.62	4.31	
2025-01-16 08:08:49.02	97.60	4.33	
2025-01-16 08:08:49.22	97.59	4.34	
2025-01-16 08:08:49.43	97.57	4.35	
2025-01-16 08:08:49.63	97.55	4.36	
2025-01-16 08:08:49.83	97.53	4.37	
2025-01-16 08:08:50.04	97.52	4.38	
2025-01-16 08:08:50.24	97.50	4.40	
2025-01-16 08:08:50.44	97.48	4.41	
2025-01-16 08:08:50.65	97.47	4.42	
2025-01-16 08:08:50.85	97.45	4.43	
2025-01-16 08:08:51.05	97.43	4.44	
2025-01-16 08:08:51.26	97.41	4.46	
2025-01-16 08:08:51.46	97.40	4.47	
2025-01-16 08:08:51.66	97.38	4.48	
2025-01-16 08:08:51.86	97.36	4.49	
2025-01-16 08:08:52.07	97.35	4.50	
2025-01-16 08:08:52.27	97.33	4.51	
2025-01-16 08:08:52.47	97.31	4.53	
2025-01-16 08:08:52.68	97.29	4.54	
2025-01-16 08:08:52.88	97.28	4.55	
2025-01-16 08:08:53.08	97.26	4.56	
2025-01-16 08:08:53.29	97.24	4.57	
2025-01-16 08:08:53.49	97.23	4.58	
2025-01-16 08:08:53.69	97.21	4.60	
2025-01-16 08:08:53.90	97.19	4.61	
2025-01-16 08:08:54.10	97.17	4.62	
2025-01-16 08:08:54.30	97.16	4.63	
2025-01-16 08:08:54.51	97.14	4.64	
2025-01-16 08:08:54.71	97.12	4.65	
2025-01-16 08:08:54.91	97.10	4.67	
2025-01-16 08:08:55.11	97.09	4.68	
2025-01-16 08:08:55.32	97.07	4.69	
2025-01-16 08:08:55.52	97.05	4.70	
2025-01-16 08:08:55.72	97.03	4.71	
2025-01-16 08:08:55.93	97.02	4.73	
2025-01-16 08:08:56.13	97.00	4.74	
2025-01-16 08:08:56.33	96.98	4.75	
2025-01-16 08:08:56.54	96.96	4.76	
2025-01-16 08:08:56.74	96.95	4.77	
2025-01-16 08:08:56.94	96.93	4.78	
2025-01-16 08:08:57.15	96.91	4.80	
2025-01-16 08:08:57.35	96.89	4.81	
2025-01-16 08:08:57.55	96.88	4.82	
2025-01-16 08:08:57.76	96.86	4.83	
2025-01-16 08:08:57.96	96.84	4.84	
2025-01-16 08:08:58.16	96.82	4.86	
2025-01-16 08:08:58.36	96.81	4.87	
2025-01-16 08:08:58.57	96.79	4.88	
2025-01-16 08:08:58.77	96.77	4.89	
2025-01-16 08:08:58.97	96.75	4.90	
2025-01-16 08:08:59.18	96.74	4.92	
2025-01-16 08:08:59.38	96.72	4.93	
2025-01-16 08:08:59.58	96.70	4.94	
2025-01-16 08:08:59.79	96.68	4.95	
2025-01-16 08:08:59.99	96.66	4.96	
2025-01-16 08:09:00.19	96.65	4.97	
2025-01-16 08:09:00.40	96.63	4.99	
2025-01-16 08:09:00.60	96.61	5.00	
2025-01-16 08:09:00.80	96.59	5.01	
2025-01-16 08:09:01.00	96.58	5.02	
2025-01-16 08:09:01.21	96.56	5.03	
2025-01-16 08:09:01.41	96.54	5.05	
2025-01-16 08:09:01.61	96.52	5.06	
2025-01-16 08:09:01.82	96.50	5.07	
2025-01-16 08:09:02.02	96.49	5.08	
2025-01-16 08:09:02.22	96.47	5.09	
2025-01-16 08:09:02.43	96.45	5.11	
2025-01-16 08:09:02.63	96.43	5.12	
2025-01-16 08:09:02.83	96.41	5.13	
2025-01-16 08:09:03.04	96.40	5.14	
2025-01-16 08:09:03.24	96.38	5.15	
2025-01-16 08:09:03.44	96.36	5.16	
2025-01-16 08:09:03.65	96.34	5.18	
2025-01-16 08:09:03.85	96.32	5.19	
2025-01-16 08:09:04.05	96.31	5.20	
2025-01-16 08:09:04.25	96.29	5.21	
2025-01-16 08:09:04.46	96.27	5.22	
2025-01-16 08:09:04.66	96.25	5.24	
2025-01-16 08:09:04.86	96.23	5.25	
2025-01-16 08:09:05.07	96.22	5.26	
2025-01-16 08:09:05.27	96.20	5.27	
2025-01-16 08:09:05.47	96.18	5.28	
2025-01-16 08:09:05.68	96.16	5.30	
2025-01-16 08:09:05.88	96.14	5.31	
2025-01-16 08:09:06.08	96.13	5.32	
2025-01-16 08:09:06.29	96.11	5.33	
2025-01-16 08:09:06.49	96.09	5.34	
2025-01-16 08:09:06.69	96.07	5.36	
2025-01-16 08:09:06.90	96.05	5.37	
2025-01-16 08:09:07.10	96.03	5.38	
2025-01-16 08:09:07.30	96.02	5.39	
2025-01-16 08:09:07.50	96.00	5.40	
2025-01-16 08:09:07.71	95.98	5.42	
2025-01-16 08:09:07.91	95.96	5.43	
2025-01-16 08:09:08.11	95.94	5.44	
2025-01-16 08:09:08.32	95.92	5.45	
2025-01-16 08:09:08.52	95.91	5.46	
2025-01-16 08:09:08.72	95.89	5.47	
2025-01-16 08:09:08.93	95.87	5.49	
2025-01-16 08:09:09.13	95.85	5.50	
2025-01-16 08:09:09.33	95.83	5.51	
2025-01-16 08:09:09.54	95.81	5.52	
2025-01-16 08:09:09.74	95.80	5.54	
2025-01-16 08:09:09.94	95.78	5.55	
2025-01-16 08:09:10.14	95.76	5.56	
2025-01-16 08:09:10.35	95.74	5.57	
2025-01-16 08:09:10.55	95.72	5.58	
2025-01-16 08:09:10.75	95.70	5.59	
2025-01-16 08:09:10.96	95.68	5.61	
2025-01-16 08:09:11.16	95.67	5.62	
2025-01-16 08:09:11.36	95.65	5.63	
2025-01-16 08:09:11.57	95.63	5.64	
2025-01-16 08:09:11.77	95.61	5.66	
2025-01-16 08:09:11.97	95.59	5.67	
2025-01-16 08:09:12.18	95.57	5.68	
2025-01-16 08:09:12.38	95.55	5.69	
2025-01-16 08:09:12.58	95.54	5.70	
2025-01-16 08:09:12.79	95.52	5.72	
2025-01-16 08:09:12.99	95.50	5.73	
2025-01-16 08:09:13.19	95.48	5.74	
2025-01-16 08:09:13.39	95.46	5.75	
2025-01-16 08:09:13.60	95.44	5.76	
2025-01-16 08:09:13.80	95.42	5.78	
2025-01-16 08:09:14.00	95.40	5.79	
2025-01-16 08:09:14.21	95.38	5.80	
2025-01-16 08:09:14.41	95.37	5.81	
2025-01-16 08:09:14.61	95.35	5.82	
2025-01-16 08:09:14.82	95.33	5.84	
2025-01-16 08:09:15.02	95.31	5.85	
2025-01-16 08:09:15.22	95.29	5.86	
2025-01-16 08:09:15.43	95.27	5.87	
2025-01-16 08:09:15.63	95.25	5.88	
2025-01-16 08:09:15.83	95.23	5.90	
2025-01-16 08:09:16.03	95.22	5.91	
2025-01-16 08:09:16.24	95.20	5.92	
2025-01-16 08:09:16.44	95.18	5.93	
2025-01-16 08:09:16.64	95.16	5.94	
2025-01-16 08:09:16.85	95.14	5.96	
2025-01-16 08:09:17.05	95.12	5.97	
2025-01-16 08:09:17.25	95.10	5.98	
2025-01-16 08:09:17.46	95.08	5.99	
2025-01-16 08:09:17.66	95.06	6.00	
2025-01-16 08:09:17.86	95.04	6.02	
2025-01-16 08:09:18.07	95.02	6.03	
2025-01-16 08:09:18.27	95.00	6.04	
2025-01-16 08:09:18.47	94.99	6.05	
2025-01-16 08:09:18.68	94.97	6.07	
2025-01-16 08:09:18.88	94.95	6.08	
2025-01-16 08:09:19.08	94.93	6.09	
2025-01-16 08:09:19.28	94.91	6.10	
2025-01-16 08:09:19.49	94.89	6.11	
2025-01-16 08:09:19.69	94.87	6.13	
2025-01-16 08:09:19.89	94.85	6.14	
2025-01-16 08:09:20.10	94.83	6.15	
2025-01-16 08:09:20.30	94.81	6.16	
2025-01-16 08:09:20.50	94.79	6.17	
2025-01-16 08:09:20.71	94.77	6.19	
2025-01-16 08:09:20.91	94.75	6.20	
2025-01-16 08:09:21.11	94.74	6.21	
2025-01-16 08:09:21.32	94.72	6.22	
2025-01-16 08:09:21.52	94.70	6.24	
2025-01-16 08:09:21.72	94.68	6.25	
2025-01-16 08:09:21.93	94.66	6.26	
2025-01-16 08:09:22.13	94.64	6.27	
2025-01-16 08:09:22.33	94.62	6.28	
2025-01-16 08:09:22.53	94.60	6.30	
2025-01-16 08:09:22.74	94.58	6.31	
2025-01-16 08:09:22.94	94.56	6.32	
2025-01-16 08:09:23.14	94.54	6.33	
2025-01-16 08:09:23.35	94.52	6.34	
2025-01-16 08:09:23.55	94.50	6.36	
2025-01-16 08:09:23.75	94.48	6.37	
2025-01-16 08:09:23.96	94.46	6.38	
2025-01-16 08:09:24.16	94.44	6.39	
2025-01-16 08:09:24.36	94.42	6.41	
2025-01-16 08:09:24.57	94.40	6.42	
2025-01-16 08:09:24.77	94.38	6.43	
2025-01-16 08:09:24.97	94.36	6.44	
2025-01-16 08:09:25.17	94.34	6.45	
2025-01-16 08:09:25.38	94.32	6.47	
2025-01-16 08:09:25.58	94.30	6.48	
2025-01-16 08:09:25.78	94.29	6.49	
2025-01-16 08:09:25.99	94.27	6.50	
2025-01-16 08:09:26.19	94.25	6.52	
2025-01-16 08:09:26.39	94.23	6.53	
2025-01-16 08:09:26.60	94.21	6.54	
2025-01-16 08:09:26.80	94.19	6.55	
2025-01-16 08:09:27.00	94.17	6.56	
2025-01-16 08:09:27.21	94.15	6.58	
2025-01-16 08:09:27.41	94.13	6.59	
2025-01-16 08:09:27.61	94.11	6.60	
2025-01-16 08:09:27.82	94.09	6.61	
2025-01-16 08:09:28.02	94.07	6.63	
2025-01-16 08:09:28.22	94.05	6.64	
2025-01-16 08:09:28.42	94.03	6.65	
2025-01-16 08:09:28.63	94.01	6.66	
2025-01-16 08:09:28.83	93.99	6.67	
2025-01-16 08:09:29.03	93.97	6.69	
2025-01-16 08:09:29.24	93.95	6.70	
2025-01-16 08:09:29.44	93.93	6.71	
2025-01-16 08:09:29.64	93.91	6.72	
2025-01-16 08:09:29.85	93.89	6.74	
2025-01-16 08:09:30.05	93.87	6.75	
2025-01-16 08:09:30.25	93.85	6.76	
2025-01-16 08:09:30.46	93.83	6.77	
2025-01-16 08:09:30.66	93.81	6.78	
2025-01-16 08:09:30.86	93.79	6.80	
2025-01-16 08:09:31.07	93.76	6.81	
2025-01-16 08:09:31.27	93.74	6.82	
2025-01-16 08:09:31.47	93.72	6.83	
2025-01-16 08:09:31.67	93.70	6.85	
2025-01-16 08:09:31.88	93.68	6.86	
2025-01-16 08:09:32.08	93.66	6.87	
2025-01-16 08:09:32.28	93.64	6.88	
2025-01-16 08:09:32.49	93.62	6.89	
2025-01-16 08:09:32.69	93.60	6.91	
2025-01-16 08:09:32.89	93.58	6.92	
2025-01-16 08:09:33.10	93.56	6.93	
2025-01-16 08:09:33.30	93.54	6.94	
2025-01-16 08:09:33.50	93.52	6.96	
2025-01-16 08:09:33.71	93.50	6.97	
2025-01-16 08:09:33.91	93.48	6.98	
2025-01-16 08:09:34.11	93.46	6.99	
2025-01-16 08:09:34.31	93.44	7.00	
2025-01-16 08:09:34.52	93.42	7.02	
2025-01-16 08:09:34.72	93.40	7.03	
2025-01-16 08:09:34.92	93.38	7.04	
2025-01-16 08:09:35.13	93.36	7.05	
2025-01-16 08:09:35.33	93.34	7.07	
2025-01-16 08:09:35.53	93.32	7.08	
2025-01-16 08:09:35.74	93.30	7.09	
2025-01-16 08:09:35.94	93.28	7.10	
2025-01-16 08:09:36.14	93.25	7.12	
2025-01-16 08:09:36.35	93.23	7.13	
2025-01-16 08:09:36.55	93.21	7.14	
2025-01-16 08:09:36.75	93.19	7.15	
2025-01-16 08:09:36.96	93.17	7.17	
2025-01-16 08:09:37.16	93.15	7.18	
2025-01-16 08:09:37.36	93.13	7.19	
2025-01-16 08:09:37.56	93.11	7.20	
2025-01-16 08:09:37.77	93.09	7.21	
2025-01-16 08:09:37.97	93.07	7.23	
2025-01-16 08:09:38.17	93.05	7.24	
2025-01-16 08:09:38.38	93.03	7.25	
2025-01-16 08:09:38.58	93.01	7.26	
2025-01-16 08:09:38.78	92.98	7.28	
2025-01-16 08:09:38.99	92.96	7.29	
2025-01-16 08:09:39.19	92.94	7.30	
2025-01-16 08:09:39.39	92.92	7.31	
2025-01-16 08:09:39.60	92.90	7.33	
2025-01-16 08:09:39.80	92.88	7.34	
2025-01-16 08:09:40.00	92.86	7.35	
2025-01-16 08:09:40.21	92.84	7.36	
2025-01-16 08:09:40.41	92.82	7.38	
2025-01-16 08:09:40.61	92.80	7.39	
2025-01-16 08:09:40.81	92.77	7.40	
2025-01-16 08:09:41.02	92.75	7.41	
2025-01-16 08:09:41.22	92.73	7.42	
2025-01-16 08:09:41.42	92.71	7.44	
2025-01-16 08:09:41.63	92.69	7.45	
2025-01-16 08:09:41.83	92.67	7.46	
2025-01-16 08:09:42.03	92.65	7.47	
2025-01-16 08:09:42.24	92.63	7.49	
2025-01-16 08:09:42.44	92.61	7.50	
2025-01-16 08:09:42.64	92.58	7.51	
2025-01-16 08:09:42.85	92.56	7.52	
2025-01-16 08:09:43.05	92.54	7.54	
2025-01-16 08:09:43.25	92.52	7.55	
2025-01-16 08:09:43.45	92.50	7.56	
2025-01-16 08:09:43.66	92.48	7.57	
2025-01-16 08:09:43.86	92.46	7.59	
2025-01-16 08:09:44.06	92.44	7.60	
2025-01-16 08:09:44.27	92.41	7.61	
2025-01-16 08:09:44.47	92.39	7.62	
2025-01-16 08:09:44.67	92.37	7.64	
2025-01-16 08:09:44.88	92.35	7.65	
2025-01-16 08:09:45.08	92.33	7.66	
2025-01-16 08:09:45.28	92.31	7.67	
2025-01-16 08:09:45.49	92.28	7.69	
2025-01-16 08:09:45.69	92.26	7.70	
2025-01-16 08:09:45.89	92.24	7.71	
2025-01-16 08:09:46.10	92.22	7.72	
2025-01-16 08:09:46.30	92.20	7.74	
2025-01-16 08:09:46.50	92.18	7.75	
2025-01-16 08:09:46.70	92.16	7.76	
2025-01-16 08:09:46.91	92.13	7.77	
2025-01-16 08:09:47.11	92.11	7.79	
2025-01-16 08:09:47.31	92.09	7.80	
2025-01-16 08:09:47.52	92.07	7.81	
2025-01-16 08:09:47.72	92.05	7.82	
2025-01-16 08:09:47.92	92.03	7.83	
2025-01-16 08:09:48.13	92.00	7.85	
2025-01-16 08:09:48.33	91.98	7.86	
2025-01-16 08:09:48.53	91.96	7.87	
2025-01-16 08:09:48.74	91.94	7.89	
2025-01-16 08:09:48.94	91.92	7.90	
2025-01-16 08:09:49.14	91.90	7.91	
2025-01-16 08:09:49.34	91.87	7.92	
2025-01-16 08:09:49.55	91.85	7.93	
2025-01-16 08:09:49.75	91.83	7.95	
2025-01-16 08:09:49.95	91.81	7.96	
2025-01-16 08:09:50.16	91.79	7.97	
2025-01-16 08:09:50.36	91.76	7.98	
2025-01-16 08:09:50.56	91.74	8.00	
2025-01-16 08:09:50.77	91.72	8.01	
2025-01-16 08:09:50.97	91.70	8.02	
2025-01-16 08:09:51.17	91.68	8.03	
2025-01-16 08:09:51.38	91.65	8.05	
2025-01-16 08:09:51.58	91.63	8.06	
2025-01-16 08:09:51.78	91.61	8.07	
2025-01-16 08:09:51.99	91.59	8.08	
2025-01-16 08:09:52.19	91.56	8.10	
2025-01-16 08:09:52.39	91.54	8.11	
2025-01-16 08:09:52.59	91.52	8.12	
2025-01-16 08:09:52.80	91.50	8.13	
2025-01-16 08:09:53.00	91.48	8.15	
2025-01-16 08:09:53.20	91.45	8.16	
2025-01-16 08:09:53.41	91.43	8.17	
2025-01-16 08:09:53.61	91.41	8.18	
2025-01-16 08:09:53.81	91.39	8.20	
2025-01-16 08:09:54.02	91.36	8.21	
2025-01-16 08:09:54.22	91.34	8.22	
2025-01-16 08:09:54.42	91.32	8.23	
2025-01-16 08:09:54.63	91.30	8.25	
2025-01-16 08:09:54.83	91.28	8.26	
2025-01-16 08:09:55.03	91.25	8.27	
2025-01-16 08:09:55.24	91.23	8.29	
2025-01-16 08:09:55.44	91.21	8.30	
2025-01-16 08:09:55.64	91.19	8.31	
2025-01-16 08:09:55.84	91.16	8.32	
2025-01-16 08:09:56.05	91.14	8.34	
2025-01-16 08:09:56.25	91.12	8.35	
2025-01-16 08:09:56.45	91.10	8.36	
2025-01-16 08:09:56.66	91.07	8.37	
2025-01-16 08:09:56.86	91.05	8.39	
2025-01-16 08:09:57.06	91.03	8.40	
2025-01-16 08:09:57.27	91.01	8.41	
2025-01-16 08:09:57.47	90.98	8.42	
2025-01-16 08:09:57.67	90.96	8.44	
2025-01-16 08:09:57.88	90.94	8.45	
2025-01-16 08:09:58.08	90.91	8.46	
2025-01-16 08:09:58.28	90.89	8.47	
2025-01-16 08:09:58.48	90.87	8.49	
2025-01-16 08:09:58.69	90.85	8.50	
2025-01-16 08:09:58.89	90.82	8.51	
2025-01-16 08:09:59.09	90.80	8.52	
2025-01-16 08:09:59.30	90.78	8.54	
2025-01-16 08:09:59.50	90.76	8.55	
2025-01-16 08:09:59.70	90.73	8.56	
2025-01-16 08:09:59.91	90.71	8.57	
2025-01-16 08:10:00.11	90.69	8.59	
2025-01-16 08:10:00.31	90.66	8.60	
2025-01-16 08:10:00.52	90.64	8.61	
2025-01-16 08:10:00.72	90.62	8.62	
2025-01-16 08:10:00.92	90.60	8.64	
2025-01-16 08:10:01.13	90.57	8.65	
2025-01-16 08:10:01.33	90.55	8.66	
2025-01-16 08:10:01.53	90.53	8.67	
2025-01-16 08:10:01.73	90.50	8.69	
2025-01-16 08:10:01.94	90.48	8.70	
2025-01-16 08:10:02.14	90.46	8.71	
2025-01-16 08:10:02.34	90.43	8.72	
2025-01-16 08:10:02.55	90.41	8.74	
2025-01-16 08:10:02.75	90.39	8.75	
2025-01-16 08:10:02.95	90.36	8.76	
2025-01-16 08:10:03.16	90.34	8.78	
2025-01-16 08:10:03.36	90.32	8.79	
2025-01-16 08:10:03.56	90.30	8.80	
2025-01-16 08:10:03.77	90.27	8.81	
2025-01-16 08:10:03.97	90.25	8.83	
2025-01-16 08:10:04.17	90.23	8.84	
2025-01-16 08:10:04.38	90.20	8.85	
2025-01-16 08:10:04.58	90.18	8.86	
2025-01-16 08:10:04.78	90.16	8.88	
2025-01-16 08:10:04.98	90.13	8.89	
2025-01-16 08:10:05.19	90.11	8.90	
2025-01-16 08:10:05.39	90.08	8.91	
2025-01-16 08:10:05.59	90.06	8.93	
2025-01-16 08:10:05.80	90.04	8.94	
2025-01-16 08:10:06.00	90.01	8.95	
2025-01-16 08:10:06.20	89.99	8.96	
2025-01-16 08:10:06.41	89.97	8.98	
2025-01-16 08:10:06.61	89.94	8.99	
2025-01-16 08:10:06.81	89.92	9.00	
2025-01-16 08:10:07.02	89.90	9.02	
2025-01-16 08:10:07.22	89.87	9.03	
2025-01-16 08:10:07.42	89.85	9.04	
2025-01-16 08:10:07.62	89.83	9.05	
2025-01-16 08:10:07.83	89.80	9.07	
2025-01-16 08:10:08.03	89.78	9.08	
2025-01-16 08:10:08.23	89.76	9.09	
2025-01-16 08:10:08.44	89.73	9.10	
2025-01-16 08:10:08.64	89.71	9.12	
2025-01-16 08:10:08.84	89.68	9.13	
2025-01-16 08:10:09.05	89.66	9.14	
2025-01-16 08:10:09.25	89.64	9.15	
2025-01-16 08:10:09.45	89.61	9.17	
2025-01-16 08:10:09.66	89.59	9.18	
2025-01-16 08:10:09.86	89.56	9.19	
2025-01-16 08:10:10.06	89.54	9.20	
2025-01-16 08:10:10.27	89.52	9.22	
2025-01-16 08:10:10.47	89.49	9.23	
2025-01-16 08:10:10.67	89.47	9.24	
2025-01-16 08:10:10.87	89.44	9.26	
2025-01-16 08:10:11.08	89.42	9.27	
2025-01-16 08:10:11.28	89.40	9.28	
2025-01-16 08:10:11.48	89.37	9.29	
2025-01-16 08:10:11.69	89.35	9.31	
2025-01-16 08:10:11.89	89.32	9.32	
2025-01-16 08:10:12.09	89.30	9.33	
2025-01-16 08:10:12.30	89.28	9.34	
2025-01-16 08:10:12.50	89.25	9.36	
2025-01-16 08:10:12.70	89.23	9.37	
2025-01-16 08:10:12.91	89.20	9.38	
2025-01-16 08:10:13.11	89.18	9.40	
2025-01-16 08:10:13.31	89.16	9.41	
2025-01-16 08:10:13.52	89.13	9.42	
2025-01-16 08:10:13.72	89.11	9.43	
2025-01-16 08:10:13.92	89.08	9.45	
2025-01-16 08:10:14.12	89.06	9.46	
2025-01-16 08:10:14.33	89.03	9.47	
2025-01-16 08:10:14.53	89.01	9.48	
2025-01-16 08:10:14.73	88.98	9.50	
2025-01-16 08:10:14.94	88.96	9.51	
2025-01-16 08:10:15.14	88.94	9.52	
2025-01-16 08:10:15.34	88.91	9.53	
2025-01-16 08:10:15.55	88.89	9.55	
2025-01-16 08:10:15.75	88.86	9.56	
2025-01-16 08:10:15.95	88.84	9.57	
2025-01-16 08:10:16.16	88.81	9.59	
2025-01-16 08:10:16.36	88.79	9.60	
2025-01-16 08:10:16.56	88.76	9.61	
2025-01-16 08:10:16.76	88.74	9.62	
2025-01-16 08:10:16.97	88.71	9.64	
2025-01-16 08:10:17.17	88.69	9.65	
2025-01-16 08:10:17.37	88.67	9.66	
2025-01-16 08:10:17.58	88.64	9.68	
2025-01-16 08:10:17.78	88.62	9.69	
2025-01-16 08:10:17.98	88.59	9.70	
2025-01-16 08:10:18.19	88.57	9.71	
2025-01-16 08:10:18.39	88.54	9.73	
2025-01-16 08:10:18.59	88.52	9.74	
2025-01-16 08:10:18.80	88.49	9.75	
2025-01-16 08:10:19.00	88.47	9.76	
2025-01-16 08:10:19.20	88.44	9.78	
2025-01-16 08:10:19.41	88.42	9.79	
2025-01-16 08:10:19.61	88.39	9.80	
2025-01-16 08:10:19.81	88.37	9.81	
2025-01-16 08:10:20.01	88.34	9.83	
2025-01-16 08:10:20.22	88.32	9.84	
2025-01-16 08:10:20.42	88.29	9.85	
2025-01-16 08:10:20.62	88.27	9.87	
2025-01-16 08:10:20.83	88.24	9.88	
2025-01-16 08:10:21.03	88.22	9.89	
2025-01-16 08:10:21.23	88.19	9.90	
2025-01-16 08:10:21.44	88.17	9.92	
2025-01-16 08:10:21.64	88.14	9.93	
2025-01-16 08:10:21.84	88.12	9.94	
2025-01-16 08:10:22.05	88.09	9.96	
2025-01-16 08:10:22.25	88.07	9.97	
2025-01-16 08:10:22.45	88.04	9.98	
2025-01-16 08:10:22.65	88.02	9.99	
2025-01-16 08:10:22.86	87.99	10.01	
2025-01-16 08:10:23.06	87.97	10.02	
2025-01-16 08:10:23.26	87.94	10.03	
2025-01-16 08:10:23.47	87.91	10.04	
2025-01-16 08:10:23.67	87.89	10.06	
2025-01-16 08:10:23.87	87.86	10.07	
2025-01-16 08:10:24.08	87.84	10.08	
2025-01-16 08:10:24.28	87.81	10.10	
2025-01-16 08:10:24.48	87.79	10.11	
2025-01-16 08:10:24.70	87.76	10.12	
2025-01-16 08:10:24.90	87.74	10.13	
2025-01-16 08:10:25.11	87.71	10.15	
2025-01-16 08:10:25.31	87.68	10.16	
2025-01-16 08:10:25.51	87.66	10.17	
2025-01-16 08:10:25.72	87.63	10.19	
2025-01-16 08:10:25.92	87.61	10.20	
2025-01-16 08:10:26.12	87.58	10.21	
2025-01-16 08:10:26.33	87.55	10.22	
2025-01-16 08:10:26.53	87.53	10.24	
2025-01-16 08:10:26.73	87.50	10.25	
2025-01-16 08:10:26.94	87.48	10.26	
2025-01-16 08:10:27.14	87.45	10.28	
2025-01-16 08:10:27.34	87.43	10.29	
2025-01-16 08:10:27.55	87.40	10.30	
2025-01-16 08:10:27.75	87.37	10.31	
2025-01-16 08:10:27.95	87.35	10.33	
2025-01-16 08:10:28.15	87.32	10.34	
2025-01-16 08:10:28.36	87.30	10.35	
2025-01-16 08:10:28.56	87.27	10.36	
2025-01-16 08:10:28.76	87.25	10.38	
2025-01-16 08:10:28.97	87.22	10.39	
2025-01-16 08:10:29.17	87.19	10.40	
2025-01-16 08:10:29.37	87.17	10.42	
2025-01-16 08:10:29.58	87.14	10.43	
2025-01-16 08:10:29.78	87.12	10.44	
2025-01-16 08:10:29.98	87.09	10.45	
2025-01-16 08:10:30.19	87.06	10.47	
2025-01-16 08:10:30.39	87.04	10.48	
2025-01-16 08:10:30.59	87.01	10.49	
2025-01-16 08:10:30.79	86.99	10.51	
2025-01-16 08:10:31.00	86.96	10.52	
2025-01-16 08:10:31.20	86.93	10.53	
2025-01-16 08:10:31.40	86.91	10.54	
2025-01-16 08:10:31.61	86.88	10.56	
2025-01-16 08:10:31.81	86.85	10.57	
2025-01-16 08:10:32.01	86.83	10.58	
2025-01-16 08:10:32.22	86.80	10.60	
2025-01-16 08:10:32.42	86.77	10.61	
2025-01-16 08:10:32.62	86.75	10.62	
2025-01-16 08:10:32.83	86.72	10.63	
2025-01-16 08:10:33.03	86.70	10.65	
2025-01-16 08:10:33.23	86.67	10.66	
2025-01-16 08:10:33.44	86.64	10.67	
2025-01-16 08:10:33.64	86.62	10.69	
2025-01-16 08:10:33.84	86.59	10.70	
2025-01-16 08:10:34.04	86.56	10.71	
2025-01-16 08:10:34.25	86.54	10.72	
2025-01-16 08:10:34.45	86.51	10.74	
2025-01-16 08:10:34.65	86.48	10.75	
2025-01-16 08:10:34.86	86.46	10.76	
2025-01-16 08:10:35.06	86.43	10.77	
2025-01-16 08:10:35.26	86.40	10.79	
2025-01-16 08:10:35.47	86.38	10.80	
2025-01-16 08:10:35.67	86.35	10.81	
2025-01-16 08:10:35.87	86.32	10.83	
2025-01-16 08:10:36.08	86.30	10.84	
2025-01-16 08:10:36.28	86.27	10.85	
2025-01-16 08:10:36.48	86.24	10.86	
2025-01-16 08:10:36.69	86.22	10.88	
2025-01-16 08:10:36.89	86.19	10.89	
2025-01-16 08:10:37.09	86.16	10.90	
2025-01-16 08:10:37.29	86.14	10.92	
2025-01-16 08:10:37.50	86.11	10.93	
2025-01-16 08:10:37.70	86.08	10.94	
2025-01-16 08:10:37.90	86.05	10.95	
2025-01-16 08:10:38.11	86.03	10.97	
2025-01-16 08:10:38.31	86.00	10.98	
2025-01-16 08:10:38.51	85.97	10.99	
2025-01-16 08:10:38.72	85.95	11.01	
2025-01-16 08:10:38.92	85.92	11.02	
2025-01-16 08:10:39.12	85.89	11.03	
2025-01-16 08:10:39.33	85.86	11.04	
2025-01-16 08:10:39.53	85.84	11.06	
2025-01-16 08:10:39.73	85.81	11.07	
2025-01-16 08:10:39.93	85.78	11.08	
2025-01-16 08:10:40.14	85.76	11.10	
2025-01-16 08:10:40.34	85.73	11.11	
2025-01-16 08:10:40.54	85.70	11.12	
2025-01-16 08:10:40.75	85.67	11.13	
2025-01-16 08:10:40.95	85.65	11.15	
2025-01-16 08:10:41.15	85.62	11.16	
2025-01-16 08:10:41.36	85.59	11.17	
2025-01-16 08:10:41.56	85.56	11.19	
2025-01-16 08:10:41.76	85.54	11.20	
2025-01-16 08:10:41.97	85.51	11.21	
2025-01-16 08:10:42.17	85.48	11.22	
2025-01-16 08:10:42.37	85.45	11.24	
2025-01-16 08:10:42.58	85.43	11.25	
2025-01-16 08:10:42.78	85.40	11.26	
2025-01-16 08:10:42.98	85.37	11.27	
2025-01-16 08:10:43.18	85.34	11.29	
2025-01-16 08:10:43.39	85.32	11.30	
2025-01-16 08:10:43.59	85.29	11.31	
2025-01-16 08:10:43.79	85.26	11.33	
2025-01-16 08:10:44.00	85.23	11.34	
2025-01-16 08:10:44.20	85.21	11.35	
2025-01-16 08:10:44.40	85.18	11.36	
2025-01-16 08:10:44.61	85.15	11.38	
2025-01-16 08:10:44.81	85.12	11.39	
2025-01-16 08:10:45.01	85.09	11.40	
2025-01-16 08:10:45.22	85.07	11.42	
2025-01-16 08:10:45.42	85.04	11.43	
2025-01-16 08:10:45.62	85.01	11.44	
2025-01-16 08:10:45.83	84.98	11.45	
2025-01-16 08:10:46.03	84.95	11.47	
2025-01-16 08:10:46.23	84.93	11.48	
2025-01-16 08:10:46.43	84.90	11.49	
2025-01-16 08:10:46.64	84.87	11.51	
2025-01-16 08:10:46.84	84.84	11.52	
2025-01-16 08:10:47.04	84.81	11.53	
2025-01-16 08:10:47.25	84.79	11.54	
2025-01-16 08:10:47.45	84.76	11.56	
2025-01-16 08:10:47.65	84.73	11.57	
2025-01-16 08:10:47.86	84.70	11.58	
2025-01-16 08:10:48.06	84.67	11.60	
2025-01-16 08:10:48.26	84.65	11.61	
2025-01-16 08:10:48.47	84.62	11.62	
2025-01-16 08:10:48.67	84.59	11.63	
2025-01-16 08:10:48.87	84.56	11.65	
2025-01-16 08:10:49.07	84.53	11.66	
2025-01-16 08:10:49.28	84.50	11.67	
2025-01-16 08:10:49.48	84.47	11.69	
2025-01-16 08:10:49.68	84.45	11.70	
2025-01-16 08:10:49.89	84.42	11.71	
2025-01-16 08:10:50.09	84.39	11.72	
2025-01-16 08:10:50.29	84.36	11.74	
2025-01-16 08:10:50.50	84.33	11.75	
2025-01-16 08:10:50.70	84.30	11.76	
2025-01-16 08:10:50.90	84.28	11.78	
2025-01-16 08:10:51.11	84.25	11.79	
2025-01-16 08:10:51.31	84.22	11.80	
2025-01-16 08:10:51.51	84.19	11.81	
2025-01-16 08:10:51.72	84.16	11.83	
2025-01-16 08:10:51.92	84.13	11.84	
2025-01-16 08:10:52.12	84.10	11.85	
2025-01-16 08:10:52.32	84.08	11.86	
2025-01-16 08:10:52.53	84.05	11.88	
2025-01-16 08:10:52.73	84.02	11.89	
2025-01-16 08:10:52.93	83.99	11.90	
2025-01-16 08:10:53.14	83.96	11.92	
2025-01-16 08:10:53.34	83.93	11.93	
2025-01-16 08:10:53.54	83.90	11.94	
2025-01-16 08:10:53.75	83.87	11.96	
2025-01-16 08:10:53.95	83.84	11.97	
2025-01-16 08:10:54.15	83.81	11.98	
2025-01-16 08:10:54.36	83.78	11.99	
2025-01-16 08:10:54.56	83.76	12.01	
2025-01-16 08:10:54.76	83.73	12.02	
2025-01-16 08:10:54.97	83.70	12.03	
2025-01-16 08:10:55.17	83.67	12.04	
2025-01-16 08:10:55.37	83.64	12.06	
2025-01-16 08:10:55.57	83.61	12.07	
2025-01-16 08:10:55.78	83.58	12.08	
2025-01-16 08:10:55.98	83.55	12.10	
2025-01-16 08:10:56.18	83.52	12.11	
2025-01-16 08:10:56.39	83.49	12.12	
2025-01-16 08:10:56.59	83.46	12.13	
2025-01-16 08:10:56.79	83.44	12.15	
2025-01-16 08:10:57.00	83.41	12.16	
2025-01-16 08:10:57.20	83.38	12.17	
2025-01-16 08:10:57.40	83.35	12.19	
2025-01-16 08:10:57.61	83.32	12.20	
2025-01-16 08:10:57.81	83.29	12.21	
2025-01-16 08:10:58.01	83.26	12.22	
2025-01-16 08:10:58.21	83.23	12.24	
2025-01-16 08:10:58.42	83.20	12.25	
2025-01-16 08:10:58.62	83.17	12.26	
2025-01-16 08:10:58.82	83.14	12.28	
2025-01-16 08:10:59.03	83.11	12.29	
2025-01-16 08:10:59.23	83.08	12.30	
2025-01-16 08:10:59.43	83.05	12.31	
2025-01-16 08:10:59.64	83.02	12.33	
2025-01-16 08:10:59.84	82.99	12.34	
2025-01-16 08:11:00.04	82.96	12.35	
2025-01-16 08:11:00.25	82.93	12.37	
2025-01-16 08:11:00.45	82.90	12.38	
2025-01-16 08:11:00.65	82.87	12.39	
2025-01-16 08:11:00.86	82.84	12.40	
2025-01-16 08:11:01.06	82.81	12.42	
2025-01-16 08:11:01.26	82.78	12.43	
2025-01-16 08:11:01.46	82.75	12.44	
2025-01-16 08:11:01.67	82.72	12.45	
2025-01-16 08:11:01.87	82.69	12.47	
2025-01-16 08:11:02.07	82.66	12.48	
2025-01-16 08:11:02.28	82.63	12.49	
2025-01-16 08:11:02.48	82.60	12.51	
2025-01-16 08:11:02.68	82.57	12.52	
2025-01-16 08:11:02.89	82.54	12.53	
2025-01-16 08:11:03.09	82.51	12.54	
2025-01-16 08:11:03.29	82.48	12.56	
2025-01-16 08:11:03.50	82.45	12.57	
2025-01-16 08:11:03.70	82.42	12.58	
2025-01-16 08:11:03.90	82.39	12.60	
2025-01-16 08:11:04.10	82.36	12.61	
2025-01-16 08:11:04.31	82.33	12.62	
2025-01-16 08:11:04.51	82.30	12.63	
2025-01-16 08:11:04.71	82.27	12.65	
2025-01-16 08:11:04.92	82.24	12.66	
2025-01-16 08:11:05.12	82.21	12.67	
2025-01-16 08:11:05.32	82.18	12.68	
2025-01-16 08:11:05.53	82.15	12.70	
2025-01-16 08:11:05.73	82.12	12.71	
2025-01-16 08:11:05.93	82.09	12.72	
2025-01-16 08:11:06.14	82.06	12.74	
2025-01-16 08:11:06.34	82.03	12.75	
2025-01-16 08:11:06.54	82.00	12.76	
2025-01-16 08:11:06.75	81.97	12.77	
2025-01-16 08:11:06.95	81.94	12.79	
2025-01-16 08:11:07.15	81.91	12.80	
2025-01-16 08:11:07.35	81.88	12.81	
2025-01-16 08:11:07.56	81.84	12.83	
2025-01-16 08:11:07.76	81.81	12.84	
2025-01-16 08:11:07.96	81.78	12.85	
2025-01-16 08:11:08.17	81.75	12.86	
2025-01-16 08:11:08.37	81.72	12.88	
2025-01-16 08:11:08.57	81.69	12.89	
2025-01-16 08:11:08.78	81.66	12.90	
2025-01-16 08:11:08.98	81.63	12.91	
2025-01-16 08:11:09.18	81.60	12.93	
2025-01-16 08:11:09.39	81.57	12.94	
2025-01-16 08:11:09.59	81.53	12.95	
2025-01-16 08:11:09.79	81.50	12.97	
2025-01-16 08:11:10.00	81.47	12.98	
2025-01-16 08:11:10.20	81.44	12.99	
2025-01-16 08:11:10.40	81.41	13.00	
2025-01-16 08:11:10.60	81.38	13.02	
2025-01-16 08:11:10.81	81.35	13.03	
2025-01-16 08:11:11.01	81.32	13.04	
2025-01-16 08:11:11.21	81.29	13.05	
2025-01-16 08:11:11.42	81.25	13.07	
2025-01-16 08:11:11.62	81.22	13.08	
2025-01-16 08:11:11.82	81.19	13.09	
2025-01-16 08:11:12.03	81.16	13.11	
2025-01-16 08:11:12.23	81.13	13.12	
2025-01-16 08:11:12.43	81.10	13.13	
2025-01-16 08:11:12.64	81.07	13.14	
2025-01-16 08:11:12.84	81.04	13.16	
2025-01-16 08:11:13.04	81.00	13.17	
2025-01-16 08:11:13.24	80.97	13.18	
2025-01-16 08:11:13.45	80.94	13.19	
2025-01-16 08:11:13.65	80.91	13.21	
2025-01-16 08:11:13.85	80.88	13.22	
2025-01-16 08:11:14.06	80.85	13.23	
2025-01-16 08:11:14.26	80.81	13.25	
2025-01-16 08:11:14.46	80.78	13.26	
2025-01-16 08:11:14.67	80.75	13.27	
2025-01-16 08:11:14.87	80.72	13.28	
2025-01-16 08:11:15.07	80.69	13.30	
2025-01-16 08:11:15.28	80.66	13.31	
2025-01-16 08:11:15.48	80.62	13.32	
2025-01-16 08:11:15.68	80.59	13.33	
2025-01-16 08:11:15.89	80.56	13.35	
2025-01-16 08:11:16.09	80.53	13.36	
2025-01-16 08:11:16.29	80.50	13.37	
2025-01-16 08:11:16.49	80.47	13.38	
2025-01-16 08:11:16.70	80.43	13.40	
2025-01-16 08:11:16.90	80.40	13.41	
2025-01-16 08:11:17.10	80.37	13.42	
2025-01-16 08:11:17.31	80.34	13.44	
2025-01-16 08:11:17.51	80.30	13.45	
2025-01-16 08:11:17.71	80.27	13.46	
2025-01-16 08:11:17.92	80.24	13.47	
2025-01-16 08:11:18.12	80.21	13.49	
2025-01-16 08:11:18.32	80.18	13.50	
2025-01-16 08:11:18.53	80.14	13.51	
2025-01-16 08:11:18.73	80.11	13.52	
2025-01-16 08:11:18.93	80.08	13.54	
2025-01-16 08:11:19.14	80.05	13.55	
2025-01-16 08:11:19.34	80.01	13.56	
2025-01-16 08:11:19.54	79.98	13.57	
2025-01-16 08:11:19.74	79.95	13.59	
2025-01-16 08:11:19.95	79.92	13.60	
2025-01-16 08:11:20.15	79.89	13.61	
2025-01-16 08:11:20.35	79.85	13.63	
2025-01-16 08:11:20.56	79.82	13.64	
2025-01-16 08:11:20.76	79.79	13.65	
2025-01-16 08:11:20.96	79.76	13.66	
2025-01-16 08:11:21.17	79.72	13.68	
2025-01-16 08:11:21.37	79.69	13.69	
2025-01-16 08:11:21.57	79.66	13.70	
2025-01-16 08:11:21.78	79.62	13.71	
2025-01-16 08:11:21.98	79.59	13.73	
2025-01-16 08:11:22.18	79.56	13.74	
2025-01-16 08:11:22.38	79.53	13.75	
2025-01-16 08:11:22.59	79.49	13.76	
2025-01-16 08:11:22.79	79.46	13.78	
2025-01-16 08:11:22.99	79.43	13.79	
2025-01-16 08:11:23.20	79.40	13.80	
2025-01-16 08:11:23.40	79.36	13.81	
2025-01-16 08:11:23.60	79.33	13.83	
2025-01-16 08:11:23.81	79.30	13.84	
2025-01-16 08:11:24.01	79.26	13.85	
2025-01-16 08:11:24.21	79.23	13.86	
2025-01-16 08:11:24.42	79.20	13.88	
2025-01-16 08:11:24.62	79.16	13.89	
2025-01-16 08:11:24.82	79.13	13.90	
2025-01-16 08:11:25.03	79.10	13.92	
2025-01-16 08:11:25.23	79.07	13.93	
2025-01-16 08:11:25.43	79.03	13.94	
2025-01-16 08:11:25.63	79.00	13.95	
2025-01-16 08:11:25.84	78.97	13.97	
2025-01-16 08:11:26.04	78.93	13.98	
2025-01-16 08:11:26.24	78.90	13.99	
2025-01-16 08:11:26.45	78.87	14.00	
2025-01-16 08:11:26.65	78.83	14.02	
2025-01-16 08:11:26.85	78.80	14.03	
2025-01-16 08:11:27.06	78.77	14.04	
2025-01-16 08:11:27.26	78.73	14.05	
2025-01-16 08:11:27.46	78.70	14.07	
2025-01-16 08:11:27.67	78.67	14.08	
2025-01-16 08:11:27.87	78.63	14.09	
2025-01-16 08:11:28.07	78.60	14.10	
2025-01-16 08:11:28.28	78.56	14.12	
2025-01-16 08:11:28.48	78.53	14.13	
2025-01-16 08:11:28.68	78.50	14.14	
2025-01-16 08:11:28.88	78.47	14.15	
2025-01-16 08:11:29.09	78.43	14.17	
2025-01-16 08:11:29.29	78.40	14.18	
2025-01-16 08:11:29.49	78.36	14.19	
2025-01-16 08:11:29.70	78.33	14.20	
2025-01-16 08:11:29.90	78.30	14.22	
2025-01-16 08:11:30.10	78.26	14.23	
2025-01-16 08:11:30.31	78.23	14.24	
2025-01-16 08:11:30.51	78.19	14.25	
2025-01-16 08:11:30.71	78.16	14.27	
2025-01-16 08:11:30.92	78.13	14.28	
2025-01-16 08:11:31.12	78.09	14.29	
2025-01-16 08:11:31.32	78.06	14.30	
2025-01-16 08:11:31.52	78.03	14.32	
2025-01-16 08:11:31.73	77.99	14.33	
2025-01-16 08:11:31.93	77.96	14.34	
2025-01-16 08:11:32.13	77.92	14.35	
2025-01-16 08:11:32.34	77.89	14.37	
2025-01-16 08:11:32.54	77.85	14.38	
2025-01-16 08:11:32.74	77.82	14.39	
2025-01-16 08:11:32.95	77.78	14.40	
2025-01-16 08:11:33.15	77.75	14.42	
2025-01-16 08:11:33.35	77.72	14.43	
2025-01-16 08:11:33.56	77.68	14.44	
2025-01-16 08:11:33.76	77.65	14.45	
2025-01-16 08:11:33.96	77.61	14.46	
2025-01-16 08:11:34.17	77.58	14.48	
2025-01-16 08:11:34.37	77.54	14.49	
2025-01-16 08:11:34.57	77.51	14.50	
2025-01-16 08:11:34.77	77.48	14.51	
2025-01-16 08:11:34.98	77.44	14.53	
2025-01-16 08:11:35.18	77.41	14.54	
2025-01-16 08:11:35.38	77.37	14.55	
2025-01-16 08:11:35.59	77.34	14.56	
2025-01-16 08:11:35.79	77.30	14.58	
2025-01-16 08:11:35.99	77.27	14.59	
2025-01-16 08:11:36.20	77.23	14.60	
2025-01-16 08:11:36.40	77.20	14.61	
2025-01-16 08:11:36.60	77.17	14.63	
2025-01-16 08:11:36.81	77.13	14.64	
2025-01-16 08:11:37.01	77.09	14.65	
2025-01-16 08:11:37.21	77.06	14.66	
2025-01-16 08:11:37.41	77.03	14.68	
2025-01-16 08:11:37.62	76.99	14.69	
2025-01-16 08:11:37.82	76.96	14.70	
2025-01-16 08:11:38.02	76.92	14.71	
2025-01-16 08:11:38.23	76.89	14.72	
2025-01-16 08:11:38.43	76.85	14.74	
2025-01-16 08:11:38.63	76.82	14.75	
2025-01-16 08:11:38.84	76.78	14.76	
2025-01-16 08:11:39.04	76.75	14.77	
2025-01-16 08:11:39.24	76.71	14.79	
2025-01-16 08:11:39.45	76.67	14.80	
2025-01-16 08:11:39.65	76.64	14.81	
2025-01-16 08:11:39.85	76.61	14.82	
2025-01-16 08:11:40.06	76.57	14.84	
2025-01-16 08:11:40.26	76.53	14.85	
2025-01-16 08:11:40.46	76.50	14.86	
2025-01-16 08:11:40.66	76.46	14.87	
2025-01-16 08:11:40.87	76.43	14.88	
2025-01-16 08:11:41.07	76.39	14.90	
2025-01-16 08:11:41.27	76.36	14.91	
2025-01-16 08:11:41.48	76.32	14.92	
2025-01-16 08:11:41.68	76.29	14.93	
2025-01-16 08:11:41.88	76.25	14.95	
2025-01-16 08:11:42.09	76.21	14.96	
2025-01-16 08:11:42.29	76.18	14.97	
2025-01-16 08:11:42.49	76.14	14.98	
2025-01-16 08:11:42.70	76.11	15.00	
2025-01-16 08:11:42.90	76.07	15.01	
2025-01-16 08:11:43.10	76.04	15.02	
2025-01-16 08:11:43.31	76.00	15.03	
2025-01-16 08:11:43.51	75.97	15.04	
2025-01-16 08:11:43.71	75.93	15.06	
2025-01-16 08:11:43.91	75.90	15.07	
2025-01-16 08:11:44.12	75.86	15.08	
2025-01-16 08:11:44.32	75.82	15.09	
2025-01-16 08:11:44.52	75.79	15.10	
2025-01-16 08:11:44.73	75.75	15.12	
2025-01-16 08:11:44.93	75.71	15.13	
2025-01-16 08:11:45.13	75.68	15.14	
2025-01-16 08:11:45.34	75.64	15.15	
2025-01-16 08:11:45.54	75.61	15.17	
2025-01-16 08:11:45.74	75.57	15.18	
2025-01-16 08:11:45.95	75.53	15.19	
2025-01-16 08:11:46.15	75.50	15.20	
2025-01-16 08:11:46.35	75.46	15.21	
2025-01-16 08:11:46.55	75.43	15.23	
2025-01-16 08:11:46.76	75.39	15.24	
2025-01-16 08:11:46.96	75.35	15.25	
2025-01-16 08:11:47.16	75.32	15.26	
2025-01-16 08:11:47.37	75.28	15.27	
2025-01-16 08:11:47.57	75.24	15.29	
2025-01-16 08:11:47.77	75.21	15.30	
2025-01-16 08:11:47.98	75.17	15.31	
2025-01-16 08:11:48.18	75.14	15.32	
2025-01-16 08:11:48.38	75.10	15.33	
2025-01-16 08:11:48.59	75.06	15.35	
2025-01-16 08:11:48.79	75.03	15.36	
2025-01-16 08:11:48.99	74.99	15.37	
2025-01-16 08:11:49.20	74.95	15.38	
2025-01-16 08:11:49.40	74.92	15.40	
2025-01-16 08:11:49.60	74.88	15.41	
2025-01-16 08:11:49.80	74.84	15.42	
2025-01-16 08:11:50.01	74.81	15.43	
2025-01-16 08:11:50.21	74.77	15.44	
2025-01-16 08:11:50.41	74.73	15.46	
2025-01-16 08:11:50.62	74.70	15.47	
2025-01-16 08:11:50.82	74.66	15.48	
2025-01-16 08:11:51.02	74.62	15.49	
2025-01-16 08:11:51.23	74.59	15.50	
2025-01-16 08:11:51.43	74.55	15.52	
2025-01-16 08:11:51.63	74.51	15.53	
2025-01-16 08:11:51.84	74.47	15.54	
2025-01-16 08:11:52.04	74.44	15.55	
2025-01-16 08:11:52.24	74.40	15.56	
2025-01-16 08:11:52.45	74.36	15.58	
2025-01-16 08:11:52.65	74.33	15.59	
2025-01-16 08:11:52.85	74.29	15.60	
2025-01-16 08:11:53.05	74.25	15.61	
2025-01-16 08:11:53.26	74.21	15.62	
2025-01-16 08:11:53.46	74.18	15.63	
2025-01-16 08:11:53.66	74.14	15.65	
2025-01-16 08:11:53.87	74.10	15.66	
2025-01-16 08:11:54.07	74.07	15.67	
2025-01-16 08:11:54.27	74.03	15.68	
2025-01-16 08:11:54.48	73.99	15.69	
2025-01-16 08:11:54.68	73.95	15.71	
2025-01-16 08:11:54.88	73.92	15.72	
2025-01-16 08:11:55.09	73.88	15.73	
2025-01-16 08:11:55.29	73.84	15.74	
2025-01-16 08:11:55.49	73.80	15.75	
2025-01-16 08:11:55.69	73.77	15.77	
2025-01-16 08:11:55.90	73.73	15.78	
2025-01-16 08:11:56.10	73.69	15.79	
2025-01-16 08:11:56.30	73.66	15.80	
2025-01-16 08:11:56.51	73.62	15.81	
2025-01-16 08:11:56.71	73.58	15.82	
2025-01-16 08:11:56.91	73.54	15.84	
2025-01-16 08:11:57.12	73.50	15.85	
2025-01-16 08:11:57.32	73.47	15.86	
2025-01-16 08:11:57.52	73.43	15.87	
2025-01-16 08:11:57.73	73.39	15.88	
2025-01-16 08:11:57.93	73.35	15.90	
2025-01-16 08:11:58.13	73.31	15.91	
2025-01-16 08:11:58.34	73.28	15.92	
2025-01-16 08:11:58.54	73.24	15.93	
2025-01-16 08:11:58.74	73.20	15.94	
2025-01-16 08:11:58.94	73.16	15.95	
2025-01-16 08:11:59.15	73.12	15.97	
2025-01-16 08:11:59.35	73.09	15.98	
2025-01-16 08:11:59.55	73.05	15.99	
2025-01-16 08:11:59.76	73.01	16.00	
2025-01-16 08:11:59.96	72.97	16.01	
2025-01-16 08:12:00.16	72.93	16.02	
2025-01-16 08:12:00.37	72.89	16.04	
2025-01-16 08:12:00.57	72.86	16.05	
2025-01-16 08:12:00.77	72.82	16.06	
2025-01-16 08:12:00.98	72.78	16.07	
2025-01-16 08:12:01.18	72.74	16.08	
2025-01-16 08:12:01.38	72.70	16.09	
2025-01-16 08:12:01.59	72.66	16.11	
2025-01-16 08:12:01.79	72.63	16.12	
2025-01-16 08:12:01.99	72.59	16.13	
2025-01-16 08:12:02.19	72.55	16.14	
2025-01-16 08:12:02.40	72.51	16.15	
2025-01-16 08:12:02.60	72.47	16.16	
2025-01-16 08:12:02.80	72.44	16.18	
2025-01-16 08:12:03.01	72.40	16.19	
2025-01-16 08:12:03.21	72.36	16.20	
2025-01-16 08:12:03.41	72.32	16.21	
2025-01-16 08:12:03.62	72.28	16.22	
2025-01-16 08:12:03.82	72.24	16.23	
2025-01-16 08:12:04.02	72.20	16.24	
2025-01-16 08:12:04.23	72.16	16.26	
2025-01-16 08:12:04.43	72.12	16.27	
2025-01-16 08:12:04.63	72.09	16.28	
2025-01-16 08:12:04.83	72.05	16.29	
2025-01-16 08:12:05.04	72.01	16.30	
2025-01-16 08:12:05.24	71.97	16.31	
2025-01-16 08:12:05.44	71.93	16.33	
2025-01-16 08:12:05.65	71.89	16.34	
2025-01-16 08:12:05.85	71.85	16.35	
2025-01-16 08:12:06.05	71.81	16.36	
2025-01-16 08:12:06.26	71.77	16.37	
2025-01-16 08:12:06.46	71.73	16.38	
2025-01-16 08:12:06.66	71.70	16.39	
2025-01-16 08:12:06.87	71.66	16.41	
2025-01-16 08:12:07.07	71.62	16.42	
2025-01-16 08:12:07.27	71.58	16.43	
2025-01-16 08:12:07.48	71.54	16.44	
2025-01-16 08:12:07.68	71.50	16.45	
2025-01-16 08:12:07.88	71.46	16.46	
2025-01-16 08:12:08.08	71.42	16.47	
2025-01-16 08:12:08.29	71.38	16.49	
2025-01-16 08:12:08.49	71.34	16.50	
2025-01-16 08:12:08.69	71.30	16.51	
2025-01-16 08:12:08.90	71.26	16.52	
2025-01-16 08:12:09.10	71.22	16.53	
2025-01-16 08:12:09.30	71.18	16.54	
2025-01-16 08:12:09.51	71.14	16.55	
2025-01-16 08:12:09.71	71.10	16.57	
2025-01-16 08:12:09.91	71.07	16.58	
2025-01-16 08:12:10.12	71.02	16.59	
2025-01-16 08:12:10.32	70.99	16.60	
2025-01-16 08:12:10.52	70.95	16.61	
2025-01-16 08:12:10.72	70.91	16.62	
2025-01-16 08:12:10.93	70.87	16.63	
2025-01-16 08:12:11.13	70.83	16.64	
2025-01-16 08:12:11.33	70.79	16.66	
2025-01-16 08:12:11.54	70.75	16.67	
2025-01-16 08:12:11.74	70.71	16.68	
2025-01-16 08:12:11.94	70.67	16.69	
2025-01-16 08:12:12.15	70.63	16.70	
2025-01-16 08:12:12.35	70.59	16.71	
2025-01-16 08:12:12.55	70.55	16.72	
2025-01-16 08:12:12.76	70.51	16.73	
2025-01-16 08:12:12.96	70.47	16.75	
2025-01-16 08:12:13.16	70.43	16.76	
2025-01-16 08:12:13.37	70.39	16.77	
2025-01-16 08:12:13.57	70.35	16.78	
2025-01-16 08:12:13.77	70.31	16.79	
2025-01-16 08:12:13.97	70.27	16.80	
2025-01-16 08:12:14.18	70.23	16.81	
2025-01-16 08:12:14.38	70.19	16.82	
2025-01-16 08:12:14.58	70.15	16.83	
2025-01-16 08:12:14.79	70.10	16.85	
2025-01-16 08:12:14.99	70.06	16.86	
2025-01-16 08:12:15.19	70.03	16.87	
2025-01-16 08:12:15.40	69.98	16.88	
2025-01-16 08:12:15.60	69.94	16.89	
2025-01-16 08:12:15.80	69.90	16.90	
2025-01-16 08:12:16.01	69.86	16.91	
2025-01-16 08:12:16.21	69.82	16.92	
2025-01-16 08:12:16.41	69.78	16.93	
2025-01-16 08:12:16.62	69.74	16.94	
2025-01-16 08:12:16.82	69.70	16.96	
2025-01-16 08:12:17.02	69.66	16.97	
2025-01-16 08:12:17.22	69.62	16.98	
2025-01-16 08:12:17.43	69.58	16.99	
2025-01-16 08:12:17.63	69.54	17.00	
2025-01-16 08:12:17.83	69.50	17.01	
2025-01-16 08:12:18.04	69.45	17.02	
2025-01-16 08:12:18.24	69.41	17.03	
2025-01-16 08:12:18.44	69.37	17.04	
2025-01-16 08:12:18.65	69.33	17.05	
2025-01-16 08:12:18.85	69.29	17.06	
2025-01-16 08:12:19.05	69.25	17.08	
2025-01-16 08:12:19.26	69.21	17.09	
2025-01-16 08:12:19.46	69.17	17.10	
2025-01-16 08:12:19.66	69.13	17.11	
2025-01-16 08:12:19.86	69.09	17.12	
2025-01-16 08:12:20.07	69.05	17.13	
2025-01-16 08:12:20.27	69.00	17.14	
2025-01-16 08:12:20.47	68.96	17.15	
2025-01-16 08:12:20.68	68.92	17.16	
2025-01-16 08:12:20.88	68.88	17.17	
2025-01-16 08:12:21.08	68.84	17.18	
2025-01-16 08:12:21.29	68.80	17.19	
2025-01-16 08:12:21.49	68.76	17.21	
2025-01-16 08:12:21.69	68.72	17.22	
2025-01-16 08:12:21.90	68.67	17.23	
2025-01-16 08:12:22.10	68.63	17.24	
2025-01-16 08:12:22.30	68.59	17.25	
2025-01-16 08:12:22.51	68.55	17.26	
2025-01-16 08:12:22.71	68.51	17.27	
2025-01-16 08:12:22.91	68.47	17.28	
2025-01-16 08:12:23.11	68.43	17.29	
2025-01-16 08:12:23.32	68.38	17.30	
2025-01-16 08:12:23.52	68.34	17.31	
2025-01-16 08:12:23.72	68.30	17.32	
2025-01-16 08:12:23.93	68.26	17.33	
2025-01-16 08:12:24.13	68.22	17.34	
2025-01-16 08:12:24.33	68.18	17.35	
2025-01-16 08:12:24.54	68.13	17.37	
2025-01-16 08:12:24.74	68.09	17.38	
2025-01-16 08:12:24.94	68.05	17.39	
2025-01-16 08:12:25.15	68.01	17.40	
2025-01-16 08:12:25.35	67.97	17.41	
2025-01-16 08:12:25.55	67.92	17.42	
2025-01-16 08:12:25.76	67.88	17.43	
2025-01-16 08:12:25.96	67.84	17.44	
2025-01-16 08:12:26.16	67.80	17.45	
2025-01-16 08:12:26.36	67.76	17.46	
2025-01-16 08:12:26.57	67.71	17.47	
2025-01-16 08:12:26.77	67.67	17.48	
2025-01-16 08:12:26.97	67.63	17.49	
2025-01-16 08:12:27.18	67.59	17.50	
2025-01-16 08:12:27.38	67.55	17.51	
2025-01-16 08:12:27.58	67.50	17.52	
2025-01-16 08:12:27.79	67.46	17.53	
2025-01-16 08:12:27.99	67.42	17.54	
2025-01-16 08:12:28.19	67.38	17.55	
2025-01-16 08:12:28.40	67.33	17.56	
2025-01-16 08:12:28.60	67.29	17.58	
2025-01-16 08:12:28.80	67.25	17.59	
2025-01-16 08:12:29.00	67.21	17.60	
2025-01-16 08:12:29.21	67.16	17.61	
2025-01-16 08:12:29.41	67.12	17.62	
2025-01-16 08:12:29.61	67.08	17.63	
2025-01-16 08:12:29.82	67.04	17.64	
2025-01-16 08:12:30.02	66.99	17.65	
2025-01-16 08:12:30.22	66.95	17.66	
2025-01-16 08:12:30.43	66.91	17.67	
2025-01-16 08:12:30.63	66.87	17.68	
2025-01-16 08:12:30.83	66.82	17.69	
2025-01-16 08:12:31.04	66.78	17.70	
2025-01-16 08:12:31.24	66.74	17.71	
2025-01-16 08:12:31.44	66.70	17.72	
2025-01-16 08:12:31.65	66.65	17.73	
2025-01-16 08:12:31.85	66.61	17.74	
2025-01-16 08:12:32.05	66.57	17.75	
2025-01-16 08:12:32.25	66.53	17.76	
2025-01-16 08:12:32.46	66.48	17.77	
2025-01-16 08:12:32.66	66.44	17.78	
2025-01-16 08:12:32.86	66.40	17.79	
2025-01-16 08:12:33.07	66.35	17.80	
2025-01-16 08:12:33.27	66.31	17.81	
2025-01-16 08:12:33.47	66.27	17.82	
2025-01-16 08:12:33.68	66.22	17.83	
2025-01-16 08:12:33.88	66.18	17.84	
2025-01-16 08:12:34.08	66.14	17.85	
2025-01-16 08:12:34.29	66.09	17.86	
2025-01-16 08:12:34.49	66.05	17.87	
2025-01-16 08:12:34.69	66.01	17.88	
2025-01-16 08:12:34.90	65.96	17.89	
2025-01-16 08:12:35.10	65.92	17.90	
2025-01-16 08:12:35.30	65.88	17.91	
2025-01-16 08:12:35.50	65.83	17.92	
2025-01-16 08:12:35.71	65.79	17.93	
2025-01-16 08:12:35.91	65.75	17.94	
2025-01-16 08:12:36.11	65.70	17.95	
2025-01-16 08:12:36.32	65.66	17.96	
2025-01-16 08:12:36.52	65.62	17.97	
2025-01-16 08:12:36.72	65.57	17.98	
2025-01-16 08:12:36.93	65.53	17.99	
2025-01-16 08:12:37.13	65.49	18.00	
2025-01-16 08:12:37.33	65.44	18.01	
2025-01-16 08:12:37.54	65.40	18.02	
2025-01-16 08:12:37.74	65.35	18.03	
2025-01-16 08:12:37.94	65.31	18.04	
2025-01-16 08:12:38.14	65.27	18.05	
2025-01-16 08:12:38.35	65.22	18.06	
2025-01-16 08:12:38.55	65.18	18.07	
2025-01-16 08:12:38.75	65.14	18.08	
2025-01-16 08:12:38.96	65.09	18.09	
2025-01-16 08:12:39.16	65.05	18.10	
2025-01-16 08:12:39.36	65.01	18.11	
2025-01-16 08:12:39.57	64.96	18.12	
2025-01-16 08:12:39.77	64.92	18.13	
2025-01-16 08:12:39.97	64.87	18.14	
2025-01-16 08:12:40.18	64.83	18.15	
2025-01-16 08:12:40.38	64.78	18.16	
2025-01-16 08:12:40.58	64.74	18.16	
2025-01-16 08:12:40.79	64.70	18.17	
2025-01-16 08:12:40.99	64.65	18.18	
2025-01-16 08:12:41.19	64.61	18.19	
2025-01-16 08:12:41.39	64.57	18.20	
2025-01-16 08:12:41.60	64.52	18.21	
2025-01-16 08:12:41.80	64.48	18.22	
2025-01-16 08:12:42.00	64.43	18.23	
2025-01-16 08:12:42.21	64.39	18.24	
2025-01-16 08:12:42.41	64.34	18.25	
2025-01-16 08:12:42.61	64.30	18.26	
2025-01-16 08:12:42.82	64.25	18.27	
2025-01-16 08:12:43.02	64.21	18.28	
2025-01-16 08:12:43.22	64.17	18.29	
2025-01-16 08:12:43.43	64.12	18.30	
2025-01-16 08:12:43.63	64.08	18.31	
2025-01-16 08:12:43.83	64.03	18.32	
2025-01-16 08:12:44.04	63.99	18.33	
2025-01-16 08:12:44.24	63.94	18.34	
2025-01-16 08:12:44.44	63.90	18.34	
2025-01-16 08:12:44.64	63.85	18.35	
2025-01-16 08:12:44.85	63.81	18.36	
2025-01-16 08:12:45.05	63.76	18.37	
2025-01-16 08:12:45.25	63.72	18.38	
2025-01-16 08:12:45.46	63.67	18.39	
2025-01-16 08:12:45.66	63.63	18.40	
2025-01-16 08:12:45.86	63.59	18.41	
2025-01-16 08:12:46.07	63.54	18.42	
2025-01-16 08:12:46.27	63.50	18.43	
2025-01-16 08:12:46.47	63.45	18.44	
2025-01-16 08:12:46.68	63.41	18.45	
2025-01-16 08:12:46.88	63.36	18.46	
2025-01-16 08:12:47.08	63.32	18.46	
2025-01-16 08:12:47.28	63.27	18.47	
2025-01-16 08:12:47.49	63.23	18.48	
2025-01-16 08:12:47.69	63.18	18.49	
2025-01-16 08:12:47.89	63.14	18.50	
2025-01-16 08:12:48.10	63.09	18.51	
2025-01-16 08:12:48.30	63.05	18.52	
2025-01-16 08:12:48.50	63.00	18.53	
2025-01-16 08:12:48.71	62.96	18.54	
2025-01-16 08:12:48.91	62.91	18.55	
2025-01-16 08:12:49.11	62.87	18.56	
2025-01-16 08:12:49.32	62.82	18.56	
2025-01-16 08:12:49.52	62.77	18.57	
2025-01-16 08:12:49.72	62.73	18.58	
2025-01-16 08:12:49.93	62.68	18.59	
2025-01-16 08:12:50.13	62.64	18.60	
2025-01-16 08:12:50.33	62.59	18.61	
2025-01-16 08:12:50.53	62.55	18.62	
2025-01-16 08:12:50.74	62.50	18.63	
2025-01-16 08:12:50.94	62.46	18.64	
2025-01-16 08:12:51.14	62.41	18.64	
2025-01-16 08:12:51.35	62.37	18.65	
2025-01-16 08:12:51.55	62.32	18.66	
2025-01-16 08:12:51.75	62.28	18.67	
2025-01-16 08:12:51.96	62.23	18.68	
2025-01-16 08:12:52.16	62.18	18.69	
2025-01-16 08:12:52.36	62.14	18.70	
2025-01-16 08:12:52.57	62.09	18.71	
2025-01-16 08:12:52.77	62.05	18.72	
2025-01-16 08:12:52.97	62.00	18.72	
2025-01-16 08:12:53.17	61.96	18.73	
2025-01-16 08:12:53.38	61.91	18.74	
2025-01-16 08:12:53.58	61.86	18.75	
2025-01-16 08:12:53.78	61.82	18.76	
2025-01-16 08:12:53.99	61.77	18.77	
2025-01-16 08:12:54.19	61.73	18.78	
2025-01-16 08:12:54.39	61.68	18.78	
2025-01-16 08:12:54.60	61.63	18.79	
2025-01-16 08:12:54.80	61.59	18.80	
2025-01-16 08:12:55.00	61.54	18.81	
2025-01-16 08:12:55.21	61.50	18.82	
2025-01-16 08:12:55.41	61.45	18.83	
2025-01-16 08:12:55.61	61.41	18.84	
2025-01-16 08:12:55.82	61.36	18.84	
2025-01-16 08:12:56.02	61.31	18.85	
2025-01-16 08:12:56.22	61.27	18.86	
2025-01-16 08:12:56.42	61.22	18.87	
2025-01-16 08:12:56.63	61.17	18.88	
2025-01-16 08:12:56.83	61.13	18.89	
2025-01-16 08:12:57.03	61.08	18.89	
2025-01-16 08:12:57.24	61.03	18.90	
2025-01-16 08:12:57.44	60.99	18.91	
2025-01-16 08:12:57.64	60.94	18.92	
2025-01-16 08:12:57.85	60.90	18.93	
2025-01-16 08:12:58.05	60.85	18.94	
2025-01-16 08:12:58.25	60.80	18.94	
2025-01-16 08:12:58.46	60.76	18.95	
2025-01-16 08:12:58.66	60.71	18.96	
2025-01-16 08:12:58.86	60.66	18.97	
2025-01-16 08:12:59.07	60.62	18.98	
2025-01-16 08:12:59.27	60.57	18.99	
2025-01-16 08:12:59.47	60.53	18.99	
2025-01-16 08:12:59.67	60.48	19.00	
2025-01-16 08:12:59.88	60.43	19.01	
2025-01-16 08:13:00.08	60.39	19.02	
2025-01-16 08:13:00.28	60.34	19.03	
2025-01-16 08:13:00.49	60.29	19.03	
2025-01-16 08:13:00.69	60.24	19.04	
2025-01-16 08:13:00.89	60.20	19.05	
2025-01-16 08:13:01.10	60.15	19.06	
2025-01-16 08:13:01.30	60.10	19.07	
2025-01-16 08:13:01.50	60.06	19.07	
2025-01-16 08:13:01.71	60.01	19.08	
2025-01-16 08:13:01.91	59.96	19.09	
2025-01-16 08:13:02.11	59.92	19.10	
2025-01-16 08:13:02.31	59.87	19.11	
2025-01-16 08:13:02.52	59.82	19.11	
2025-01-16 08:13:02.72	59.78	19.12	
2025-01-16 08:13:02.92	59.73	19.13	
2025-01-16 08:13:03.13	59.68	19.14	
2025-01-16 08:13:03.33	59.64	19.15	
2025-01-16 08:13:03.53	59.59	19.15	
2025-01-16 08:13:03.74	59.54	19.16	
2025-01-16 08:13:03.94	59.49	19.17	
2025-01-16 08:13:04.14	59.45	19.18	
2025-01-16 08:13:04.35	59.40	19.19	
2025-01-16 08:13:04.55	59.35	19.19	
2025-01-16 08:13:04.75	59.31	19.20	
2025-01-16 08:13:04.96	59.26	19.21	
2025-01-16 08:13:05.16	59.21	19.22	
2025-01-16 08:13:05.36	59.16	19.22	
2025-01-16 08:13:05.56	59.12	19.23	
2025-01-16 08:13:05.77	59.07	19.24	
2025-01-16 08:13:05.97	59.02	19.25	
2025-01-16 08:13:06.17	58.98	19.25	
2025-01-16 08:13:06.38	58.93	19.26	
2025-01-16 08:13:06.58	58.88	19.27	
2025-01-16 08:13:06.78	58.83	19.28	
2025-01-16 08:13:06.99	58.78	19.28	
2025-01-16 08:13:07.19	58.74	19.29	
2025-01-16 08:13:07.39	58.69	19.30	
2025-01-16 08:13:07.60	58.64	19.31	
2025-01-16 08:13:07.80	58.60	19.31	
2025-01-16 08:13:08.00	58.55	19.32	
2025-01-16 08:13:08.21	58.50	19.33	
2025-01-16 08:13:08.41	58.45	19.34	
2025-01-16 08:13:08.61	58.41	19.34	
2025-01-16 08:13:08.81	58.36	19.35	
2025-01-16 08:13:09.02	58.31	19.36	
2025-01-16 08:13:09.22	58.26	19.37	
2025-01-16 08:13:09.42	58.22	19.37	
2025-01-16 08:13:09.63	58.17	19.38	
2025-01-16 08:13:09.83	58.12	19.39	
2025-01-16 08:13:10.03	58.07	19.40	
2025-01-16 08:13:10.24	58.02	19.40	
2025-01-16 08:13:10.44	57.98	19.41	
2025-01-16 08:13:10.64	57.93	19.42	
2025-01-16 08:13:10.85	57.88	19.42	
2025-01-16 08:13:11.05	57.83	19.43	
2025-01-16 08:13:11.25	57.78	19.44	
2025-01-16 08:13:11.45	57.74	19.45	
2025-01-16 08:13:11.66	57.69	19.45	
2025-01-16 08:13:11.86	57.64	19.46	
2025-01-16 08:13:12.06	57.59	19.47	
2025-01-16 08:13:12.27	57.54	19.47	
2025-01-16 08:13:12.47	57.50	19.48	
2025-01-16 08:13:12.67	57.45	19.49	
2025-01-16 08:13:12.88	57.40	19.50	
2025-01-16 08:13:13.08	57.35	19.50	
2025-01-16 08:13:13.28	57.30	19.51	
2025-01-16 08:13:13.49	57.25	19.52	
2025-01-16 08:13:13.69	57.21	19.52	
2025-01-16 08:13:13.89	57.16	19.53	
2025-01-16 08:13:14.10	57.11	19.54	
2025-01-16 08:13:14.30	57.06	19.54	
2025-01-16 08:13:14.50	57.01	19.55	
2025-01-16 08:13:14.70	56.97	19.56	
2025-01-16 08:13:14.91	56.92	19.56	
2025-01-16 08:13:15.11	56.87	19.57	
2025-01-16 08:13:15.31	56.82	19.58	
2025-01-16 08:13:15.52	56.77	19.58	
2025-01-16 08:13:15.72	56.72	19.59	
2025-01-16 08:13:15.92	56.68	19.60	
2025-01-16 08:13:16.13	56.63	19.60	
2025-01-16 08:13:16.33	56.58	19.61	
2025-01-16 08:13:16.53	56.53	19.62	
2025-01-16 08:13:16.74	56.48	19.62	
2025-01-16 08:13:16.94	56.43	19.63	
2025-01-16 08:13:17.14	56.39	19.64	
2025-01-16 08:13:17.35	56.33	19.64	
2025-01-16 08:13:17.55	56.29	19.65	
2025-01-16 08:13:17.75	56.24	19.66	
2025-01-16 08:13:17.95	56.19	19.66	
2025-01-16 08:13:18.16	56.14	19.67	
2025-01-16 08:13:18.36	56.09	19.68	
2025-01-16 08:13:18.56	56.05	19.68	
2025-01-16 08:13:18.77	55.99	19.69	
2025-01-16 08:13:18.97	55.95	19.70	
2025-01-16 08:13:19.17	55.90	19.70	
2025-01-16 08:13:19.38	55.85	19.71	
2025-01-16 08:13:19.58	55.80	19.72	
2025-01-16 08:13:19.78	55.75	19.72	
2025-01-16 08:13:19.99	55.70	19.73	
2025-01-16 08:13:20.19	55.65	19.73	
2025-01-16 08:13:20.39	55.61	19.74	
2025-01-16 08:13:20.59	55.56	19.75	
2025-01-16 08:13:20.80	55.51	19.75	
2025-01-16 08:13:21.00	55.46	19.76	
2025-01-16 08:13:21.20	55.41	19.76	
2025-01-16 08:13:21.41	55.36	19.77	
2025-01-16 08:13:21.61	55.31	19.78	
2025-01-16 08:13:21.81	55.26	19.78	
2025-01-16 08:13:22.02	55.21	19.79	
2025-01-16 08:13:22.22	55.16	19.80	
2025-01-16 08:13:22.42	55.12	19.80	
2025-01-16 08:13:22.63	55.07	19.81	
2025-01-16 08:13:22.83	55.02	19.81	
2025-01-16 08:13:23.03	54.97	19.82	
2025-01-16 08:13:23.24	54.92	19.83	
2025-01-16 08:13:23.44	54.87	19.83	
2025-01-16 08:13:23.64	54.82	19.84	
2025-01-16 08:13:23.84	54.77	19.84	
2025-01-16 08:13:24.05	54.72	19.85	
2025-01-16 08:13:24.25	54.67	19.86	
2025-01-16 08:13:24.45	54.62	19.86	
2025-01-16 08:13:24.66	54.57	19.87	
2025-01-16 08:13:24.86	54.52	19.87	
2025-01-16 08:13:25.06	54.48	19.88	
2025-01-16 08:13:25.27	54.43	19.88	
2025-01-16 08:13:25.47	54.38	19.89	
2025-01-16 08:13:25.67	54.33	19.90	
2025-01-16 08:13:25.88	54.28	19.90	
2025-01-16 08:13:26.08	54.23	19.91	
2025-01-16 08:13:26.28	54.18	19.91	
2025-01-16 08:13:26.48	54.13	19.92	
2025-01-16 08:13:26.69	54.08	19.92	
2025-01-16 08:13:26.89	54.03	19.93	
2025-01-16 08:13:27.09	53.98	19.94	
2025-01-16 08:13:27.30	53.93	19.94	
2025-01-16 08:13:27.50	53.88	19.95	
2025-01-16 08:13:27.70	53.83	19.95	
2025-01-16 08:13:27.91	53.78	19.96	
2025-01-16 08:13:28.11	53.73	19.96	
2025-01-16 08:13:28.31	53.68	19.97	
2025-01-16 08:13:28.52	53.63	19.97	
2025-01-16 08:13:28.72	53.58	19.98	
2025-01-16 08:13:28.92	53.54	19.98	
2025-01-16 08:13:29.13	53.48	19.99	
2025-01-16 08:13:29.33	53.44	20.00	
2025-01-16 08:13:29.53	53.39	20.00	
2025-01-16 08:13:29.73	53.34	20.01	
2025-01-16 08:13:29.94	53.29	20.01	
2025-01-16 08:13:30.14	53.24	20.02	
2025-01-16 08:13:30.34	53.19	20.02	
2025-01-16 08:13:30.55	53.14	20.03	
2025-01-16 08:13:30.75	53.09	20.03	
2025-01-16 08:13:30.95	53.04	20.04	
2025-01-16 08:13:31.16	52.99	20.04	
2025-01-16 08:13:31.36	52.94	20.05	
2025-01-16 08:13:31.56	52.89	20.05	
2025-01-16 08:13:31.77	52.84	20.06	
2025-01-16 08:13:31.97	52.79	20.06	
2025-01-16 08:13:32.17	52.74	20.07	
2025-01-16 08:13:32.38	52.69	20.07	
2025-01-16 08:13:32.58	52.64	20.08	
2025-01-16 08:13:32.78	52.59	20.08	
2025-01-16 08:13:32.98	52.54	20.09	
2025-01-16 08:13:33.19	52.49	20.09	
2025-01-16 08:13:33.39	52.44	20.10	
2025-01-16 08:13:33.59	52.39	20.10	
2025-01-16 08:13:33.80	52.34	20.11	
2025-01-16 08:13:34.00	52.29	20.11	
2025-01-16 08:13:34.20	52.24	20.12	
2025-01-16 08:13:34.41	52.19	20.12	
2025-01-16 08:13:34.61	52.14	20.13	
2025-01-16 08:13:34.81	52.09	20.13	
2025-01-16 08:13:35.02	52.04	20.14	
2025-01-16 08:13:35.22	51.99	20.14	
2025-01-16 08:13:35.42	51.94	20.15	
2025-01-16 08:13:35.62	51.89	20.15	
2025-01-16 08:13:35.83	51.84	20.15	
2025-01-16 08:13:36.03	51.79	20.16	
2025-01-16 08:13:36.23	51.74	20.16	
2025-01-16 08:13:36.44	51.69	20.17	
2025-01-16 08:13:36.64	51.64	20.17	
2025-01-16 08:13:36.84	51.59	20.18	
2025-01-16 08:13:37.05	51.53	20.18	
2025-01-16 08:13:37.25	51.48	20.19	
2025-01-16 08:13:37.45	51.44	20.19	
2025-01-16 08:13:37.66	51.38	20.20	
2025-01-16 08:13:37.86	51.33	20.20	
2025-01-16 08:13:38.06	51.28	20.20	
2025-01-16 08:13:38.27	51.23	20.21	
2025-01-16 08:13:38.47	51.18	20.21	
2025-01-16 08:13:38.67	51.13	20.22	
2025-01-16 08:13:38.87	51.08	20.22	
2025-01-16 08:13:39.08	51.03	20.23	
2025-01-16 08:13:39.28	50.98	20.23	
2025-01-16 08:13:39.48	50.93	20.23	
2025-01-16 08:13:39.69	50.88	20.24	
2025-01-16 08:13:39.89	50.83	20.24	
2025-01-16 08:13:40.09	50.78	20.25	
2025-01-16 08:13:40.30	50.73	20.25	
2025-01-16 08:13:40.50	50.68	20.26	
2025-01-16 08:13:40.70	50.63	20.26	
2025-01-16 08:13:40.91	50.58	20.26	
2025-01-16 08:13:41.11	50.53	20.27	
2025-01-16 08:13:41.31	50.48	20.27	
2025-01-16 08:13:41.52	50.42	20.28	
2025-01-16 08:13:41.72	50.37	20.28	
2025-01-16 08:13:41.92	50.32	20.28	
2025-01-16 08:13:42.12	50.27	20.29	
2025-01-16 08:13:42.33	50.22	20.29	
2025-01-16 08:13:42.53	50.17	20.30	
2025-01-16 08:13:42.73	50.12	20.30	
2025-01-16 08:13:42.94	50.07	20.30	
2025-01-16 08:13:43.14	50.02	20.31	
2025-01-16 08:13:43.34	49.97	20.31	
2025-01-16 08:13:43.55	49.92	20.31	
2025-01-16 08:13:43.75	49.87	20.32	
2025-01-16 08:13:43.95	49.82	20.32	
2025-01-16 08:13:44.16	49.76	20.33	
2025-01-16 08:13:44.36	49.71	20.33	
2025-01-16 08:13:44.56	49.66	20.33	
2025-01-16 08:13:44.76	49.61	20.34	
2025-01-16 08:13:44.97	49.56	20.34	
2025-01-16 08:13:45.17	49.51	20.34	
2025-01-16 08:13:45.37	49.46	20.35	
2025-01-16 08:13:45.58	49.41	20.35	
2025-01-16 08:13:45.78	49.36	20.35	
2025-01-16 08:13:45.98	49.31	20.36	
2025-01-16 08:13:46.19	49.26	20.36	
2025-01-16 08:13:46.39	49.21	20.37	
2025-01-16 08:13:46.59	49.16	20.37	
2025-01-16 08:13:46.80	49.10	20.37	
2025-01-16 08:13:47.00	49.05	20.38	
2025-01-16 08:13:47.20	49.00	20.38	
2025-01-16 08:13:47.41	48.95	20.38	
2025-01-16 08:13:47.61	48.90	20.39	
2025-01-16 08:13:47.81	48.85	20.39	
2025-01-16 08:13:48.01	48.80	20.39	
2025-01-16 08:13:48.22	48.75	20.40	
2025-01-16 08:13:48.42	48.70	20.40	
2025-01-16 08:13:48.62	48.65	20.40	
2025-01-16 08:13:48.83	48.59	20.40	
2025-01-16 08:13:49.03	48.54	20.41	
2025-01-16 08:13:49.23	48.49	20.41	
2025-01-16 08:13:49.44	48.44	20.41	
2025-01-16 08:13:49.64	48.39	20.42	
2025-01-16 08:13:49.84	48.34	20.42	
2025-01-16 08:13:50.05	48.29	20.42	
2025-01-16 08:13:50.25	48.24	20.43	
2025-01-16 08:13:50.45	48.19	20.43	
2025-01-16 08:13:50.65	48.14	20.43	
2025-01-16 08:13:50.86	48.08	20.44	
2025-01-16 08:13:51.06	48.03	20.44	
2025-01-16 08:13:51.26	47.98	20.44	
2025-01-16 08:13:51.47	47.93	20.44	
2025-01-16 08:13:51.67	47.88	20.45	
2025-01-16 08:13:51.87	47.83	20.45	
2025-01-16 08:13:52.08	47.78	20.45	
2025-01-16 08:13:52.28	47.73	20.46	
2025-01-16 08:13:52.48	47.67	20.46	
2025-01-16 08:13:52.69	47.62	20.46	
2025-01-16 08:13:52.89	47.57	20.46	
2025-01-16 08:13:53.09	47.52	20.47	
2025-01-16 08:13:53.30	47.47	20.47	
2025-01-16 08:13:53.50	47.42	20.47	
2025-01-16 08:13:53.70	47.37	20.47	
2025-01-16 08:13:53.90	47.32	20.48	
2025-01-16 08:13:54.11	47.26	20.48	
2025-01-16 08:13:54.31	47.21	20.48	
2025-01-16 08:13:54.51	47.16	20.48	
2025-01-16 08:13:54.72	47.11	20.49	
2025-01-16 08:13:54.92	47.06	20.49	
2025-01-16 08:13:55.12	47.01	20.49	
2025-01-16 08:13:55.33	46.96	20.49	
2025-01-16 08:13:55.53	46.90	20.50	
2025-01-16 08:13:55.73	46.85	20.50	
2025-01-16 08:13:55.94	46.80	20.50	
2025-01-16 08:13:56.14	46.75	20.50	
2025-01-16 08:13:56.34	46.70	20.51	
2025-01-16 08:13:56.55	46.65	20.51	
2025-01-16 08:13:56.75	46.60	20.51	
2025-01-16 08:13:56.95	46.55	20.51	
2025-01-16 08:13:57.15	46.50	20.51	
2025-01-16 08:13:57.36	46.44	20.52	
2025-01-16 08:13:57.56	46.39	20.52	
2025-01-16 08:13:57.76	46.34	20.52	
2025-01-16 08:13:57.97	46.29	20.52	
2025-01-16 08:13:58.17	46.24	20.53	
2025-01-16 08:13:58.37	46.19	20.53	
2025-01-16 08:13:58.58	46.13	20.53	
2025-01-16 08:13:58.78	46.08	20.53	
2025-01-16 08:13:58.98	46.03	20.53	
2025-01-16 08:13:59.19	45.98	20.54	
2025-01-16 08:13:59.39	45.93	20.54	
2025-01-16 08:13:59.59	45.88	20.54	
2025-01-16 08:13:59.79	45.83	20.54	
2025-01-16 08:14:00.00	45.77	20.54	
2025-01-16 08:14:00.20	45.72	20.54	
2025-01-16 08:14:00.40	45.67	20.55	
2025-01-16 08:14:00.61	45.62	20.55	
2025-01-16 08:14:00.81	45.57	20.55	
2025-01-16 08:14:01.01	45.52	20.55	
2025-01-16 08:14:01.22	45.46	20.55	
2025-01-16 08:14:01.42	45.41	20.56	
2025-01-16 08:14:01.62	45.36	20.56	
2025-01-16 08:14:01.83	45.31	20.56	
2025-01-16 08:14:02.03	45.26	20.56	
2025-01-16 08:14:02.23	45.21	20.56	
2025-01-16 08:14:02.44	45.15	20.56	
2025-01-16 08:14:02.64	45.10	20.56	
2025-01-16 08:14:02.84	45.05	20.57	
2025-01-16 08:14:03.04	45.00	20.57	
2025-01-16 08:14:03.25	44.95	20.57	
2025-01-16 08:14:03.45	44.90	20.57	
2025-01-16 08:14:03.65	44.85	20.57	
2025-01-16 08:14:03.86	44.79	20.57	
2025-01-16 08:14:04.06	44.74	20.58	
2025-01-16 08:14:04.26	44.69	20.58	
2025-01-16 08:14:04.47	44.64	20.58	
2025-01-16 08:14:04.67	44.59	20.58	
2025-01-16 08:14:04.87	44.54	20.58	
2025-01-16 08:14:05.08	44.48	20.58	
2025-01-16 08:14:05.28	44.43	20.58	
2025-01-16 08:14:05.48	44.38	20.58	
2025-01-16 08:14:05.69	44.33	20.59	
2025-01-16 08:14:05.89	44.28	20.59	
2025-01-16 08:14:06.09	44.23	20.59	
2025-01-16 08:14:06.29	44.18	20.59	
2025-01-16 08:14:06.50	44.12	20.59	
2025-01-16 08:14:06.70	44.07	20.59	
2025-01-16 08:14:06.90	44.02	20.59	
2025-01-16 08:14:07.11	43.97	20.59	
2025-01-16 08:14:07.31	43.92	20.59	
2025-01-16 08:14:07.51	43.87	20.59	
2025-01-16 08:14:07.72	43.81	20.60	
2025-01-16 08:14:07.92	43.76	20.60	
2025-01-16 08:14:08.12	43.71	20.60	
2025-01-16 08:14:08.33	43.66	20.60	
2025-01-16 08:14:08.53	43.61	20.60	
2025-01-16 08:14:08.73	43.56	20.60	
2025-01-16 08:14:08.93	43.50	20.60	
2025-01-16 08:14:09.14	43.45	20.60	
2025-01-16 08:14:09.34	43.40	20.60	
2025-01-16 08:14:09.54	43.35	20.60	
2025-01-16 08:14:09.75	43.30	20.60	
2025-01-16 08:14:09.95	43.24	20.60	
2025-01-16 08:14:10.15	43.19	20.60	
2025-01-16 08:14:10.36	43.14	20.61	
2025-01-16 08:14:10.56	43.09	20.61	
2025-01-16 08:14:10.76	43.04	20.61	
2025-01-16 08:14:10.97	42.99	20.61	
2025-01-16 08:14:11.17	42.93	20.61	
2025-01-16 08:14:11.37	42.88	20.61	
2025-01-16 08:14:11.58	42.83	20.61	
2025-01-16 08:14:11.78	42.78	20.61	
2025-01-16 08:14:11.98	42.73	20.61	
2025-01-16 08:14:12.18	42.68	20.61	
2025-01-16 08:14:12.39	42.62	20.61	
2025-01-16 08:14:12.59	42.57	20.61	
2025-01-16 08:14:12.79	42.52	20.61	
2025-01-16 08:14:13.00	42.47	20.61	
2025-01-16 08:14:13.20	42.42	20.61	
2025-01-16 08:14:13.40	42.37	20.61	
2025-01-16 08:14:13.61	42.31	20.61	
2025-01-16 08:14:13.81	42.26	20.61	
2025-01-16 08:14:14.01	42.21	20.61	
2025-01-16 08:14:14.22	42.16	20.61	
2025-01-16 08:14:14.42	42.11	20.61	
2025-01-16 08:14:14.62	42.06	20.61	
2025-01-16 08:14:14.82	42.00	20.61	
2025-01-16 08:14:15.03	41.95	20.61	
2025-01-16 08:14:15.23	41.90	20.61	
2025-01-16 08:14:15.43	41.85	20.61	
2025-01-16 08:14:15.64	41.80	20.61	
2025-01-16 08:14:15.84	41.75	20.61	
2025-01-16 08:14:16.04	41.69	20.61	
2025-01-16 08:14:16.25	41.64	20.61	
2025-01-16 08:14:16.45	41.59	20.61	
2025-01-16 08:14:16.65	41.54	20.61	
2025-01-16 08:14:16.86	41.49	20.61	
2025-01-16 08:14:17.06	41.43	20.61	
2025-01-16 08:14:17.26	41.38	20.61	
2025-01-16 08:14:17.47	41.33	20.61	
2025-01-16 08:14:17.67	41.28	20.61	
2025-01-16 08:14:17.87	41.23	20.61	
2025-01-16 08:14:18.07	41.18	20.61	
2025-01-16 08:14:18.28	41.12	20.61	
2025-01-16 08:14:18.48	41.07	20.61	
2025-01-16 08:14:18.68	41.02	20.61	
2025-01-16 08:14:18.89	40.97	20.61	
2025-01-16 08:14:19.09	40.92	20.61	
2025-01-16 08:14:19.29	40.87	20.61	
2025-01-16 08:14:19.50	40.81	20.61	
2025-01-16 08:14:19.70	40.76	20.61	
2025-01-16 08:14:19.90	40.71	20.61	
2025-01-16 08:14:20.11	40.66	20.61	
2025-01-16 08:14:20.31	40.61	20.61	
2025-01-16 08:14:20.51	40.56	20.60	
2025-01-16 08:14:20.72	40.50	20.60	
2025-01-16 08:14:20.92	40.45	20.60	
2025-01-16 08:14:21.12	40.40	20.60	
2025-01-16 08:14:21.32	40.35	20.60	
2025-01-16 08:14:21.53	40.30	20.60	
2025-01-16 08:14:21.73	40.25	20.60	
2025-01-16 08:14:21.93	40.20	20.60	
2025-01-16 08:14:22.14	40.14	20.60	
2025-01-16 08:14:22.34	40.09	20.60	
2025-01-16 08:14:22.54	40.04	20.60	
2025-01-16 08:14:22.75	39.99	20.60	
2025-01-16 08:14:22.95	39.94	20.60	
2025-01-16 08:14:23.15	39.88	20.59	
