passes_logs/2025/01/16/SPB_Silybum_02/SPB_Silybum_02__20250116_181524_TERRA_rec.log

#Pass ID: 20250116_181524_TERRA
#Satellite: TERRA
#Configuration: TERRA
#Start time: 2025-01-16 18:15:23

#Version: 2.0.20230423
#Station: SPB_Silybum_02
#Location: 30.233357 lon 59.946436 lat
#TLE: 1 25994U 99068A   25015.81469206  .00000761  00000+0  16641-3 0  9994
#TLE: 2 25994  98.0214  78.8192 0003429  70.9720  38.3229 14.60396307334199

#Time	Az	El	Level	Level2	SNR	BER	Gain	Gain2
2025-01-16 18:15:25.90	153.18	4.10	
2025-01-16 18:15:26.10	153.17	4.12	
2025-01-16 18:15:26.31	153.17	4.13	
2025-01-16 18:15:26.51	153.17	4.15	
2025-01-16 18:15:26.71	153.17	4.16	
2025-01-16 18:15:26.92	153.17	4.18	
2025-01-16 18:15:27.12	153.16	4.19	
2025-01-16 18:15:27.32	153.16	4.20	
2025-01-16 18:15:27.52	153.16	4.22	
2025-01-16 18:15:27.73	153.16	4.23	
2025-01-16 18:15:27.93	153.15	4.25	
2025-01-16 18:15:28.13	153.15	4.26	
2025-01-16 18:15:28.34	153.15	4.28	
2025-01-16 18:15:28.54	153.15	4.29	
2025-01-16 18:15:28.74	153.15	4.31	
2025-01-16 18:15:28.95	153.14	4.32	
2025-01-16 18:15:29.15	153.14	4.34	
2025-01-16 18:15:29.35	153.14	4.35	
2025-01-16 18:15:29.56	153.14	4.37	
2025-01-16 18:15:29.76	153.13	4.38	
2025-01-16 18:15:29.96	153.13	4.40	
2025-01-16 18:15:30.16	153.13	4.41	
2025-01-16 18:15:30.37	153.13	4.43	
2025-01-16 18:15:30.57	153.13	4.44	
2025-01-16 18:15:30.77	153.12	4.46	
2025-01-16 18:15:30.98	153.12	4.47	
2025-01-16 18:15:31.18	153.12	4.49	
2025-01-16 18:15:31.38	153.12	4.50	
2025-01-16 18:15:31.59	153.11	4.52	
2025-01-16 18:15:31.79	153.11	4.53	
2025-01-16 18:15:31.99	153.11	4.55	
2025-01-16 18:15:32.20	153.11	4.56	
2025-01-16 18:15:32.40	153.11	4.58	
2025-01-16 18:15:32.60	153.10	4.59	
2025-01-16 18:15:32.80	153.10	4.61	
2025-01-16 18:15:33.01	153.10	4.62	
2025-01-16 18:15:33.21	153.10	4.64	
2025-01-16 18:15:33.41	153.09	4.65	
2025-01-16 18:15:33.62	153.09	4.67	
2025-01-16 18:15:33.82	153.09	4.68	
2025-01-16 18:15:34.02	153.09	4.70	
2025-01-16 18:15:34.23	153.08	4.71	
2025-01-16 18:15:34.43	153.08	4.73	
2025-01-16 18:15:34.63	153.08	4.74	
2025-01-16 18:15:34.84	153.08	4.76	
2025-01-16 18:15:35.04	153.08	4.77	
2025-01-16 18:15:35.24	153.07	4.79	
2025-01-16 18:15:35.44	153.07	4.80	
2025-01-16 18:15:35.65	153.07	4.82	
2025-01-16 18:15:35.85	153.07	4.83	
2025-01-16 18:15:36.05	153.06	4.85	
2025-01-16 18:15:36.26	153.06	4.86	
2025-01-16 18:15:36.46	153.06	4.88	
2025-01-16 18:15:36.66	153.06	4.89	
2025-01-16 18:15:36.87	153.05	4.91	
2025-01-16 18:15:37.07	153.05	4.92	
2025-01-16 18:15:37.27	153.05	4.94	
2025-01-16 18:15:37.48	153.05	4.95	
2025-01-16 18:15:37.68	153.05	4.97	
2025-01-16 18:15:37.88	153.04	4.98	
2025-01-16 18:15:38.08	153.04	5.00	
2025-01-16 18:15:38.29	153.04	5.01	
2025-01-16 18:15:38.49	153.04	5.03	
2025-01-16 18:15:38.69	153.03	5.04	
2025-01-16 18:15:38.90	153.03	5.06	
2025-01-16 18:15:39.10	153.03	5.08	
2025-01-16 18:15:39.30	153.03	5.09	
2025-01-16 18:15:39.51	153.02	5.11	
2025-01-16 18:15:39.71	153.02	5.12	
2025-01-16 18:15:39.91	153.02	5.14	
2025-01-16 18:15:40.11	153.02	5.15	
2025-01-16 18:15:40.32	153.01	5.17	
2025-01-16 18:15:40.52	153.01	5.18	
2025-01-16 18:15:40.72	153.01	5.20	
2025-01-16 18:15:40.93	153.01	5.21	
2025-01-16 18:15:41.13	153.00	5.23	
2025-01-16 18:15:41.33	153.00	5.24	
2025-01-16 18:15:41.54	153.00	5.26	
2025-01-16 18:15:41.74	153.00	5.27	
2025-01-16 18:15:41.94	153.00	5.29	
2025-01-16 18:15:42.15	152.99	5.31	
2025-01-16 18:15:42.35	152.99	5.32	
2025-01-16 18:15:42.55	152.99	5.34	
2025-01-16 18:15:42.76	152.99	5.35	
2025-01-16 18:15:42.96	152.98	5.37	
2025-01-16 18:15:43.16	152.98	5.38	
2025-01-16 18:15:43.36	152.98	5.40	
2025-01-16 18:15:43.57	152.98	5.41	
2025-01-16 18:15:43.77	152.97	5.43	
2025-01-16 18:15:43.97	152.97	5.44	
2025-01-16 18:15:44.18	152.97	5.46	
2025-01-16 18:15:44.38	152.97	5.48	
2025-01-16 18:15:44.58	152.96	5.49	
2025-01-16 18:15:44.79	152.96	5.51	
2025-01-16 18:15:44.99	152.96	5.52	
2025-01-16 18:15:45.19	152.96	5.54	
2025-01-16 18:15:45.39	152.95	5.55	
2025-01-16 18:15:45.60	152.95	5.57	
2025-01-16 18:15:45.80	152.95	5.58	
2025-01-16 18:15:46.00	152.95	5.60	
2025-01-16 18:15:46.21	152.94	5.62	
2025-01-16 18:15:46.41	152.94	5.63	
2025-01-16 18:15:46.61	152.94	5.65	
2025-01-16 18:15:46.82	152.94	5.66	
2025-01-16 18:15:47.02	152.93	5.68	
2025-01-16 18:15:47.22	152.93	5.69	
2025-01-16 18:15:47.43	152.93	5.71	
2025-01-16 18:15:47.63	152.93	5.73	
2025-01-16 18:15:47.83	152.92	5.74	
2025-01-16 18:15:48.03	152.92	5.76	
2025-01-16 18:15:48.24	152.92	5.77	
2025-01-16 18:15:48.44	152.92	5.79	
2025-01-16 18:15:48.64	152.91	5.80	
2025-01-16 18:15:48.85	152.91	5.82	
2025-01-16 18:15:49.05	152.91	5.84	
2025-01-16 18:15:49.25	152.91	5.85	
2025-01-16 18:15:49.46	152.90	5.87	
2025-01-16 18:15:49.66	152.90	5.88	
2025-01-16 18:15:49.86	152.90	5.90	
2025-01-16 18:15:50.07	152.90	5.92	
2025-01-16 18:15:50.27	152.89	5.93	
2025-01-16 18:15:50.47	152.89	5.95	
2025-01-16 18:15:50.67	152.89	5.96	
2025-01-16 18:15:50.88	152.88	5.98	
2025-01-16 18:15:51.08	152.88	5.99	
2025-01-16 18:15:51.28	152.88	6.01	
2025-01-16 18:15:51.49	152.88	6.03	
2025-01-16 18:15:51.69	152.87	6.04	
2025-01-16 18:15:51.89	152.87	6.06	
2025-01-16 18:15:52.10	152.87	6.07	
2025-01-16 18:15:52.30	152.87	6.09	
2025-01-16 18:15:52.50	152.86	6.11	
2025-01-16 18:15:52.71	152.86	6.12	
2025-01-16 18:15:52.91	152.86	6.14	
2025-01-16 18:15:53.11	152.86	6.15	
2025-01-16 18:15:53.31	152.85	6.17	
2025-01-16 18:15:53.52	152.85	6.19	
2025-01-16 18:15:53.72	152.85	6.20	
2025-01-16 18:15:53.92	152.85	6.22	
2025-01-16 18:15:54.13	152.84	6.23	
2025-01-16 18:15:54.33	152.84	6.25	
2025-01-16 18:15:54.53	152.84	6.27	
2025-01-16 18:15:54.74	152.84	6.28	
2025-01-16 18:15:54.94	152.83	6.30	
2025-01-16 18:15:55.14	152.83	6.31	
2025-01-16 18:15:55.35	152.83	6.33	
2025-01-16 18:15:55.55	152.82	6.35	
2025-01-16 18:15:55.75	152.82	6.36	
2025-01-16 18:15:55.95	152.82	6.38	
2025-01-16 18:15:56.16	152.82	6.39	
2025-01-16 18:15:56.36	152.81	6.41	
2025-01-16 18:15:56.56	152.81	6.43	
2025-01-16 18:15:56.77	152.81	6.44	
2025-01-16 18:15:56.97	152.81	6.46	
2025-01-16 18:15:57.17	152.80	6.48	
2025-01-16 18:15:57.38	152.80	6.49	
2025-01-16 18:15:57.58	152.80	6.51	
2025-01-16 18:15:57.78	152.79	6.52	
2025-01-16 18:15:57.99	152.79	6.54	
2025-01-16 18:15:58.19	152.79	6.56	
2025-01-16 18:15:58.39	152.79	6.57	
2025-01-16 18:15:58.59	152.78	6.59	
2025-01-16 18:15:58.80	152.78	6.61	
2025-01-16 18:15:59.00	152.78	6.62	
2025-01-16 18:15:59.20	152.78	6.64	
2025-01-16 18:15:59.41	152.77	6.65	
2025-01-16 18:15:59.61	152.77	6.67	
2025-01-16 18:15:59.81	152.77	6.69	
2025-01-16 18:16:00.02	152.76	6.70	
2025-01-16 18:16:00.22	152.76	6.72	
2025-01-16 18:16:00.42	152.76	6.74	
2025-01-16 18:16:00.63	152.76	6.75	
2025-01-16 18:16:00.83	152.75	6.77	
2025-01-16 18:16:01.03	152.75	6.79	
2025-01-16 18:16:01.23	152.75	6.80	
2025-01-16 18:16:01.44	152.75	6.82	
2025-01-16 18:16:01.64	152.74	6.83	
2025-01-16 18:16:01.84	152.74	6.85	
2025-01-16 18:16:02.05	152.74	6.87	
2025-01-16 18:16:02.25	152.73	6.88	
2025-01-16 18:16:02.45	152.73	6.90	
2025-01-16 18:16:02.66	152.73	6.92	
2025-01-16 18:16:02.86	152.73	6.93	
2025-01-16 18:16:03.06	152.72	6.95	
2025-01-16 18:16:03.27	152.72	6.97	
2025-01-16 18:16:03.47	152.72	6.98	
2025-01-16 18:16:03.67	152.71	7.00	
2025-01-16 18:16:03.87	152.71	7.02	
2025-01-16 18:16:04.08	152.71	7.03	
2025-01-16 18:16:04.28	152.71	7.05	
2025-01-16 18:16:04.48	152.70	7.07	
2025-01-16 18:16:04.69	152.70	7.08	
2025-01-16 18:16:04.89	152.70	7.10	
2025-01-16 18:16:05.09	152.69	7.12	
2025-01-16 18:16:05.30	152.69	7.13	
2025-01-16 18:16:05.50	152.69	7.15	
2025-01-16 18:16:05.70	152.69	7.17	
2025-01-16 18:16:05.91	152.68	7.18	
2025-01-16 18:16:06.11	152.68	7.20	
2025-01-16 18:16:06.31	152.68	7.22	
2025-01-16 18:16:06.51	152.67	7.23	
2025-01-16 18:16:06.72	152.67	7.25	
2025-01-16 18:16:06.92	152.67	7.27	
2025-01-16 18:16:07.12	152.67	7.28	
2025-01-16 18:16:07.33	152.66	7.30	
2025-01-16 18:16:07.53	152.66	7.32	
2025-01-16 18:16:07.73	152.66	7.33	
2025-01-16 18:16:07.94	152.65	7.35	
2025-01-16 18:16:08.14	152.65	7.37	
2025-01-16 18:16:08.34	152.65	7.38	
2025-01-16 18:16:08.55	152.65	7.40	
2025-01-16 18:16:08.75	152.64	7.42	
2025-01-16 18:16:08.95	152.64	7.44	
2025-01-16 18:16:09.15	152.64	7.45	
2025-01-16 18:16:09.36	152.63	7.47	
2025-01-16 18:16:09.56	152.63	7.49	
2025-01-16 18:16:09.76	152.63	7.50	
2025-01-16 18:16:09.97	152.62	7.52	
2025-01-16 18:16:10.17	152.62	7.54	
2025-01-16 18:16:10.37	152.62	7.55	
2025-01-16 18:16:10.58	152.62	7.57	
2025-01-16 18:16:10.78	152.61	7.59	
2025-01-16 18:16:10.98	152.61	7.60	
2025-01-16 18:16:11.19	152.61	7.62	
2025-01-16 18:16:11.39	152.60	7.64	
2025-01-16 18:16:11.59	152.60	7.66	
2025-01-16 18:16:11.79	152.60	7.67	
2025-01-16 18:16:12.00	152.59	7.69	
2025-01-16 18:16:12.20	152.59	7.71	
2025-01-16 18:16:12.40	152.59	7.72	
2025-01-16 18:16:12.61	152.59	7.74	
2025-01-16 18:16:12.81	152.58	7.76	
2025-01-16 18:16:13.01	152.58	7.78	
2025-01-16 18:16:13.22	152.58	7.79	
2025-01-16 18:16:13.42	152.57	7.81	
2025-01-16 18:16:13.62	152.57	7.83	
2025-01-16 18:16:13.83	152.57	7.84	
2025-01-16 18:16:14.03	152.56	7.86	
2025-01-16 18:16:14.23	152.56	7.88	
2025-01-16 18:16:14.43	152.56	7.90	
2025-01-16 18:16:14.64	152.55	7.91	
2025-01-16 18:16:14.84	152.55	7.93	
2025-01-16 18:16:15.04	152.55	7.95	
2025-01-16 18:16:15.25	152.55	7.97	
2025-01-16 18:16:15.45	152.54	7.98	
2025-01-16 18:16:15.65	152.54	8.00	
2025-01-16 18:16:15.86	152.54	8.02	
2025-01-16 18:16:16.06	152.53	8.03	
2025-01-16 18:16:16.26	152.53	8.05	
2025-01-16 18:16:16.47	152.53	8.07	
2025-01-16 18:16:16.67	152.52	8.09	
2025-01-16 18:16:16.87	152.52	8.10	
2025-01-16 18:16:17.07	152.52	8.12	
2025-01-16 18:16:17.28	152.51	8.14	
2025-01-16 18:16:17.48	152.51	8.16	
2025-01-16 18:16:17.68	152.51	8.17	
2025-01-16 18:16:17.89	152.51	8.19	
2025-01-16 18:16:18.09	152.50	8.21	
2025-01-16 18:16:18.29	152.50	8.23	
2025-01-16 18:16:18.50	152.50	8.24	
2025-01-16 18:16:18.70	152.49	8.26	
2025-01-16 18:16:18.90	152.49	8.28	
2025-01-16 18:16:19.11	152.49	8.30	
2025-01-16 18:16:19.31	152.48	8.31	
2025-01-16 18:16:19.52	152.48	8.33	
2025-01-16 18:16:19.72	152.48	8.35	
2025-01-16 18:16:19.92	152.47	8.37	
2025-01-16 18:16:20.13	152.47	8.38	
2025-01-16 18:16:20.33	152.47	8.40	
2025-01-16 18:16:20.53	152.46	8.42	
2025-01-16 18:16:20.73	152.46	8.44	
2025-01-16 18:16:20.94	152.46	8.46	
2025-01-16 18:16:21.14	152.45	8.47	
2025-01-16 18:16:21.34	152.45	8.49	
2025-01-16 18:16:21.55	152.45	8.51	
2025-01-16 18:16:21.75	152.44	8.53	
2025-01-16 18:16:21.95	152.44	8.54	
2025-01-16 18:16:22.16	152.44	8.56	
2025-01-16 18:16:22.36	152.43	8.58	
2025-01-16 18:16:22.56	152.43	8.60	
2025-01-16 18:16:22.77	152.43	8.61	
2025-01-16 18:16:22.97	152.42	8.63	
2025-01-16 18:16:23.17	152.42	8.65	
2025-01-16 18:16:23.37	152.42	8.67	
2025-01-16 18:16:23.58	152.41	8.69	
2025-01-16 18:16:23.78	152.41	8.70	
2025-01-16 18:16:23.98	152.41	8.72	
2025-01-16 18:16:24.19	152.40	8.74	
2025-01-16 18:16:24.39	152.40	8.76	
2025-01-16 18:16:24.59	152.40	8.77	
2025-01-16 18:16:24.80	152.39	8.79	
2025-01-16 18:16:25.00	152.39	8.81	
2025-01-16 18:16:25.20	152.39	8.83	
2025-01-16 18:16:25.41	152.38	8.85	
2025-01-16 18:16:25.61	152.38	8.86	
2025-01-16 18:16:25.81	152.38	8.88	
2025-01-16 18:16:26.01	152.38	8.90	
2025-01-16 18:16:26.22	152.37	8.92	
2025-01-16 18:16:26.42	152.37	8.94	
2025-01-16 18:16:26.62	152.36	8.95	
2025-01-16 18:16:26.83	152.36	8.97	
2025-01-16 18:16:27.03	152.36	8.99	
2025-01-16 18:16:27.24	152.35	9.01	
2025-01-16 18:16:27.45	152.35	9.03	
2025-01-16 18:16:27.65	152.35	9.05	
2025-01-16 18:16:27.85	152.34	9.06	
2025-01-16 18:16:28.06	152.34	9.08	
2025-01-16 18:16:28.26	152.34	9.10	
2025-01-16 18:16:28.46	152.33	9.12	
2025-01-16 18:16:28.67	152.33	9.14	
2025-01-16 18:16:28.87	152.33	9.16	
2025-01-16 18:16:29.07	152.32	9.17	
2025-01-16 18:16:29.28	152.32	9.19	
2025-01-16 18:16:29.48	152.32	9.21	
2025-01-16 18:16:29.68	152.31	9.23	
2025-01-16 18:16:29.88	152.31	9.25	
2025-01-16 18:16:30.09	152.31	9.27	
2025-01-16 18:16:30.29	152.30	9.28	
2025-01-16 18:16:30.49	152.30	9.30	
2025-01-16 18:16:30.70	152.30	9.32	
2025-01-16 18:16:30.90	152.29	9.34	
2025-01-16 18:16:31.10	152.29	9.36	
2025-01-16 18:16:31.31	152.29	9.38	
2025-01-16 18:16:31.51	152.28	9.39	
2025-01-16 18:16:31.71	152.28	9.41	
2025-01-16 18:16:31.92	152.28	9.43	
2025-01-16 18:16:32.12	152.27	9.45	
2025-01-16 18:16:32.32	152.27	9.47	
2025-01-16 18:16:32.52	152.26	9.49	
2025-01-16 18:16:32.73	152.26	9.50	
2025-01-16 18:16:32.93	152.26	9.52	
2025-01-16 18:16:33.13	152.25	9.54	
2025-01-16 18:16:33.34	152.25	9.56	
2025-01-16 18:16:33.54	152.25	9.58	
2025-01-16 18:16:33.74	152.24	9.60	
2025-01-16 18:16:33.95	152.24	9.62	
2025-01-16 18:16:34.15	152.24	9.63	
2025-01-16 18:16:34.35	152.23	9.65	
2025-01-16 18:16:34.56	152.23	9.67	
2025-01-16 18:16:34.76	152.23	9.69	
2025-01-16 18:16:34.96	152.22	9.71	
2025-01-16 18:16:35.16	152.22	9.73	
2025-01-16 18:16:35.37	152.21	9.75	
2025-01-16 18:16:35.57	152.21	9.77	
2025-01-16 18:16:35.77	152.21	9.78	
2025-01-16 18:16:35.98	152.20	9.80	
2025-01-16 18:16:36.20	152.20	9.82	
2025-01-16 18:16:36.40	152.20	9.84	
2025-01-16 18:16:36.60	152.19	9.86	
2025-01-16 18:16:36.80	152.19	9.88	
2025-01-16 18:16:37.01	152.19	9.90	
2025-01-16 18:16:37.21	152.18	9.92	
2025-01-16 18:16:37.41	152.18	9.94	
2025-01-16 18:16:37.62	152.17	9.95	
2025-01-16 18:16:37.82	152.17	9.97	
2025-01-16 18:16:38.02	152.17	9.99	
2025-01-16 18:16:38.23	152.16	10.01	
2025-01-16 18:16:38.43	152.16	10.03	
2025-01-16 18:16:38.63	152.16	10.05	
2025-01-16 18:16:38.84	152.15	10.07	
2025-01-16 18:16:39.04	152.15	10.09	
2025-01-16 18:16:39.24	152.14	10.11	
2025-01-16 18:16:39.44	152.14	10.12	
2025-01-16 18:16:39.65	152.14	10.14	
2025-01-16 18:16:39.85	152.13	10.16	
2025-01-16 18:16:40.05	152.13	10.18	
2025-01-16 18:16:40.26	152.13	10.20	
2025-01-16 18:16:40.46	152.12	10.22	
2025-01-16 18:16:40.66	152.12	10.24	
2025-01-16 18:16:40.87	152.11	10.26	
2025-01-16 18:16:41.07	152.11	10.28	
2025-01-16 18:16:41.27	152.11	10.30	
2025-01-16 18:16:41.48	152.10	10.32	
2025-01-16 18:16:41.68	152.10	10.34	
2025-01-16 18:16:41.88	152.10	10.35	
2025-01-16 18:16:42.08	152.09	10.37	
2025-01-16 18:16:42.29	152.09	10.39	
2025-01-16 18:16:42.49	152.08	10.41	
2025-01-16 18:16:42.69	152.08	10.43	
2025-01-16 18:16:42.90	152.08	10.45	
2025-01-16 18:16:43.10	152.07	10.47	
2025-01-16 18:16:43.30	152.07	10.49	
2025-01-16 18:16:43.51	152.07	10.51	
2025-01-16 18:16:43.71	152.06	10.53	
2025-01-16 18:16:43.91	152.06	10.55	
2025-01-16 18:16:44.12	152.05	10.57	
2025-01-16 18:16:44.32	152.05	10.59	
2025-01-16 18:16:44.52	152.05	10.61	
2025-01-16 18:16:44.72	152.04	10.62	
2025-01-16 18:16:44.93	152.04	10.65	
2025-01-16 18:16:45.13	152.03	10.66	
2025-01-16 18:16:45.33	152.03	10.68	
2025-01-16 18:16:45.54	152.03	10.70	
2025-01-16 18:16:45.74	152.02	10.72	
2025-01-16 18:16:45.94	152.02	10.74	
2025-01-16 18:16:46.15	152.01	10.76	
2025-01-16 18:16:46.35	152.01	10.78	
2025-01-16 18:16:46.55	152.01	10.80	
2025-01-16 18:16:46.76	152.00	10.82	
2025-01-16 18:16:46.96	152.00	10.84	
2025-01-16 18:16:47.16	152.00	10.86	
2025-01-16 18:16:47.36	151.99	10.88	
2025-01-16 18:16:47.57	151.99	10.90	
2025-01-16 18:16:47.77	151.98	10.92	
2025-01-16 18:16:47.97	151.98	10.94	
2025-01-16 18:16:48.18	151.98	10.96	
2025-01-16 18:16:48.38	151.97	10.98	
2025-01-16 18:16:48.58	151.97	11.00	
2025-01-16 18:16:48.79	151.96	11.02	
2025-01-16 18:16:48.99	151.96	11.04	
2025-01-16 18:16:49.19	151.96	11.06	
2025-01-16 18:16:49.40	151.95	11.08	
2025-01-16 18:16:49.60	151.95	11.10	
2025-01-16 18:16:49.80	151.94	11.12	
2025-01-16 18:16:50.00	151.94	11.14	
2025-01-16 18:16:50.21	151.93	11.16	
2025-01-16 18:16:50.41	151.93	11.18	
2025-01-16 18:16:50.61	151.93	11.20	
2025-01-16 18:16:50.82	151.92	11.22	
2025-01-16 18:16:51.02	151.92	11.24	
2025-01-16 18:16:51.22	151.91	11.26	
2025-01-16 18:16:51.43	151.91	11.28	
2025-01-16 18:16:51.63	151.91	11.30	
2025-01-16 18:16:51.83	151.90	11.32	
2025-01-16 18:16:52.04	151.90	11.34	
2025-01-16 18:16:52.24	151.89	11.36	
2025-01-16 18:16:52.44	151.89	11.38	
2025-01-16 18:16:52.64	151.89	11.40	
2025-01-16 18:16:52.85	151.88	11.42	
2025-01-16 18:16:53.05	151.88	11.44	
2025-01-16 18:16:53.25	151.87	11.46	
2025-01-16 18:16:53.46	151.87	11.48	
2025-01-16 18:16:53.66	151.86	11.50	
2025-01-16 18:16:53.86	151.86	11.52	
2025-01-16 18:16:54.07	151.86	11.54	
2025-01-16 18:16:54.27	151.85	11.56	
2025-01-16 18:16:54.47	151.85	11.58	
2025-01-16 18:16:54.68	151.84	11.60	
2025-01-16 18:16:54.88	151.84	11.62	
2025-01-16 18:16:55.08	151.84	11.64	
2025-01-16 18:16:55.28	151.83	11.66	
2025-01-16 18:16:55.49	151.83	11.68	
2025-01-16 18:16:55.69	151.82	11.70	
2025-01-16 18:16:55.89	151.82	11.72	
2025-01-16 18:16:56.10	151.81	11.74	
2025-01-16 18:16:56.30	151.81	11.76	
2025-01-16 18:16:56.50	151.81	11.78	
2025-01-16 18:16:56.71	151.80	11.80	
2025-01-16 18:16:56.91	151.80	11.82	
2025-01-16 18:16:57.11	151.79	11.84	
2025-01-16 18:16:57.32	151.79	11.87	
2025-01-16 18:16:57.52	151.78	11.89	
2025-01-16 18:16:57.72	151.78	11.91	
2025-01-16 18:16:57.92	151.78	11.93	
2025-01-16 18:16:58.13	151.77	11.95	
2025-01-16 18:16:58.33	151.77	11.97	
2025-01-16 18:16:58.53	151.76	11.99	
2025-01-16 18:16:58.74	151.76	12.01	
2025-01-16 18:16:58.94	151.75	12.03	
2025-01-16 18:16:59.14	151.75	12.05	
2025-01-16 18:16:59.35	151.74	12.07	
2025-01-16 18:16:59.55	151.74	12.09	
2025-01-16 18:16:59.75	151.74	12.11	
2025-01-16 18:16:59.96	151.73	12.13	
2025-01-16 18:17:00.16	151.73	12.16	
2025-01-16 18:17:00.36	151.72	12.18	
2025-01-16 18:17:00.56	151.72	12.20	
2025-01-16 18:17:00.77	151.71	12.22	
2025-01-16 18:17:00.97	151.71	12.24	
2025-01-16 18:17:01.17	151.70	12.26	
2025-01-16 18:17:01.38	151.70	12.28	
2025-01-16 18:17:01.58	151.70	12.30	
2025-01-16 18:17:01.78	151.69	12.32	
2025-01-16 18:17:01.99	151.69	12.34	
2025-01-16 18:17:02.19	151.68	12.36	
2025-01-16 18:17:02.39	151.68	12.39	
2025-01-16 18:17:02.60	151.67	12.41	
2025-01-16 18:17:02.80	151.67	12.43	
2025-01-16 18:17:03.00	151.66	12.45	
2025-01-16 18:17:03.20	151.66	12.47	
2025-01-16 18:17:03.41	151.66	12.49	
2025-01-16 18:17:03.61	151.65	12.51	
2025-01-16 18:17:03.81	151.65	12.53	
2025-01-16 18:17:04.02	151.64	12.56	
2025-01-16 18:17:04.22	151.64	12.58	
2025-01-16 18:17:04.42	151.63	12.60	
2025-01-16 18:17:04.63	151.63	12.62	
2025-01-16 18:17:04.83	151.62	12.64	
2025-01-16 18:17:05.03	151.62	12.66	
2025-01-16 18:17:05.24	151.61	12.68	
2025-01-16 18:17:05.44	151.61	12.70	
2025-01-16 18:17:05.64	151.60	12.73	
2025-01-16 18:17:05.84	151.60	12.75	
2025-01-16 18:17:06.05	151.60	12.77	
2025-01-16 18:17:06.25	151.59	12.79	
2025-01-16 18:17:06.45	151.59	12.81	
2025-01-16 18:17:06.66	151.58	12.83	
2025-01-16 18:17:06.86	151.58	12.85	
2025-01-16 18:17:07.06	151.57	12.88	
2025-01-16 18:17:07.27	151.57	12.90	
2025-01-16 18:17:07.47	151.56	12.92	
2025-01-16 18:17:07.67	151.56	12.94	
2025-01-16 18:17:07.87	151.55	12.96	
2025-01-16 18:17:08.08	151.55	12.98	
2025-01-16 18:17:08.28	151.54	13.00	
2025-01-16 18:17:08.48	151.54	13.03	
2025-01-16 18:17:08.69	151.53	13.05	
2025-01-16 18:17:08.89	151.53	13.07	
2025-01-16 18:17:09.09	151.53	13.09	
2025-01-16 18:17:09.30	151.52	13.11	
2025-01-16 18:17:09.50	151.52	13.14	
2025-01-16 18:17:09.70	151.51	13.16	
2025-01-16 18:17:09.91	151.51	13.18	
2025-01-16 18:17:10.11	151.50	13.20	
2025-01-16 18:17:10.31	151.50	13.22	
2025-01-16 18:17:10.52	151.49	13.25	
2025-01-16 18:17:10.72	151.49	13.27	
2025-01-16 18:17:10.92	151.48	13.29	
2025-01-16 18:17:11.12	151.48	13.31	
2025-01-16 18:17:11.33	151.47	13.33	
2025-01-16 18:17:11.53	151.47	13.35	
2025-01-16 18:17:11.73	151.46	13.38	
2025-01-16 18:17:11.94	151.46	13.40	
2025-01-16 18:17:12.14	151.45	13.42	
2025-01-16 18:17:12.34	151.45	13.44	
2025-01-16 18:17:12.55	151.44	13.46	
2025-01-16 18:17:12.75	151.44	13.49	
2025-01-16 18:17:12.95	151.43	13.51	
2025-01-16 18:17:13.16	151.43	13.53	
2025-01-16 18:17:13.36	151.42	13.55	
2025-01-16 18:17:13.56	151.42	13.58	
2025-01-16 18:17:13.76	151.41	13.60	
2025-01-16 18:17:13.97	151.41	13.62	
2025-01-16 18:17:14.17	151.40	13.64	
2025-01-16 18:17:14.37	151.40	13.66	
2025-01-16 18:17:14.58	151.39	13.69	
2025-01-16 18:17:14.78	151.39	13.71	
2025-01-16 18:17:14.98	151.38	13.73	
2025-01-16 18:17:15.19	151.38	13.75	
2025-01-16 18:17:15.39	151.37	13.78	
2025-01-16 18:17:15.59	151.37	13.80	
2025-01-16 18:17:15.80	151.36	13.82	
2025-01-16 18:17:16.00	151.36	13.84	
2025-01-16 18:17:16.20	151.35	13.87	
2025-01-16 18:17:16.40	151.35	13.89	
2025-01-16 18:17:16.61	151.34	13.91	
2025-01-16 18:17:16.81	151.34	13.93	
2025-01-16 18:17:17.01	151.33	13.96	
2025-01-16 18:17:17.22	151.33	13.98	
2025-01-16 18:17:17.42	151.32	14.00	
2025-01-16 18:17:17.62	151.32	14.02	
2025-01-16 18:17:17.83	151.31	14.05	
2025-01-16 18:17:18.03	151.31	14.07	
2025-01-16 18:17:18.23	151.30	14.09	
2025-01-16 18:17:18.44	151.30	14.12	
2025-01-16 18:17:18.64	151.29	14.14	
2025-01-16 18:17:18.84	151.29	14.16	
2025-01-16 18:17:19.04	151.28	14.18	
2025-01-16 18:17:19.25	151.28	14.21	
2025-01-16 18:17:19.45	151.27	14.23	
2025-01-16 18:17:19.65	151.27	14.25	
2025-01-16 18:17:19.86	151.26	14.28	
2025-01-16 18:17:20.06	151.25	14.30	
2025-01-16 18:17:20.26	151.25	14.32	
2025-01-16 18:17:20.47	151.24	14.34	
2025-01-16 18:17:20.67	151.24	14.37	
2025-01-16 18:17:20.87	151.23	14.39	
2025-01-16 18:17:21.07	151.23	14.41	
2025-01-16 18:17:21.28	151.22	14.44	
2025-01-16 18:17:21.48	151.22	14.46	
2025-01-16 18:17:21.68	151.21	14.48	
2025-01-16 18:17:21.89	151.21	14.51	
2025-01-16 18:17:22.09	151.20	14.53	
2025-01-16 18:17:22.29	151.20	14.55	
2025-01-16 18:17:22.50	151.19	14.58	
2025-01-16 18:17:22.70	151.19	14.60	
2025-01-16 18:17:22.90	151.18	14.62	
2025-01-16 18:17:23.11	151.17	14.65	
2025-01-16 18:17:23.31	151.17	14.67	
2025-01-16 18:17:23.51	151.16	14.69	
2025-01-16 18:17:23.71	151.16	14.71	
2025-01-16 18:17:23.92	151.15	14.74	
2025-01-16 18:17:24.12	151.15	14.76	
2025-01-16 18:17:24.32	151.14	14.78	
2025-01-16 18:17:24.53	151.14	14.81	
2025-01-16 18:17:24.73	151.13	14.83	
2025-01-16 18:17:24.93	151.13	14.86	
2025-01-16 18:17:25.14	151.12	14.88	
2025-01-16 18:17:25.34	151.11	14.90	
2025-01-16 18:17:25.54	151.11	14.93	
2025-01-16 18:17:25.75	151.10	14.95	
2025-01-16 18:17:25.95	151.10	14.97	
2025-01-16 18:17:26.15	151.09	15.00	
2025-01-16 18:17:26.35	151.09	15.02	
2025-01-16 18:17:26.56	151.08	15.04	
2025-01-16 18:17:26.76	151.08	15.07	
2025-01-16 18:17:26.96	151.07	15.09	
2025-01-16 18:17:27.17	151.06	15.12	
2025-01-16 18:17:27.37	151.06	15.14	
2025-01-16 18:17:27.57	151.05	15.16	
2025-01-16 18:17:27.78	151.05	15.19	
2025-01-16 18:17:27.98	151.04	15.21	
2025-01-16 18:17:28.18	151.04	15.24	
2025-01-16 18:17:28.39	151.03	15.26	
2025-01-16 18:17:28.59	151.02	15.28	
2025-01-16 18:17:28.79	151.02	15.31	
2025-01-16 18:17:28.99	151.01	15.33	
2025-01-16 18:17:29.20	151.01	15.36	
2025-01-16 18:17:29.40	151.00	15.38	
2025-01-16 18:17:29.60	151.00	15.40	
2025-01-16 18:17:29.81	150.99	15.43	
2025-01-16 18:17:30.01	150.98	15.45	
2025-01-16 18:17:30.21	150.98	15.48	
2025-01-16 18:17:30.42	150.97	15.50	
2025-01-16 18:17:30.62	150.97	15.52	
2025-01-16 18:17:30.82	150.96	15.55	
2025-01-16 18:17:31.03	150.96	15.57	
2025-01-16 18:17:31.23	150.95	15.60	
2025-01-16 18:17:31.43	150.94	15.62	
2025-01-16 18:17:31.63	150.94	15.65	
2025-01-16 18:17:31.84	150.93	15.67	
2025-01-16 18:17:32.04	150.93	15.69	
2025-01-16 18:17:32.24	150.92	15.72	
2025-01-16 18:17:32.45	150.91	15.74	
2025-01-16 18:17:32.65	150.91	15.77	
2025-01-16 18:17:32.85	150.90	15.79	
2025-01-16 18:17:33.06	150.90	15.82	
2025-01-16 18:17:33.26	150.89	15.84	
2025-01-16 18:17:33.46	150.89	15.87	
2025-01-16 18:17:33.67	150.88	15.89	
2025-01-16 18:17:33.87	150.87	15.92	
2025-01-16 18:17:34.07	150.87	15.94	
2025-01-16 18:17:34.27	150.86	15.96	
2025-01-16 18:17:34.48	150.86	15.99	
2025-01-16 18:17:34.68	150.85	16.01	
2025-01-16 18:17:34.88	150.84	16.04	
2025-01-16 18:17:35.09	150.84	16.06	
2025-01-16 18:17:35.29	150.83	16.09	
2025-01-16 18:17:35.49	150.83	16.11	
2025-01-16 18:17:35.70	150.82	16.14	
2025-01-16 18:17:35.90	150.81	16.16	
2025-01-16 18:17:36.10	150.81	16.19	
2025-01-16 18:17:36.31	150.80	16.21	
2025-01-16 18:17:36.51	150.79	16.24	
2025-01-16 18:17:36.71	150.79	16.26	
2025-01-16 18:17:36.91	150.78	16.29	
2025-01-16 18:17:37.12	150.78	16.31	
2025-01-16 18:17:37.32	150.77	16.34	
2025-01-16 18:17:37.52	150.76	16.36	
2025-01-16 18:17:37.73	150.76	16.39	
2025-01-16 18:17:37.93	150.75	16.42	
2025-01-16 18:17:38.13	150.75	16.44	
2025-01-16 18:17:38.34	150.74	16.47	
2025-01-16 18:17:38.54	150.73	16.49	
2025-01-16 18:17:38.74	150.73	16.52	
2025-01-16 18:17:38.95	150.72	16.54	
2025-01-16 18:17:39.15	150.71	16.57	
2025-01-16 18:17:39.35	150.71	16.59	
2025-01-16 18:17:39.55	150.70	16.62	
2025-01-16 18:17:39.76	150.69	16.64	
2025-01-16 18:17:39.96	150.69	16.67	
2025-01-16 18:17:40.16	150.68	16.69	
2025-01-16 18:17:40.37	150.68	16.72	
2025-01-16 18:17:40.57	150.67	16.75	
2025-01-16 18:17:40.77	150.66	16.77	
2025-01-16 18:17:40.98	150.66	16.80	
2025-01-16 18:17:41.18	150.65	16.82	
2025-01-16 18:17:41.38	150.64	16.85	
2025-01-16 18:17:41.59	150.64	16.87	
2025-01-16 18:17:41.79	150.63	16.90	
2025-01-16 18:17:41.99	150.62	16.93	
2025-01-16 18:17:42.19	150.62	16.95	
2025-01-16 18:17:42.40	150.61	16.98	
2025-01-16 18:17:42.60	150.61	17.00	
2025-01-16 18:17:42.80	150.60	17.03	
2025-01-16 18:17:43.01	150.59	17.06	
2025-01-16 18:17:43.21	150.59	17.08	
2025-01-16 18:17:43.41	150.58	17.11	
2025-01-16 18:17:43.62	150.57	17.13	
2025-01-16 18:17:43.82	150.57	17.16	
2025-01-16 18:17:44.02	150.56	17.18	
2025-01-16 18:17:44.23	150.55	17.21	
2025-01-16 18:17:44.43	150.55	17.24	
2025-01-16 18:17:44.63	150.54	17.26	
2025-01-16 18:17:44.83	150.53	17.29	
2025-01-16 18:17:45.04	150.53	17.32	
2025-01-16 18:17:45.24	150.52	17.34	
2025-01-16 18:17:45.44	150.51	17.37	
2025-01-16 18:17:45.65	150.51	17.40	
2025-01-16 18:17:45.85	150.50	17.42	
2025-01-16 18:17:46.05	150.49	17.45	
2025-01-16 18:17:46.26	150.49	17.47	
2025-01-16 18:17:46.46	150.48	17.50	
2025-01-16 18:17:46.66	150.47	17.53	
2025-01-16 18:17:46.87	150.47	17.55	
2025-01-16 18:17:47.07	150.46	17.58	
2025-01-16 18:17:47.27	150.45	17.61	
2025-01-16 18:17:47.47	150.45	17.63	
2025-01-16 18:17:47.68	150.44	17.66	
2025-01-16 18:17:47.88	150.43	17.69	
2025-01-16 18:17:48.08	150.42	17.71	
2025-01-16 18:17:48.29	150.42	17.74	
2025-01-16 18:17:48.49	150.41	17.77	
2025-01-16 18:17:48.69	150.40	17.79	
2025-01-16 18:17:48.90	150.40	17.82	
2025-01-16 18:17:49.10	150.39	17.85	
2025-01-16 18:17:49.30	150.38	17.87	
2025-01-16 18:17:49.51	150.38	17.90	
2025-01-16 18:17:49.71	150.37	17.93	
2025-01-16 18:17:49.91	150.36	17.96	
2025-01-16 18:17:50.11	150.36	17.98	
2025-01-16 18:17:50.32	150.35	18.01	
2025-01-16 18:17:50.52	150.34	18.04	
2025-01-16 18:17:50.72	150.33	18.06	
2025-01-16 18:17:50.93	150.33	18.09	
2025-01-16 18:17:51.13	150.32	18.12	
2025-01-16 18:17:51.33	150.31	18.14	
2025-01-16 18:17:51.54	150.31	18.17	
2025-01-16 18:17:51.74	150.30	18.20	
2025-01-16 18:17:51.94	150.29	18.23	
2025-01-16 18:17:52.15	150.28	18.26	
2025-01-16 18:17:52.35	150.28	18.28	
2025-01-16 18:17:52.55	150.27	18.31	
2025-01-16 18:17:52.75	150.26	18.34	
2025-01-16 18:17:52.96	150.26	18.36	
2025-01-16 18:17:53.16	150.25	18.39	
2025-01-16 18:17:53.36	150.24	18.42	
2025-01-16 18:17:53.57	150.23	18.45	
2025-01-16 18:17:53.77	150.23	18.47	
2025-01-16 18:17:53.97	150.22	18.50	
2025-01-16 18:17:54.18	150.21	18.53	
2025-01-16 18:17:54.38	150.21	18.56	
2025-01-16 18:17:54.58	150.20	18.59	
2025-01-16 18:17:54.79	150.19	18.61	
2025-01-16 18:17:54.99	150.18	18.64	
2025-01-16 18:17:55.19	150.18	18.67	
2025-01-16 18:17:55.39	150.17	18.70	
2025-01-16 18:17:55.60	150.16	18.72	
2025-01-16 18:17:55.80	150.15	18.75	
2025-01-16 18:17:56.00	150.15	18.78	
2025-01-16 18:17:56.21	150.14	18.81	
2025-01-16 18:17:56.41	150.13	18.84	
2025-01-16 18:17:56.61	150.12	18.86	
2025-01-16 18:17:56.82	150.12	18.89	
2025-01-16 18:17:57.02	150.11	18.92	
2025-01-16 18:17:57.22	150.10	18.95	
2025-01-16 18:17:57.43	150.09	18.98	
2025-01-16 18:17:57.63	150.09	19.01	
2025-01-16 18:17:57.83	150.08	19.03	
2025-01-16 18:17:58.03	150.07	19.06	
2025-01-16 18:17:58.24	150.06	19.09	
2025-01-16 18:17:58.44	150.06	19.12	
2025-01-16 18:17:58.64	150.05	19.15	
2025-01-16 18:17:58.85	150.04	19.18	
2025-01-16 18:17:59.05	150.03	19.20	
2025-01-16 18:17:59.25	150.03	19.23	
2025-01-16 18:17:59.46	150.02	19.26	
2025-01-16 18:17:59.66	150.01	19.29	
2025-01-16 18:17:59.86	150.00	19.32	
2025-01-16 18:18:00.07	149.99	19.35	
2025-01-16 18:18:00.27	149.99	19.38	
2025-01-16 18:18:00.47	149.98	19.41	
2025-01-16 18:18:00.67	149.97	19.43	
2025-01-16 18:18:00.88	149.96	19.46	
2025-01-16 18:18:01.08	149.96	19.49	
2025-01-16 18:18:01.28	149.95	19.52	
2025-01-16 18:18:01.49	149.94	19.55	
2025-01-16 18:18:01.69	149.93	19.58	
2025-01-16 18:18:01.89	149.92	19.61	
2025-01-16 18:18:02.10	149.92	19.64	
2025-01-16 18:18:02.30	149.91	19.67	
2025-01-16 18:18:02.50	149.90	19.69	
2025-01-16 18:18:02.70	149.89	19.72	
2025-01-16 18:18:02.91	149.88	19.75	
2025-01-16 18:18:03.11	149.88	19.78	
2025-01-16 18:18:03.31	149.87	19.81	
2025-01-16 18:18:03.52	149.86	19.84	
2025-01-16 18:18:03.72	149.85	19.87	
2025-01-16 18:18:03.92	149.84	19.90	
2025-01-16 18:18:04.13	149.84	19.93	
2025-01-16 18:18:04.33	149.83	19.96	
2025-01-16 18:18:04.53	149.82	19.99	
2025-01-16 18:18:04.74	149.81	20.02	
2025-01-16 18:18:04.94	149.80	20.05	
2025-01-16 18:18:05.14	149.80	20.08	
2025-01-16 18:18:05.34	149.79	20.11	
2025-01-16 18:18:05.55	149.78	20.14	
2025-01-16 18:18:05.75	149.77	20.17	
2025-01-16 18:18:05.95	149.76	20.20	
2025-01-16 18:18:06.16	149.75	20.23	
2025-01-16 18:18:06.36	149.75	20.26	
2025-01-16 18:18:06.56	149.74	20.28	
2025-01-16 18:18:06.77	149.73	20.32	
2025-01-16 18:18:06.97	149.72	20.35	
2025-01-16 18:18:07.17	149.71	20.37	
2025-01-16 18:18:07.38	149.70	20.41	
2025-01-16 18:18:07.58	149.70	20.44	
2025-01-16 18:18:07.78	149.69	20.47	
2025-01-16 18:18:07.98	149.68	20.49	
2025-01-16 18:18:08.19	149.67	20.53	
2025-01-16 18:18:08.39	149.66	20.56	
2025-01-16 18:18:08.59	149.65	20.59	
2025-01-16 18:18:08.80	149.64	20.62	
2025-01-16 18:18:09.00	149.64	20.65	
2025-01-16 18:18:09.20	149.63	20.68	
2025-01-16 18:18:09.41	149.62	20.71	
2025-01-16 18:18:09.61	149.61	20.74	
2025-01-16 18:18:09.81	149.60	20.77	
2025-01-16 18:18:10.02	149.59	20.80	
2025-01-16 18:18:10.22	149.58	20.83	
2025-01-16 18:18:10.42	149.58	20.86	
2025-01-16 18:18:10.62	149.57	20.89	
2025-01-16 18:18:10.83	149.56	20.92	
2025-01-16 18:18:11.03	149.55	20.95	
2025-01-16 18:18:11.23	149.54	20.98	
2025-01-16 18:18:11.44	149.53	21.01	
2025-01-16 18:18:11.64	149.52	21.04	
2025-01-16 18:18:11.84	149.51	21.08	
2025-01-16 18:18:12.05	149.51	21.11	
2025-01-16 18:18:12.25	149.50	21.14	
2025-01-16 18:18:12.45	149.49	21.17	
2025-01-16 18:18:12.66	149.48	21.20	
2025-01-16 18:18:12.86	149.47	21.23	
2025-01-16 18:18:13.06	149.46	21.26	
2025-01-16 18:18:13.26	149.45	21.29	
2025-01-16 18:18:13.47	149.44	21.32	
2025-01-16 18:18:13.67	149.43	21.36	
2025-01-16 18:18:13.87	149.43	21.39	
2025-01-16 18:18:14.08	149.42	21.42	
2025-01-16 18:18:14.28	149.41	21.45	
2025-01-16 18:18:14.48	149.40	21.48	
2025-01-16 18:18:14.69	149.39	21.51	
2025-01-16 18:18:14.89	149.38	21.54	
2025-01-16 18:18:15.09	149.37	21.58	
2025-01-16 18:18:15.30	149.36	21.61	
2025-01-16 18:18:15.50	149.35	21.64	
2025-01-16 18:18:15.70	149.34	21.67	
2025-01-16 18:18:15.90	149.33	21.70	
2025-01-16 18:18:16.11	149.33	21.73	
2025-01-16 18:18:16.31	149.32	21.77	
2025-01-16 18:18:16.51	149.31	21.80	
2025-01-16 18:18:16.72	149.30	21.83	
2025-01-16 18:18:16.92	149.29	21.86	
2025-01-16 18:18:17.12	149.28	21.89	
2025-01-16 18:18:17.33	149.27	21.93	
2025-01-16 18:18:17.53	149.26	21.96	
2025-01-16 18:18:17.73	149.25	21.99	
2025-01-16 18:18:17.94	149.24	22.02	
2025-01-16 18:18:18.14	149.23	22.05	
2025-01-16 18:18:18.34	149.22	22.09	
2025-01-16 18:18:18.54	149.21	22.12	
2025-01-16 18:18:18.75	149.20	22.15	
2025-01-16 18:18:18.95	149.19	22.18	
2025-01-16 18:18:19.15	149.18	22.22	
2025-01-16 18:18:19.36	149.17	22.25	
2025-01-16 18:18:19.56	149.17	22.28	
2025-01-16 18:18:19.76	149.16	22.31	
2025-01-16 18:18:19.97	149.15	22.35	
2025-01-16 18:18:20.17	149.14	22.38	
2025-01-16 18:18:20.37	149.13	22.41	
2025-01-16 18:18:20.58	149.12	22.44	
2025-01-16 18:18:20.78	149.11	22.48	
2025-01-16 18:18:20.98	149.10	22.51	
2025-01-16 18:18:21.18	149.09	22.54	
2025-01-16 18:18:21.39	149.08	22.58	
2025-01-16 18:18:21.59	149.07	22.61	
2025-01-16 18:18:21.79	149.06	22.64	
2025-01-16 18:18:22.00	149.05	22.67	
2025-01-16 18:18:22.20	149.04	22.71	
2025-01-16 18:18:22.40	149.03	22.74	
2025-01-16 18:18:22.61	149.02	22.77	
2025-01-16 18:18:22.81	149.01	22.81	
2025-01-16 18:18:23.01	149.00	22.84	
2025-01-16 18:18:23.22	148.99	22.87	
2025-01-16 18:18:23.42	148.98	22.91	
2025-01-16 18:18:23.62	148.97	22.94	
2025-01-16 18:18:23.82	148.96	22.97	
2025-01-16 18:18:24.03	148.95	23.01	
2025-01-16 18:18:24.23	148.94	23.04	
2025-01-16 18:18:24.43	148.93	23.07	
2025-01-16 18:18:24.64	148.92	23.11	
2025-01-16 18:18:24.84	148.91	23.14	
2025-01-16 18:18:25.04	148.90	23.18	
2025-01-16 18:18:25.25	148.89	23.21	
2025-01-16 18:18:25.45	148.88	23.24	
2025-01-16 18:18:25.65	148.87	23.28	
2025-01-16 18:18:25.86	148.86	23.31	
2025-01-16 18:18:26.06	148.85	23.35	
2025-01-16 18:18:26.26	148.84	23.38	
2025-01-16 18:18:26.46	148.83	23.41	
2025-01-16 18:18:26.67	148.81	23.45	
2025-01-16 18:18:26.87	148.80	23.48	
2025-01-16 18:18:27.07	148.79	23.51	
2025-01-16 18:18:27.28	148.78	23.55	
2025-01-16 18:18:27.48	148.77	23.58	
2025-01-16 18:18:27.68	148.76	23.62	
2025-01-16 18:18:27.89	148.75	23.65	
2025-01-16 18:18:28.09	148.74	23.69	
2025-01-16 18:18:28.29	148.73	23.72	
2025-01-16 18:18:28.50	148.72	23.76	
2025-01-16 18:18:28.70	148.71	23.79	
2025-01-16 18:18:28.90	148.70	23.83	
2025-01-16 18:18:29.10	148.69	23.86	
2025-01-16 18:18:29.31	148.68	23.90	
2025-01-16 18:18:29.51	148.67	23.93	
2025-01-16 18:18:29.71	148.66	23.96	
2025-01-16 18:18:29.92	148.64	24.00	
2025-01-16 18:18:30.12	148.63	24.03	
2025-01-16 18:18:30.32	148.62	24.07	
2025-01-16 18:18:30.53	148.61	24.11	
2025-01-16 18:18:30.73	148.60	24.14	
2025-01-16 18:18:30.93	148.59	24.17	
2025-01-16 18:18:31.14	148.58	24.21	
2025-01-16 18:18:31.34	148.57	24.25	
2025-01-16 18:18:31.54	148.56	24.28	
2025-01-16 18:18:31.74	148.55	24.32	
2025-01-16 18:18:31.95	148.53	24.35	
2025-01-16 18:18:32.15	148.52	24.39	
2025-01-16 18:18:32.35	148.51	24.42	
2025-01-16 18:18:32.56	148.50	24.46	
2025-01-16 18:18:32.76	148.49	24.49	
2025-01-16 18:18:32.96	148.48	24.53	
2025-01-16 18:18:33.17	148.47	24.57	
2025-01-16 18:18:33.37	148.46	24.60	
2025-01-16 18:18:33.57	148.44	24.64	
2025-01-16 18:18:33.78	148.43	24.67	
2025-01-16 18:18:33.98	148.42	24.71	
2025-01-16 18:18:34.18	148.41	24.74	
2025-01-16 18:18:34.38	148.40	24.78	
2025-01-16 18:18:34.59	148.39	24.82	
2025-01-16 18:18:34.79	148.38	24.85	
2025-01-16 18:18:34.99	148.36	24.89	
2025-01-16 18:18:35.20	148.35	24.93	
2025-01-16 18:18:35.40	148.34	24.96	
2025-01-16 18:18:35.60	148.33	25.00	
2025-01-16 18:18:35.81	148.32	25.03	
2025-01-16 18:18:36.01	148.31	25.07	
2025-01-16 18:18:36.21	148.29	25.11	
2025-01-16 18:18:36.42	148.28	25.14	
2025-01-16 18:18:36.62	148.27	25.18	
2025-01-16 18:18:36.82	148.26	25.22	
2025-01-16 18:18:37.02	148.25	25.25	
2025-01-16 18:18:37.23	148.24	25.29	
2025-01-16 18:18:37.43	148.22	25.33	
2025-01-16 18:18:37.63	148.21	25.36	
2025-01-16 18:18:37.84	148.20	25.40	
2025-01-16 18:18:38.04	148.19	25.44	
2025-01-16 18:18:38.24	148.18	25.47	
2025-01-16 18:18:38.45	148.16	25.51	
2025-01-16 18:18:38.65	148.15	25.55	
2025-01-16 18:18:38.85	148.14	25.59	
2025-01-16 18:18:39.06	148.13	25.62	
2025-01-16 18:18:39.26	148.12	25.66	
2025-01-16 18:18:39.46	148.10	25.70	
2025-01-16 18:18:39.66	148.09	25.73	
2025-01-16 18:18:39.87	148.08	25.77	
2025-01-16 18:18:40.07	148.07	25.81	
2025-01-16 18:18:40.27	148.05	25.85	
2025-01-16 18:18:40.48	148.04	25.89	
2025-01-16 18:18:40.68	148.03	25.92	
2025-01-16 18:18:40.88	148.02	25.96	
2025-01-16 18:18:41.09	148.00	26.00	
2025-01-16 18:18:41.29	147.99	26.04	
2025-01-16 18:18:41.49	147.98	26.07	
2025-01-16 18:18:41.70	147.97	26.11	
2025-01-16 18:18:41.90	147.95	26.15	
2025-01-16 18:18:42.10	147.94	26.19	
2025-01-16 18:18:42.30	147.93	26.23	
2025-01-16 18:18:42.51	147.92	26.26	
2025-01-16 18:18:42.71	147.90	26.30	
2025-01-16 18:18:42.91	147.89	26.34	
2025-01-16 18:18:43.12	147.88	26.38	
2025-01-16 18:18:43.32	147.87	26.42	
2025-01-16 18:18:43.52	147.85	26.46	
2025-01-16 18:18:43.73	147.84	26.50	
2025-01-16 18:18:43.93	147.83	26.53	
2025-01-16 18:18:44.13	147.81	26.57	
2025-01-16 18:18:44.34	147.80	26.61	
2025-01-16 18:18:44.54	147.79	26.65	
2025-01-16 18:18:44.74	147.78	26.69	
2025-01-16 18:18:44.94	147.76	26.73	
2025-01-16 18:18:45.15	147.75	26.77	
2025-01-16 18:18:45.35	147.74	26.80	
2025-01-16 18:18:45.55	147.72	26.84	
2025-01-16 18:18:45.76	147.71	26.88	
2025-01-16 18:18:45.96	147.70	26.92	
2025-01-16 18:18:46.16	147.68	26.96	
2025-01-16 18:18:46.37	147.67	27.00	
2025-01-16 18:18:46.57	147.66	27.04	
2025-01-16 18:18:46.77	147.64	27.08	
2025-01-16 18:18:46.98	147.63	27.12	
2025-01-16 18:18:47.18	147.62	27.16	
2025-01-16 18:18:47.38	147.60	27.20	
2025-01-16 18:18:47.58	147.59	27.24	
2025-01-16 18:18:47.79	147.57	27.28	
2025-01-16 18:18:47.99	147.56	27.32	
2025-01-16 18:18:48.19	147.55	27.36	
2025-01-16 18:18:48.40	147.53	27.40	
2025-01-16 18:18:48.60	147.52	27.44	
2025-01-16 18:18:48.80	147.51	27.48	
2025-01-16 18:18:49.01	147.49	27.52	
2025-01-16 18:18:49.21	147.48	27.56	
2025-01-16 18:18:49.41	147.47	27.60	
2025-01-16 18:18:49.61	147.45	27.64	
2025-01-16 18:18:49.82	147.44	27.68	
2025-01-16 18:18:50.02	147.42	27.72	
2025-01-16 18:18:50.22	147.41	27.76	
2025-01-16 18:18:50.43	147.40	27.80	
2025-01-16 18:18:50.63	147.38	27.84	
2025-01-16 18:18:50.83	147.37	27.88	
2025-01-16 18:18:51.04	147.35	27.92	
2025-01-16 18:18:51.24	147.34	27.96	
2025-01-16 18:18:51.44	147.32	28.00	
2025-01-16 18:18:51.65	147.31	28.04	
2025-01-16 18:18:51.85	147.30	28.08	
2025-01-16 18:18:52.05	147.28	28.12	
2025-01-16 18:18:52.25	147.27	28.17	
2025-01-16 18:18:52.46	147.25	28.21	
2025-01-16 18:18:52.66	147.24	28.25	
2025-01-16 18:18:52.86	147.22	28.29	
2025-01-16 18:18:53.07	147.21	28.33	
2025-01-16 18:18:53.27	147.19	28.37	
2025-01-16 18:18:53.47	147.18	28.41	
2025-01-16 18:18:53.68	147.16	28.46	
2025-01-16 18:18:53.88	147.15	28.50	
2025-01-16 18:18:54.08	147.14	28.54	
2025-01-16 18:18:54.29	147.12	28.58	
2025-01-16 18:18:54.49	147.11	28.62	
2025-01-16 18:18:54.69	147.09	28.66	
2025-01-16 18:18:54.89	147.08	28.70	
2025-01-16 18:18:55.10	147.06	28.75	
2025-01-16 18:18:55.30	147.05	28.79	
2025-01-16 18:18:55.50	147.03	28.83	
2025-01-16 18:18:55.71	147.02	28.87	
2025-01-16 18:18:55.91	147.00	28.92	
2025-01-16 18:18:56.11	146.99	28.96	
2025-01-16 18:18:56.32	146.97	29.00	
2025-01-16 18:18:56.52	146.95	29.04	
2025-01-16 18:18:56.72	146.94	29.08	
2025-01-16 18:18:56.93	146.92	29.13	
2025-01-16 18:18:57.13	146.91	29.17	
2025-01-16 18:18:57.33	146.89	29.21	
2025-01-16 18:18:57.53	146.88	29.26	
2025-01-16 18:18:57.74	146.86	29.30	
2025-01-16 18:18:57.94	146.85	29.34	
2025-01-16 18:18:58.14	146.83	29.38	
2025-01-16 18:18:58.35	146.81	29.43	
2025-01-16 18:18:58.55	146.80	29.47	
2025-01-16 18:18:58.75	146.78	29.51	
2025-01-16 18:18:58.96	146.77	29.56	
2025-01-16 18:18:59.16	146.75	29.60	
2025-01-16 18:18:59.36	146.74	29.64	
2025-01-16 18:18:59.57	146.72	29.69	
2025-01-16 18:18:59.77	146.70	29.73	
2025-01-16 18:18:59.97	146.69	29.77	
2025-01-16 18:19:00.17	146.67	29.82	
2025-01-16 18:19:00.38	146.66	29.86	
2025-01-16 18:19:00.58	146.64	29.91	
2025-01-16 18:19:00.78	146.62	29.95	
2025-01-16 18:19:00.99	146.61	29.99	
2025-01-16 18:19:01.19	146.59	30.04	
2025-01-16 18:19:01.39	146.57	30.08	
2025-01-16 18:19:01.60	146.56	30.13	
2025-01-16 18:19:01.80	146.54	30.17	
2025-01-16 18:19:02.00	146.53	30.21	
2025-01-16 18:19:02.21	146.51	30.26	
2025-01-16 18:19:02.41	146.49	30.30	
2025-01-16 18:19:02.61	146.48	30.35	
2025-01-16 18:19:02.81	146.46	30.39	
2025-01-16 18:19:03.02	146.44	30.44	
2025-01-16 18:19:03.22	146.42	30.48	
2025-01-16 18:19:03.42	146.41	30.52	
2025-01-16 18:19:03.63	146.39	30.57	
2025-01-16 18:19:03.83	146.37	30.62	
2025-01-16 18:19:04.03	146.36	30.66	
2025-01-16 18:19:04.24	146.34	30.71	
2025-01-16 18:19:04.44	146.32	30.75	
2025-01-16 18:19:04.64	146.31	30.80	
2025-01-16 18:19:04.85	146.29	30.84	
2025-01-16 18:19:05.05	146.27	30.89	
2025-01-16 18:19:05.25	146.25	30.93	
2025-01-16 18:19:05.45	146.24	30.98	
2025-01-16 18:19:05.66	146.22	31.02	
2025-01-16 18:19:05.86	146.20	31.07	
2025-01-16 18:19:06.06	146.18	31.11	
2025-01-16 18:19:06.27	146.17	31.16	
2025-01-16 18:19:06.47	146.15	31.21	
2025-01-16 18:19:06.67	146.13	31.25	
2025-01-16 18:19:06.88	146.11	31.30	
2025-01-16 18:19:07.08	146.10	31.34	
2025-01-16 18:19:07.28	146.08	31.39	
2025-01-16 18:19:07.49	146.06	31.44	
2025-01-16 18:19:07.69	146.04	31.48	
2025-01-16 18:19:07.89	146.02	31.53	
2025-01-16 18:19:08.09	146.01	31.57	
2025-01-16 18:19:08.30	145.99	31.62	
2025-01-16 18:19:08.50	145.97	31.67	
2025-01-16 18:19:08.70	145.95	31.71	
2025-01-16 18:19:08.91	145.93	31.76	
2025-01-16 18:19:09.11	145.91	31.81	
2025-01-16 18:19:09.31	145.90	31.85	
2025-01-16 18:19:09.52	145.88	31.90	
2025-01-16 18:19:09.72	145.86	31.95	
2025-01-16 18:19:09.92	145.84	32.00	
2025-01-16 18:19:10.13	145.82	32.04	
2025-01-16 18:19:10.33	145.80	32.09	
2025-01-16 18:19:10.53	145.78	32.14	
2025-01-16 18:19:10.73	145.77	32.18	
2025-01-16 18:19:10.94	145.75	32.23	
2025-01-16 18:19:11.14	145.73	32.28	
2025-01-16 18:19:11.34	145.71	32.33	
2025-01-16 18:19:11.55	145.69	32.38	
2025-01-16 18:19:11.75	145.67	32.42	
2025-01-16 18:19:11.95	145.65	32.47	
2025-01-16 18:19:12.16	145.63	32.52	
2025-01-16 18:19:12.36	145.61	32.57	
2025-01-16 18:19:12.56	145.59	32.61	
2025-01-16 18:19:12.77	145.57	32.66	
2025-01-16 18:19:12.97	145.55	32.71	
2025-01-16 18:19:13.17	145.54	32.76	
2025-01-16 18:19:13.37	145.52	32.81	
2025-01-16 18:19:13.58	145.50	32.86	
2025-01-16 18:19:13.78	145.48	32.91	
2025-01-16 18:19:13.98	145.46	32.95	
2025-01-16 18:19:14.19	145.44	33.00	
2025-01-16 18:19:14.39	145.42	33.05	
2025-01-16 18:19:14.59	145.40	33.10	
2025-01-16 18:19:14.80	145.38	33.15	
2025-01-16 18:19:15.00	145.36	33.20	
2025-01-16 18:19:15.20	145.34	33.25	
2025-01-16 18:19:15.41	145.32	33.30	
2025-01-16 18:19:15.61	145.30	33.35	
2025-01-16 18:19:15.81	145.28	33.40	
2025-01-16 18:19:16.01	145.26	33.44	
2025-01-16 18:19:16.22	145.23	33.50	
2025-01-16 18:19:16.42	145.21	33.54	
2025-01-16 18:19:16.62	145.19	33.59	
2025-01-16 18:19:16.83	145.17	33.64	
2025-01-16 18:19:17.03	145.15	33.69	
2025-01-16 18:19:17.23	145.13	33.74	
2025-01-16 18:19:17.44	145.11	33.80	
2025-01-16 18:19:17.64	145.09	33.84	
2025-01-16 18:19:17.84	145.07	33.89	
2025-01-16 18:19:18.05	145.05	33.95	
2025-01-16 18:19:18.25	145.03	34.00	
2025-01-16 18:19:18.45	145.01	34.05	
2025-01-16 18:19:18.65	144.98	34.09	
2025-01-16 18:19:18.86	144.96	34.15	
2025-01-16 18:19:19.06	144.94	34.20	
2025-01-16 18:19:19.26	144.92	34.25	
2025-01-16 18:19:19.47	144.90	34.30	
2025-01-16 18:19:19.67	144.88	34.35	
2025-01-16 18:19:19.87	144.85	34.40	
2025-01-16 18:19:20.08	144.83	34.45	
2025-01-16 18:19:20.28	144.81	34.50	
2025-01-16 18:19:20.48	144.79	34.55	
2025-01-16 18:19:20.69	144.77	34.61	
2025-01-16 18:19:20.89	144.74	34.66	
2025-01-16 18:19:21.09	144.72	34.71	
2025-01-16 18:19:21.29	144.70	34.76	
2025-01-16 18:19:21.50	144.68	34.81	
2025-01-16 18:19:21.70	144.66	34.86	
2025-01-16 18:19:21.90	144.63	34.92	
2025-01-16 18:19:22.11	144.61	34.97	
2025-01-16 18:19:22.31	144.59	35.02	
2025-01-16 18:19:22.51	144.57	35.07	
2025-01-16 18:19:22.72	144.54	35.13	
2025-01-16 18:19:22.92	144.52	35.18	
2025-01-16 18:19:23.12	144.50	35.23	
2025-01-16 18:19:23.33	144.47	35.28	
2025-01-16 18:19:23.53	144.45	35.33	
2025-01-16 18:19:23.73	144.43	35.39	
2025-01-16 18:19:23.93	144.41	35.44	
2025-01-16 18:19:24.14	144.38	35.49	
2025-01-16 18:19:24.34	144.36	35.55	
2025-01-16 18:19:24.54	144.33	35.60	
2025-01-16 18:19:24.75	144.31	35.65	
2025-01-16 18:19:24.95	144.29	35.70	
2025-01-16 18:19:25.15	144.26	35.76	
2025-01-16 18:19:25.36	144.24	35.81	
2025-01-16 18:19:25.56	144.22	35.86	
2025-01-16 18:19:25.76	144.19	35.92	
2025-01-16 18:19:25.97	144.17	35.97	
2025-01-16 18:19:26.17	144.14	36.03	
2025-01-16 18:19:26.37	144.12	36.08	
2025-01-16 18:19:26.57	144.10	36.13	
2025-01-16 18:19:26.78	144.07	36.19	
2025-01-16 18:19:26.98	144.05	36.24	
2025-01-16 18:19:27.18	144.02	36.29	
2025-01-16 18:19:27.39	144.00	36.35	
2025-01-16 18:19:27.59	143.97	36.40	
2025-01-16 18:19:27.79	143.95	36.46	
2025-01-16 18:19:28.00	143.92	36.51	
2025-01-16 18:19:28.20	143.90	36.57	
2025-01-16 18:19:28.40	143.87	36.62	
2025-01-16 18:19:28.60	143.85	36.68	
2025-01-16 18:19:28.81	143.82	36.73	
2025-01-16 18:19:29.01	143.80	36.79	
2025-01-16 18:19:29.21	143.77	36.84	
2025-01-16 18:19:29.42	143.75	36.90	
2025-01-16 18:19:29.62	143.72	36.95	
2025-01-16 18:19:29.82	143.70	37.01	
2025-01-16 18:19:30.03	143.67	37.06	
2025-01-16 18:19:30.23	143.64	37.12	
2025-01-16 18:19:30.43	143.62	37.17	
2025-01-16 18:19:30.64	143.59	37.23	
2025-01-16 18:19:30.84	143.57	37.29	
2025-01-16 18:19:31.04	143.54	37.34	
2025-01-16 18:19:31.25	143.51	37.40	
2025-01-16 18:19:31.45	143.49	37.45	
2025-01-16 18:19:31.65	143.46	37.51	
2025-01-16 18:19:31.85	143.43	37.57	
2025-01-16 18:19:32.06	143.41	37.62	
2025-01-16 18:19:32.26	143.38	37.68	
2025-01-16 18:19:32.46	143.35	37.73	
2025-01-16 18:19:32.67	143.33	37.79	
2025-01-16 18:19:32.87	143.30	37.85	
2025-01-16 18:19:33.07	143.27	37.91	
2025-01-16 18:19:33.28	143.24	37.96	
2025-01-16 18:19:33.48	143.22	38.02	
2025-01-16 18:19:33.68	143.19	38.08	
2025-01-16 18:19:33.88	143.16	38.13	
2025-01-16 18:19:34.09	143.13	38.19	
2025-01-16 18:19:34.29	143.11	38.25	
2025-01-16 18:19:34.49	143.08	38.31	
2025-01-16 18:19:34.70	143.05	38.36	
2025-01-16 18:19:34.90	143.02	38.42	
2025-01-16 18:19:35.10	142.99	38.48	
2025-01-16 18:19:35.31	142.97	38.54	
2025-01-16 18:19:35.51	142.94	38.60	
2025-01-16 18:19:35.71	142.91	38.65	
2025-01-16 18:19:35.92	142.88	38.71	
2025-01-16 18:19:36.12	142.85	38.77	
2025-01-16 18:19:36.32	142.82	38.83	
2025-01-16 18:19:36.52	142.79	38.89	
2025-01-16 18:19:36.73	142.76	38.95	
2025-01-16 18:19:36.93	142.74	39.00	
2025-01-16 18:19:37.13	142.71	39.06	
2025-01-16 18:19:37.34	142.68	39.12	
2025-01-16 18:19:37.54	142.65	39.18	
2025-01-16 18:19:37.74	142.62	39.24	
2025-01-16 18:19:37.95	142.59	39.30	
2025-01-16 18:19:38.15	142.56	39.36	
2025-01-16 18:19:38.35	142.53	39.42	
2025-01-16 18:19:38.56	142.50	39.48	
2025-01-16 18:19:38.76	142.47	39.54	
2025-01-16 18:19:38.96	142.44	39.60	
2025-01-16 18:19:39.16	142.41	39.65	
2025-01-16 18:19:39.37	142.38	39.72	
2025-01-16 18:19:39.57	142.35	39.77	
2025-01-16 18:19:39.77	142.32	39.83	
2025-01-16 18:19:39.98	142.28	39.90	
2025-01-16 18:19:40.18	142.25	39.96	
2025-01-16 18:19:40.38	142.22	40.01	
2025-01-16 18:19:40.59	142.19	40.08	
2025-01-16 18:19:40.79	142.16	40.14	
2025-01-16 18:19:40.99	142.13	40.20	
2025-01-16 18:19:41.20	142.10	40.26	
2025-01-16 18:19:41.40	142.06	40.32	
2025-01-16 18:19:41.60	142.03	40.38	
2025-01-16 18:19:41.80	142.00	40.44	
2025-01-16 18:19:42.01	141.97	40.50	
2025-01-16 18:19:42.21	141.94	40.56	
2025-01-16 18:19:42.41	141.91	40.62	
2025-01-16 18:19:42.62	141.87	40.69	
2025-01-16 18:19:42.82	141.84	40.75	
2025-01-16 18:19:43.02	141.81	40.81	
2025-01-16 18:19:43.23	141.77	40.87	
2025-01-16 18:19:43.43	141.74	40.93	
2025-01-16 18:19:43.63	141.71	40.99	
2025-01-16 18:19:43.84	141.67	41.06	
2025-01-16 18:19:44.04	141.64	41.12	
2025-01-16 18:19:44.24	141.61	41.18	
2025-01-16 18:19:44.44	141.57	41.24	
2025-01-16 18:19:44.65	141.54	41.31	
2025-01-16 18:19:44.85	141.51	41.37	
2025-01-16 18:19:45.05	141.47	41.43	
2025-01-16 18:19:45.26	141.44	41.49	
2025-01-16 18:19:45.46	141.40	41.56	
2025-01-16 18:19:45.66	141.37	41.62	
2025-01-16 18:19:45.87	141.33	41.68	
2025-01-16 18:19:46.07	141.30	41.75	
2025-01-16 18:19:46.27	141.27	41.81	
2025-01-16 18:19:46.48	141.23	41.87	
2025-01-16 18:19:46.68	141.19	41.94	
2025-01-16 18:19:46.88	141.16	42.00	
2025-01-16 18:19:47.08	141.12	42.06	
2025-01-16 18:19:47.29	141.09	42.13	
2025-01-16 18:19:47.49	141.05	42.19	
2025-01-16 18:19:47.69	141.02	42.25	
2025-01-16 18:19:47.90	140.98	42.32	
2025-01-16 18:19:48.10	140.94	42.38	
2025-01-16 18:19:48.30	140.91	42.45	
2025-01-16 18:19:48.51	140.87	42.51	
2025-01-16 18:19:48.71	140.83	42.58	
2025-01-16 18:19:48.91	140.80	42.64	
2025-01-16 18:19:49.12	140.76	42.71	
2025-01-16 18:19:49.32	140.72	42.77	
2025-01-16 18:19:49.52	140.69	42.83	
2025-01-16 18:19:49.72	140.65	42.90	
2025-01-16 18:19:49.93	140.61	42.96	
2025-01-16 18:19:50.13	140.57	43.03	
2025-01-16 18:19:50.33	140.54	43.09	
2025-01-16 18:19:50.54	140.50	43.16	
2025-01-16 18:19:50.74	140.46	43.23	
2025-01-16 18:19:50.94	140.42	43.29	
2025-01-16 18:19:51.15	140.38	43.36	
2025-01-16 18:19:51.35	140.34	43.42	
2025-01-16 18:19:51.55	140.31	43.49	
2025-01-16 18:19:51.76	140.27	43.56	
2025-01-16 18:19:51.96	140.23	43.62	
2025-01-16 18:19:52.16	140.19	43.69	
2025-01-16 18:19:52.36	140.15	43.75	
2025-01-16 18:19:52.57	140.11	43.82	
2025-01-16 18:19:52.77	140.07	43.89	
2025-01-16 18:19:52.97	140.03	43.95	
2025-01-16 18:19:53.18	139.99	44.02	
2025-01-16 18:19:53.38	139.95	44.09	
2025-01-16 18:19:53.58	139.91	44.15	
2025-01-16 18:19:53.79	139.87	44.22	
2025-01-16 18:19:53.99	139.83	44.29	
2025-01-16 18:19:54.19	139.79	44.35	
2025-01-16 18:19:54.40	139.74	44.42	
2025-01-16 18:19:54.60	139.70	44.49	
2025-01-16 18:19:54.80	139.66	44.56	
2025-01-16 18:19:55.00	139.62	44.62	
2025-01-16 18:19:55.21	139.58	44.69	
2025-01-16 18:19:55.41	139.53	44.76	
2025-01-16 18:19:55.61	139.49	44.83	
2025-01-16 18:19:55.82	139.45	44.90	
2025-01-16 18:19:56.02	139.41	44.96	
2025-01-16 18:19:56.22	139.36	45.03	
2025-01-16 18:19:56.43	139.32	45.10	
2025-01-16 18:19:56.63	139.28	45.17	
2025-01-16 18:19:56.83	139.23	45.24	
2025-01-16 18:19:57.04	139.19	45.31	
2025-01-16 18:19:57.24	139.15	45.38	
2025-01-16 18:19:57.44	139.10	45.44	
2025-01-16 18:19:57.64	139.06	45.51	
2025-01-16 18:19:57.85	139.01	45.58	
2025-01-16 18:19:58.05	138.97	45.65	
2025-01-16 18:19:58.25	138.93	45.72	
2025-01-16 18:19:58.46	138.88	45.79	
2025-01-16 18:19:58.66	138.83	45.86	
2025-01-16 18:19:58.86	138.79	45.93	
2025-01-16 18:19:59.07	138.74	46.00	
2025-01-16 18:19:59.27	138.70	46.07	
2025-01-16 18:19:59.47	138.65	46.14	
2025-01-16 18:19:59.68	138.60	46.21	
2025-01-16 18:19:59.88	138.56	46.28	
2025-01-16 18:20:00.08	138.51	46.35	
2025-01-16 18:20:00.28	138.47	46.42	
2025-01-16 18:20:00.49	138.42	46.49	
2025-01-16 18:20:00.69	138.37	46.56	
2025-01-16 18:20:00.89	138.32	46.63	
2025-01-16 18:20:01.10	138.27	46.71	
2025-01-16 18:20:01.30	138.23	46.78	
2025-01-16 18:20:01.50	138.18	46.85	
2025-01-16 18:20:01.71	138.13	46.92	
2025-01-16 18:20:01.91	138.08	46.99	
2025-01-16 18:20:02.11	138.03	47.06	
2025-01-16 18:20:02.32	137.98	47.13	
2025-01-16 18:20:02.52	137.93	47.20	
2025-01-16 18:20:02.72	137.88	47.27	
2025-01-16 18:20:02.92	137.83	47.34	
2025-01-16 18:20:03.13	137.78	47.42	
2025-01-16 18:20:03.33	137.73	47.49	
2025-01-16 18:20:03.53	137.68	47.56	
2025-01-16 18:20:03.74	137.63	47.64	
2025-01-16 18:20:03.94	137.58	47.71	
2025-01-16 18:20:04.14	137.53	47.78	
2025-01-16 18:20:04.35	137.48	47.85	
2025-01-16 18:20:04.55	137.43	47.92	
2025-01-16 18:20:04.75	137.37	48.00	
2025-01-16 18:20:04.96	137.32	48.07	
2025-01-16 18:20:05.16	137.27	48.14	
2025-01-16 18:20:05.36	137.22	48.21	
2025-01-16 18:20:05.56	137.16	48.29	
2025-01-16 18:20:05.77	137.11	48.36	
2025-01-16 18:20:05.97	137.06	48.43	
2025-01-16 18:20:06.17	137.00	48.51	
2025-01-16 18:20:06.38	136.95	48.58	
2025-01-16 18:20:06.58	136.89	48.66	
2025-01-16 18:20:06.78	136.84	48.73	
2025-01-16 18:20:06.99	136.78	48.80	
2025-01-16 18:20:07.19	136.73	48.88	
2025-01-16 18:20:07.39	136.67	48.95	
2025-01-16 18:20:07.60	136.62	49.03	
2025-01-16 18:20:07.80	136.56	49.10	
2025-01-16 18:20:08.00	136.51	49.17	
2025-01-16 18:20:08.20	136.45	49.25	
2025-01-16 18:20:08.41	136.39	49.32	
2025-01-16 18:20:08.61	136.33	49.40	
2025-01-16 18:20:08.81	136.28	49.47	
2025-01-16 18:20:09.02	136.22	49.55	
2025-01-16 18:20:09.22	136.16	49.62	
2025-01-16 18:20:09.42	136.10	49.69	
2025-01-16 18:20:09.63	136.04	49.77	
2025-01-16 18:20:09.83	135.99	49.85	
2025-01-16 18:20:10.03	135.93	49.92	
2025-01-16 18:20:10.24	135.87	50.00	
2025-01-16 18:20:10.44	135.81	50.07	
2025-01-16 18:20:10.64	135.75	50.15	
2025-01-16 18:20:10.84	135.69	50.22	
2025-01-16 18:20:11.05	135.62	50.30	
2025-01-16 18:20:11.25	135.56	50.37	
2025-01-16 18:20:11.45	135.50	50.45	
2025-01-16 18:20:11.66	135.44	50.53	
2025-01-16 18:20:11.86	135.38	50.60	
2025-01-16 18:20:12.06	135.32	50.68	
2025-01-16 18:20:12.27	135.25	50.76	
2025-01-16 18:20:12.47	135.19	50.83	
2025-01-16 18:20:12.67	135.13	50.91	
2025-01-16 18:20:12.88	135.06	50.99	
2025-01-16 18:20:13.08	135.00	51.06	
2025-01-16 18:20:13.28	134.94	51.14	
2025-01-16 18:20:13.48	134.87	51.21	
2025-01-16 18:20:13.69	134.81	51.29	
2025-01-16 18:20:13.89	134.74	51.37	
2025-01-16 18:20:14.09	134.68	51.45	
2025-01-16 18:20:14.30	134.61	51.53	
2025-01-16 18:20:14.50	134.54	51.60	
2025-01-16 18:20:14.70	134.48	51.68	
2025-01-16 18:20:14.91	134.41	51.76	
2025-01-16 18:20:15.11	134.34	51.83	
2025-01-16 18:20:15.31	134.28	51.91	
2025-01-16 18:20:15.52	134.21	51.99	
2025-01-16 18:20:15.72	134.14	52.07	
2025-01-16 18:20:15.92	134.07	52.14	
2025-01-16 18:20:16.12	134.00	52.22	
2025-01-16 18:20:16.33	133.93	52.30	
2025-01-16 18:20:16.53	133.86	52.38	
2025-01-16 18:20:16.73	133.79	52.46	
2025-01-16 18:20:16.94	133.72	52.54	
2025-01-16 18:20:17.14	133.65	52.61	
2025-01-16 18:20:17.34	133.58	52.69	
2025-01-16 18:20:17.55	133.51	52.77	
2025-01-16 18:20:17.75	133.43	52.85	
2025-01-16 18:20:17.95	133.36	52.93	
2025-01-16 18:20:18.15	133.29	53.01	
2025-01-16 18:20:18.36	133.21	53.09	
2025-01-16 18:20:18.56	133.14	53.17	
2025-01-16 18:20:18.76	133.07	53.24	
2025-01-16 18:20:18.97	132.99	53.33	
2025-01-16 18:20:19.17	132.92	53.40	
2025-01-16 18:20:19.37	132.84	53.48	
2025-01-16 18:20:19.58	132.76	53.56	
2025-01-16 18:20:19.78	132.69	53.64	
2025-01-16 18:20:19.98	132.61	53.72	
2025-01-16 18:20:20.19	132.53	53.80	
2025-01-16 18:20:20.39	132.46	53.88	
2025-01-16 18:20:20.59	132.38	53.96	
2025-01-16 18:20:20.79	132.30	54.04	
2025-01-16 18:20:21.00	132.22	54.12	
2025-01-16 18:20:21.20	132.14	54.20	
2025-01-16 18:20:21.40	132.07	54.28	
2025-01-16 18:20:21.61	131.98	54.36	
2025-01-16 18:20:21.81	131.90	54.44	
2025-01-16 18:20:22.01	131.82	54.52	
2025-01-16 18:20:22.22	131.74	54.60	
2025-01-16 18:20:22.42	131.66	54.68	
2025-01-16 18:20:22.62	131.58	54.76	
2025-01-16 18:20:22.83	131.49	54.85	
2025-01-16 18:20:23.03	131.41	54.93	
2025-01-16 18:20:23.23	131.32	55.00	
2025-01-16 18:20:23.43	131.24	55.08	
2025-01-16 18:20:23.64	131.15	55.17	
2025-01-16 18:20:23.84	131.07	55.25	
2025-01-16 18:20:24.04	130.98	55.33	
2025-01-16 18:20:24.25	130.90	55.41	
2025-01-16 18:20:24.45	130.81	55.49	
2025-01-16 18:20:24.65	130.72	55.57	
2025-01-16 18:20:24.86	130.63	55.66	
2025-01-16 18:20:25.06	130.55	55.74	
2025-01-16 18:20:25.26	130.46	55.82	
2025-01-16 18:20:25.47	130.36	55.90	
2025-01-16 18:20:25.67	130.28	55.98	
2025-01-16 18:20:25.87	130.19	56.06	
2025-01-16 18:20:26.07	130.10	56.14	
2025-01-16 18:20:26.28	130.00	56.22	
2025-01-16 18:20:26.48	129.91	56.31	
2025-01-16 18:20:26.68	129.82	56.39	
2025-01-16 18:20:26.89	129.72	56.47	
2025-01-16 18:20:27.09	129.63	56.55	
2025-01-16 18:20:27.29	129.54	56.63	
2025-01-16 18:20:27.50	129.44	56.72	
2025-01-16 18:20:27.70	129.34	56.80	
2025-01-16 18:20:27.90	129.25	56.88	
2025-01-16 18:20:28.11	129.15	56.96	
2025-01-16 18:20:28.31	129.05	57.04	
2025-01-16 18:20:28.51	128.96	57.12	
2025-01-16 18:20:28.71	128.86	57.21	
2025-01-16 18:20:28.92	128.76	57.29	
2025-01-16 18:20:29.12	128.66	57.37	
2025-01-16 18:20:29.32	128.56	57.45	
2025-01-16 18:20:29.53	128.46	57.54	
2025-01-16 18:20:29.73	128.36	57.62	
2025-01-16 18:20:29.93	128.25	57.70	
2025-01-16 18:20:30.14	128.15	57.79	
2025-01-16 18:20:30.34	128.05	57.87	
2025-01-16 18:20:30.54	127.94	57.95	
2025-01-16 18:20:30.75	127.84	58.03	
2025-01-16 18:20:30.95	127.73	58.11	
2025-01-16 18:20:31.15	127.63	58.20	
2025-01-16 18:20:31.35	127.52	58.28	
2025-01-16 18:20:31.56	127.41	58.36	
2025-01-16 18:20:31.76	127.30	58.44	
2025-01-16 18:20:31.96	127.20	58.53	
2025-01-16 18:20:32.17	127.08	58.61	
2025-01-16 18:20:32.37	126.97	58.69	
2025-01-16 18:20:32.57	126.87	58.77	
2025-01-16 18:20:32.78	126.75	58.86	
2025-01-16 18:20:32.98	126.64	58.94	
2025-01-16 18:20:33.18	126.53	59.02	
2025-01-16 18:20:33.39	126.41	59.11	
2025-01-16 18:20:33.59	126.30	59.19	
2025-01-16 18:20:33.79	126.18	59.27	
2025-01-16 18:20:33.99	126.07	59.35	
2025-01-16 18:20:34.20	125.95	59.44	
2025-01-16 18:20:34.40	125.83	59.52	
2025-01-16 18:20:34.60	125.72	59.60	
2025-01-16 18:20:34.81	125.59	59.69	
2025-01-16 18:20:35.01	125.48	59.77	
2025-01-16 18:20:35.21	125.36	59.85	
2025-01-16 18:20:35.42	125.23	59.94	
2025-01-16 18:20:35.62	125.11	60.02	
2025-01-16 18:20:35.82	124.99	60.10	
2025-01-16 18:20:36.03	124.86	60.19	
2025-01-16 18:20:36.23	124.74	60.27	
2025-01-16 18:20:36.43	124.62	60.35	
2025-01-16 18:20:36.63	124.49	60.43	
2025-01-16 18:20:36.84	124.36	60.52	
2025-01-16 18:20:37.04	124.23	60.60	
2025-01-16 18:20:37.24	124.11	60.68	
2025-01-16 18:20:37.45	123.97	60.77	
2025-01-16 18:20:37.65	123.84	60.85	
2025-01-16 18:20:37.85	123.72	60.93	
2025-01-16 18:20:38.06	123.58	61.01	
2025-01-16 18:20:38.26	123.45	61.10	
2025-01-16 18:20:38.46	123.32	61.18	
2025-01-16 18:20:38.67	123.18	61.26	
2025-01-16 18:20:38.87	123.04	61.34	
2025-01-16 18:20:39.07	122.91	61.43	
2025-01-16 18:20:39.27	122.77	61.51	
2025-01-16 18:20:39.48	122.63	61.59	
2025-01-16 18:20:39.68	122.49	61.67	
2025-01-16 18:20:39.88	122.35	61.75	
2025-01-16 18:20:40.09	122.21	61.84	
2025-01-16 18:20:40.29	122.07	61.92	
2025-01-16 18:20:40.49	121.93	62.00	
2025-01-16 18:20:40.70	121.78	62.09	
2025-01-16 18:20:40.90	121.63	62.17	
2025-01-16 18:20:41.10	121.49	62.25	
2025-01-16 18:20:41.31	121.34	62.33	
2025-01-16 18:20:41.51	121.19	62.41	
2025-01-16 18:20:41.71	121.04	62.50	
2025-01-16 18:20:41.91	120.90	62.58	
2025-01-16 18:20:42.12	120.74	62.66	
2025-01-16 18:20:42.32	120.59	62.74	
2025-01-16 18:20:42.52	120.44	62.82	
2025-01-16 18:20:42.73	120.28	62.91	
2025-01-16 18:20:42.93	120.13	62.99	
2025-01-16 18:20:43.13	119.97	63.07	
2025-01-16 18:20:43.34	119.81	63.15	
2025-01-16 18:20:43.54	119.65	63.23	
2025-01-16 18:20:43.74	119.50	63.31	
2025-01-16 18:20:43.95	119.33	63.39	
2025-01-16 18:20:44.15	119.17	63.47	
2025-01-16 18:20:44.35	119.01	63.55	
2025-01-16 18:20:44.55	118.85	63.63	
2025-01-16 18:20:44.76	118.68	63.72	
2025-01-16 18:20:44.96	118.51	63.80	
2025-01-16 18:20:45.16	118.35	63.87	
2025-01-16 18:20:45.37	118.17	63.96	
2025-01-16 18:20:45.57	118.00	64.04	
2025-01-16 18:20:45.77	117.84	64.12	
2025-01-16 18:20:45.98	117.66	64.20	
2025-01-16 18:20:46.18	117.49	64.28	
2025-01-16 18:20:46.38	117.31	64.36	
2025-01-16 18:20:46.59	117.13	64.44	
2025-01-16 18:20:46.79	116.96	64.52	
2025-01-16 18:20:46.99	116.78	64.59	
2025-01-16 18:20:47.19	116.60	64.67	
2025-01-16 18:20:47.40	116.42	64.75	
2025-01-16 18:20:47.60	116.24	64.83	
2025-01-16 18:20:47.80	116.06	64.91	
2025-01-16 18:20:48.01	115.86	64.99	
2025-01-16 18:20:48.21	115.68	65.07	
2025-01-16 18:20:48.41	115.50	65.15	
2025-01-16 18:20:48.62	115.30	65.23	
2025-01-16 18:20:48.82	115.11	65.30	
2025-01-16 18:20:49.02	114.92	65.38	
2025-01-16 18:20:49.23	114.72	65.46	
2025-01-16 18:20:49.43	114.53	65.54	
2025-01-16 18:20:49.63	114.34	65.61	
2025-01-16 18:20:49.83	114.15	65.69	
2025-01-16 18:20:50.04	113.94	65.77	
2025-01-16 18:20:50.24	113.74	65.84	
2025-01-16 18:20:50.44	113.55	65.92	
2025-01-16 18:20:50.65	113.34	66.00	
2025-01-16 18:20:50.85	113.13	66.07	
2025-01-16 18:20:51.05	112.93	66.15	
2025-01-16 18:20:51.26	112.72	66.23	
2025-01-16 18:20:51.46	112.51	66.30	
2025-01-16 18:20:51.66	112.31	66.37	
2025-01-16 18:20:51.87	112.09	66.45	
2025-01-16 18:20:52.07	111.88	66.53	
2025-01-16 18:20:52.27	111.67	66.60	
2025-01-16 18:20:52.47	111.45	66.67	
2025-01-16 18:20:52.68	111.23	66.75	
2025-01-16 18:20:52.88	111.01	66.82	
2025-01-16 18:20:53.08	110.80	66.90	
2025-01-16 18:20:53.29	110.57	66.97	
2025-01-16 18:20:53.49	110.35	67.04	
2025-01-16 18:20:53.69	110.12	67.12	
2025-01-16 18:20:53.90	109.89	67.19	
2025-01-16 18:20:54.10	109.66	67.26	
2025-01-16 18:20:54.30	109.44	67.33	
2025-01-16 18:20:54.51	109.20	67.41	
2025-01-16 18:20:54.71	108.97	67.48	
