passes_logs/2025/01/16/SPB_Silybum_02/SPB_Silybum_02__20250116_094701_SUOMI_NPP_rec.log

#Pass ID: 20250116_094701_SUOMI NPP
#Satellite: SUOMI NPP
#Configuration: NPP
#Start time: 2025-01-16 09:47:00

#Version: 2.0.20230423
#Station: SPB_Silybum_02
#Location: 30.233357 lon 59.946436 lat
#TLE: 1 37849U 11061A   25015.83617422  .00000154  00000+0  93894-4 0  9992
#TLE: 2 37849  98.7447 316.8141 0001652  39.8884 320.2413 14.19538521685036

#Time	Az	El	Level	Level2	SNR	BER	Gain	Gain2
2025-01-16 09:47:02.22	145.12	4.03	
2025-01-16 09:47:02.42	145.12	4.04	
2025-01-16 09:47:02.63	145.11	4.05	
2025-01-16 09:47:02.83	145.11	4.07	
2025-01-16 09:47:03.03	145.10	4.08	
2025-01-16 09:47:03.23	145.10	4.09	
2025-01-16 09:47:03.44	145.10	4.11	
2025-01-16 09:47:03.64	145.09	4.12	
2025-01-16 09:47:03.84	145.09	4.14	
2025-01-16 09:47:04.05	145.08	4.15	
2025-01-16 09:47:04.25	145.08	4.16	
2025-01-16 09:47:04.45	145.08	4.18	
2025-01-16 09:47:04.66	145.07	4.19	
2025-01-16 09:47:04.86	145.07	4.21	
2025-01-16 09:47:05.06	145.07	4.22	
2025-01-16 09:47:05.26	145.06	4.23	
2025-01-16 09:47:05.47	145.06	4.25	
2025-01-16 09:47:05.67	145.05	4.26	
2025-01-16 09:47:05.87	145.05	4.28	
2025-01-16 09:47:06.08	145.05	4.29	
2025-01-16 09:47:06.28	145.04	4.31	
2025-01-16 09:47:06.48	145.04	4.32	
2025-01-16 09:47:06.68	145.04	4.33	
2025-01-16 09:47:06.89	145.03	4.35	
2025-01-16 09:47:07.09	145.03	4.36	
2025-01-16 09:47:07.29	145.02	4.38	
2025-01-16 09:47:07.50	145.02	4.39	
2025-01-16 09:47:07.70	145.02	4.40	
2025-01-16 09:47:07.90	145.01	4.42	
2025-01-16 09:47:08.11	145.01	4.43	
2025-01-16 09:47:08.31	145.00	4.45	
2025-01-16 09:47:08.51	145.00	4.46	
2025-01-16 09:47:08.71	145.00	4.47	
2025-01-16 09:47:08.92	144.99	4.49	
2025-01-16 09:47:09.12	144.99	4.50	
2025-01-16 09:47:09.32	144.98	4.52	
2025-01-16 09:47:09.53	144.98	4.53	
2025-01-16 09:47:09.73	144.98	4.55	
2025-01-16 09:47:09.93	144.97	4.56	
2025-01-16 09:47:10.14	144.97	4.57	
2025-01-16 09:47:10.34	144.96	4.59	
2025-01-16 09:47:10.54	144.96	4.60	
2025-01-16 09:47:10.74	144.96	4.62	
2025-01-16 09:47:10.95	144.95	4.63	
2025-01-16 09:47:11.15	144.95	4.65	
2025-01-16 09:47:11.35	144.95	4.66	
2025-01-16 09:47:11.56	144.94	4.67	
2025-01-16 09:47:11.76	144.94	4.69	
2025-01-16 09:47:11.96	144.93	4.70	
2025-01-16 09:47:12.17	144.93	4.72	
2025-01-16 09:47:12.37	144.93	4.73	
2025-01-16 09:47:12.57	144.92	4.75	
2025-01-16 09:47:12.77	144.92	4.76	
2025-01-16 09:47:12.98	144.91	4.77	
2025-01-16 09:47:13.18	144.91	4.79	
2025-01-16 09:47:13.38	144.91	4.80	
2025-01-16 09:47:13.59	144.90	4.82	
2025-01-16 09:47:13.79	144.90	4.83	
2025-01-16 09:47:13.99	144.89	4.85	
2025-01-16 09:47:14.20	144.89	4.86	
2025-01-16 09:47:14.40	144.89	4.87	
2025-01-16 09:47:14.60	144.88	4.89	
2025-01-16 09:47:14.80	144.88	4.90	
2025-01-16 09:47:15.01	144.87	4.92	
2025-01-16 09:47:15.21	144.87	4.93	
2025-01-16 09:47:15.41	144.87	4.95	
2025-01-16 09:47:15.62	144.86	4.96	
2025-01-16 09:47:15.82	144.86	4.98	
2025-01-16 09:47:16.02	144.85	4.99	
2025-01-16 09:47:16.22	144.85	5.00	
2025-01-16 09:47:16.43	144.84	5.02	
2025-01-16 09:47:16.63	144.84	5.03	
2025-01-16 09:47:16.83	144.84	5.05	
2025-01-16 09:47:17.04	144.83	5.06	
2025-01-16 09:47:17.24	144.83	5.08	
2025-01-16 09:47:17.44	144.82	5.09	
2025-01-16 09:47:17.65	144.82	5.11	
2025-01-16 09:47:17.85	144.82	5.12	
2025-01-16 09:47:18.05	144.81	5.13	
2025-01-16 09:47:18.25	144.81	5.15	
2025-01-16 09:47:18.46	144.80	5.16	
2025-01-16 09:47:18.66	144.80	5.18	
2025-01-16 09:47:18.86	144.80	5.19	
2025-01-16 09:47:19.07	144.79	5.21	
2025-01-16 09:47:19.27	144.79	5.22	
2025-01-16 09:47:19.47	144.78	5.24	
2025-01-16 09:47:19.68	144.78	5.25	
2025-01-16 09:47:19.88	144.78	5.27	
2025-01-16 09:47:20.08	144.77	5.28	
2025-01-16 09:47:20.28	144.77	5.29	
2025-01-16 09:47:20.49	144.76	5.31	
2025-01-16 09:47:20.69	144.76	5.32	
2025-01-16 09:47:20.89	144.75	5.34	
2025-01-16 09:47:21.10	144.75	5.35	
2025-01-16 09:47:21.30	144.75	5.37	
2025-01-16 09:47:21.50	144.74	5.38	
2025-01-16 09:47:21.71	144.74	5.40	
2025-01-16 09:47:21.91	144.73	5.41	
2025-01-16 09:47:22.11	144.73	5.43	
2025-01-16 09:47:22.31	144.73	5.44	
2025-01-16 09:47:22.52	144.72	5.46	
2025-01-16 09:47:22.72	144.72	5.47	
2025-01-16 09:47:22.92	144.71	5.48	
2025-01-16 09:47:23.13	144.71	5.50	
2025-01-16 09:47:23.33	144.70	5.51	
2025-01-16 09:47:23.53	144.70	5.53	
2025-01-16 09:47:23.74	144.70	5.54	
2025-01-16 09:47:23.94	144.69	5.56	
2025-01-16 09:47:24.14	144.69	5.57	
2025-01-16 09:47:24.34	144.68	5.59	
2025-01-16 09:47:24.55	144.68	5.60	
2025-01-16 09:47:24.75	144.67	5.62	
2025-01-16 09:47:24.95	144.67	5.63	
2025-01-16 09:47:25.16	144.67	5.65	
2025-01-16 09:47:25.36	144.66	5.66	
2025-01-16 09:47:25.56	144.66	5.68	
2025-01-16 09:47:25.76	144.65	5.69	
2025-01-16 09:47:25.97	144.65	5.71	
2025-01-16 09:47:26.17	144.64	5.72	
2025-01-16 09:47:26.37	144.64	5.74	
2025-01-16 09:47:26.58	144.64	5.75	
2025-01-16 09:47:26.78	144.63	5.77	
2025-01-16 09:47:26.98	144.63	5.78	
2025-01-16 09:47:27.19	144.62	5.80	
2025-01-16 09:47:27.39	144.62	5.81	
2025-01-16 09:47:27.59	144.61	5.83	
2025-01-16 09:47:27.79	144.61	5.84	
2025-01-16 09:47:28.00	144.61	5.86	
2025-01-16 09:47:28.20	144.60	5.87	
2025-01-16 09:47:28.40	144.60	5.88	
2025-01-16 09:47:28.61	144.59	5.90	
2025-01-16 09:47:28.81	144.59	5.91	
2025-01-16 09:47:29.01	144.58	5.93	
2025-01-16 09:47:29.22	144.58	5.94	
2025-01-16 09:47:29.42	144.57	5.96	
2025-01-16 09:47:29.62	144.57	5.97	
2025-01-16 09:47:29.82	144.57	5.99	
2025-01-16 09:47:30.03	144.56	6.00	
2025-01-16 09:47:30.23	144.56	6.02	
2025-01-16 09:47:30.43	144.55	6.03	
2025-01-16 09:47:30.64	144.55	6.05	
2025-01-16 09:47:30.84	144.54	6.06	
2025-01-16 09:47:31.04	144.54	6.08	
2025-01-16 09:47:31.25	144.54	6.09	
2025-01-16 09:47:31.45	144.53	6.11	
2025-01-16 09:47:31.65	144.53	6.12	
2025-01-16 09:47:31.85	144.52	6.14	
2025-01-16 09:47:32.06	144.52	6.16	
2025-01-16 09:47:32.26	144.51	6.17	
2025-01-16 09:47:32.46	144.51	6.18	
2025-01-16 09:47:32.67	144.50	6.20	
2025-01-16 09:47:32.87	144.50	6.22	
2025-01-16 09:47:33.07	144.50	6.23	
2025-01-16 09:47:33.28	144.49	6.25	
2025-01-16 09:47:33.48	144.49	6.26	
2025-01-16 09:47:33.68	144.48	6.28	
2025-01-16 09:47:33.88	144.48	6.29	
2025-01-16 09:47:34.09	144.47	6.31	
2025-01-16 09:47:34.29	144.47	6.32	
2025-01-16 09:47:34.49	144.46	6.34	
2025-01-16 09:47:34.70	144.46	6.35	
2025-01-16 09:47:34.90	144.45	6.37	
2025-01-16 09:47:35.10	144.45	6.38	
2025-01-16 09:47:35.31	144.45	6.40	
2025-01-16 09:47:35.51	144.44	6.41	
2025-01-16 09:47:35.71	144.44	6.43	
2025-01-16 09:47:35.91	144.43	6.44	
2025-01-16 09:47:36.12	144.43	6.46	
2025-01-16 09:47:36.32	144.42	6.47	
2025-01-16 09:47:36.52	144.42	6.49	
2025-01-16 09:47:36.73	144.41	6.50	
2025-01-16 09:47:36.93	144.41	6.52	
2025-01-16 09:47:37.13	144.41	6.53	
2025-01-16 09:47:37.33	144.40	6.55	
2025-01-16 09:47:37.54	144.40	6.57	
2025-01-16 09:47:37.74	144.39	6.58	
2025-01-16 09:47:37.94	144.39	6.60	
2025-01-16 09:47:38.15	144.38	6.61	
2025-01-16 09:47:38.35	144.38	6.63	
2025-01-16 09:47:38.55	144.37	6.64	
2025-01-16 09:47:38.76	144.37	6.66	
2025-01-16 09:47:38.96	144.36	6.67	
2025-01-16 09:47:39.16	144.36	6.69	
2025-01-16 09:47:39.36	144.35	6.70	
2025-01-16 09:47:39.57	144.35	6.72	
2025-01-16 09:47:39.77	144.35	6.73	
2025-01-16 09:47:39.97	144.34	6.75	
2025-01-16 09:47:40.18	144.34	6.77	
2025-01-16 09:47:40.38	144.33	6.78	
2025-01-16 09:47:40.58	144.33	6.80	
2025-01-16 09:47:40.79	144.32	6.81	
2025-01-16 09:47:40.99	144.32	6.83	
2025-01-16 09:47:41.19	144.31	6.84	
2025-01-16 09:47:41.39	144.31	6.86	
2025-01-16 09:47:41.60	144.30	6.87	
2025-01-16 09:47:41.80	144.30	6.89	
2025-01-16 09:47:42.00	144.29	6.90	
2025-01-16 09:47:42.21	144.29	6.92	
2025-01-16 09:47:42.41	144.28	6.94	
2025-01-16 09:47:42.61	144.28	6.95	
2025-01-16 09:47:42.82	144.27	6.97	
2025-01-16 09:47:43.02	144.27	6.98	
2025-01-16 09:47:43.22	144.27	7.00	
2025-01-16 09:47:43.42	144.26	7.01	
2025-01-16 09:47:43.63	144.26	7.03	
2025-01-16 09:47:43.83	144.25	7.04	
2025-01-16 09:47:44.03	144.25	7.06	
2025-01-16 09:47:44.24	144.24	7.08	
2025-01-16 09:47:44.44	144.24	7.09	
2025-01-16 09:47:44.64	144.23	7.11	
2025-01-16 09:47:44.85	144.23	7.12	
2025-01-16 09:47:45.05	144.22	7.14	
2025-01-16 09:47:45.25	144.22	7.15	
2025-01-16 09:47:45.45	144.21	7.17	
2025-01-16 09:47:45.66	144.21	7.19	
2025-01-16 09:47:45.86	144.20	7.20	
2025-01-16 09:47:46.06	144.20	7.22	
2025-01-16 09:47:46.27	144.19	7.23	
2025-01-16 09:47:46.47	144.19	7.25	
2025-01-16 09:47:46.67	144.18	7.26	
2025-01-16 09:47:46.87	144.18	7.28	
2025-01-16 09:47:47.08	144.17	7.30	
2025-01-16 09:47:47.28	144.17	7.31	
2025-01-16 09:47:47.48	144.16	7.33	
2025-01-16 09:47:47.69	144.16	7.34	
2025-01-16 09:47:47.89	144.15	7.36	
2025-01-16 09:47:48.09	144.15	7.37	
2025-01-16 09:47:48.30	144.15	7.39	
2025-01-16 09:47:48.50	144.14	7.41	
2025-01-16 09:47:48.70	144.14	7.42	
2025-01-16 09:47:48.90	144.13	7.44	
2025-01-16 09:47:49.11	144.13	7.45	
2025-01-16 09:47:49.31	144.12	7.47	
2025-01-16 09:47:49.51	144.12	7.48	
2025-01-16 09:47:49.72	144.11	7.50	
2025-01-16 09:47:49.92	144.11	7.52	
2025-01-16 09:47:50.12	144.10	7.53	
2025-01-16 09:47:50.33	144.10	7.55	
2025-01-16 09:47:50.53	144.09	7.56	
2025-01-16 09:47:50.73	144.09	7.58	
2025-01-16 09:47:50.93	144.08	7.60	
2025-01-16 09:47:51.14	144.08	7.61	
2025-01-16 09:47:51.34	144.07	7.63	
2025-01-16 09:47:51.54	144.07	7.64	
2025-01-16 09:47:51.75	144.06	7.66	
2025-01-16 09:47:51.95	144.06	7.68	
2025-01-16 09:47:52.15	144.05	7.69	
2025-01-16 09:47:52.36	144.05	7.71	
2025-01-16 09:47:52.56	144.04	7.72	
2025-01-16 09:47:52.76	144.04	7.74	
2025-01-16 09:47:52.96	144.03	7.76	
2025-01-16 09:47:53.17	144.03	7.77	
2025-01-16 09:47:53.37	144.02	7.79	
2025-01-16 09:47:53.57	144.02	7.80	
2025-01-16 09:47:53.78	144.01	7.82	
2025-01-16 09:47:53.98	144.01	7.84	
2025-01-16 09:47:54.18	144.00	7.85	
2025-01-16 09:47:54.39	144.00	7.87	
2025-01-16 09:47:54.59	143.99	7.88	
2025-01-16 09:47:54.79	143.99	7.90	
2025-01-16 09:47:54.99	143.98	7.92	
2025-01-16 09:47:55.20	143.98	7.93	
2025-01-16 09:47:55.40	143.97	7.95	
2025-01-16 09:47:55.60	143.97	7.96	
2025-01-16 09:47:55.81	143.96	7.98	
2025-01-16 09:47:56.01	143.96	8.00	
2025-01-16 09:47:56.21	143.95	8.01	
2025-01-16 09:47:56.41	143.95	8.03	
2025-01-16 09:47:56.62	143.94	8.05	
2025-01-16 09:47:56.82	143.93	8.06	
2025-01-16 09:47:57.02	143.93	8.08	
2025-01-16 09:47:57.23	143.92	8.09	
2025-01-16 09:47:57.43	143.92	8.11	
2025-01-16 09:47:57.63	143.91	8.13	
2025-01-16 09:47:57.84	143.91	8.14	
2025-01-16 09:47:58.04	143.90	8.16	
2025-01-16 09:47:58.24	143.90	8.18	
2025-01-16 09:47:58.44	143.89	8.19	
2025-01-16 09:47:58.65	143.89	8.21	
2025-01-16 09:47:58.85	143.88	8.22	
2025-01-16 09:47:59.05	143.88	8.24	
2025-01-16 09:47:59.26	143.87	8.26	
2025-01-16 09:47:59.46	143.87	8.27	
2025-01-16 09:47:59.66	143.86	8.29	
2025-01-16 09:47:59.87	143.86	8.31	
2025-01-16 09:48:00.07	143.85	8.32	
2025-01-16 09:48:00.27	143.85	8.34	
2025-01-16 09:48:00.47	143.84	8.36	
2025-01-16 09:48:00.68	143.84	8.37	
2025-01-16 09:48:00.88	143.83	8.39	
2025-01-16 09:48:01.08	143.83	8.40	
2025-01-16 09:48:01.29	143.82	8.42	
2025-01-16 09:48:01.49	143.81	8.44	
2025-01-16 09:48:01.69	143.81	8.45	
2025-01-16 09:48:01.90	143.80	8.47	
2025-01-16 09:48:02.10	143.80	8.49	
2025-01-16 09:48:02.30	143.79	8.50	
2025-01-16 09:48:02.50	143.79	8.52	
2025-01-16 09:48:02.71	143.78	8.54	
2025-01-16 09:48:02.91	143.78	8.55	
2025-01-16 09:48:03.11	143.77	8.57	
2025-01-16 09:48:03.32	143.77	8.59	
2025-01-16 09:48:03.52	143.76	8.60	
2025-01-16 09:48:03.72	143.76	8.62	
2025-01-16 09:48:03.93	143.75	8.64	
2025-01-16 09:48:04.13	143.75	8.65	
2025-01-16 09:48:04.33	143.74	8.67	
2025-01-16 09:48:04.53	143.74	8.69	
2025-01-16 09:48:04.74	143.73	8.70	
2025-01-16 09:48:04.94	143.72	8.72	
2025-01-16 09:48:05.14	143.72	8.74	
2025-01-16 09:48:05.35	143.71	8.75	
2025-01-16 09:48:05.55	143.71	8.77	
2025-01-16 09:48:05.75	143.70	8.79	
2025-01-16 09:48:05.95	143.70	8.80	
2025-01-16 09:48:06.16	143.69	8.82	
2025-01-16 09:48:06.36	143.69	8.84	
2025-01-16 09:48:06.56	143.68	8.85	
2025-01-16 09:48:06.77	143.68	8.87	
2025-01-16 09:48:06.97	143.67	8.89	
2025-01-16 09:48:07.17	143.66	8.90	
2025-01-16 09:48:07.38	143.66	8.92	
2025-01-16 09:48:07.58	143.65	8.94	
2025-01-16 09:48:07.78	143.65	8.95	
2025-01-16 09:48:07.98	143.64	8.97	
2025-01-16 09:48:08.19	143.64	8.99	
2025-01-16 09:48:08.39	143.63	9.00	
2025-01-16 09:48:08.59	143.63	9.02	
2025-01-16 09:48:08.80	143.62	9.04	
2025-01-16 09:48:09.00	143.61	9.05	
2025-01-16 09:48:09.20	143.61	9.07	
2025-01-16 09:48:09.41	143.60	9.09	
2025-01-16 09:48:09.61	143.60	9.10	
2025-01-16 09:48:09.81	143.59	9.12	
2025-01-16 09:48:10.01	143.59	9.14	
2025-01-16 09:48:10.22	143.58	9.16	
2025-01-16 09:48:10.42	143.58	9.17	
2025-01-16 09:48:10.62	143.57	9.19	
2025-01-16 09:48:10.83	143.56	9.21	
2025-01-16 09:48:11.03	143.56	9.22	
2025-01-16 09:48:11.23	143.55	9.24	
2025-01-16 09:48:11.44	143.55	9.26	
2025-01-16 09:48:11.64	143.54	9.27	
2025-01-16 09:48:11.84	143.54	9.29	
2025-01-16 09:48:12.04	143.53	9.31	
2025-01-16 09:48:12.25	143.53	9.33	
2025-01-16 09:48:12.45	143.52	9.34	
2025-01-16 09:48:12.65	143.51	9.36	
2025-01-16 09:48:12.86	143.51	9.38	
2025-01-16 09:48:13.06	143.50	9.39	
2025-01-16 09:48:13.26	143.50	9.41	
2025-01-16 09:48:13.47	143.49	9.43	
2025-01-16 09:48:13.67	143.49	9.45	
2025-01-16 09:48:13.87	143.48	9.46	
2025-01-16 09:48:14.07	143.47	9.48	
2025-01-16 09:48:14.28	143.47	9.50	
2025-01-16 09:48:14.48	143.46	9.51	
2025-01-16 09:48:14.68	143.46	9.53	
2025-01-16 09:48:14.89	143.45	9.55	
2025-01-16 09:48:15.09	143.45	9.57	
2025-01-16 09:48:15.29	143.44	9.58	
2025-01-16 09:48:15.50	143.43	9.60	
2025-01-16 09:48:15.70	143.43	9.62	
2025-01-16 09:48:15.90	143.42	9.63	
2025-01-16 09:48:16.10	143.42	9.65	
2025-01-16 09:48:16.31	143.41	9.67	
2025-01-16 09:48:16.51	143.40	9.69	
2025-01-16 09:48:16.71	143.40	9.70	
2025-01-16 09:48:16.92	143.39	9.72	
2025-01-16 09:48:17.12	143.39	9.74	
2025-01-16 09:48:17.32	143.38	9.75	
2025-01-16 09:48:17.52	143.38	9.77	
2025-01-16 09:48:17.73	143.37	9.79	
2025-01-16 09:48:17.93	143.36	9.81	
2025-01-16 09:48:18.13	143.36	9.82	
2025-01-16 09:48:18.34	143.35	9.84	
2025-01-16 09:48:18.54	143.35	9.86	
2025-01-16 09:48:18.74	143.34	9.88	
2025-01-16 09:48:18.95	143.33	9.89	
2025-01-16 09:48:19.15	143.33	9.91	
2025-01-16 09:48:19.35	143.32	9.93	
2025-01-16 09:48:19.55	143.32	9.95	
2025-01-16 09:48:19.76	143.31	9.96	
2025-01-16 09:48:19.96	143.31	9.98	
2025-01-16 09:48:20.16	143.30	10.00	
2025-01-16 09:48:20.37	143.29	10.02	
2025-01-16 09:48:20.57	143.29	10.03	
2025-01-16 09:48:20.77	143.28	10.05	
2025-01-16 09:48:20.98	143.28	10.07	
2025-01-16 09:48:21.18	143.27	10.09	
2025-01-16 09:48:21.38	143.26	10.10	
2025-01-16 09:48:21.58	143.26	10.12	
2025-01-16 09:48:21.79	143.25	10.14	
2025-01-16 09:48:21.99	143.25	10.16	
2025-01-16 09:48:22.19	143.24	10.17	
2025-01-16 09:48:22.40	143.23	10.19	
2025-01-16 09:48:22.60	143.23	10.21	
2025-01-16 09:48:22.80	143.22	10.23	
2025-01-16 09:48:23.01	143.21	10.25	
2025-01-16 09:48:23.21	143.21	10.26	
2025-01-16 09:48:23.41	143.20	10.28	
2025-01-16 09:48:23.61	143.20	10.30	
2025-01-16 09:48:23.82	143.19	10.32	
2025-01-16 09:48:24.02	143.18	10.33	
2025-01-16 09:48:24.22	143.18	10.35	
2025-01-16 09:48:24.43	143.17	10.37	
2025-01-16 09:48:24.63	143.17	10.39	
2025-01-16 09:48:24.83	143.16	10.40	
2025-01-16 09:48:25.04	143.15	10.42	
2025-01-16 09:48:25.24	143.15	10.44	
2025-01-16 09:48:25.44	143.14	10.46	
2025-01-16 09:48:25.64	143.14	10.48	
2025-01-16 09:48:25.85	143.13	10.49	
2025-01-16 09:48:26.05	143.12	10.51	
2025-01-16 09:48:26.25	143.12	10.53	
2025-01-16 09:48:26.46	143.11	10.55	
2025-01-16 09:48:26.66	143.10	10.56	
2025-01-16 09:48:26.86	143.10	10.58	
2025-01-16 09:48:27.06	143.09	10.60	
2025-01-16 09:48:27.27	143.09	10.62	
2025-01-16 09:48:27.47	143.08	10.64	
2025-01-16 09:48:27.67	143.07	10.65	
2025-01-16 09:48:27.88	143.07	10.67	
2025-01-16 09:48:28.08	143.06	10.69	
2025-01-16 09:48:28.28	143.05	10.71	
2025-01-16 09:48:28.49	143.05	10.73	
2025-01-16 09:48:28.69	143.04	10.74	
2025-01-16 09:48:28.89	143.04	10.76	
2025-01-16 09:48:29.09	143.03	10.78	
2025-01-16 09:48:29.30	143.02	10.80	
2025-01-16 09:48:29.50	143.02	10.82	
2025-01-16 09:48:29.70	143.01	10.83	
2025-01-16 09:48:29.91	143.00	10.85	
2025-01-16 09:48:30.11	143.00	10.87	
2025-01-16 09:48:30.31	142.99	10.89	
2025-01-16 09:48:30.52	142.99	10.91	
2025-01-16 09:48:30.72	142.98	10.93	
2025-01-16 09:48:30.92	142.97	10.94	
2025-01-16 09:48:31.12	142.97	10.96	
2025-01-16 09:48:31.33	142.96	10.98	
2025-01-16 09:48:31.53	142.95	11.00	
2025-01-16 09:48:31.73	142.95	11.02	
2025-01-16 09:48:31.94	142.94	11.03	
2025-01-16 09:48:32.14	142.93	11.05	
2025-01-16 09:48:32.34	142.93	11.07	
2025-01-16 09:48:32.55	142.92	11.09	
2025-01-16 09:48:32.75	142.91	11.11	
2025-01-16 09:48:32.95	142.91	11.13	
2025-01-16 09:48:33.15	142.90	11.14	
2025-01-16 09:48:33.36	142.90	11.16	
2025-01-16 09:48:33.56	142.89	11.18	
2025-01-16 09:48:33.76	142.88	11.20	
2025-01-16 09:48:33.97	142.88	11.22	
2025-01-16 09:48:34.17	142.87	11.24	
2025-01-16 09:48:34.37	142.86	11.25	
2025-01-16 09:48:34.58	142.86	11.27	
2025-01-16 09:48:34.78	142.85	11.29	
2025-01-16 09:48:34.98	142.84	11.31	
2025-01-16 09:48:35.18	142.84	11.33	
2025-01-16 09:48:35.39	142.83	11.35	
2025-01-16 09:48:35.59	142.82	11.36	
2025-01-16 09:48:35.79	142.82	11.38	
2025-01-16 09:48:36.00	142.81	11.40	
2025-01-16 09:48:36.20	142.80	11.42	
2025-01-16 09:48:36.40	142.80	11.44	
2025-01-16 09:48:36.60	142.79	11.46	
2025-01-16 09:48:36.81	142.78	11.48	
2025-01-16 09:48:37.01	142.78	11.49	
2025-01-16 09:48:37.21	142.77	11.51	
2025-01-16 09:48:37.42	142.76	11.53	
2025-01-16 09:48:37.62	142.76	11.55	
2025-01-16 09:48:37.82	142.75	11.57	
2025-01-16 09:48:38.03	142.74	11.59	
2025-01-16 09:48:38.23	142.74	11.61	
2025-01-16 09:48:38.43	142.73	11.62	
2025-01-16 09:48:38.63	142.72	11.64	
2025-01-16 09:48:38.84	142.72	11.66	
2025-01-16 09:48:39.04	142.71	11.68	
2025-01-16 09:48:39.24	142.70	11.70	
2025-01-16 09:48:39.45	142.70	11.72	
2025-01-16 09:48:39.65	142.69	11.74	
2025-01-16 09:48:39.85	142.68	11.76	
2025-01-16 09:48:40.06	142.68	11.77	
2025-01-16 09:48:40.26	142.67	11.79	
2025-01-16 09:48:40.46	142.66	11.81	
2025-01-16 09:48:40.66	142.66	11.83	
2025-01-16 09:48:40.87	142.65	11.85	
2025-01-16 09:48:41.07	142.64	11.87	
2025-01-16 09:48:41.27	142.64	11.89	
2025-01-16 09:48:41.48	142.63	11.91	
2025-01-16 09:48:41.68	142.62	11.92	
2025-01-16 09:48:41.88	142.62	11.94	
2025-01-16 09:48:42.09	142.61	11.96	
2025-01-16 09:48:42.29	142.60	11.98	
2025-01-16 09:48:42.49	142.59	12.00	
2025-01-16 09:48:42.69	142.59	12.02	
2025-01-16 09:48:42.90	142.58	12.04	
2025-01-16 09:48:43.10	142.57	12.06	
2025-01-16 09:48:43.30	142.57	12.08	
2025-01-16 09:48:43.51	142.56	12.10	
2025-01-16 09:48:43.71	142.55	12.11	
2025-01-16 09:48:43.91	142.55	12.13	
2025-01-16 09:48:44.12	142.54	12.15	
2025-01-16 09:48:44.32	142.53	12.17	
2025-01-16 09:48:44.52	142.53	12.19	
2025-01-16 09:48:44.72	142.52	12.21	
2025-01-16 09:48:44.93	142.51	12.23	
2025-01-16 09:48:45.13	142.50	12.25	
2025-01-16 09:48:45.33	142.50	12.27	
2025-01-16 09:48:45.54	142.49	12.29	
2025-01-16 09:48:45.74	142.48	12.31	
2025-01-16 09:48:45.94	142.48	12.32	
2025-01-16 09:48:46.14	142.47	12.34	
2025-01-16 09:48:46.35	142.46	12.36	
2025-01-16 09:48:46.55	142.45	12.38	
2025-01-16 09:48:46.75	142.45	12.40	
2025-01-16 09:48:46.96	142.44	12.42	
2025-01-16 09:48:47.16	142.43	12.44	
2025-01-16 09:48:47.36	142.43	12.46	
2025-01-16 09:48:47.57	142.42	12.48	
2025-01-16 09:48:47.77	142.41	12.50	
2025-01-16 09:48:47.97	142.40	12.52	
2025-01-16 09:48:48.17	142.40	12.54	
2025-01-16 09:48:48.38	142.39	12.56	
2025-01-16 09:48:48.58	142.38	12.57	
2025-01-16 09:48:48.78	142.38	12.59	
2025-01-16 09:48:48.99	142.37	12.61	
2025-01-16 09:48:49.19	142.36	12.63	
2025-01-16 09:48:49.39	142.35	12.65	
2025-01-16 09:48:49.60	142.35	12.67	
2025-01-16 09:48:49.80	142.34	12.69	
2025-01-16 09:48:50.00	142.33	12.71	
2025-01-16 09:48:50.20	142.33	12.73	
2025-01-16 09:48:50.41	142.32	12.75	
2025-01-16 09:48:50.61	142.31	12.77	
2025-01-16 09:48:50.81	142.30	12.79	
2025-01-16 09:48:51.02	142.30	12.81	
2025-01-16 09:48:51.22	142.29	12.83	
2025-01-16 09:48:51.42	142.28	12.85	
2025-01-16 09:48:51.63	142.27	12.87	
2025-01-16 09:48:51.83	142.27	12.89	
2025-01-16 09:48:52.03	142.26	12.91	
2025-01-16 09:48:52.23	142.25	12.93	
2025-01-16 09:48:52.44	142.24	12.95	
2025-01-16 09:48:52.64	142.24	12.97	
2025-01-16 09:48:52.84	142.23	12.98	
2025-01-16 09:48:53.05	142.22	13.01	
2025-01-16 09:48:53.25	142.21	13.02	
2025-01-16 09:48:53.45	142.21	13.04	
2025-01-16 09:48:53.66	142.20	13.06	
2025-01-16 09:48:53.86	142.19	13.08	
2025-01-16 09:48:54.06	142.19	13.10	
2025-01-16 09:48:54.26	142.18	13.12	
2025-01-16 09:48:54.47	142.17	13.14	
2025-01-16 09:48:54.67	142.16	13.16	
2025-01-16 09:48:54.87	142.16	13.18	
2025-01-16 09:48:55.08	142.15	13.20	
2025-01-16 09:48:55.28	142.14	13.22	
2025-01-16 09:48:55.48	142.13	13.24	
2025-01-16 09:48:55.69	142.12	13.26	
2025-01-16 09:48:55.89	142.12	13.28	
2025-01-16 09:48:56.09	142.11	13.30	
2025-01-16 09:48:56.29	142.10	13.32	
2025-01-16 09:48:56.50	142.09	13.34	
2025-01-16 09:48:56.70	142.09	13.36	
2025-01-16 09:48:56.90	142.08	13.38	
2025-01-16 09:48:57.11	142.07	13.40	
2025-01-16 09:48:57.31	142.06	13.42	
2025-01-16 09:48:57.51	142.06	13.44	
2025-01-16 09:48:57.71	142.05	13.46	
2025-01-16 09:48:57.92	142.04	13.48	
2025-01-16 09:48:58.12	142.03	13.50	
2025-01-16 09:48:58.32	142.03	13.52	
2025-01-16 09:48:58.53	142.02	13.54	
2025-01-16 09:48:58.73	142.01	13.56	
2025-01-16 09:48:58.93	142.00	13.58	
2025-01-16 09:48:59.14	141.99	13.60	
2025-01-16 09:48:59.34	141.99	13.62	
2025-01-16 09:48:59.54	141.98	13.64	
2025-01-16 09:48:59.74	141.97	13.66	
2025-01-16 09:48:59.95	141.96	13.68	
2025-01-16 09:49:00.15	141.96	13.70	
2025-01-16 09:49:00.35	141.95	13.72	
2025-01-16 09:49:00.56	141.94	13.75	
2025-01-16 09:49:00.76	141.93	13.77	
2025-01-16 09:49:00.96	141.92	13.79	
2025-01-16 09:49:01.17	141.92	13.81	
2025-01-16 09:49:01.37	141.91	13.83	
2025-01-16 09:49:01.57	141.90	13.85	
2025-01-16 09:49:01.77	141.89	13.87	
2025-01-16 09:49:01.98	141.88	13.89	
2025-01-16 09:49:02.18	141.88	13.91	
2025-01-16 09:49:02.38	141.87	13.93	
2025-01-16 09:49:02.59	141.86	13.95	
2025-01-16 09:49:02.79	141.85	13.97	
2025-01-16 09:49:02.99	141.85	13.99	
2025-01-16 09:49:03.20	141.84	14.01	
2025-01-16 09:49:03.40	141.83	14.03	
2025-01-16 09:49:03.60	141.82	14.05	
2025-01-16 09:49:03.80	141.81	14.07	
2025-01-16 09:49:04.01	141.81	14.09	
2025-01-16 09:49:04.21	141.80	14.11	
2025-01-16 09:49:04.41	141.79	14.13	
2025-01-16 09:49:04.62	141.78	14.15	
2025-01-16 09:49:04.82	141.77	14.17	
2025-01-16 09:49:05.02	141.77	14.20	
2025-01-16 09:49:05.23	141.76	14.22	
2025-01-16 09:49:05.43	141.75	14.24	
2025-01-16 09:49:05.63	141.74	14.26	
2025-01-16 09:49:05.83	141.73	14.28	
2025-01-16 09:49:06.04	141.72	14.30	
2025-01-16 09:49:06.24	141.72	14.32	
2025-01-16 09:49:06.44	141.71	14.34	
2025-01-16 09:49:06.65	141.70	14.36	
2025-01-16 09:49:06.85	141.69	14.38	
2025-01-16 09:49:07.05	141.68	14.40	
2025-01-16 09:49:07.25	141.68	14.42	
2025-01-16 09:49:07.46	141.67	14.44	
2025-01-16 09:49:07.66	141.66	14.47	
2025-01-16 09:49:07.86	141.65	14.49	
2025-01-16 09:49:08.07	141.64	14.51	
2025-01-16 09:49:08.27	141.63	14.53	
2025-01-16 09:49:08.47	141.63	14.55	
2025-01-16 09:49:08.68	141.62	14.57	
2025-01-16 09:49:08.88	141.61	14.59	
2025-01-16 09:49:09.08	141.60	14.61	
2025-01-16 09:49:09.28	141.59	14.63	
2025-01-16 09:49:09.49	141.58	14.65	
2025-01-16 09:49:09.69	141.58	14.68	
2025-01-16 09:49:09.89	141.57	14.70	
2025-01-16 09:49:10.10	141.56	14.72	
2025-01-16 09:49:10.30	141.55	14.74	
2025-01-16 09:49:10.50	141.54	14.76	
2025-01-16 09:49:10.71	141.53	14.78	
2025-01-16 09:49:10.91	141.53	14.80	
2025-01-16 09:49:11.11	141.52	14.82	
2025-01-16 09:49:11.31	141.51	14.84	
2025-01-16 09:49:11.52	141.50	14.87	
2025-01-16 09:49:11.72	141.49	14.89	
2025-01-16 09:49:11.92	141.48	14.91	
2025-01-16 09:49:12.13	141.47	14.93	
2025-01-16 09:49:12.33	141.47	14.95	
2025-01-16 09:49:12.53	141.46	14.97	
2025-01-16 09:49:12.74	141.45	14.99	
2025-01-16 09:49:12.94	141.44	15.01	
2025-01-16 09:49:13.14	141.43	15.04	
2025-01-16 09:49:13.34	141.42	15.06	
2025-01-16 09:49:13.55	141.41	15.08	
2025-01-16 09:49:13.75	141.41	15.10	
2025-01-16 09:49:13.95	141.40	15.12	
2025-01-16 09:49:14.16	141.39	15.14	
2025-01-16 09:49:14.36	141.38	15.16	
2025-01-16 09:49:14.56	141.37	15.19	
2025-01-16 09:49:14.77	141.36	15.21	
2025-01-16 09:49:14.97	141.35	15.23	
2025-01-16 09:49:15.17	141.34	15.25	
2025-01-16 09:49:15.37	141.34	15.27	
2025-01-16 09:49:15.58	141.33	15.29	
2025-01-16 09:49:15.78	141.32	15.32	
2025-01-16 09:49:15.98	141.31	15.34	
2025-01-16 09:49:16.19	141.30	15.36	
2025-01-16 09:49:16.39	141.29	15.38	
2025-01-16 09:49:16.59	141.28	15.40	
2025-01-16 09:49:16.79	141.27	15.42	
2025-01-16 09:49:17.00	141.27	15.45	
2025-01-16 09:49:17.20	141.26	15.47	
2025-01-16 09:49:17.40	141.25	15.49	
2025-01-16 09:49:17.61	141.24	15.51	
2025-01-16 09:49:17.81	141.23	15.53	
2025-01-16 09:49:18.01	141.22	15.55	
2025-01-16 09:49:18.22	141.21	15.58	
2025-01-16 09:49:18.42	141.20	15.60	
2025-01-16 09:49:18.62	141.19	15.62	
2025-01-16 09:49:18.82	141.19	15.64	
2025-01-16 09:49:19.03	141.18	15.66	
2025-01-16 09:49:19.23	141.17	15.69	
2025-01-16 09:49:19.43	141.16	15.71	
2025-01-16 09:49:19.64	141.15	15.73	
2025-01-16 09:49:19.84	141.14	15.75	
2025-01-16 09:49:20.04	141.13	15.77	
2025-01-16 09:49:20.25	141.12	15.80	
2025-01-16 09:49:20.45	141.11	15.82	
2025-01-16 09:49:20.65	141.10	15.84	
2025-01-16 09:49:20.85	141.10	15.86	
2025-01-16 09:49:21.06	141.09	15.88	
2025-01-16 09:49:21.26	141.08	15.91	
2025-01-16 09:49:21.46	141.07	15.93	
2025-01-16 09:49:21.67	141.06	15.95	
2025-01-16 09:49:21.87	141.05	15.97	
2025-01-16 09:49:22.07	141.04	15.99	
2025-01-16 09:49:22.28	141.03	16.02	
2025-01-16 09:49:22.48	141.02	16.04	
2025-01-16 09:49:22.68	141.01	16.06	
2025-01-16 09:49:22.88	141.00	16.08	
2025-01-16 09:49:23.09	140.99	16.11	
2025-01-16 09:49:23.29	140.98	16.13	
2025-01-16 09:49:23.49	140.98	16.15	
2025-01-16 09:49:23.70	140.97	16.17	
2025-01-16 09:49:23.90	140.96	16.19	
2025-01-16 09:49:24.10	140.95	16.22	
2025-01-16 09:49:24.31	140.94	16.24	
2025-01-16 09:49:24.51	140.93	16.26	
2025-01-16 09:49:24.71	140.92	16.28	
2025-01-16 09:49:24.91	140.91	16.31	
2025-01-16 09:49:25.12	140.90	16.33	
2025-01-16 09:49:25.32	140.89	16.35	
2025-01-16 09:49:25.52	140.88	16.37	
2025-01-16 09:49:25.73	140.87	16.40	
2025-01-16 09:49:25.93	140.86	16.42	
2025-01-16 09:49:26.13	140.85	16.44	
2025-01-16 09:49:26.33	140.84	16.46	
2025-01-16 09:49:26.54	140.83	16.49	
2025-01-16 09:49:26.74	140.82	16.51	
2025-01-16 09:49:26.94	140.82	16.53	
2025-01-16 09:49:27.15	140.81	16.56	
2025-01-16 09:49:27.35	140.80	16.58	
2025-01-16 09:49:27.55	140.79	16.60	
2025-01-16 09:49:27.76	140.78	16.62	
2025-01-16 09:49:27.96	140.77	16.65	
2025-01-16 09:49:28.16	140.76	16.67	
2025-01-16 09:49:28.36	140.75	16.69	
2025-01-16 09:49:28.57	140.74	16.71	
2025-01-16 09:49:28.77	140.73	16.74	
2025-01-16 09:49:28.97	140.72	16.76	
2025-01-16 09:49:29.18	140.71	16.78	
2025-01-16 09:49:29.38	140.70	16.81	
2025-01-16 09:49:29.58	140.69	16.83	
2025-01-16 09:49:29.79	140.68	16.85	
2025-01-16 09:49:29.99	140.67	16.87	
2025-01-16 09:49:30.19	140.66	16.90	
2025-01-16 09:49:30.39	140.65	16.92	
2025-01-16 09:49:30.60	140.64	16.94	
2025-01-16 09:49:30.80	140.63	16.97	
2025-01-16 09:49:31.00	140.62	16.99	
2025-01-16 09:49:31.21	140.61	17.01	
2025-01-16 09:49:31.41	140.60	17.04	
2025-01-16 09:49:31.61	140.59	17.06	
2025-01-16 09:49:31.82	140.58	17.08	
2025-01-16 09:49:32.02	140.57	17.11	
2025-01-16 09:49:32.22	140.56	17.13	
2025-01-16 09:49:32.42	140.55	17.15	
2025-01-16 09:49:32.63	140.54	17.18	
2025-01-16 09:49:32.83	140.53	17.20	
2025-01-16 09:49:33.03	140.52	17.22	
2025-01-16 09:49:33.24	140.51	17.25	
2025-01-16 09:49:33.44	140.50	17.27	
2025-01-16 09:49:33.64	140.49	17.29	
2025-01-16 09:49:33.85	140.48	17.32	
2025-01-16 09:49:34.05	140.47	17.34	
2025-01-16 09:49:34.25	140.46	17.36	
2025-01-16 09:49:34.45	140.45	17.38	
2025-01-16 09:49:34.66	140.44	17.41	
2025-01-16 09:49:34.86	140.43	17.43	
2025-01-16 09:49:35.06	140.42	17.46	
2025-01-16 09:49:35.27	140.41	17.48	
2025-01-16 09:49:35.47	140.40	17.50	
2025-01-16 09:49:35.67	140.39	17.53	
2025-01-16 09:49:35.88	140.38	17.55	
2025-01-16 09:49:36.08	140.37	17.57	
2025-01-16 09:49:36.28	140.36	17.60	
2025-01-16 09:49:36.48	140.35	17.62	
2025-01-16 09:49:36.69	140.34	17.64	
2025-01-16 09:49:36.89	140.33	17.67	
2025-01-16 09:49:37.09	140.32	17.69	
2025-01-16 09:49:37.30	140.31	17.72	
2025-01-16 09:49:37.50	140.30	17.74	
2025-01-16 09:49:37.70	140.29	17.76	
2025-01-16 09:49:37.90	140.28	17.79	
2025-01-16 09:49:38.11	140.27	17.81	
2025-01-16 09:49:38.31	140.25	17.83	
2025-01-16 09:49:38.51	140.24	17.86	
2025-01-16 09:49:38.72	140.23	17.88	
2025-01-16 09:49:38.92	140.22	17.91	
2025-01-16 09:49:39.12	140.21	17.93	
2025-01-16 09:49:39.33	140.20	17.95	
2025-01-16 09:49:39.53	140.19	17.98	
2025-01-16 09:49:39.73	140.18	18.00	
2025-01-16 09:49:39.93	140.17	18.03	
2025-01-16 09:49:40.14	140.16	18.05	
2025-01-16 09:49:40.34	140.15	18.07	
2025-01-16 09:49:40.54	140.14	18.10	
2025-01-16 09:49:40.75	140.13	18.12	
2025-01-16 09:49:40.95	140.12	18.15	
2025-01-16 09:49:41.15	140.11	18.17	
2025-01-16 09:49:41.36	140.10	18.20	
2025-01-16 09:49:41.56	140.09	18.22	
2025-01-16 09:49:41.76	140.07	18.24	
2025-01-16 09:49:41.96	140.06	18.27	
2025-01-16 09:49:42.17	140.05	18.29	
2025-01-16 09:49:42.37	140.04	18.32	
2025-01-16 09:49:42.57	140.03	18.34	
2025-01-16 09:49:42.78	140.02	18.36	
2025-01-16 09:49:42.98	140.01	18.39	
2025-01-16 09:49:43.18	140.00	18.41	
2025-01-16 09:49:43.39	139.99	18.44	
2025-01-16 09:49:43.59	139.98	18.46	
2025-01-16 09:49:43.79	139.97	18.49	
2025-01-16 09:49:43.99	139.96	18.51	
2025-01-16 09:49:44.20	139.94	18.54	
2025-01-16 09:49:44.40	139.93	18.56	
2025-01-16 09:49:44.60	139.92	18.58	
2025-01-16 09:49:44.81	139.91	18.61	
2025-01-16 09:49:45.01	139.90	18.63	
2025-01-16 09:49:45.21	139.89	18.66	
2025-01-16 09:49:45.42	139.88	18.68	
2025-01-16 09:49:45.62	139.87	18.71	
2025-01-16 09:49:45.82	139.86	18.73	
2025-01-16 09:49:46.02	139.84	18.76	
2025-01-16 09:49:46.23	139.83	18.78	
2025-01-16 09:49:46.43	139.82	18.81	
2025-01-16 09:49:46.63	139.81	18.83	
2025-01-16 09:49:46.84	139.80	18.86	
2025-01-16 09:49:47.04	139.79	18.88	
2025-01-16 09:49:47.24	139.78	18.91	
2025-01-16 09:49:47.44	139.77	18.93	
2025-01-16 09:49:47.65	139.75	18.96	
2025-01-16 09:49:47.85	139.74	18.98	
2025-01-16 09:49:48.05	139.73	19.00	
2025-01-16 09:49:48.26	139.72	19.03	
2025-01-16 09:49:48.46	139.71	19.06	
2025-01-16 09:49:48.66	139.70	19.08	
2025-01-16 09:49:48.87	139.69	19.11	
2025-01-16 09:49:49.07	139.67	19.13	
2025-01-16 09:49:49.27	139.66	19.16	
2025-01-16 09:49:49.47	139.65	19.18	
2025-01-16 09:49:49.68	139.64	19.21	
2025-01-16 09:49:49.88	139.63	19.23	
2025-01-16 09:49:50.08	139.62	19.26	
2025-01-16 09:49:50.29	139.61	19.28	
2025-01-16 09:49:50.49	139.59	19.31	
2025-01-16 09:49:50.69	139.58	19.33	
2025-01-16 09:49:50.90	139.57	19.36	
2025-01-16 09:49:51.10	139.56	19.38	
2025-01-16 09:49:51.30	139.55	19.41	
2025-01-16 09:49:51.50	139.54	19.43	
2025-01-16 09:49:51.71	139.52	19.46	
2025-01-16 09:49:51.91	139.51	19.48	
2025-01-16 09:49:52.11	139.50	19.51	
2025-01-16 09:49:52.32	139.49	19.54	
2025-01-16 09:49:52.52	139.48	19.56	
2025-01-16 09:49:52.72	139.47	19.59	
2025-01-16 09:49:52.93	139.45	19.61	
2025-01-16 09:49:53.13	139.44	19.64	
2025-01-16 09:49:53.33	139.43	19.66	
2025-01-16 09:49:53.53	139.42	19.69	
2025-01-16 09:49:53.74	139.41	19.71	
2025-01-16 09:49:53.94	139.39	19.74	
2025-01-16 09:49:54.14	139.38	19.76	
2025-01-16 09:49:54.35	139.37	19.79	
2025-01-16 09:49:54.55	139.36	19.82	
2025-01-16 09:49:54.75	139.35	19.84	
2025-01-16 09:49:54.96	139.33	19.87	
2025-01-16 09:49:55.16	139.32	19.89	
2025-01-16 09:49:55.36	139.31	19.92	
2025-01-16 09:49:55.56	139.30	19.94	
2025-01-16 09:49:55.77	139.29	19.97	
2025-01-16 09:49:55.97	139.27	20.00	
2025-01-16 09:49:56.17	139.26	20.02	
2025-01-16 09:49:56.38	139.25	20.05	
2025-01-16 09:49:56.58	139.24	20.08	
2025-01-16 09:49:56.78	139.23	20.10	
2025-01-16 09:49:56.98	139.21	20.13	
2025-01-16 09:49:57.19	139.20	20.15	
2025-01-16 09:49:57.39	139.19	20.18	
2025-01-16 09:49:57.59	139.18	20.20	
2025-01-16 09:49:57.80	139.16	20.23	
2025-01-16 09:49:58.00	139.15	20.26	
2025-01-16 09:49:58.20	139.14	20.28	
2025-01-16 09:49:58.41	139.13	20.31	
2025-01-16 09:49:58.61	139.11	20.34	
2025-01-16 09:49:58.81	139.10	20.36	
2025-01-16 09:49:59.01	139.09	20.39	
2025-01-16 09:49:59.22	139.08	20.42	
2025-01-16 09:49:59.42	139.06	20.44	
2025-01-16 09:49:59.62	139.05	20.47	
2025-01-16 09:49:59.83	139.04	20.49	
2025-01-16 09:50:00.03	139.03	20.52	
2025-01-16 09:50:00.23	139.01	20.55	
2025-01-16 09:50:00.44	139.00	20.57	
2025-01-16 09:50:00.64	138.99	20.60	
2025-01-16 09:50:00.84	138.98	20.63	
2025-01-16 09:50:01.04	138.96	20.65	
2025-01-16 09:50:01.25	138.95	20.68	
2025-01-16 09:50:01.45	138.94	20.71	
2025-01-16 09:50:01.65	138.93	20.73	
2025-01-16 09:50:01.86	138.91	20.76	
2025-01-16 09:50:02.06	138.90	20.79	
2025-01-16 09:50:02.26	138.89	20.81	
2025-01-16 09:50:02.47	138.87	20.84	
2025-01-16 09:50:02.67	138.86	20.87	
2025-01-16 09:50:02.87	138.85	20.89	
2025-01-16 09:50:03.07	138.84	20.92	
2025-01-16 09:50:03.28	138.82	20.95	
2025-01-16 09:50:03.48	138.81	20.97	
2025-01-16 09:50:03.68	138.80	21.00	
2025-01-16 09:50:03.89	138.78	21.03	
2025-01-16 09:50:04.09	138.77	21.05	
2025-01-16 09:50:04.29	138.76	21.08	
2025-01-16 09:50:04.50	138.74	21.11	
2025-01-16 09:50:04.70	138.73	21.14	
2025-01-16 09:50:04.90	138.72	21.16	
2025-01-16 09:50:05.10	138.70	21.19	
2025-01-16 09:50:05.31	138.69	21.22	
2025-01-16 09:50:05.51	138.68	21.24	
2025-01-16 09:50:05.71	138.66	21.27	
2025-01-16 09:50:05.92	138.65	21.30	
2025-01-16 09:50:06.12	138.64	21.33	
2025-01-16 09:50:06.32	138.63	21.35	
2025-01-16 09:50:06.52	138.61	21.38	
2025-01-16 09:50:06.73	138.60	21.41	
2025-01-16 09:50:06.93	138.58	21.43	
2025-01-16 09:50:07.13	138.57	21.46	
2025-01-16 09:50:07.34	138.56	21.49	
2025-01-16 09:50:07.54	138.54	21.52	
2025-01-16 09:50:07.74	138.53	21.54	
2025-01-16 09:50:07.95	138.52	21.57	
2025-01-16 09:50:08.15	138.50	21.60	
2025-01-16 09:50:08.35	138.49	21.63	
2025-01-16 09:50:08.55	138.48	21.65	
2025-01-16 09:50:08.76	138.46	21.68	
2025-01-16 09:50:08.96	138.45	21.71	
2025-01-16 09:50:09.16	138.44	21.74	
2025-01-16 09:50:09.37	138.42	21.77	
2025-01-16 09:50:09.57	138.41	21.79	
2025-01-16 09:50:09.77	138.40	21.82	
2025-01-16 09:50:09.98	138.38	21.85	
2025-01-16 09:50:10.18	138.37	21.88	
2025-01-16 09:50:10.38	138.35	21.90	
2025-01-16 09:50:10.58	138.34	21.93	
2025-01-16 09:50:10.79	138.33	21.96	
2025-01-16 09:50:10.99	138.31	21.99	
2025-01-16 09:50:11.19	138.30	22.02	
2025-01-16 09:50:11.40	138.28	22.04	
2025-01-16 09:50:11.60	138.27	22.07	
2025-01-16 09:50:11.80	138.26	22.10	
2025-01-16 09:50:12.01	138.24	22.13	
2025-01-16 09:50:12.21	138.23	22.16	
2025-01-16 09:50:12.41	138.21	22.18	
2025-01-16 09:50:12.61	138.20	22.21	
2025-01-16 09:50:12.82	138.19	22.24	
2025-01-16 09:50:13.02	138.17	22.27	
2025-01-16 09:50:13.22	138.16	22.30	
2025-01-16 09:50:13.43	138.14	22.33	
2025-01-16 09:50:13.63	138.13	22.35	
2025-01-16 09:50:13.83	138.12	22.38	
2025-01-16 09:50:14.04	138.10	22.41	
2025-01-16 09:50:14.24	138.09	22.44	
2025-01-16 09:50:14.44	138.07	22.47	
2025-01-16 09:50:14.64	138.06	22.49	
2025-01-16 09:50:14.85	138.04	22.52	
2025-01-16 09:50:15.05	138.03	22.55	
2025-01-16 09:50:15.25	138.01	22.58	
2025-01-16 09:50:15.46	138.00	22.61	
2025-01-16 09:50:15.66	137.99	22.64	
2025-01-16 09:50:15.86	137.97	22.67	
2025-01-16 09:50:16.07	137.96	22.70	
2025-01-16 09:50:16.27	137.94	22.72	
2025-01-16 09:50:16.47	137.93	22.75	
2025-01-16 09:50:16.67	137.91	22.78	
2025-01-16 09:50:16.88	137.90	22.81	
2025-01-16 09:50:17.08	137.88	22.84	
2025-01-16 09:50:17.28	137.87	22.87	
2025-01-16 09:50:17.49	137.85	22.90	
2025-01-16 09:50:17.69	137.84	22.93	
2025-01-16 09:50:17.89	137.82	22.95	
2025-01-16 09:50:18.09	137.81	22.98	
2025-01-16 09:50:18.30	137.79	23.01	
2025-01-16 09:50:18.50	137.78	23.04	
2025-01-16 09:50:18.70	137.76	23.07	
2025-01-16 09:50:18.91	137.75	23.10	
2025-01-16 09:50:19.11	137.73	23.13	
2025-01-16 09:50:19.31	137.72	23.16	
2025-01-16 09:50:19.52	137.70	23.19	
2025-01-16 09:50:19.72	137.69	23.22	
2025-01-16 09:50:19.92	137.67	23.24	
2025-01-16 09:50:20.12	137.66	23.27	
2025-01-16 09:50:20.33	137.64	23.30	
2025-01-16 09:50:20.53	137.63	23.33	
2025-01-16 09:50:20.73	137.61	23.36	
2025-01-16 09:50:20.94	137.60	23.39	
2025-01-16 09:50:21.14	137.58	23.42	
2025-01-16 09:50:21.34	137.57	23.45	
2025-01-16 09:50:21.55	137.55	23.48	
2025-01-16 09:50:21.75	137.54	23.51	
2025-01-16 09:50:21.95	137.52	23.54	
2025-01-16 09:50:22.15	137.51	23.57	
2025-01-16 09:50:22.36	137.49	23.60	
2025-01-16 09:50:22.56	137.48	23.63	
2025-01-16 09:50:22.76	137.46	23.66	
2025-01-16 09:50:22.97	137.44	23.69	
2025-01-16 09:50:23.17	137.43	23.72	
2025-01-16 09:50:23.37	137.41	23.75	
2025-01-16 09:50:23.58	137.40	23.78	
2025-01-16 09:50:23.78	137.38	23.81	
2025-01-16 09:50:23.98	137.37	23.84	
2025-01-16 09:50:24.18	137.35	23.86	
2025-01-16 09:50:24.39	137.33	23.90	
2025-01-16 09:50:24.59	137.32	23.93	
2025-01-16 09:50:24.79	137.30	23.95	
2025-01-16 09:50:25.00	137.29	23.99	
2025-01-16 09:50:25.20	137.27	24.02	
2025-01-16 09:50:25.40	137.26	24.05	
2025-01-16 09:50:25.61	137.24	24.08	
2025-01-16 09:50:25.81	137.22	24.11	
2025-01-16 09:50:26.01	137.21	24.14	
2025-01-16 09:50:26.21	137.19	24.17	
2025-01-16 09:50:26.42	137.18	24.20	
2025-01-16 09:50:26.62	137.16	24.23	
2025-01-16 09:50:26.82	137.14	24.26	
2025-01-16 09:50:27.03	137.13	24.29	
2025-01-16 09:50:27.23	137.11	24.32	
2025-01-16 09:50:27.43	137.09	24.35	
2025-01-16 09:50:27.63	137.08	24.38	
2025-01-16 09:50:27.84	137.06	24.41	
2025-01-16 09:50:28.04	137.05	24.44	
2025-01-16 09:50:28.24	137.03	24.47	
2025-01-16 09:50:28.45	137.01	24.50	
2025-01-16 09:50:28.65	137.00	24.53	
2025-01-16 09:50:28.85	136.98	24.56	
2025-01-16 09:50:29.06	136.96	24.59	
2025-01-16 09:50:29.26	136.95	24.62	
2025-01-16 09:50:29.46	136.93	24.65	
2025-01-16 09:50:29.66	136.91	24.68	
2025-01-16 09:50:29.87	136.90	24.72	
2025-01-16 09:50:30.07	136.88	24.75	
2025-01-16 09:50:30.27	136.86	24.78	
2025-01-16 09:50:30.48	136.85	24.81	
2025-01-16 09:50:30.68	136.83	24.84	
2025-01-16 09:50:30.88	136.81	24.87	
2025-01-16 09:50:31.09	136.80	24.90	
2025-01-16 09:50:31.29	136.78	24.93	
2025-01-16 09:50:31.49	136.76	24.96	
2025-01-16 09:50:31.69	136.75	24.99	
2025-01-16 09:50:31.90	136.73	25.03	
2025-01-16 09:50:32.10	136.71	25.06	
2025-01-16 09:50:32.30	136.70	25.09	
2025-01-16 09:50:32.51	136.68	25.12	
2025-01-16 09:50:32.71	136.66	25.15	
2025-01-16 09:50:32.91	136.64	25.18	
2025-01-16 09:50:33.12	136.63	25.21	
2025-01-16 09:50:33.32	136.61	25.24	
2025-01-16 09:50:33.52	136.59	25.28	
2025-01-16 09:50:33.72	136.58	25.31	
2025-01-16 09:50:33.93	136.56	25.34	
2025-01-16 09:50:34.13	136.54	25.37	
2025-01-16 09:50:34.33	136.52	25.40	
2025-01-16 09:50:34.54	136.50	25.43	
2025-01-16 09:50:34.74	136.49	25.46	
2025-01-16 09:50:34.94	136.47	25.50	
2025-01-16 09:50:35.15	136.45	25.53	
2025-01-16 09:50:35.35	136.43	25.56	
2025-01-16 09:50:35.55	136.42	25.59	
2025-01-16 09:50:35.75	136.40	25.62	
2025-01-16 09:50:35.96	136.38	25.66	
2025-01-16 09:50:36.16	136.36	25.69	
2025-01-16 09:50:36.36	136.35	25.72	
2025-01-16 09:50:36.57	136.33	25.75	
2025-01-16 09:50:36.77	136.31	25.78	
2025-01-16 09:50:36.97	136.29	25.81	
2025-01-16 09:50:37.17	136.28	25.85	
2025-01-16 09:50:37.38	136.26	25.88	
2025-01-16 09:50:37.58	136.24	25.91	
2025-01-16 09:50:37.78	136.22	25.94	
2025-01-16 09:50:37.99	136.20	25.98	
2025-01-16 09:50:38.19	136.19	26.01	
2025-01-16 09:50:38.39	136.17	26.04	
2025-01-16 09:50:38.60	136.15	26.07	
2025-01-16 09:50:38.80	136.13	26.10	
2025-01-16 09:50:39.00	136.11	26.14	
2025-01-16 09:50:39.20	136.09	26.17	
2025-01-16 09:50:39.41	136.08	26.20	
2025-01-16 09:50:39.61	136.06	26.23	
2025-01-16 09:50:39.81	136.04	26.27	
2025-01-16 09:50:40.02	136.02	26.30	
2025-01-16 09:50:40.22	136.00	26.33	
2025-01-16 09:50:40.42	135.98	26.36	
2025-01-16 09:50:40.63	135.96	26.40	
2025-01-16 09:50:40.83	135.95	26.43	
2025-01-16 09:50:41.03	135.93	26.46	
2025-01-16 09:50:41.23	135.91	26.49	
2025-01-16 09:50:41.44	135.89	26.53	
2025-01-16 09:50:41.64	135.87	26.56	
2025-01-16 09:50:41.84	135.85	26.59	
2025-01-16 09:50:42.05	135.83	26.63	
2025-01-16 09:50:42.25	135.82	26.66	
2025-01-16 09:50:42.45	135.80	26.69	
2025-01-16 09:50:42.66	135.78	26.73	
2025-01-16 09:50:42.86	135.76	26.76	
2025-01-16 09:50:43.06	135.74	26.79	
2025-01-16 09:50:43.26	135.72	26.82	
2025-01-16 09:50:43.47	135.70	26.86	
2025-01-16 09:50:43.67	135.68	26.89	
2025-01-16 09:50:43.87	135.66	26.92	
2025-01-16 09:50:44.08	135.64	26.96	
2025-01-16 09:50:44.28	135.62	26.99	
2025-01-16 09:50:44.48	135.61	27.02	
2025-01-16 09:50:44.69	135.59	27.06	
2025-01-16 09:50:44.89	135.57	27.09	
2025-01-16 09:50:45.09	135.55	27.12	
2025-01-16 09:50:45.29	135.53	27.16	
2025-01-16 09:50:45.50	135.51	27.19	
2025-01-16 09:50:45.70	135.49	27.22	
2025-01-16 09:50:45.90	135.47	27.26	
2025-01-16 09:50:46.11	135.45	27.29	
2025-01-16 09:50:46.31	135.43	27.32	
2025-01-16 09:50:46.51	135.41	27.36	
2025-01-16 09:50:46.72	135.39	27.39	
2025-01-16 09:50:46.92	135.37	27.43	
2025-01-16 09:50:47.12	135.35	27.46	
2025-01-16 09:50:47.32	135.33	27.49	
2025-01-16 09:50:47.53	135.31	27.53	
2025-01-16 09:50:47.73	135.29	27.56	
2025-01-16 09:50:47.93	135.27	27.59	
2025-01-16 09:50:48.14	135.25	27.63	
2025-01-16 09:50:48.34	135.23	27.66	
2025-01-16 09:50:48.54	135.21	27.70	
2025-01-16 09:50:48.74	135.19	27.73	
2025-01-16 09:50:48.95	135.17	27.77	
2025-01-16 09:50:49.15	135.15	27.80	
2025-01-16 09:50:49.35	135.13	27.83	
2025-01-16 09:50:49.56	135.11	27.87	
2025-01-16 09:50:49.76	135.09	27.90	
2025-01-16 09:50:49.96	135.07	27.94	
2025-01-16 09:50:50.17	135.05	27.97	
2025-01-16 09:50:50.37	135.03	28.01	
2025-01-16 09:50:50.57	135.01	28.04	
2025-01-16 09:50:50.77	134.99	28.07	
2025-01-16 09:50:50.98	134.96	28.11	
2025-01-16 09:50:51.18	134.94	28.14	
2025-01-16 09:50:51.38	134.92	28.18	
2025-01-16 09:50:51.59	134.90	28.21	
2025-01-16 09:50:51.79	134.88	28.25	
2025-01-16 09:50:51.99	134.86	28.28	
2025-01-16 09:50:52.20	134.84	28.32	
2025-01-16 09:50:52.40	134.82	28.35	
2025-01-16 09:50:52.60	134.80	28.39	
2025-01-16 09:50:52.80	134.78	28.42	
2025-01-16 09:50:53.01	134.75	28.46	
2025-01-16 09:50:53.21	134.73	28.49	
2025-01-16 09:50:53.41	134.71	28.53	
2025-01-16 09:50:53.62	134.69	28.56	
2025-01-16 09:50:53.82	134.67	28.60	
2025-01-16 09:50:54.02	134.65	28.63	
2025-01-16 09:50:54.23	134.63	28.67	
2025-01-16 09:50:54.43	134.60	28.70	
2025-01-16 09:50:54.63	134.58	28.74	
2025-01-16 09:50:54.83	134.56	28.77	
2025-01-16 09:50:55.04	134.54	28.81	
2025-01-16 09:50:55.24	134.52	28.84	
2025-01-16 09:50:55.44	134.50	28.88	
2025-01-16 09:50:55.65	134.47	28.91	
2025-01-16 09:50:55.85	134.45	28.95	
2025-01-16 09:50:56.05	134.43	28.98	
2025-01-16 09:50:56.26	134.41	29.02	
2025-01-16 09:50:56.46	134.39	29.06	
2025-01-16 09:50:56.66	134.36	29.09	
2025-01-16 09:50:56.86	134.34	29.13	
2025-01-16 09:50:57.07	134.32	29.16	
2025-01-16 09:50:57.27	134.30	29.20	
2025-01-16 09:50:57.47	134.28	29.23	
2025-01-16 09:50:57.68	134.25	29.27	
2025-01-16 09:50:57.88	134.23	29.31	
2025-01-16 09:50:58.08	134.21	29.34	
2025-01-16 09:50:58.28	134.19	29.38	
2025-01-16 09:50:58.49	134.16	29.41	
2025-01-16 09:50:58.69	134.14	29.45	
2025-01-16 09:50:58.89	134.12	29.49	
2025-01-16 09:50:59.10	134.10	29.52	
2025-01-16 09:50:59.30	134.07	29.56	
2025-01-16 09:50:59.50	134.05	29.59	
2025-01-16 09:50:59.71	134.03	29.63	
2025-01-16 09:50:59.91	134.00	29.67	
2025-01-16 09:51:00.11	133.98	29.70	
2025-01-16 09:51:00.31	133.96	29.74	
2025-01-16 09:51:00.52	133.94	29.78	
2025-01-16 09:51:00.72	133.91	29.81	
2025-01-16 09:51:00.92	133.89	29.85	
2025-01-16 09:51:01.13	133.87	29.89	
2025-01-16 09:51:01.33	133.84	29.92	
2025-01-16 09:51:01.53	133.82	29.96	
2025-01-16 09:51:01.74	133.80	30.00	
2025-01-16 09:51:01.94	133.77	30.03	
2025-01-16 09:51:02.14	133.75	30.07	
2025-01-16 09:51:02.34	133.73	30.11	
2025-01-16 09:51:02.55	133.70	30.14	
2025-01-16 09:51:02.75	133.68	30.18	
2025-01-16 09:51:02.95	133.66	30.22	
2025-01-16 09:51:03.16	133.63	30.25	
2025-01-16 09:51:03.36	133.61	30.29	
2025-01-16 09:51:03.56	133.58	30.33	
2025-01-16 09:51:03.77	133.56	30.37	
2025-01-16 09:51:03.97	133.54	30.40	
2025-01-16 09:51:04.17	133.51	30.44	
2025-01-16 09:51:04.37	133.49	30.48	
2025-01-16 09:51:04.58	133.46	30.51	
2025-01-16 09:51:04.78	133.44	30.55	
2025-01-16 09:51:04.98	133.42	30.59	
2025-01-16 09:51:05.19	133.39	30.63	
2025-01-16 09:51:05.39	133.37	30.66	
2025-01-16 09:51:05.59	133.34	30.70	
2025-01-16 09:51:05.80	133.32	30.74	
2025-01-16 09:51:06.00	133.29	30.78	
2025-01-16 09:51:06.20	133.27	30.81	
2025-01-16 09:51:06.40	133.24	30.85	
2025-01-16 09:51:06.61	133.22	30.89	
2025-01-16 09:51:06.81	133.19	30.93	
2025-01-16 09:51:07.01	133.17	30.96	
2025-01-16 09:51:07.22	133.14	31.00	
2025-01-16 09:51:07.42	133.12	31.04	
2025-01-16 09:51:07.62	133.10	31.08	
2025-01-16 09:51:07.82	133.07	31.11	
2025-01-16 09:51:08.03	133.04	31.15	
2025-01-16 09:51:08.23	133.02	31.19	
2025-01-16 09:51:08.43	132.99	31.23	
2025-01-16 09:51:08.64	132.97	31.27	
2025-01-16 09:51:08.84	132.94	31.31	
2025-01-16 09:51:09.04	132.92	31.34	
2025-01-16 09:51:09.25	132.89	31.38	
2025-01-16 09:51:09.45	132.87	31.42	
2025-01-16 09:51:09.65	132.84	31.46	
2025-01-16 09:51:09.85	132.82	31.50	
2025-01-16 09:51:10.06	132.79	31.54	
2025-01-16 09:51:10.26	132.76	31.57	
2025-01-16 09:51:10.46	132.74	31.61	
2025-01-16 09:51:10.67	132.71	31.65	
2025-01-16 09:51:10.87	132.69	31.69	
2025-01-16 09:51:11.07	132.66	31.73	
2025-01-16 09:51:11.28	132.63	31.77	
2025-01-16 09:51:11.48	132.61	31.81	
2025-01-16 09:51:11.68	132.58	31.84	
2025-01-16 09:51:11.88	132.56	31.88	
2025-01-16 09:51:12.09	132.53	31.92	
2025-01-16 09:51:12.29	132.50	31.96	
2025-01-16 09:51:12.49	132.48	32.00	
2025-01-16 09:51:12.70	132.45	32.04	
2025-01-16 09:51:12.90	132.42	32.08	
2025-01-16 09:51:13.10	132.40	32.12	
2025-01-16 09:51:13.31	132.37	32.16	
2025-01-16 09:51:13.51	132.34	32.20	
2025-01-16 09:51:13.71	132.32	32.23	
2025-01-16 09:51:13.91	132.29	32.27	
2025-01-16 09:51:14.12	132.26	32.31	
2025-01-16 09:51:14.32	132.23	32.35	
2025-01-16 09:51:14.52	132.21	32.39	
2025-01-16 09:51:14.73	132.18	32.43	
2025-01-16 09:51:14.93	132.15	32.47	
2025-01-16 09:51:15.13	132.13	32.51	
2025-01-16 09:51:15.34	132.10	32.55	
2025-01-16 09:51:15.54	132.07	32.59	
2025-01-16 09:51:15.74	132.04	32.63	
2025-01-16 09:51:15.94	132.02	32.67	
2025-01-16 09:51:16.15	131.99	32.71	
2025-01-16 09:51:16.35	131.96	32.75	
2025-01-16 09:51:16.55	131.93	32.79	
2025-01-16 09:51:16.76	131.90	32.83	
2025-01-16 09:51:16.96	131.88	32.87	
2025-01-16 09:51:17.16	131.85	32.91	
2025-01-16 09:51:17.36	131.82	32.95	
2025-01-16 09:51:17.57	131.79	32.99	
2025-01-16 09:51:17.77	131.76	33.03	
2025-01-16 09:51:17.97	131.74	33.07	
2025-01-16 09:51:18.18	131.71	33.11	
2025-01-16 09:51:18.38	131.68	33.15	
2025-01-16 09:51:18.58	131.65	33.19	
2025-01-16 09:51:18.79	131.62	33.23	
2025-01-16 09:51:18.99	131.59	33.27	
2025-01-16 09:51:19.19	131.56	33.31	
2025-01-16 09:51:19.39	131.54	33.35	
2025-01-16 09:51:19.60	131.51	33.39	
2025-01-16 09:51:19.80	131.48	33.43	
2025-01-16 09:51:20.00	131.45	33.47	
2025-01-16 09:51:20.21	131.42	33.51	
2025-01-16 09:51:20.41	131.39	33.55	
2025-01-16 09:51:20.61	131.36	33.59	
2025-01-16 09:51:20.82	131.33	33.63	
2025-01-16 09:51:21.02	131.30	33.67	
2025-01-16 09:51:21.22	131.27	33.72	
2025-01-16 09:51:21.42	131.24	33.76	
2025-01-16 09:51:21.63	131.21	33.80	
2025-01-16 09:51:21.83	131.18	33.84	
2025-01-16 09:51:22.03	131.15	33.88	
2025-01-16 09:51:22.24	131.12	33.92	
2025-01-16 09:51:22.44	131.09	33.96	
2025-01-16 09:51:22.64	131.06	34.00	
2025-01-16 09:51:22.85	131.03	34.04	
2025-01-16 09:51:23.05	131.00	34.09	
2025-01-16 09:51:23.25	130.97	34.13	
2025-01-16 09:51:23.45	130.94	34.17	
2025-01-16 09:51:23.66	130.91	34.21	
2025-01-16 09:51:23.86	130.88	34.25	
2025-01-16 09:51:24.06	130.85	34.29	
2025-01-16 09:51:24.27	130.82	34.33	
2025-01-16 09:51:24.47	130.79	34.38	
2025-01-16 09:51:24.67	130.76	34.42	
2025-01-16 09:51:24.88	130.73	34.46	
2025-01-16 09:51:25.08	130.70	34.50	
2025-01-16 09:51:25.28	130.67	34.54	
2025-01-16 09:51:25.48	130.64	34.58	
2025-01-16 09:51:25.69	130.60	34.63	
2025-01-16 09:51:25.89	130.57	34.67	
2025-01-16 09:51:26.09	130.54	34.71	
2025-01-16 09:51:26.30	130.51	34.75	
2025-01-16 09:51:26.50	130.48	34.79	
2025-01-16 09:51:26.70	130.45	34.84	
2025-01-16 09:51:26.91	130.41	34.88	
2025-01-16 09:51:27.11	130.38	34.92	
2025-01-16 09:51:27.31	130.35	34.96	
2025-01-16 09:51:27.51	130.32	35.00	
2025-01-16 09:51:27.72	130.29	35.05	
2025-01-16 09:51:27.92	130.25	35.09	
2025-01-16 09:51:28.12	130.22	35.13	
2025-01-16 09:51:28.33	130.19	35.17	
2025-01-16 09:51:28.53	130.16	35.22	
2025-01-16 09:51:28.73	130.13	35.26	
2025-01-16 09:51:28.93	130.09	35.30	
2025-01-16 09:51:29.14	130.06	35.34	
2025-01-16 09:51:29.34	130.03	35.39	
2025-01-16 09:51:29.54	129.99	35.43	
2025-01-16 09:51:29.75	129.96	35.47	
2025-01-16 09:51:29.95	129.93	35.52	
2025-01-16 09:51:30.15	129.90	35.56	
2025-01-16 09:51:30.36	129.86	35.60	
2025-01-16 09:51:30.56	129.83	35.64	
2025-01-16 09:51:30.76	129.80	35.69	
2025-01-16 09:51:30.96	129.76	35.73	
2025-01-16 09:51:31.17	129.73	35.77	
2025-01-16 09:51:31.37	129.69	35.82	
2025-01-16 09:51:31.57	129.66	35.86	
2025-01-16 09:51:31.78	129.63	35.90	
2025-01-16 09:51:31.98	129.59	35.95	
2025-01-16 09:51:32.18	129.56	35.99	
2025-01-16 09:51:32.39	129.52	36.03	
2025-01-16 09:51:32.59	129.49	36.08	
2025-01-16 09:51:32.79	129.46	36.12	
2025-01-16 09:51:32.99	129.42	36.16	
2025-01-16 09:51:33.20	129.39	36.21	
2025-01-16 09:51:33.40	129.35	36.25	
2025-01-16 09:51:33.60	129.32	36.29	
2025-01-16 09:51:33.81	129.28	36.34	
2025-01-16 09:51:34.01	129.25	36.38	
2025-01-16 09:51:34.21	129.21	36.43	
2025-01-16 09:51:34.42	129.18	36.47	
2025-01-16 09:51:34.62	129.14	36.51	
2025-01-16 09:51:34.82	129.11	36.56	
2025-01-16 09:51:35.02	129.07	36.60	
2025-01-16 09:51:35.23	129.04	36.65	
2025-01-16 09:51:35.43	129.00	36.69	
2025-01-16 09:51:35.63	128.97	36.73	
2025-01-16 09:51:35.84	128.93	36.78	
2025-01-16 09:51:36.04	128.89	36.82	
2025-01-16 09:51:36.24	128.86	36.87	
2025-01-16 09:51:36.45	128.82	36.91	
2025-01-16 09:51:36.65	128.79	36.96	
2025-01-16 09:51:36.85	128.75	37.00	
2025-01-16 09:51:37.05	128.72	37.04	
2025-01-16 09:51:37.26	128.68	37.09	
2025-01-16 09:51:37.46	128.64	37.13	
2025-01-16 09:51:37.66	128.61	37.18	
2025-01-16 09:51:37.87	128.57	37.22	
2025-01-16 09:51:38.07	128.53	37.27	
2025-01-16 09:51:38.27	128.49	37.31	
2025-01-16 09:51:38.47	128.46	37.36	
2025-01-16 09:51:38.68	128.42	37.40	
2025-01-16 09:51:38.88	128.38	37.45	
2025-01-16 09:51:39.08	128.35	37.49	
2025-01-16 09:51:39.29	128.31	37.54	
2025-01-16 09:51:39.49	128.27	37.58	
2025-01-16 09:51:39.69	128.23	37.63	
2025-01-16 09:51:39.90	128.19	37.67	
2025-01-16 09:51:40.10	128.16	37.72	
2025-01-16 09:51:40.30	128.12	37.76	
2025-01-16 09:51:40.50	128.08	37.81	
2025-01-16 09:51:40.71	128.04	37.85	
2025-01-16 09:51:40.91	128.01	37.90	
2025-01-16 09:51:41.11	127.97	37.94	
2025-01-16 09:51:41.32	127.93	37.99	
2025-01-16 09:51:41.52	127.89	38.03	
2025-01-16 09:51:41.72	127.85	38.08	
2025-01-16 09:51:41.93	127.81	38.13	
2025-01-16 09:51:42.13	127.77	38.17	
2025-01-16 09:51:42.33	127.73	38.22	
2025-01-16 09:51:42.53	127.70	38.26	
2025-01-16 09:51:42.74	127.66	38.31	
2025-01-16 09:51:42.94	127.62	38.35	
2025-01-16 09:51:43.14	127.58	38.40	
2025-01-16 09:51:43.35	127.54	38.45	
2025-01-16 09:51:43.55	127.50	38.49	
2025-01-16 09:51:43.75	127.46	38.54	
2025-01-16 09:51:43.96	127.42	38.58	
2025-01-16 09:51:44.16	127.38	38.63	
2025-01-16 09:51:44.36	127.34	38.67	
2025-01-16 09:51:44.56	127.30	38.72	
2025-01-16 09:51:44.77	127.26	38.77	
2025-01-16 09:51:44.97	127.22	38.81	
2025-01-16 09:51:45.17	127.18	38.86	
2025-01-16 09:51:45.38	127.13	38.91	
2025-01-16 09:51:45.58	127.09	38.95	
2025-01-16 09:51:45.78	127.05	39.00	
2025-01-16 09:51:45.99	127.01	39.05	
2025-01-16 09:51:46.19	126.97	39.09	
2025-01-16 09:51:46.39	126.93	39.14	
2025-01-16 09:51:46.59	126.89	39.18	
2025-01-16 09:51:46.80	126.85	39.23	
2025-01-16 09:51:47.00	126.80	39.28	
2025-01-16 09:51:47.20	126.76	39.33	
2025-01-16 09:51:47.41	126.72	39.37	
2025-01-16 09:51:47.61	126.68	39.42	
2025-01-16 09:51:47.81	126.64	39.47	
2025-01-16 09:51:48.01	126.60	39.51	
2025-01-16 09:51:48.22	126.55	39.56	
2025-01-16 09:51:48.42	126.51	39.61	
2025-01-16 09:51:48.62	126.47	39.65	
2025-01-16 09:51:48.83	126.42	39.70	
2025-01-16 09:51:49.03	126.38	39.75	
2025-01-16 09:51:49.23	126.34	39.80	
2025-01-16 09:51:49.44	126.29	39.84	
2025-01-16 09:51:49.64	126.25	39.89	
2025-01-16 09:51:49.84	126.21	39.94	
2025-01-16 09:51:50.04	126.17	39.98	
2025-01-16 09:51:50.25	126.12	40.03	
2025-01-16 09:51:50.45	126.08	40.08	
2025-01-16 09:51:50.65	126.03	40.13	
2025-01-16 09:51:50.86	125.99	40.18	
2025-01-16 09:51:51.06	125.94	40.22	
2025-01-16 09:51:51.26	125.90	40.27	
2025-01-16 09:51:51.47	125.85	40.32	
2025-01-16 09:51:51.67	125.81	40.37	
2025-01-16 09:51:51.87	125.77	40.41	
2025-01-16 09:51:52.07	125.72	40.46	
2025-01-16 09:51:52.28	125.68	40.51	
2025-01-16 09:51:52.48	125.63	40.56	
2025-01-16 09:51:52.68	125.59	40.60	
2025-01-16 09:51:52.89	125.54	40.65	
2025-01-16 09:51:53.09	125.49	40.70	
2025-01-16 09:51:53.29	125.45	40.75	
2025-01-16 09:51:53.50	125.40	40.80	
2025-01-16 09:51:53.70	125.36	40.85	
2025-01-16 09:51:53.90	125.31	40.89	
2025-01-16 09:51:54.10	125.27	40.94	
2025-01-16 09:51:54.31	125.22	40.99	
2025-01-16 09:51:54.51	125.17	41.04	
2025-01-16 09:51:54.71	125.13	41.09	
2025-01-16 09:51:54.92	125.08	41.14	
2025-01-16 09:51:55.12	125.03	41.18	
2025-01-16 09:51:55.32	124.98	41.23	
2025-01-16 09:51:55.53	124.94	41.28	
2025-01-16 09:51:55.73	124.89	41.33	
2025-01-16 09:51:55.93	124.84	41.38	
2025-01-16 09:51:56.13	124.80	41.43	
2025-01-16 09:51:56.34	124.75	41.48	
2025-01-16 09:51:56.54	124.70	41.53	
2025-01-16 09:51:56.74	124.65	41.57	
2025-01-16 09:51:56.95	124.60	41.62	
2025-01-16 09:51:57.15	124.55	41.67	
2025-01-16 09:51:57.35	124.51	41.72	
2025-01-16 09:51:57.55	124.46	41.77	
2025-01-16 09:51:57.76	124.41	41.82	
2025-01-16 09:51:57.96	124.36	41.87	
2025-01-16 09:51:58.16	124.31	41.92	
2025-01-16 09:51:58.37	124.26	41.97	
2025-01-16 09:51:58.57	124.21	42.02	
2025-01-16 09:51:58.77	124.16	42.06	
2025-01-16 09:51:58.98	124.11	42.12	
2025-01-16 09:51:59.18	124.06	42.16	
2025-01-16 09:51:59.38	124.01	42.21	
2025-01-16 09:51:59.58	123.96	42.26	
2025-01-16 09:51:59.79	123.91	42.31	
2025-01-16 09:51:59.99	123.86	42.36	
2025-01-16 09:52:00.19	123.81	42.41	
2025-01-16 09:52:00.40	123.76	42.46	
2025-01-16 09:52:00.60	123.71	42.51	
2025-01-16 09:52:00.80	123.66	42.56	
2025-01-16 09:52:01.01	123.60	42.61	
2025-01-16 09:52:01.21	123.55	42.66	
2025-01-16 09:52:01.41	123.50	42.71	
2025-01-16 09:52:01.61	123.45	42.76	
2025-01-16 09:52:01.82	123.40	42.81	
2025-01-16 09:52:02.02	123.35	42.86	
2025-01-16 09:52:02.22	123.29	42.91	
2025-01-16 09:52:02.43	123.24	42.96	
2025-01-16 09:52:02.63	123.19	43.01	
2025-01-16 09:52:02.83	123.14	43.06	
2025-01-16 09:52:03.04	123.08	43.11	
2025-01-16 09:52:03.24	123.03	43.16	
2025-01-16 09:52:03.44	122.98	43.21	
2025-01-16 09:52:03.64	122.92	43.26	
2025-01-16 09:52:03.85	122.87	43.31	
2025-01-16 09:52:04.05	122.81	43.36	
2025-01-16 09:52:04.25	122.76	43.41	
2025-01-16 09:52:04.46	122.71	43.46	
2025-01-16 09:52:04.66	122.65	43.51	
2025-01-16 09:52:04.86	122.60	43.56	
2025-01-16 09:52:05.07	122.54	43.61	
2025-01-16 09:52:05.27	122.49	43.66	
2025-01-16 09:52:05.47	122.43	43.71	
2025-01-16 09:52:05.67	122.38	43.76	
2025-01-16 09:52:05.88	122.32	43.81	
2025-01-16 09:52:06.08	122.27	43.86	
2025-01-16 09:52:06.28	122.21	43.91	
2025-01-16 09:52:06.49	122.15	43.97	
2025-01-16 09:52:06.69	122.10	44.02	
2025-01-16 09:52:06.89	122.04	44.07	
2025-01-16 09:52:07.10	121.99	44.12	
2025-01-16 09:52:07.30	121.93	44.17	
2025-01-16 09:52:07.50	121.87	44.22	
2025-01-16 09:52:07.70	121.82	44.27	
2025-01-16 09:52:07.91	121.76	44.32	
2025-01-16 09:52:08.11	121.70	44.37	
2025-01-16 09:52:08.31	121.64	44.42	
2025-01-16 09:52:08.52	121.58	44.48	
2025-01-16 09:52:08.72	121.53	44.53	
2025-01-16 09:52:08.92	121.47	44.58	
2025-01-16 09:52:09.12	121.41	44.63	
2025-01-16 09:52:09.33	121.35	44.68	
2025-01-16 09:52:09.53	121.29	44.73	
2025-01-16 09:52:09.73	121.24	44.78	
2025-01-16 09:52:09.94	121.18	44.83	
2025-01-16 09:52:10.14	121.12	44.88	
2025-01-16 09:52:10.34	121.06	44.93	
2025-01-16 09:52:10.55	121.00	44.99	
2025-01-16 09:52:10.75	120.94	45.04	
2025-01-16 09:52:10.95	120.88	45.09	
2025-01-16 09:52:11.15	120.82	45.14	
2025-01-16 09:52:11.36	120.76	45.19	
2025-01-16 09:52:11.56	120.70	45.24	
2025-01-16 09:52:11.76	120.64	45.29	
2025-01-16 09:52:11.97	120.57	45.35	
2025-01-16 09:52:12.17	120.51	45.40	
2025-01-16 09:52:12.37	120.45	45.45	
2025-01-16 09:52:12.58	120.39	45.50	
2025-01-16 09:52:12.78	120.33	45.55	
2025-01-16 09:52:12.98	120.27	45.61	
2025-01-16 09:52:13.18	120.21	45.66	
2025-01-16 09:52:13.39	120.14	45.71	
2025-01-16 09:52:13.59	120.08	45.76	
2025-01-16 09:52:13.79	120.02	45.81	
2025-01-16 09:52:14.00	119.95	45.87	
2025-01-16 09:52:14.20	119.89	45.92	
2025-01-16 09:52:14.40	119.83	45.97	
2025-01-16 09:52:14.61	119.76	46.02	
2025-01-16 09:52:14.81	119.70	46.07	
2025-01-16 09:52:15.01	119.64	46.12	
2025-01-16 09:52:15.21	119.57	46.18	
2025-01-16 09:52:15.42	119.51	46.23	
2025-01-16 09:52:15.62	119.44	46.28	
2025-01-16 09:52:15.82	119.38	46.33	
2025-01-16 09:52:16.03	119.31	46.39	
2025-01-16 09:52:16.23	119.25	46.44	
2025-01-16 09:52:16.43	119.18	46.49	
2025-01-16 09:52:16.63	119.12	46.54	
2025-01-16 09:52:16.84	119.05	46.59	
2025-01-16 09:52:17.04	118.98	46.65	
2025-01-16 09:52:17.24	118.92	46.70	
2025-01-16 09:52:17.45	118.85	46.75	
2025-01-16 09:52:17.65	118.78	46.80	
2025-01-16 09:52:17.85	118.72	46.85	
2025-01-16 09:52:18.06	118.65	46.91	
2025-01-16 09:52:18.26	118.58	46.96	
2025-01-16 09:52:18.46	118.51	47.01	
2025-01-16 09:52:18.66	118.44	47.06	
2025-01-16 09:52:18.87	118.37	47.12	
2025-01-16 09:52:19.07	118.31	47.17	
2025-01-16 09:52:19.27	118.24	47.22	
2025-01-16 09:52:19.48	118.17	47.28	
2025-01-16 09:52:19.68	118.10	47.33	
2025-01-16 09:52:19.88	118.03	47.38	
2025-01-16 09:52:20.09	117.96	47.43	
2025-01-16 09:52:20.29	117.89	47.49	
2025-01-16 09:52:20.49	117.82	47.54	
2025-01-16 09:52:20.69	117.75	47.59	
2025-01-16 09:52:20.90	117.68	47.64	
2025-01-16 09:52:21.10	117.61	47.70	
2025-01-16 09:52:21.30	117.54	47.75	
2025-01-16 09:52:21.51	117.46	47.80	
2025-01-16 09:52:21.71	117.39	47.85	
2025-01-16 09:52:21.91	117.32	47.91	
2025-01-16 09:52:22.12	117.25	47.96	
2025-01-16 09:52:22.32	117.18	48.01	
2025-01-16 09:52:22.52	117.10	48.06	
2025-01-16 09:52:22.72	117.03	48.12	
2025-01-16 09:52:22.93	116.96	48.17	
2025-01-16 09:52:23.13	116.88	48.22	
2025-01-16 09:52:23.33	116.81	48.27	
2025-01-16 09:52:23.54	116.74	48.33	
2025-01-16 09:52:23.74	116.66	48.38	
2025-01-16 09:52:23.94	116.59	48.43	
2025-01-16 09:52:24.15	116.51	48.49	
2025-01-16 09:52:24.35	116.44	48.54	
2025-01-16 09:52:24.55	116.36	48.59	
2025-01-16 09:52:24.75	116.29	48.64	
2025-01-16 09:52:24.96	116.21	48.70	
2025-01-16 09:52:25.16	116.14	48.75	
2025-01-16 09:52:25.36	116.06	48.80	
2025-01-16 09:52:25.57	115.98	48.86	
2025-01-16 09:52:25.77	115.91	48.91	
2025-01-16 09:52:25.97	115.83	48.96	
2025-01-16 09:52:26.18	115.75	49.02	
2025-01-16 09:52:26.38	115.67	49.07	
2025-01-16 09:52:26.58	115.60	49.12	
2025-01-16 09:52:26.78	115.52	49.17	
2025-01-16 09:52:26.99	115.44	49.23	
2025-01-16 09:52:27.19	115.36	49.28	
2025-01-16 09:52:27.39	115.28	49.33	
2025-01-16 09:52:27.60	115.20	49.39	
2025-01-16 09:52:27.80	115.12	49.44	
2025-01-16 09:52:28.00	115.04	49.49	
2025-01-16 09:52:28.20	114.97	49.54	
2025-01-16 09:52:28.41	114.88	49.60	
2025-01-16 09:52:28.61	114.80	49.65	
2025-01-16 09:52:28.81	114.72	49.70	
2025-01-16 09:52:29.02	114.64	49.76	
2025-01-16 09:52:29.22	114.56	49.81	
2025-01-16 09:52:29.42	114.48	49.86	
2025-01-16 09:52:29.63	114.39	49.92	
2025-01-16 09:52:29.83	114.31	49.97	
2025-01-16 09:52:30.03	114.23	50.02	
2025-01-16 09:52:30.23	114.15	50.07	
2025-01-16 09:52:30.44	114.06	50.13	
2025-01-16 09:52:30.64	113.98	50.18	
2025-01-16 09:52:30.84	113.90	50.23	
2025-01-16 09:52:31.05	113.81	50.29	
