passes_logs/2025/01/16/SPB_Silybum_02/SPB_Silybum_02__20250116_013434_SUOMI_NPP_rec.log

#Pass ID: 20250116_013434_SUOMI NPP
#Satellite: SUOMI NPP
#Configuration: NPP
#Start time: 2025-01-16 01:34:34

#Version: 2.0.20230423
#Station: SPB_Silybum_02
#Location: 30.233357 lon 59.946436 lat
#TLE: 1 37849U 11061A   25015.13132341  .00000162  00000+0  97654-4 0  9994
#TLE: 2 37849  98.7446 316.1182 0001675  40.9055 319.2247 14.19538225684933

#Time	Az	El	Level	Level2	SNR	BER	Gain	Gain2
2025-01-16 01:34:36.32	14.90	4.14	
2025-01-16 01:34:36.52	14.89	4.16	
2025-01-16 01:34:36.72	14.88	4.17	
2025-01-16 01:34:36.92	14.87	4.18	
2025-01-16 01:34:37.13	14.86	4.20	
2025-01-16 01:34:37.33	14.85	4.21	
2025-01-16 01:34:37.53	14.84	4.22	
2025-01-16 01:34:37.74	14.83	4.24	
2025-01-16 01:34:37.94	14.82	4.25	
2025-01-16 01:34:38.14	14.81	4.26	
2025-01-16 01:34:38.35	14.80	4.28	
2025-01-16 01:34:38.55	14.79	4.29	
2025-01-16 01:34:38.75	14.78	4.30	
2025-01-16 01:34:38.95	14.77	4.31	
2025-01-16 01:34:39.16	14.76	4.33	
2025-01-16 01:34:39.36	14.75	4.34	
2025-01-16 01:34:39.56	14.74	4.35	
2025-01-16 01:34:39.77	14.73	4.37	
2025-01-16 01:34:39.97	14.72	4.38	
2025-01-16 01:34:40.17	14.71	4.39	
2025-01-16 01:34:40.38	14.70	4.41	
2025-01-16 01:34:40.58	14.69	4.42	
2025-01-16 01:34:40.78	14.68	4.43	
2025-01-16 01:34:40.98	14.67	4.45	
2025-01-16 01:34:41.19	14.66	4.46	
2025-01-16 01:34:41.39	14.65	4.47	
2025-01-16 01:34:41.59	14.64	4.49	
2025-01-16 01:34:41.80	14.63	4.50	
2025-01-16 01:34:42.00	14.62	4.51	
2025-01-16 01:34:42.20	14.61	4.53	
2025-01-16 01:34:42.41	14.60	4.54	
2025-01-16 01:34:42.61	14.59	4.55	
2025-01-16 01:34:42.81	14.58	4.57	
2025-01-16 01:34:43.01	14.56	4.58	
2025-01-16 01:34:43.22	14.55	4.59	
2025-01-16 01:34:43.42	14.54	4.61	
2025-01-16 01:34:43.62	14.53	4.62	
2025-01-16 01:34:43.83	14.52	4.63	
2025-01-16 01:34:44.03	14.51	4.65	
2025-01-16 01:34:44.23	14.50	4.66	
2025-01-16 01:34:44.44	14.49	4.67	
2025-01-16 01:34:44.64	14.48	4.69	
2025-01-16 01:34:44.84	14.47	4.70	
2025-01-16 01:34:45.04	14.46	4.71	
2025-01-16 01:34:45.25	14.45	4.73	
2025-01-16 01:34:45.45	14.44	4.74	
2025-01-16 01:34:45.65	14.43	4.75	
2025-01-16 01:34:45.86	14.42	4.77	
2025-01-16 01:34:46.06	14.41	4.78	
2025-01-16 01:34:46.26	14.40	4.79	
2025-01-16 01:34:46.47	14.39	4.81	
2025-01-16 01:34:46.67	14.38	4.82	
2025-01-16 01:34:46.87	14.37	4.84	
2025-01-16 01:34:47.07	14.36	4.85	
2025-01-16 01:34:47.28	14.35	4.86	
2025-01-16 01:34:47.48	14.34	4.88	
2025-01-16 01:34:47.68	14.32	4.89	
2025-01-16 01:34:47.89	14.31	4.90	
2025-01-16 01:34:48.09	14.30	4.92	
2025-01-16 01:34:48.29	14.29	4.93	
2025-01-16 01:34:48.49	14.28	4.94	
2025-01-16 01:34:48.70	14.27	4.96	
2025-01-16 01:34:48.90	14.26	4.97	
2025-01-16 01:34:49.10	14.25	4.98	
2025-01-16 01:34:49.31	14.24	5.00	
2025-01-16 01:34:49.51	14.23	5.01	
2025-01-16 01:34:49.71	14.22	5.02	
2025-01-16 01:34:49.92	14.21	5.04	
2025-01-16 01:34:50.12	14.20	5.05	
2025-01-16 01:34:50.32	14.19	5.06	
2025-01-16 01:34:50.52	14.18	5.08	
2025-01-16 01:34:50.73	14.17	5.09	
2025-01-16 01:34:50.93	14.15	5.11	
2025-01-16 01:34:51.13	14.14	5.12	
2025-01-16 01:34:51.34	14.13	5.13	
2025-01-16 01:34:51.54	14.12	5.15	
2025-01-16 01:34:51.74	14.11	5.16	
2025-01-16 01:34:51.95	14.10	5.17	
2025-01-16 01:34:52.15	14.09	5.19	
2025-01-16 01:34:52.35	14.08	5.20	
2025-01-16 01:34:52.55	14.07	5.21	
2025-01-16 01:34:52.76	14.06	5.23	
2025-01-16 01:34:52.96	14.05	5.24	
2025-01-16 01:34:53.16	14.04	5.26	
2025-01-16 01:34:53.37	14.02	5.27	
2025-01-16 01:34:53.57	14.01	5.28	
2025-01-16 01:34:53.77	14.00	5.30	
2025-01-16 01:34:53.98	13.99	5.31	
2025-01-16 01:34:54.18	13.98	5.32	
2025-01-16 01:34:54.38	13.97	5.34	
2025-01-16 01:34:54.58	13.96	5.35	
2025-01-16 01:34:54.79	13.95	5.36	
2025-01-16 01:34:54.99	13.94	5.38	
2025-01-16 01:34:55.19	13.93	5.39	
2025-01-16 01:34:55.40	13.92	5.41	
2025-01-16 01:34:55.60	13.91	5.42	
2025-01-16 01:34:55.80	13.89	5.43	
2025-01-16 01:34:56.01	13.88	5.45	
2025-01-16 01:34:56.21	13.87	5.46	
2025-01-16 01:34:56.41	13.86	5.47	
2025-01-16 01:34:56.61	13.85	5.49	
2025-01-16 01:34:56.82	13.84	5.50	
2025-01-16 01:34:57.02	13.83	5.52	
2025-01-16 01:34:57.22	13.82	5.53	
2025-01-16 01:34:57.43	13.81	5.54	
2025-01-16 01:34:57.63	13.79	5.56	
2025-01-16 01:34:57.83	13.78	5.57	
2025-01-16 01:34:58.04	13.77	5.59	
2025-01-16 01:34:58.24	13.76	5.60	
2025-01-16 01:34:58.44	13.75	5.61	
2025-01-16 01:34:58.64	13.74	5.63	
2025-01-16 01:34:58.85	13.73	5.64	
2025-01-16 01:34:59.05	13.72	5.65	
2025-01-16 01:34:59.25	13.71	5.67	
2025-01-16 01:34:59.46	13.69	5.68	
2025-01-16 01:34:59.66	13.68	5.70	
2025-01-16 01:34:59.86	13.67	5.71	
2025-01-16 01:35:00.06	13.66	5.72	
2025-01-16 01:35:00.27	13.65	5.74	
2025-01-16 01:35:00.47	13.64	5.75	
2025-01-16 01:35:00.67	13.63	5.76	
2025-01-16 01:35:00.88	13.62	5.78	
2025-01-16 01:35:01.08	13.60	5.79	
2025-01-16 01:35:01.28	13.59	5.81	
2025-01-16 01:35:01.49	13.58	5.82	
2025-01-16 01:35:01.69	13.57	5.83	
2025-01-16 01:35:01.89	13.56	5.85	
2025-01-16 01:35:02.09	13.55	5.86	
2025-01-16 01:35:02.30	13.54	5.88	
2025-01-16 01:35:02.50	13.53	5.89	
2025-01-16 01:35:02.70	13.51	5.90	
2025-01-16 01:35:02.91	13.50	5.92	
2025-01-16 01:35:03.11	13.49	5.93	
2025-01-16 01:35:03.31	13.48	5.95	
2025-01-16 01:35:03.52	13.47	5.96	
2025-01-16 01:35:03.72	13.46	5.97	
2025-01-16 01:35:03.92	13.45	5.99	
2025-01-16 01:35:04.12	13.43	6.00	
2025-01-16 01:35:04.33	13.42	6.02	
2025-01-16 01:35:04.53	13.41	6.03	
2025-01-16 01:35:04.73	13.40	6.04	
2025-01-16 01:35:04.94	13.39	6.06	
2025-01-16 01:35:05.14	13.38	6.07	
2025-01-16 01:35:05.34	13.37	6.09	
2025-01-16 01:35:05.55	13.35	6.10	
2025-01-16 01:35:05.75	13.34	6.11	
2025-01-16 01:35:05.95	13.33	6.13	
2025-01-16 01:35:06.15	13.32	6.14	
2025-01-16 01:35:06.36	13.31	6.16	
2025-01-16 01:35:06.56	13.30	6.17	
2025-01-16 01:35:06.76	13.28	6.18	
2025-01-16 01:35:06.97	13.27	6.20	
2025-01-16 01:35:07.17	13.26	6.21	
2025-01-16 01:35:07.37	13.25	6.23	
2025-01-16 01:35:07.58	13.24	6.24	
2025-01-16 01:35:07.78	13.23	6.25	
2025-01-16 01:35:07.98	13.21	6.27	
2025-01-16 01:35:08.18	13.20	6.28	
2025-01-16 01:35:08.39	13.19	6.30	
2025-01-16 01:35:08.59	13.18	6.31	
2025-01-16 01:35:08.79	13.17	6.32	
2025-01-16 01:35:09.00	13.16	6.34	
2025-01-16 01:35:09.20	13.14	6.35	
2025-01-16 01:35:09.40	13.13	6.37	
2025-01-16 01:35:09.61	13.12	6.38	
2025-01-16 01:35:09.81	13.11	6.40	
2025-01-16 01:35:10.01	13.10	6.41	
2025-01-16 01:35:10.21	13.09	6.42	
2025-01-16 01:35:10.42	13.07	6.44	
2025-01-16 01:35:10.62	13.06	6.45	
2025-01-16 01:35:10.82	13.05	6.47	
2025-01-16 01:35:11.03	13.04	6.48	
2025-01-16 01:35:11.23	13.03	6.49	
2025-01-16 01:35:11.43	13.01	6.51	
2025-01-16 01:35:11.64	13.00	6.52	
2025-01-16 01:35:11.84	12.99	6.54	
2025-01-16 01:35:12.04	12.98	6.55	
2025-01-16 01:35:12.24	12.97	6.57	
2025-01-16 01:35:12.45	12.95	6.58	
2025-01-16 01:35:12.65	12.94	6.59	
2025-01-16 01:35:12.85	12.93	6.61	
2025-01-16 01:35:13.06	12.92	6.62	
2025-01-16 01:35:13.26	12.91	6.64	
2025-01-16 01:35:13.46	12.89	6.65	
2025-01-16 01:35:13.67	12.88	6.67	
2025-01-16 01:35:13.87	12.87	6.68	
2025-01-16 01:35:14.07	12.86	6.69	
2025-01-16 01:35:14.27	12.85	6.71	
2025-01-16 01:35:14.48	12.83	6.72	
2025-01-16 01:35:14.68	12.82	6.74	
2025-01-16 01:35:14.88	12.81	6.75	
2025-01-16 01:35:15.09	12.80	6.77	
2025-01-16 01:35:15.29	12.79	6.78	
2025-01-16 01:35:15.49	12.77	6.79	
2025-01-16 01:35:15.70	12.76	6.81	
2025-01-16 01:35:15.90	12.75	6.82	
2025-01-16 01:35:16.10	12.74	6.84	
2025-01-16 01:35:16.30	12.73	6.85	
2025-01-16 01:35:16.51	12.71	6.87	
2025-01-16 01:35:16.71	12.70	6.88	
2025-01-16 01:35:16.91	12.69	6.89	
2025-01-16 01:35:17.12	12.68	6.91	
2025-01-16 01:35:17.32	12.66	6.92	
2025-01-16 01:35:17.52	12.65	6.94	
2025-01-16 01:35:17.72	12.64	6.95	
2025-01-16 01:35:17.93	12.63	6.97	
2025-01-16 01:35:18.13	12.62	6.98	
2025-01-16 01:35:18.33	12.60	7.00	
2025-01-16 01:35:18.54	12.59	7.01	
2025-01-16 01:35:18.74	12.58	7.02	
2025-01-16 01:35:18.94	12.57	7.04	
2025-01-16 01:35:19.15	12.55	7.05	
2025-01-16 01:35:19.35	12.54	7.07	
2025-01-16 01:35:19.55	12.53	7.08	
2025-01-16 01:35:19.75	12.52	7.10	
2025-01-16 01:35:19.96	12.50	7.11	
2025-01-16 01:35:20.16	12.49	7.13	
2025-01-16 01:35:20.36	12.48	7.14	
2025-01-16 01:35:20.57	12.47	7.16	
2025-01-16 01:35:20.77	12.45	7.17	
2025-01-16 01:35:20.97	12.44	7.18	
2025-01-16 01:35:21.18	12.43	7.20	
2025-01-16 01:35:21.38	12.42	7.21	
2025-01-16 01:35:21.58	12.40	7.23	
2025-01-16 01:35:21.78	12.39	7.24	
2025-01-16 01:35:21.99	12.38	7.26	
2025-01-16 01:35:22.19	12.37	7.27	
2025-01-16 01:35:22.39	12.35	7.29	
2025-01-16 01:35:22.60	12.34	7.30	
2025-01-16 01:35:22.80	12.33	7.32	
2025-01-16 01:35:23.00	12.32	7.33	
2025-01-16 01:35:23.21	12.30	7.34	
2025-01-16 01:35:23.41	12.29	7.36	
2025-01-16 01:35:23.61	12.28	7.37	
2025-01-16 01:35:23.81	12.27	7.39	
2025-01-16 01:35:24.02	12.25	7.40	
2025-01-16 01:35:24.22	12.24	7.42	
2025-01-16 01:35:24.42	12.23	7.43	
2025-01-16 01:35:24.63	12.21	7.45	
2025-01-16 01:35:24.83	12.20	7.46	
2025-01-16 01:35:25.03	12.19	7.48	
2025-01-16 01:35:25.24	12.18	7.49	
2025-01-16 01:35:25.44	12.16	7.51	
2025-01-16 01:35:25.64	12.15	7.52	
2025-01-16 01:35:25.84	12.14	7.53	
2025-01-16 01:35:26.05	12.12	7.55	
2025-01-16 01:35:26.25	12.11	7.56	
2025-01-16 01:35:26.45	12.10	7.58	
2025-01-16 01:35:26.66	12.09	7.59	
2025-01-16 01:35:26.86	12.07	7.61	
2025-01-16 01:35:27.06	12.06	7.62	
2025-01-16 01:35:27.27	12.05	7.64	
2025-01-16 01:35:27.47	12.03	7.65	
2025-01-16 01:35:27.67	12.02	7.67	
2025-01-16 01:35:27.87	12.01	7.68	
2025-01-16 01:35:28.08	12.00	7.70	
2025-01-16 01:35:28.28	11.98	7.71	
2025-01-16 01:35:28.48	11.97	7.73	
2025-01-16 01:35:28.69	11.96	7.74	
2025-01-16 01:35:28.89	11.94	7.76	
2025-01-16 01:35:29.09	11.93	7.77	
2025-01-16 01:35:29.30	11.92	7.79	
2025-01-16 01:35:29.50	11.90	7.80	
2025-01-16 01:35:29.70	11.89	7.82	
2025-01-16 01:35:29.90	11.88	7.83	
2025-01-16 01:35:30.11	11.87	7.85	
2025-01-16 01:35:30.31	11.85	7.86	
2025-01-16 01:35:30.51	11.84	7.87	
2025-01-16 01:35:30.72	11.83	7.89	
2025-01-16 01:35:30.92	11.81	7.90	
2025-01-16 01:35:31.12	11.80	7.92	
2025-01-16 01:35:31.33	11.79	7.93	
2025-01-16 01:35:31.53	11.77	7.95	
2025-01-16 01:35:31.73	11.76	7.96	
2025-01-16 01:35:31.93	11.75	7.98	
2025-01-16 01:35:32.14	11.73	7.99	
2025-01-16 01:35:32.34	11.72	8.01	
2025-01-16 01:35:32.54	11.71	8.02	
2025-01-16 01:35:32.75	11.69	8.04	
2025-01-16 01:35:32.95	11.68	8.05	
2025-01-16 01:35:33.15	11.67	8.07	
2025-01-16 01:35:33.35	11.65	8.08	
2025-01-16 01:35:33.56	11.64	8.10	
2025-01-16 01:35:33.76	11.63	8.11	
2025-01-16 01:35:33.96	11.61	8.13	
2025-01-16 01:35:34.17	11.60	8.14	
2025-01-16 01:35:34.37	11.59	8.16	
2025-01-16 01:35:34.57	11.57	8.17	
2025-01-16 01:35:34.78	11.56	8.19	
2025-01-16 01:35:34.98	11.55	8.20	
2025-01-16 01:35:35.18	11.53	8.22	
2025-01-16 01:35:35.38	11.52	8.23	
2025-01-16 01:35:35.59	11.51	8.25	
2025-01-16 01:35:35.79	11.49	8.26	
2025-01-16 01:35:35.99	11.48	8.28	
2025-01-16 01:35:36.20	11.47	8.29	
2025-01-16 01:35:36.40	11.45	8.31	
2025-01-16 01:35:36.60	11.44	8.32	
2025-01-16 01:35:36.81	11.43	8.34	
2025-01-16 01:35:37.01	11.41	8.35	
2025-01-16 01:35:37.21	11.40	8.37	
2025-01-16 01:35:37.41	11.38	8.38	
2025-01-16 01:35:37.62	11.37	8.40	
2025-01-16 01:35:37.82	11.36	8.41	
2025-01-16 01:35:38.02	11.34	8.43	
2025-01-16 01:35:38.23	11.33	8.44	
2025-01-16 01:35:38.43	11.32	8.46	
2025-01-16 01:35:38.63	11.30	8.47	
2025-01-16 01:35:38.84	11.29	8.49	
2025-01-16 01:35:39.04	11.27	8.51	
2025-01-16 01:35:39.24	11.26	8.52	
2025-01-16 01:35:39.44	11.25	8.54	
2025-01-16 01:35:39.65	11.23	8.55	
2025-01-16 01:35:39.85	11.22	8.57	
2025-01-16 01:35:40.05	11.21	8.58	
2025-01-16 01:35:40.26	11.19	8.60	
2025-01-16 01:35:40.46	11.18	8.61	
2025-01-16 01:35:40.66	11.16	8.63	
2025-01-16 01:35:40.87	11.15	8.64	
2025-01-16 01:35:41.07	11.14	8.66	
2025-01-16 01:35:41.27	11.12	8.67	
2025-01-16 01:35:41.47	11.11	8.69	
2025-01-16 01:35:41.68	11.09	8.70	
2025-01-16 01:35:41.88	11.08	8.72	
2025-01-16 01:35:42.08	11.07	8.73	
2025-01-16 01:35:42.29	11.05	8.75	
2025-01-16 01:35:42.49	11.04	8.76	
2025-01-16 01:35:42.69	11.03	8.78	
2025-01-16 01:35:42.90	11.01	8.80	
2025-01-16 01:35:43.10	11.00	8.81	
2025-01-16 01:35:43.30	10.98	8.83	
2025-01-16 01:35:43.50	10.97	8.84	
2025-01-16 01:35:43.71	10.95	8.86	
2025-01-16 01:35:43.91	10.94	8.87	
2025-01-16 01:35:44.11	10.93	8.89	
2025-01-16 01:35:44.32	10.91	8.90	
2025-01-16 01:35:44.52	10.90	8.92	
2025-01-16 01:35:44.72	10.88	8.93	
2025-01-16 01:35:44.93	10.87	8.95	
2025-01-16 01:35:45.13	10.86	8.96	
2025-01-16 01:35:45.33	10.84	8.98	
2025-01-16 01:35:45.53	10.83	8.99	
2025-01-16 01:35:45.74	10.81	9.01	
2025-01-16 01:35:45.94	10.80	9.03	
2025-01-16 01:35:46.14	10.78	9.04	
2025-01-16 01:35:46.35	10.77	9.06	
2025-01-16 01:35:46.55	10.76	9.07	
2025-01-16 01:35:46.75	10.74	9.09	
2025-01-16 01:35:46.95	10.73	9.10	
2025-01-16 01:35:47.16	10.71	9.12	
2025-01-16 01:35:47.36	10.70	9.13	
2025-01-16 01:35:47.56	10.68	9.15	
2025-01-16 01:35:47.77	10.67	9.16	
2025-01-16 01:35:47.97	10.66	9.18	
2025-01-16 01:35:48.17	10.64	9.20	
2025-01-16 01:35:48.38	10.63	9.21	
2025-01-16 01:35:48.58	10.61	9.23	
2025-01-16 01:35:48.78	10.60	9.24	
2025-01-16 01:35:48.98	10.58	9.26	
2025-01-16 01:35:49.19	10.57	9.27	
2025-01-16 01:35:49.39	10.55	9.29	
2025-01-16 01:35:49.59	10.54	9.30	
2025-01-16 01:35:49.80	10.52	9.32	
2025-01-16 01:35:50.00	10.51	9.34	
2025-01-16 01:35:50.20	10.50	9.35	
2025-01-16 01:35:50.41	10.48	9.37	
2025-01-16 01:35:50.61	10.47	9.38	
2025-01-16 01:35:50.81	10.45	9.40	
2025-01-16 01:35:51.01	10.44	9.41	
2025-01-16 01:35:51.22	10.42	9.43	
2025-01-16 01:35:51.42	10.41	9.44	
2025-01-16 01:35:51.62	10.39	9.46	
2025-01-16 01:35:51.83	10.38	9.48	
2025-01-16 01:35:52.03	10.36	9.49	
2025-01-16 01:35:52.23	10.35	9.51	
2025-01-16 01:35:52.44	10.33	9.52	
2025-01-16 01:35:52.64	10.32	9.54	
2025-01-16 01:35:52.84	10.30	9.55	
2025-01-16 01:35:53.04	10.29	9.57	
2025-01-16 01:35:53.25	10.27	9.59	
2025-01-16 01:35:53.45	10.26	9.60	
2025-01-16 01:35:53.65	10.24	9.62	
2025-01-16 01:35:53.86	10.23	9.63	
2025-01-16 01:35:54.06	10.21	9.65	
2025-01-16 01:35:54.26	10.20	9.66	
2025-01-16 01:35:54.47	10.18	9.68	
2025-01-16 01:35:54.67	10.17	9.70	
2025-01-16 01:35:54.87	10.15	9.71	
2025-01-16 01:35:55.07	10.14	9.73	
2025-01-16 01:35:55.28	10.12	9.74	
2025-01-16 01:35:55.48	10.11	9.76	
2025-01-16 01:35:55.68	10.09	9.77	
2025-01-16 01:35:55.89	10.08	9.79	
2025-01-16 01:35:56.09	10.06	9.81	
2025-01-16 01:35:56.29	10.05	9.82	
2025-01-16 01:35:56.50	10.03	9.84	
2025-01-16 01:35:56.70	10.02	9.85	
2025-01-16 01:35:56.90	10.00	9.87	
2025-01-16 01:35:57.10	9.99	9.89	
2025-01-16 01:35:57.31	9.97	9.90	
2025-01-16 01:35:57.51	9.96	9.92	
2025-01-16 01:35:57.71	9.94	9.93	
2025-01-16 01:35:57.92	9.93	9.95	
2025-01-16 01:35:58.12	9.91	9.97	
2025-01-16 01:35:58.32	9.90	9.98	
2025-01-16 01:35:58.53	9.88	10.00	
2025-01-16 01:35:58.73	9.87	10.01	
2025-01-16 01:35:58.93	9.85	10.03	
2025-01-16 01:35:59.13	9.84	10.04	
2025-01-16 01:35:59.34	9.82	10.06	
2025-01-16 01:35:59.54	9.81	10.08	
2025-01-16 01:35:59.74	9.79	10.09	
2025-01-16 01:35:59.95	9.77	10.11	
2025-01-16 01:36:00.15	9.76	10.12	
2025-01-16 01:36:00.35	9.74	10.14	
2025-01-16 01:36:00.56	9.73	10.16	
2025-01-16 01:36:00.76	9.71	10.17	
2025-01-16 01:36:00.96	9.70	10.19	
2025-01-16 01:36:01.16	9.68	10.20	
2025-01-16 01:36:01.37	9.67	10.22	
2025-01-16 01:36:01.57	9.65	10.24	
2025-01-16 01:36:01.77	9.63	10.25	
2025-01-16 01:36:01.98	9.62	10.27	
2025-01-16 01:36:02.18	9.60	10.28	
2025-01-16 01:36:02.38	9.59	10.30	
2025-01-16 01:36:02.58	9.57	10.32	
2025-01-16 01:36:02.79	9.56	10.33	
2025-01-16 01:36:02.99	9.54	10.35	
2025-01-16 01:36:03.19	9.53	10.36	
2025-01-16 01:36:03.40	9.51	10.38	
2025-01-16 01:36:03.60	9.49	10.40	
2025-01-16 01:36:03.80	9.48	10.41	
2025-01-16 01:36:04.01	9.46	10.43	
2025-01-16 01:36:04.21	9.45	10.45	
2025-01-16 01:36:04.41	9.43	10.46	
2025-01-16 01:36:04.61	9.41	10.48	
2025-01-16 01:36:04.82	9.40	10.49	
2025-01-16 01:36:05.02	9.38	10.51	
2025-01-16 01:36:05.22	9.37	10.53	
2025-01-16 01:36:05.43	9.35	10.54	
2025-01-16 01:36:05.63	9.33	10.56	
2025-01-16 01:36:05.83	9.32	10.58	
2025-01-16 01:36:06.04	9.30	10.59	
2025-01-16 01:36:06.24	9.29	10.61	
2025-01-16 01:36:06.44	9.27	10.62	
2025-01-16 01:36:06.64	9.26	10.64	
2025-01-16 01:36:06.85	9.24	10.66	
2025-01-16 01:36:07.05	9.22	10.67	
2025-01-16 01:36:07.25	9.21	10.69	
2025-01-16 01:36:07.46	9.19	10.71	
2025-01-16 01:36:07.66	9.17	10.72	
2025-01-16 01:36:07.86	9.16	10.74	
2025-01-16 01:36:08.07	9.14	10.75	
2025-01-16 01:36:08.27	9.13	10.77	
2025-01-16 01:36:08.47	9.11	10.79	
2025-01-16 01:36:08.67	9.09	10.80	
2025-01-16 01:36:08.88	9.08	10.82	
2025-01-16 01:36:09.08	9.06	10.84	
2025-01-16 01:36:09.28	9.05	10.85	
2025-01-16 01:36:09.49	9.03	10.87	
2025-01-16 01:36:09.69	9.01	10.89	
2025-01-16 01:36:09.89	9.00	10.90	
2025-01-16 01:36:10.10	8.98	10.92	
2025-01-16 01:36:10.30	8.96	10.93	
2025-01-16 01:36:10.50	8.95	10.95	
2025-01-16 01:36:10.70	8.93	10.97	
2025-01-16 01:36:10.91	8.91	10.98	
2025-01-16 01:36:11.11	8.90	11.00	
2025-01-16 01:36:11.31	8.88	11.02	
2025-01-16 01:36:11.52	8.86	11.03	
2025-01-16 01:36:11.72	8.85	11.05	
2025-01-16 01:36:11.92	8.83	11.07	
2025-01-16 01:36:12.13	8.81	11.08	
2025-01-16 01:36:12.33	8.80	11.10	
2025-01-16 01:36:12.53	8.78	11.12	
2025-01-16 01:36:12.73	8.77	11.13	
2025-01-16 01:36:12.94	8.75	11.15	
2025-01-16 01:36:13.14	8.73	11.16	
2025-01-16 01:36:13.34	8.72	11.18	
2025-01-16 01:36:13.55	8.70	11.20	
2025-01-16 01:36:13.75	8.68	11.21	
2025-01-16 01:36:13.95	8.67	11.23	
2025-01-16 01:36:14.15	8.65	11.25	
2025-01-16 01:36:14.36	8.63	11.26	
2025-01-16 01:36:14.56	8.62	11.28	
2025-01-16 01:36:14.76	8.60	11.30	
2025-01-16 01:36:14.97	8.58	11.31	
2025-01-16 01:36:15.17	8.56	11.33	
2025-01-16 01:36:15.37	8.55	11.35	
2025-01-16 01:36:15.58	8.53	11.36	
2025-01-16 01:36:15.78	8.51	11.38	
2025-01-16 01:36:15.98	8.50	11.40	
2025-01-16 01:36:16.18	8.48	11.41	
2025-01-16 01:36:16.39	8.46	11.43	
2025-01-16 01:36:16.59	8.45	11.45	
2025-01-16 01:36:16.79	8.43	11.46	
2025-01-16 01:36:17.00	8.41	11.48	
2025-01-16 01:36:17.20	8.40	11.50	
2025-01-16 01:36:17.40	8.38	11.51	
2025-01-16 01:36:17.61	8.36	11.53	
2025-01-16 01:36:17.81	8.34	11.55	
2025-01-16 01:36:18.01	8.33	11.56	
2025-01-16 01:36:18.21	8.31	11.58	
2025-01-16 01:36:18.42	8.29	11.60	
2025-01-16 01:36:18.62	8.28	11.61	
2025-01-16 01:36:18.82	8.26	11.63	
2025-01-16 01:36:19.03	8.24	11.65	
2025-01-16 01:36:19.23	8.22	11.66	
2025-01-16 01:36:19.43	8.21	11.68	
2025-01-16 01:36:19.64	8.19	11.70	
2025-01-16 01:36:19.84	8.17	11.71	
2025-01-16 01:36:20.04	8.15	11.73	
2025-01-16 01:36:20.24	8.14	11.75	
2025-01-16 01:36:20.45	8.12	11.77	
2025-01-16 01:36:20.65	8.10	11.78	
2025-01-16 01:36:20.85	8.09	11.80	
2025-01-16 01:36:21.06	8.07	11.82	
2025-01-16 01:36:21.26	8.05	11.83	
2025-01-16 01:36:21.46	8.03	11.85	
2025-01-16 01:36:21.67	8.01	11.87	
2025-01-16 01:36:21.87	8.00	11.88	
2025-01-16 01:36:22.07	7.98	11.90	
2025-01-16 01:36:22.27	7.96	11.92	
2025-01-16 01:36:22.48	7.94	11.93	
2025-01-16 01:36:22.68	7.93	11.95	
2025-01-16 01:36:22.88	7.91	11.97	
2025-01-16 01:36:23.09	7.89	11.99	
2025-01-16 01:36:23.29	7.87	12.00	
2025-01-16 01:36:23.49	7.86	12.02	
2025-01-16 01:36:23.70	7.84	12.04	
2025-01-16 01:36:23.90	7.82	12.05	
2025-01-16 01:36:24.10	7.80	12.07	
2025-01-16 01:36:24.30	7.79	12.09	
2025-01-16 01:36:24.51	7.77	12.10	
2025-01-16 01:36:24.71	7.75	12.12	
2025-01-16 01:36:24.91	7.73	12.14	
2025-01-16 01:36:25.12	7.71	12.16	
2025-01-16 01:36:25.32	7.70	12.17	
2025-01-16 01:36:25.52	7.68	12.19	
2025-01-16 01:36:25.73	7.66	12.21	
2025-01-16 01:36:25.93	7.64	12.22	
2025-01-16 01:36:26.13	7.63	12.24	
2025-01-16 01:36:26.33	7.61	12.26	
2025-01-16 01:36:26.54	7.59	12.27	
2025-01-16 01:36:26.74	7.57	12.29	
2025-01-16 01:36:26.94	7.55	12.31	
2025-01-16 01:36:27.15	7.53	12.33	
2025-01-16 01:36:27.35	7.52	12.34	
2025-01-16 01:36:27.55	7.50	12.36	
2025-01-16 01:36:27.76	7.48	12.38	
2025-01-16 01:36:27.96	7.46	12.39	
2025-01-16 01:36:28.16	7.44	12.41	
2025-01-16 01:36:28.36	7.43	12.43	
2025-01-16 01:36:28.57	7.41	12.45	
2025-01-16 01:36:28.77	7.39	12.46	
2025-01-16 01:36:28.97	7.37	12.48	
2025-01-16 01:36:29.18	7.35	12.50	
2025-01-16 01:36:29.38	7.33	12.52	
2025-01-16 01:36:29.58	7.32	12.53	
2025-01-16 01:36:29.79	7.30	12.55	
2025-01-16 01:36:29.99	7.28	12.57	
2025-01-16 01:36:30.19	7.26	12.58	
2025-01-16 01:36:30.39	7.24	12.60	
2025-01-16 01:36:30.60	7.22	12.62	
2025-01-16 01:36:30.80	7.21	12.64	
2025-01-16 01:36:31.00	7.19	12.65	
2025-01-16 01:36:31.21	7.17	12.67	
2025-01-16 01:36:31.41	7.15	12.69	
2025-01-16 01:36:31.61	7.13	12.71	
2025-01-16 01:36:31.81	7.11	12.72	
2025-01-16 01:36:32.02	7.09	12.74	
2025-01-16 01:36:32.22	7.08	12.76	
2025-01-16 01:36:32.42	7.06	12.77	
2025-01-16 01:36:32.63	7.04	12.79	
2025-01-16 01:36:32.83	7.02	12.81	
2025-01-16 01:36:33.03	7.00	12.83	
2025-01-16 01:36:33.24	6.98	12.84	
2025-01-16 01:36:33.44	6.96	12.86	
2025-01-16 01:36:33.64	6.95	12.88	
2025-01-16 01:36:33.84	6.93	12.90	
2025-01-16 01:36:34.05	6.91	12.91	
2025-01-16 01:36:34.25	6.89	12.93	
2025-01-16 01:36:34.45	6.87	12.95	
2025-01-16 01:36:34.66	6.85	12.97	
2025-01-16 01:36:34.86	6.83	12.98	
2025-01-16 01:36:35.06	6.81	13.00	
2025-01-16 01:36:35.27	6.79	13.02	
2025-01-16 01:36:35.47	6.77	13.04	
2025-01-16 01:36:35.67	6.76	13.05	
2025-01-16 01:36:35.87	6.74	13.07	
2025-01-16 01:36:36.08	6.72	13.09	
2025-01-16 01:36:36.28	6.70	13.11	
2025-01-16 01:36:36.48	6.68	13.12	
2025-01-16 01:36:36.69	6.66	13.14	
2025-01-16 01:36:36.89	6.64	13.16	
2025-01-16 01:36:37.09	6.62	13.18	
2025-01-16 01:36:37.30	6.60	13.19	
2025-01-16 01:36:37.50	6.58	13.21	
2025-01-16 01:36:37.70	6.56	13.23	
2025-01-16 01:36:37.90	6.55	13.25	
2025-01-16 01:36:38.11	6.53	13.27	
2025-01-16 01:36:38.31	6.51	13.28	
2025-01-16 01:36:38.51	6.49	13.30	
2025-01-16 01:36:38.72	6.47	13.32	
2025-01-16 01:36:38.92	6.45	13.34	
2025-01-16 01:36:39.12	6.43	13.35	
2025-01-16 01:36:39.33	6.41	13.37	
2025-01-16 01:36:39.53	6.39	13.39	
2025-01-16 01:36:39.73	6.37	13.41	
2025-01-16 01:36:39.93	6.35	13.42	
2025-01-16 01:36:40.14	6.33	13.44	
2025-01-16 01:36:40.34	6.31	13.46	
2025-01-16 01:36:40.54	6.29	13.48	
2025-01-16 01:36:40.75	6.27	13.50	
2025-01-16 01:36:40.95	6.25	13.51	
2025-01-16 01:36:41.15	6.23	13.53	
2025-01-16 01:36:41.36	6.21	13.55	
2025-01-16 01:36:41.56	6.19	13.57	
2025-01-16 01:36:41.76	6.17	13.58	
2025-01-16 01:36:41.96	6.15	13.60	
2025-01-16 01:36:42.17	6.13	13.62	
2025-01-16 01:36:42.37	6.11	13.64	
2025-01-16 01:36:42.57	6.10	13.66	
2025-01-16 01:36:42.78	6.07	13.67	
2025-01-16 01:36:42.98	6.05	13.69	
2025-01-16 01:36:43.18	6.04	13.71	
2025-01-16 01:36:43.39	6.01	13.73	
2025-01-16 01:36:43.59	6.00	13.75	
2025-01-16 01:36:43.79	5.98	13.76	
2025-01-16 01:36:43.99	5.96	13.78	
2025-01-16 01:36:44.20	5.93	13.80	
2025-01-16 01:36:44.40	5.92	13.82	
2025-01-16 01:36:44.60	5.90	13.83	
2025-01-16 01:36:44.81	5.87	13.85	
2025-01-16 01:36:45.01	5.85	13.87	
2025-01-16 01:36:45.21	5.83	13.89	
2025-01-16 01:36:45.42	5.81	13.91	
2025-01-16 01:36:45.62	5.79	13.92	
2025-01-16 01:36:45.82	5.77	13.94	
2025-01-16 01:36:46.02	5.75	13.96	
2025-01-16 01:36:46.23	5.73	13.98	
2025-01-16 01:36:46.43	5.71	14.00	
2025-01-16 01:36:46.63	5.69	14.01	
2025-01-16 01:36:46.84	5.67	14.03	
2025-01-16 01:36:47.04	5.65	14.05	
2025-01-16 01:36:47.24	5.63	14.07	
2025-01-16 01:36:47.44	5.61	14.09	
2025-01-16 01:36:47.65	5.59	14.10	
2025-01-16 01:36:47.85	5.57	14.12	
2025-01-16 01:36:48.05	5.55	14.14	
2025-01-16 01:36:48.26	5.53	14.16	
2025-01-16 01:36:48.46	5.51	14.18	
2025-01-16 01:36:48.66	5.49	14.20	
2025-01-16 01:36:48.87	5.47	14.21	
2025-01-16 01:36:49.07	5.45	14.23	
2025-01-16 01:36:49.27	5.43	14.25	
2025-01-16 01:36:49.47	5.41	14.27	
2025-01-16 01:36:49.68	5.38	14.29	
2025-01-16 01:36:49.88	5.36	14.30	
2025-01-16 01:36:50.08	5.34	14.32	
2025-01-16 01:36:50.29	5.32	14.34	
2025-01-16 01:36:50.49	5.30	14.36	
2025-01-16 01:36:50.69	5.28	14.38	
2025-01-16 01:36:50.90	5.26	14.40	
2025-01-16 01:36:51.10	5.24	14.41	
2025-01-16 01:36:51.30	5.22	14.43	
2025-01-16 01:36:51.50	5.20	14.45	
2025-01-16 01:36:51.71	5.18	14.47	
2025-01-16 01:36:51.91	5.15	14.49	
2025-01-16 01:36:52.11	5.13	14.50	
2025-01-16 01:36:52.32	5.11	14.52	
2025-01-16 01:36:52.52	5.09	14.54	
2025-01-16 01:36:52.72	5.07	14.56	
2025-01-16 01:36:52.93	5.05	14.58	
2025-01-16 01:36:53.13	5.03	14.60	
2025-01-16 01:36:53.33	5.01	14.62	
2025-01-16 01:36:53.53	4.99	14.63	
2025-01-16 01:36:53.74	4.96	14.65	
2025-01-16 01:36:53.94	4.94	14.67	
2025-01-16 01:36:54.14	4.92	14.69	
2025-01-16 01:36:54.35	4.90	14.71	
2025-01-16 01:36:54.55	4.88	14.73	
2025-01-16 01:36:54.75	4.86	14.74	
2025-01-16 01:36:54.96	4.84	14.76	
2025-01-16 01:36:55.16	4.81	14.78	
2025-01-16 01:36:55.36	4.79	14.80	
2025-01-16 01:36:55.56	4.77	14.82	
2025-01-16 01:36:55.77	4.75	14.84	
2025-01-16 01:36:55.97	4.73	14.85	
2025-01-16 01:36:56.17	4.71	14.87	
2025-01-16 01:36:56.38	4.68	14.89	
2025-01-16 01:36:56.58	4.66	14.91	
2025-01-16 01:36:56.78	4.64	14.93	
2025-01-16 01:36:56.99	4.62	14.95	
2025-01-16 01:36:57.19	4.60	14.97	
2025-01-16 01:36:57.39	4.58	14.98	
2025-01-16 01:36:57.59	4.56	15.00	
2025-01-16 01:36:57.80	4.53	15.02	
2025-01-16 01:36:58.00	4.51	15.04	
2025-01-16 01:36:58.20	4.49	15.06	
2025-01-16 01:36:58.41	4.47	15.08	
2025-01-16 01:36:58.61	4.45	15.10	
2025-01-16 01:36:58.81	4.42	15.11	
2025-01-16 01:36:59.02	4.40	15.13	
2025-01-16 01:36:59.22	4.38	15.15	
2025-01-16 01:36:59.42	4.36	15.17	
2025-01-16 01:36:59.62	4.34	15.19	
2025-01-16 01:36:59.83	4.31	15.21	
2025-01-16 01:37:00.03	4.29	15.23	
2025-01-16 01:37:00.23	4.27	15.24	
2025-01-16 01:37:00.44	4.25	15.26	
2025-01-16 01:37:00.64	4.22	15.28	
2025-01-16 01:37:00.84	4.20	15.30	
2025-01-16 01:37:01.04	4.18	15.32	
2025-01-16 01:37:01.25	4.16	15.34	
2025-01-16 01:37:01.45	4.14	15.36	
2025-01-16 01:37:01.65	4.11	15.38	
2025-01-16 01:37:01.86	4.09	15.40	
2025-01-16 01:37:02.06	4.07	15.41	
2025-01-16 01:37:02.26	4.05	15.43	
2025-01-16 01:37:02.47	4.02	15.45	
2025-01-16 01:37:02.67	4.00	15.47	
2025-01-16 01:37:02.87	3.98	15.49	
2025-01-16 01:37:03.07	3.96	15.51	
2025-01-16 01:37:03.28	3.93	15.53	
2025-01-16 01:37:03.48	3.91	15.55	
2025-01-16 01:37:03.68	3.89	15.56	
2025-01-16 01:37:03.89	3.86	15.58	
2025-01-16 01:37:04.09	3.84	15.60	
2025-01-16 01:37:04.29	3.82	15.62	
2025-01-16 01:37:04.50	3.80	15.64	
2025-01-16 01:37:04.70	3.77	15.66	
2025-01-16 01:37:04.90	3.75	15.68	
2025-01-16 01:37:05.10	3.73	15.70	
2025-01-16 01:37:05.31	3.71	15.72	
2025-01-16 01:37:05.51	3.68	15.73	
2025-01-16 01:37:05.71	3.66	15.75	
2025-01-16 01:37:05.92	3.64	15.77	
2025-01-16 01:37:06.12	3.61	15.79	
2025-01-16 01:37:06.32	3.59	15.81	
2025-01-16 01:37:06.53	3.57	15.83	
2025-01-16 01:37:06.73	3.54	15.85	
2025-01-16 01:37:06.93	3.52	15.87	
2025-01-16 01:37:07.13	3.50	15.89	
2025-01-16 01:37:07.34	3.47	15.91	
2025-01-16 01:37:07.54	3.45	15.92	
2025-01-16 01:37:07.74	3.43	15.94	
2025-01-16 01:37:07.95	3.40	15.96	
2025-01-16 01:37:08.15	3.38	15.98	
2025-01-16 01:37:08.35	3.36	16.00	
2025-01-16 01:37:08.56	3.33	16.02	
2025-01-16 01:37:08.76	3.31	16.04	
2025-01-16 01:37:08.96	3.29	16.06	
2025-01-16 01:37:09.16	3.27	16.08	
2025-01-16 01:37:09.37	3.24	16.10	
2025-01-16 01:37:09.57	3.22	16.12	
2025-01-16 01:37:09.77	3.19	16.13	
2025-01-16 01:37:09.98	3.17	16.15	
2025-01-16 01:37:10.18	3.15	16.17	
2025-01-16 01:37:10.38	3.12	16.19	
2025-01-16 01:37:10.59	3.10	16.21	
2025-01-16 01:37:10.79	3.08	16.23	
2025-01-16 01:37:10.99	3.05	16.25	
2025-01-16 01:37:11.19	3.03	16.27	
2025-01-16 01:37:11.40	3.00	16.29	
2025-01-16 01:37:11.60	2.98	16.31	
2025-01-16 01:37:11.80	2.96	16.33	
2025-01-16 01:37:12.01	2.93	16.35	
2025-01-16 01:37:12.21	2.91	16.37	
2025-01-16 01:37:12.41	2.89	16.39	
2025-01-16 01:37:12.62	2.86	16.41	
2025-01-16 01:37:12.82	2.84	16.42	
2025-01-16 01:37:13.02	2.81	16.44	
2025-01-16 01:37:13.22	2.79	16.46	
2025-01-16 01:37:13.43	2.76	16.48	
2025-01-16 01:37:13.63	2.74	16.50	
2025-01-16 01:37:13.83	2.72	16.52	
2025-01-16 01:37:14.04	2.69	16.54	
2025-01-16 01:37:14.24	2.67	16.56	
2025-01-16 01:37:14.44	2.64	16.58	
2025-01-16 01:37:14.65	2.62	16.60	
2025-01-16 01:37:14.85	2.59	16.62	
2025-01-16 01:37:15.05	2.57	16.64	
2025-01-16 01:37:15.25	2.55	16.66	
2025-01-16 01:37:15.46	2.52	16.68	
2025-01-16 01:37:15.66	2.50	16.70	
2025-01-16 01:37:15.86	2.47	16.71	
2025-01-16 01:37:16.07	2.45	16.73	
2025-01-16 01:37:16.27	2.42	16.75	
2025-01-16 01:37:16.47	2.40	16.77	
2025-01-16 01:37:16.67	2.37	16.79	
2025-01-16 01:37:16.88	2.35	16.81	
2025-01-16 01:37:17.08	2.32	16.83	
2025-01-16 01:37:17.28	2.30	16.85	
2025-01-16 01:37:17.49	2.27	16.87	
2025-01-16 01:37:17.69	2.25	16.89	
2025-01-16 01:37:17.89	2.23	16.91	
2025-01-16 01:37:18.10	2.20	16.93	
2025-01-16 01:37:18.30	2.18	16.95	
2025-01-16 01:37:18.50	2.15	16.97	
2025-01-16 01:37:18.70	2.13	16.99	
2025-01-16 01:37:18.91	2.10	17.01	
2025-01-16 01:37:19.11	2.08	17.03	
2025-01-16 01:37:19.31	2.05	17.05	
2025-01-16 01:37:19.52	2.03	17.07	
2025-01-16 01:37:19.72	2.00	17.09	
2025-01-16 01:37:19.92	1.98	17.11	
2025-01-16 01:37:20.13	1.95	17.13	
2025-01-16 01:37:20.33	1.92	17.15	
2025-01-16 01:37:20.53	1.90	17.17	
2025-01-16 01:37:20.73	1.87	17.18	
2025-01-16 01:37:20.94	1.85	17.21	
2025-01-16 01:37:21.14	1.82	17.22	
2025-01-16 01:37:21.34	1.80	17.24	
2025-01-16 01:37:21.55	1.77	17.26	
2025-01-16 01:37:21.75	1.75	17.28	
2025-01-16 01:37:21.95	1.72	17.30	
2025-01-16 01:37:22.16	1.70	17.32	
2025-01-16 01:37:22.36	1.67	17.34	
2025-01-16 01:37:22.56	1.65	17.36	
2025-01-16 01:37:22.76	1.62	17.38	
2025-01-16 01:37:22.97	1.59	17.40	
2025-01-16 01:37:23.17	1.57	17.42	
2025-01-16 01:37:23.37	1.54	17.44	
2025-01-16 01:37:23.58	1.52	17.46	
2025-01-16 01:37:23.78	1.49	17.48	
2025-01-16 01:37:23.98	1.46	17.50	
2025-01-16 01:37:24.19	1.44	17.52	
2025-01-16 01:37:24.39	1.41	17.54	
2025-01-16 01:37:24.59	1.39	17.56	
2025-01-16 01:37:24.79	1.36	17.58	
2025-01-16 01:37:25.00	1.33	17.60	
2025-01-16 01:37:25.20	1.31	17.62	
2025-01-16 01:37:25.40	1.28	17.64	
2025-01-16 01:37:25.61	1.26	17.66	
2025-01-16 01:37:25.81	1.23	17.68	
2025-01-16 01:37:26.01	1.20	17.70	
2025-01-16 01:37:26.22	1.18	17.72	
2025-01-16 01:37:26.42	1.15	17.74	
2025-01-16 01:37:26.62	1.13	17.76	
2025-01-16 01:37:26.82	1.10	17.78	
2025-01-16 01:37:27.03	1.07	17.80	
2025-01-16 01:37:27.23	1.05	17.82	
2025-01-16 01:37:27.43	1.02	17.84	
2025-01-16 01:37:27.64	0.99	17.86	
2025-01-16 01:37:27.84	0.97	17.88	
2025-01-16 01:37:28.04	0.94	17.90	
2025-01-16 01:37:28.24	0.91	17.92	
2025-01-16 01:37:28.45	0.89	17.94	
2025-01-16 01:37:28.65	0.86	17.96	
2025-01-16 01:37:28.85	0.83	17.98	
2025-01-16 01:37:29.06	0.81	18.00	
2025-01-16 01:37:29.26	0.78	18.02	
2025-01-16 01:37:29.46	0.75	18.04	
2025-01-16 01:37:29.67	0.73	18.06	
2025-01-16 01:37:29.87	0.70	18.08	
2025-01-16 01:37:30.07	0.67	18.10	
2025-01-16 01:37:30.27	0.65	18.12	
2025-01-16 01:37:30.48	0.62	18.14	
2025-01-16 01:37:30.68	0.59	18.16	
2025-01-16 01:37:30.88	0.56	18.18	
2025-01-16 01:37:31.09	0.54	18.20	
2025-01-16 01:37:31.29	0.51	18.22	
2025-01-16 01:37:31.49	0.48	18.24	
2025-01-16 01:37:31.70	0.45	18.26	
2025-01-16 01:37:31.90	0.43	18.28	
2025-01-16 01:37:32.10	0.40	18.30	
2025-01-16 01:37:32.30	0.37	18.32	
2025-01-16 01:37:32.51	0.35	18.35	
2025-01-16 01:37:32.71	0.32	18.37	
2025-01-16 01:37:32.91	0.29	18.39	
2025-01-16 01:37:33.12	0.26	18.41	
2025-01-16 01:37:33.32	0.24	18.43	
2025-01-16 01:37:33.52	0.21	18.45	
2025-01-16 01:37:33.73	0.18	18.47	
2025-01-16 01:37:33.93	0.15	18.49	
2025-01-16 01:37:34.13	0.13	18.51	
2025-01-16 01:37:34.33	0.10	18.53	
2025-01-16 01:37:34.54	0.07	18.55	
2025-01-16 01:37:34.74	0.04	18.57	
2025-01-16 01:37:34.94	0.01	18.59	
2025-01-16 01:37:35.15	359.99	18.61	
2025-01-16 01:37:35.35	359.96	18.63	
2025-01-16 01:37:35.55	359.93	18.65	
2025-01-16 01:37:35.76	359.90	18.67	
2025-01-16 01:37:35.96	359.87	18.69	
2025-01-16 01:37:36.16	359.85	18.71	
2025-01-16 01:37:36.36	359.82	18.73	
2025-01-16 01:37:36.57	359.79	18.75	
2025-01-16 01:37:36.77	359.76	18.77	
2025-01-16 01:37:36.97	359.73	18.79	
2025-01-16 01:37:37.18	359.70	18.81	
2025-01-16 01:37:37.38	359.68	18.83	
2025-01-16 01:37:37.58	359.65	18.86	
2025-01-16 01:37:37.79	359.62	18.88	
2025-01-16 01:37:37.99	359.59	18.90	
2025-01-16 01:37:38.19	359.56	18.92	
2025-01-16 01:37:38.39	359.54	18.94	
2025-01-16 01:37:38.60	359.51	18.96	
2025-01-16 01:37:38.80	359.48	18.98	
2025-01-16 01:37:39.00	359.45	19.00	
2025-01-16 01:37:39.21	359.42	19.02	
2025-01-16 01:37:39.41	359.39	19.04	
2025-01-16 01:37:39.61	359.36	19.06	
2025-01-16 01:37:39.82	359.33	19.08	
2025-01-16 01:37:40.02	359.31	19.10	
2025-01-16 01:37:40.22	359.28	19.12	
2025-01-16 01:37:40.42	359.25	19.14	
2025-01-16 01:37:40.63	359.22	19.16	
2025-01-16 01:37:40.83	359.19	19.19	
2025-01-16 01:37:41.03	359.16	19.21	
2025-01-16 01:37:41.24	359.13	19.23	
2025-01-16 01:37:41.44	359.10	19.25	
2025-01-16 01:37:41.64	359.07	19.27	
2025-01-16 01:37:41.85	359.04	19.29	
2025-01-16 01:37:42.05	359.01	19.31	
2025-01-16 01:37:42.25	358.99	19.33	
2025-01-16 01:37:42.45	358.96	19.35	
2025-01-16 01:37:42.66	358.93	19.37	
2025-01-16 01:37:42.86	358.90	19.39	
2025-01-16 01:37:43.06	358.87	19.41	
2025-01-16 01:37:43.27	358.84	19.43	
2025-01-16 01:37:43.47	358.81	19.45	
2025-01-16 01:37:43.67	358.78	19.48	
2025-01-16 01:37:43.88	358.75	19.50	
2025-01-16 01:37:44.08	358.72	19.52	
2025-01-16 01:37:44.28	358.69	19.54	
2025-01-16 01:37:44.48	358.66	19.56	
2025-01-16 01:37:44.69	358.63	19.58	
2025-01-16 01:37:44.89	358.60	19.60	
2025-01-16 01:37:45.09	358.57	19.62	
2025-01-16 01:37:45.30	358.54	19.64	
2025-01-16 01:37:45.50	358.51	19.66	
2025-01-16 01:37:45.70	358.48	19.68	
2025-01-16 01:37:45.90	358.45	19.70	
2025-01-16 01:37:46.11	358.42	19.73	
2025-01-16 01:37:46.31	358.39	19.75	
2025-01-16 01:37:46.51	358.36	19.77	
2025-01-16 01:37:46.72	358.33	19.79	
2025-01-16 01:37:46.92	358.30	19.81	
2025-01-16 01:37:47.12	358.27	19.83	
2025-01-16 01:37:47.33	358.24	19.85	
2025-01-16 01:37:47.53	358.21	19.87	
2025-01-16 01:37:47.73	358.18	19.89	
2025-01-16 01:37:47.93	358.15	19.91	
2025-01-16 01:37:48.14	358.12	19.94	
2025-01-16 01:37:48.34	358.09	19.96	
2025-01-16 01:37:48.54	358.06	19.98	
2025-01-16 01:37:48.75	358.03	20.00	
2025-01-16 01:37:48.95	358.00	20.02	
2025-01-16 01:37:49.15	357.97	20.04	
2025-01-16 01:37:49.36	357.93	20.06	
2025-01-16 01:37:49.56	357.90	20.08	
2025-01-16 01:37:49.76	357.87	20.10	
2025-01-16 01:37:49.96	357.84	20.12	
2025-01-16 01:37:50.17	357.81	20.15	
2025-01-16 01:37:50.37	357.78	20.17	
2025-01-16 01:37:50.57	357.75	20.19	
2025-01-16 01:37:50.78	357.72	20.21	
2025-01-16 01:37:50.98	357.69	20.23	
2025-01-16 01:37:51.18	357.66	20.25	
2025-01-16 01:37:51.39	357.62	20.27	
2025-01-16 01:37:51.59	357.59	20.29	
2025-01-16 01:37:51.79	357.56	20.32	
2025-01-16 01:37:51.99	357.53	20.34	
2025-01-16 01:37:52.20	357.50	20.36	
2025-01-16 01:37:52.40	357.47	20.38	
2025-01-16 01:37:52.60	357.44	20.40	
2025-01-16 01:37:52.81	357.41	20.42	
2025-01-16 01:37:53.01	357.37	20.44	
2025-01-16 01:37:53.21	357.34	20.46	
2025-01-16 01:37:53.42	357.31	20.49	
2025-01-16 01:37:53.62	357.28	20.51	
2025-01-16 01:37:53.82	357.25	20.53	
2025-01-16 01:37:54.02	357.22	20.55	
2025-01-16 01:37:54.23	357.18	20.57	
2025-01-16 01:37:54.43	357.15	20.59	
2025-01-16 01:37:54.63	357.12	20.61	
2025-01-16 01:37:54.84	357.09	20.63	
2025-01-16 01:37:55.04	357.06	20.66	
2025-01-16 01:37:55.24	357.03	20.68	
2025-01-16 01:37:55.45	356.99	20.70	
2025-01-16 01:37:55.65	356.96	20.72	
2025-01-16 01:37:55.85	356.93	20.74	
2025-01-16 01:37:56.05	356.90	20.76	
2025-01-16 01:37:56.26	356.86	20.78	
2025-01-16 01:37:56.46	356.83	20.80	
2025-01-16 01:37:56.66	356.80	20.83	
2025-01-16 01:37:56.87	356.77	20.85	
2025-01-16 01:37:57.07	356.73	20.87	
2025-01-16 01:37:57.27	356.70	20.89	
2025-01-16 01:37:57.48	356.67	20.91	
2025-01-16 01:37:57.68	356.64	20.93	
2025-01-16 01:37:57.88	356.60	20.95	
2025-01-16 01:37:58.08	356.57	20.98	
2025-01-16 01:37:58.29	356.54	21.00	
2025-01-16 01:37:58.49	356.51	21.02	
2025-01-16 01:37:58.69	356.47	21.04	
2025-01-16 01:37:58.90	356.44	21.06	
2025-01-16 01:37:59.10	356.41	21.08	
2025-01-16 01:37:59.30	356.38	21.10	
2025-01-16 01:37:59.51	356.34	21.13	
2025-01-16 01:37:59.71	356.31	21.15	
2025-01-16 01:37:59.91	356.28	21.17	
2025-01-16 01:38:00.11	356.24	21.19	
2025-01-16 01:38:00.32	356.21	21.21	
2025-01-16 01:38:00.52	356.18	21.23	
2025-01-16 01:38:00.72	356.14	21.26	
2025-01-16 01:38:00.93	356.11	21.28	
2025-01-16 01:38:01.13	356.08	21.30	
2025-01-16 01:38:01.33	356.04	21.32	
2025-01-16 01:38:01.53	356.01	21.34	
2025-01-16 01:38:01.74	355.98	21.36	
2025-01-16 01:38:01.94	355.94	21.38	
2025-01-16 01:38:02.14	355.91	21.41	
2025-01-16 01:38:02.35	355.87	21.43	
2025-01-16 01:38:02.55	355.84	21.45	
2025-01-16 01:38:02.75	355.81	21.47	
2025-01-16 01:38:02.96	355.77	21.49	
2025-01-16 01:38:03.16	355.74	21.51	
2025-01-16 01:38:03.36	355.71	21.54	
2025-01-16 01:38:03.56	355.67	21.56	
2025-01-16 01:38:03.77	355.64	21.58	
2025-01-16 01:38:03.97	355.60	21.60	
2025-01-16 01:38:04.17	355.57	21.62	
2025-01-16 01:38:04.38	355.54	21.65	
2025-01-16 01:38:04.58	355.50	21.67	
2025-01-16 01:38:04.78	355.47	21.69	
2025-01-16 01:38:04.99	355.43	21.71	
2025-01-16 01:38:05.19	355.40	21.73	
2025-01-16 01:38:05.39	355.36	21.75	
2025-01-16 01:38:05.59	355.33	21.77	
2025-01-16 01:38:05.80	355.30	21.80	
2025-01-16 01:38:06.00	355.26	21.82	
2025-01-16 01:38:06.20	355.23	21.84	
2025-01-16 01:38:06.41	355.19	21.86	
2025-01-16 01:38:06.61	355.16	21.88	
2025-01-16 01:38:06.81	355.12	21.91	
2025-01-16 01:38:07.02	355.09	21.93	
2025-01-16 01:38:07.22	355.05	21.95	
2025-01-16 01:38:07.42	355.02	21.97	
2025-01-16 01:38:07.62	354.98	21.99	
2025-01-16 01:38:07.83	354.95	22.01	
2025-01-16 01:38:08.03	354.91	22.04	
2025-01-16 01:38:08.23	354.88	22.06	
2025-01-16 01:38:08.44	354.84	22.08	
2025-01-16 01:38:08.64	354.81	22.10	
2025-01-16 01:38:08.84	354.77	22.12	
2025-01-16 01:38:09.05	354.74	22.15	
2025-01-16 01:38:09.25	354.70	22.17	
2025-01-16 01:38:09.45	354.67	22.19	
2025-01-16 01:38:09.65	354.63	22.21	
2025-01-16 01:38:09.86	354.60	22.23	
2025-01-16 01:38:10.06	354.56	22.25	
2025-01-16 01:38:10.26	354.53	22.28	
2025-01-16 01:38:10.47	354.49	22.30	
2025-01-16 01:38:10.67	354.45	22.32	
2025-01-16 01:38:10.87	354.42	22.34	
2025-01-16 01:38:11.08	354.38	22.37	
2025-01-16 01:38:11.28	354.35	22.39	
2025-01-16 01:38:11.48	354.31	22.41	
2025-01-16 01:38:11.68	354.28	22.43	
2025-01-16 01:38:11.89	354.24	22.45	
2025-01-16 01:38:12.09	354.20	22.47	
2025-01-16 01:38:12.29	354.17	22.50	
2025-01-16 01:38:12.50	354.13	22.52	
2025-01-16 01:38:12.70	354.09	22.54	
2025-01-16 01:38:12.90	354.06	22.56	
2025-01-16 01:38:13.11	354.02	22.58	
2025-01-16 01:38:13.31	353.98	22.61	
2025-01-16 01:38:13.51	353.95	22.63	
2025-01-16 01:38:13.71	353.91	22.65	
2025-01-16 01:38:13.92	353.88	22.67	
2025-01-16 01:38:14.12	353.84	22.69	
2025-01-16 01:38:14.32	353.80	22.72	
2025-01-16 01:38:14.53	353.77	22.74	
2025-01-16 01:38:14.73	353.73	22.76	
2025-01-16 01:38:14.93	353.69	22.78	
2025-01-16 01:38:15.13	353.66	22.80	
2025-01-16 01:38:15.34	353.62	22.83	
2025-01-16 01:38:15.54	353.58	22.85	
2025-01-16 01:38:15.74	353.55	22.87	
2025-01-16 01:38:15.95	353.51	22.89	
2025-01-16 01:38:16.15	353.47	22.91	
2025-01-16 01:38:16.35	353.43	22.94	
2025-01-16 01:38:16.56	353.40	22.96	
2025-01-16 01:38:16.76	353.36	22.98	
2025-01-16 01:38:16.96	353.32	23.00	
2025-01-16 01:38:17.16	353.29	23.02	
2025-01-16 01:38:17.37	353.25	23.05	
2025-01-16 01:38:17.57	353.21	23.07	
2025-01-16 01:38:17.77	353.17	23.09	
2025-01-16 01:38:17.98	353.13	23.11	
2025-01-16 01:38:18.18	353.10	23.14	
2025-01-16 01:38:18.38	353.06	23.16	
2025-01-16 01:38:18.59	353.02	23.18	
2025-01-16 01:38:18.79	352.98	23.20	
2025-01-16 01:38:18.99	352.95	23.22	
2025-01-16 01:38:19.19	352.91	23.25	
2025-01-16 01:38:19.40	352.87	23.27	
2025-01-16 01:38:19.60	352.83	23.29	
2025-01-16 01:38:19.80	352.79	23.31	
2025-01-16 01:38:20.01	352.75	23.34	
2025-01-16 01:38:20.21	352.72	23.36	
2025-01-16 01:38:20.41	352.68	23.38	
2025-01-16 01:38:20.62	352.64	23.40	
2025-01-16 01:38:20.82	352.60	23.42	
2025-01-16 01:38:21.02	352.56	23.45	
2025-01-16 01:38:21.22	352.53	23.47	
2025-01-16 01:38:21.43	352.49	23.49	
2025-01-16 01:38:21.63	352.45	23.51	
2025-01-16 01:38:21.83	352.41	23.53	
2025-01-16 01:38:22.04	352.37	23.56	
2025-01-16 01:38:22.24	352.33	23.58	
2025-01-16 01:38:22.44	352.29	23.60	
2025-01-16 01:38:22.65	352.25	23.62	
2025-01-16 01:38:22.85	352.22	23.65	
2025-01-16 01:38:23.05	352.18	23.67	
2025-01-16 01:38:23.25	352.14	23.69	
2025-01-16 01:38:23.46	352.10	23.71	
2025-01-16 01:38:23.66	352.06	23.74	
2025-01-16 01:38:23.86	352.02	23.76	
2025-01-16 01:38:24.07	351.98	23.78	
2025-01-16 01:38:24.27	351.94	23.80	
2025-01-16 01:38:24.47	351.90	23.82	
2025-01-16 01:38:24.68	351.86	23.85	
2025-01-16 01:38:24.88	351.82	23.87	
2025-01-16 01:38:25.08	351.78	23.89	
2025-01-16 01:38:25.28	351.75	23.91	
2025-01-16 01:38:25.49	351.70	23.94	
2025-01-16 01:38:25.69	351.67	23.96	
2025-01-16 01:38:25.89	351.63	23.98	
2025-01-16 01:38:26.10	351.59	24.00	
2025-01-16 01:38:26.30	351.55	24.03	
2025-01-16 01:38:26.50	351.51	24.05	
2025-01-16 01:38:26.71	351.47	24.07	
2025-01-16 01:38:26.91	351.43	24.09	
2025-01-16 01:38:27.11	351.39	24.11	
2025-01-16 01:38:27.31	351.35	24.14	
2025-01-16 01:38:27.52	351.31	24.16	
2025-01-16 01:38:27.72	351.27	24.18	
2025-01-16 01:38:27.92	351.23	24.20	
2025-01-16 01:38:28.13	351.18	24.23	
2025-01-16 01:38:28.33	351.14	24.25	
2025-01-16 01:38:28.53	351.10	24.27	
2025-01-16 01:38:28.74	351.06	24.29	
2025-01-16 01:38:28.94	351.02	24.32	
2025-01-16 01:38:29.14	350.98	24.34	
2025-01-16 01:38:29.34	350.94	24.36	
2025-01-16 01:38:29.55	350.90	24.38	
2025-01-16 01:38:29.75	350.86	24.41	
2025-01-16 01:38:29.95	350.82	24.43	
2025-01-16 01:38:30.16	350.78	24.45	
2025-01-16 01:38:30.36	350.74	24.47	
2025-01-16 01:38:30.56	350.70	24.50	
2025-01-16 01:38:30.76	350.66	24.52	
2025-01-16 01:38:30.97	350.61	24.54	
2025-01-16 01:38:31.17	350.57	24.56	
2025-01-16 01:38:31.37	350.53	24.58	
2025-01-16 01:38:31.58	350.49	24.61	
2025-01-16 01:38:31.78	350.45	24.63	
2025-01-16 01:38:31.98	350.41	24.65	
2025-01-16 01:38:32.19	350.36	24.68	
2025-01-16 01:38:32.39	350.32	24.70	
2025-01-16 01:38:32.59	350.28	24.72	
2025-01-16 01:38:32.79	350.24	24.74	
2025-01-16 01:38:33.00	350.20	24.76	
2025-01-16 01:38:33.20	350.16	24.79	
2025-01-16 01:38:33.40	350.11	24.81	
2025-01-16 01:38:33.61	350.07	24.83	
2025-01-16 01:38:33.81	350.03	24.85	
2025-01-16 01:38:34.01	349.99	24.88	
2025-01-16 01:38:34.22	349.94	24.90	
2025-01-16 01:38:34.42	349.90	24.92	
2025-01-16 01:38:34.62	349.86	24.94	
2025-01-16 01:38:34.82	349.82	24.97	
2025-01-16 01:38:35.03	349.78	24.99	
2025-01-16 01:38:35.23	349.73	25.01	
2025-01-16 01:38:35.43	349.69	25.03	
2025-01-16 01:38:35.64	349.65	25.06	
2025-01-16 01:38:35.84	349.61	25.08	
2025-01-16 01:38:36.04	349.56	25.10	
2025-01-16 01:38:36.25	349.52	25.12	
2025-01-16 01:38:36.45	349.48	25.15	
2025-01-16 01:38:36.65	349.43	25.17	
2025-01-16 01:38:36.85	349.39	25.19	
2025-01-16 01:38:37.06	349.35	25.21	
2025-01-16 01:38:37.26	349.31	25.24	
2025-01-16 01:38:37.46	349.26	25.26	
2025-01-16 01:38:37.67	349.22	25.28	
2025-01-16 01:38:37.87	349.18	25.30	
2025-01-16 01:38:38.07	349.13	25.33	
2025-01-16 01:38:38.28	349.09	25.35	
2025-01-16 01:38:38.48	349.05	25.37	
2025-01-16 01:38:38.68	349.00	25.39	
2025-01-16 01:38:38.88	348.96	25.42	
2025-01-16 01:38:39.09	348.91	25.44	
2025-01-16 01:38:39.29	348.87	25.46	
2025-01-16 01:38:39.49	348.83	25.48	
2025-01-16 01:38:39.70	348.78	25.51	
2025-01-16 01:38:39.90	348.74	25.53	
2025-01-16 01:38:40.10	348.70	25.55	
2025-01-16 01:38:40.31	348.65	25.57	
2025-01-16 01:38:40.51	348.61	25.60	
2025-01-16 01:38:40.71	348.56	25.62	
2025-01-16 01:38:40.91	348.52	25.64	
2025-01-16 01:38:41.12	348.47	25.66	
2025-01-16 01:38:41.32	348.43	25.69	
2025-01-16 01:38:41.52	348.39	25.71	
2025-01-16 01:38:41.73	348.34	25.73	
2025-01-16 01:38:41.93	348.30	25.75	
2025-01-16 01:38:42.13	348.25	25.78	
2025-01-16 01:38:42.34	348.21	25.80	
2025-01-16 01:38:42.54	348.16	25.82	
2025-01-16 01:38:42.74	348.12	25.84	
2025-01-16 01:38:42.94	348.07	25.87	
2025-01-16 01:38:43.15	348.03	25.89	
2025-01-16 01:38:43.35	347.98	25.91	
2025-01-16 01:38:43.55	347.94	25.93	
2025-01-16 01:38:43.76	347.89	25.96	
2025-01-16 01:38:43.96	347.85	25.98	
2025-01-16 01:38:44.16	347.80	26.00	
2025-01-16 01:38:44.37	347.76	26.02	
2025-01-16 01:38:44.57	347.71	26.05	
2025-01-16 01:38:44.77	347.67	26.07	
2025-01-16 01:38:44.97	347.62	26.09	
2025-01-16 01:38:45.18	347.57	26.11	
2025-01-16 01:38:45.38	347.53	26.14	
2025-01-16 01:38:45.58	347.48	26.16	
2025-01-16 01:38:45.79	347.44	26.18	
2025-01-16 01:38:45.99	347.39	26.20	
2025-01-16 01:38:46.19	347.35	26.23	
2025-01-16 01:38:46.39	347.30	26.25	
2025-01-16 01:38:46.60	347.25	26.27	
2025-01-16 01:38:46.80	347.21	26.29	
2025-01-16 01:38:47.00	347.16	26.32	
2025-01-16 01:38:47.21	347.11	26.34	
2025-01-16 01:38:47.41	347.07	26.36	
2025-01-16 01:38:47.61	347.02	26.38	
2025-01-16 01:38:47.82	346.98	26.41	
2025-01-16 01:38:48.02	346.93	26.43	
2025-01-16 01:38:48.22	346.88	26.45	
2025-01-16 01:38:48.42	346.84	26.47	
2025-01-16 01:38:48.63	346.79	26.50	
2025-01-16 01:38:48.83	346.74	26.52	
2025-01-16 01:38:49.03	346.70	26.54	
2025-01-16 01:38:49.24	346.65	26.56	
2025-01-16 01:38:49.44	346.60	26.58	
2025-01-16 01:38:49.64	346.56	26.61	
2025-01-16 01:38:49.85	346.51	26.63	
2025-01-16 01:38:50.05	346.46	26.65	
2025-01-16 01:38:50.25	346.41	26.67	
2025-01-16 01:38:50.45	346.37	26.70	
2025-01-16 01:38:50.66	346.32	26.72	
2025-01-16 01:38:50.86	346.27	26.74	
2025-01-16 01:38:51.06	346.22	26.76	
2025-01-16 01:38:51.27	346.18	26.79	
2025-01-16 01:38:51.47	346.13	26.81	
2025-01-16 01:38:51.67	346.08	26.83	
2025-01-16 01:38:51.88	346.03	26.85	
2025-01-16 01:38:52.08	345.98	26.88	
2025-01-16 01:38:52.28	345.94	26.90	
2025-01-16 01:38:52.48	345.89	26.92	
2025-01-16 01:38:52.69	345.84	26.94	
2025-01-16 01:38:52.89	345.79	26.97	
2025-01-16 01:38:53.09	345.75	26.99	
2025-01-16 01:38:53.30	345.70	27.01	
2025-01-16 01:38:53.50	345.65	27.03	
2025-01-16 01:38:53.70	345.60	27.06	
2025-01-16 01:38:53.91	345.55	27.08	
2025-01-16 01:38:54.11	345.50	27.10	
2025-01-16 01:38:54.31	345.45	27.12	
2025-01-16 01:38:54.51	345.41	27.14	
2025-01-16 01:38:54.72	345.36	27.17	
2025-01-16 01:38:54.92	345.31	27.19	
2025-01-16 01:38:55.12	345.26	27.21	
2025-01-16 01:38:55.33	345.21	27.23	
2025-01-16 01:38:55.53	345.16	27.26	
2025-01-16 01:38:55.73	345.11	27.28	
2025-01-16 01:38:55.94	345.06	27.30	
2025-01-16 01:38:56.14	345.01	27.32	
2025-01-16 01:38:56.34	344.96	27.35	
2025-01-16 01:38:56.54	344.92	27.37	
2025-01-16 01:38:56.75	344.86	27.39	
2025-01-16 01:38:56.95	344.82	27.41	
2025-01-16 01:38:57.15	344.77	27.43	
2025-01-16 01:38:57.36	344.72	27.46	
2025-01-16 01:38:57.56	344.67	27.48	
2025-01-16 01:38:57.76	344.62	27.50	
2025-01-16 01:38:57.97	344.57	27.52	
2025-01-16 01:38:58.17	344.52	27.55	
2025-01-16 01:38:58.37	344.47	27.57	
2025-01-16 01:38:58.57	344.42	27.59	
2025-01-16 01:38:58.78	344.37	27.61	
2025-01-16 01:38:58.98	344.32	27.63	
2025-01-16 01:38:59.18	344.27	27.66	
2025-01-16 01:38:59.39	344.21	27.68	
2025-01-16 01:38:59.59	344.16	27.70	
2025-01-16 01:38:59.79	344.12	27.72	
2025-01-16 01:38:59.99	344.07	27.75	
2025-01-16 01:39:00.20	344.01	27.77	
2025-01-16 01:39:00.40	343.96	27.79	
2025-01-16 01:39:00.60	343.91	27.81	
2025-01-16 01:39:00.81	343.86	27.84	
2025-01-16 01:39:01.01	343.81	27.86	
2025-01-16 01:39:01.21	343.76	27.88	
2025-01-16 01:39:01.42	343.71	27.90	
2025-01-16 01:39:01.62	343.66	27.92	
2025-01-16 01:39:01.82	343.61	27.95	
2025-01-16 01:39:02.02	343.56	27.97	
2025-01-16 01:39:02.23	343.50	27.99	
2025-01-16 01:39:02.43	343.45	28.01	
2025-01-16 01:39:02.63	343.40	28.03	
2025-01-16 01:39:02.84	343.35	28.06	
2025-01-16 01:39:03.04	343.30	28.08	
2025-01-16 01:39:03.24	343.25	28.10	
2025-01-16 01:39:03.45	343.19	28.12	
2025-01-16 01:39:03.65	343.14	28.14	
2025-01-16 01:39:03.85	343.09	28.17	
2025-01-16 01:39:04.05	343.04	28.19	
2025-01-16 01:39:04.26	342.98	28.21	
2025-01-16 01:39:04.46	342.93	28.23	
2025-01-16 01:39:04.66	342.88	28.25	
2025-01-16 01:39:04.87	342.83	28.28	
2025-01-16 01:39:05.07	342.78	28.30	
2025-01-16 01:39:05.27	342.72	28.32	
2025-01-16 01:39:05.48	342.67	28.34	
2025-01-16 01:39:05.68	342.62	28.36	
2025-01-16 01:39:05.88	342.57	28.39	
2025-01-16 01:39:06.08	342.51	28.41	
2025-01-16 01:39:06.29	342.46	28.43	
2025-01-16 01:39:06.49	342.41	28.45	
2025-01-16 01:39:06.69	342.36	28.47	
2025-01-16 01:39:06.90	342.30	28.50	
2025-01-16 01:39:07.10	342.25	28.52	
2025-01-16 01:39:07.30	342.20	28.54	
2025-01-16 01:39:07.51	342.14	28.56	
2025-01-16 01:39:07.71	342.09	28.58	
2025-01-16 01:39:07.91	342.04	28.60	
2025-01-16 01:39:08.11	341.98	28.63	
2025-01-16 01:39:08.32	341.93	28.65	
2025-01-16 01:39:08.52	341.87	28.67	
2025-01-16 01:39:08.72	341.82	28.69	
2025-01-16 01:39:08.93	341.77	28.71	
2025-01-16 01:39:09.13	341.71	28.74	
2025-01-16 01:39:09.33	341.66	28.76	
2025-01-16 01:39:09.54	341.60	28.78	
2025-01-16 01:39:09.74	341.55	28.80	
2025-01-16 01:39:09.94	341.50	28.82	
2025-01-16 01:39:10.14	341.44	28.84	
2025-01-16 01:39:10.35	341.39	28.87	
2025-01-16 01:39:10.55	341.33	28.89	
2025-01-16 01:39:10.75	341.28	28.91	
2025-01-16 01:39:10.96	341.22	28.93	
2025-01-16 01:39:11.16	341.17	28.95	
2025-01-16 01:39:11.36	341.12	28.97	
2025-01-16 01:39:11.57	341.06	29.00	
2025-01-16 01:39:11.77	341.01	29.02	
2025-01-16 01:39:11.97	340.95	29.04	
2025-01-16 01:39:12.17	340.90	29.06	
2025-01-16 01:39:12.38	340.84	29.08	
2025-01-16 01:39:12.58	340.79	29.10	
2025-01-16 01:39:12.78	340.73	29.13	
2025-01-16 01:39:12.99	340.67	29.15	
2025-01-16 01:39:13.19	340.62	29.17	
2025-01-16 01:39:13.39	340.57	29.19	
2025-01-16 01:39:13.59	340.51	29.21	
2025-01-16 01:39:13.80	340.45	29.23	
2025-01-16 01:39:14.00	340.40	29.25	
2025-01-16 01:39:14.20	340.34	29.28	
2025-01-16 01:39:14.41	340.29	29.30	
2025-01-16 01:39:14.61	340.23	29.32	
2025-01-16 01:39:14.81	340.18	29.34	
2025-01-16 01:39:15.02	340.12	29.36	
2025-01-16 01:39:15.22	340.06	29.38	
2025-01-16 01:39:15.42	340.01	29.40	
2025-01-16 01:39:15.62	339.95	29.43	
2025-01-16 01:39:15.83	339.89	29.45	
2025-01-16 01:39:16.03	339.84	29.47	
2025-01-16 01:39:16.23	339.78	29.49	
2025-01-16 01:39:16.44	339.72	29.51	
2025-01-16 01:39:16.64	339.67	29.53	
2025-01-16 01:39:16.84	339.61	29.55	
2025-01-16 01:39:17.05	339.55	29.58	
2025-01-16 01:39:17.25	339.50	29.60	
2025-01-16 01:39:17.45	339.44	29.62	
2025-01-16 01:39:17.65	339.38	29.64	
2025-01-16 01:39:17.86	339.33	29.66	
2025-01-16 01:39:18.06	339.27	29.68	
2025-01-16 01:39:18.26	339.21	29.70	
2025-01-16 01:39:18.47	339.15	29.72	
2025-01-16 01:39:18.67	339.10	29.74	
2025-01-16 01:39:18.87	339.04	29.77	
2025-01-16 01:39:19.08	338.98	29.79	
2025-01-16 01:39:19.28	338.92	29.81	
2025-01-16 01:39:19.48	338.87	29.83	
2025-01-16 01:39:19.68	338.81	29.85	
2025-01-16 01:39:19.89	338.75	29.87	
2025-01-16 01:39:20.09	338.69	29.89	
2025-01-16 01:39:20.29	338.64	29.91	
2025-01-16 01:39:20.50	338.58	29.93	
2025-01-16 01:39:20.70	338.52	29.95	
2025-01-16 01:39:20.90	338.46	29.98	
2025-01-16 01:39:21.11	338.40	30.00	
2025-01-16 01:39:21.31	338.34	30.02	
2025-01-16 01:39:21.51	338.29	30.04	
2025-01-16 01:39:21.71	338.23	30.06	
2025-01-16 01:39:21.92	338.17	30.08	
2025-01-16 01:39:22.12	338.11	30.10	
2025-01-16 01:39:22.32	338.05	30.12	
2025-01-16 01:39:22.53	337.99	30.14	
2025-01-16 01:39:22.73	337.93	30.16	
2025-01-16 01:39:22.93	337.88	30.18	
2025-01-16 01:39:23.14	337.81	30.21	
2025-01-16 01:39:23.34	337.76	30.23	
2025-01-16 01:39:23.54	337.70	30.25	
2025-01-16 01:39:23.74	337.64	30.27	
2025-01-16 01:39:23.95	337.58	30.29	
2025-01-16 01:39:24.15	337.52	30.31	
2025-01-16 01:39:24.35	337.46	30.33	
2025-01-16 01:39:24.56	337.40	30.35	
2025-01-16 01:39:24.76	337.34	30.37	
2025-01-16 01:39:24.96	337.28	30.39	
2025-01-16 01:39:25.17	337.22	30.41	
2025-01-16 01:39:25.37	337.16	30.43	
2025-01-16 01:39:25.57	337.10	30.45	
2025-01-16 01:39:25.77	337.04	30.47	
2025-01-16 01:39:25.98	336.98	30.49	
2025-01-16 01:39:26.18	336.92	30.51	
2025-01-16 01:39:26.38	336.86	30.53	
2025-01-16 01:39:26.59	336.80	30.55	
2025-01-16 01:39:26.79	336.74	30.57	
2025-01-16 01:39:26.99	336.68	30.59	
2025-01-16 01:39:27.20	336.62	30.62	
2025-01-16 01:39:27.40	336.56	30.64	
2025-01-16 01:39:27.60	336.50	30.66	
2025-01-16 01:39:27.80	336.44	30.68	
2025-01-16 01:39:28.01	336.37	30.70	
2025-01-16 01:39:28.21	336.31	30.72	
2025-01-16 01:39:28.41	336.25	30.74	
2025-01-16 01:39:28.62	336.19	30.76	
2025-01-16 01:39:28.82	336.13	30.78	
2025-01-16 01:39:29.02	336.07	30.80	
2025-01-16 01:39:29.22	336.01	30.82	
2025-01-16 01:39:29.43	335.95	30.84	
2025-01-16 01:39:29.63	335.89	30.86	
2025-01-16 01:39:29.83	335.82	30.88	
2025-01-16 01:39:30.04	335.76	30.90	
2025-01-16 01:39:30.24	335.70	30.92	
2025-01-16 01:39:30.44	335.64	30.94	
2025-01-16 01:39:30.65	335.57	30.96	
2025-01-16 01:39:30.85	335.51	30.98	
2025-01-16 01:39:31.05	335.45	31.00	
2025-01-16 01:39:31.25	335.39	31.02	
2025-01-16 01:39:31.46	335.33	31.04	
2025-01-16 01:39:31.66	335.27	31.06	
2025-01-16 01:39:31.86	335.20	31.08	
2025-01-16 01:39:32.07	335.14	31.10	
2025-01-16 01:39:32.27	335.08	31.12	
2025-01-16 01:39:32.47	335.02	31.13	
2025-01-16 01:39:32.68	334.95	31.16	
2025-01-16 01:39:32.88	334.89	31.17	
2025-01-16 01:39:33.08	334.83	31.19	
2025-01-16 01:39:33.28	334.77	31.21	
2025-01-16 01:39:33.49	334.70	31.23	
2025-01-16 01:39:33.69	334.64	31.25	
2025-01-16 01:39:33.89	334.58	31.27	
2025-01-16 01:39:34.10	334.51	31.29	
2025-01-16 01:39:34.30	334.45	31.31	
2025-01-16 01:39:34.50	334.39	31.33	
2025-01-16 01:39:34.71	334.32	31.35	
2025-01-16 01:39:34.91	334.26	31.37	
2025-01-16 01:39:35.11	334.20	31.39	
2025-01-16 01:39:35.31	334.13	31.41	
2025-01-16 01:39:35.52	334.07	31.43	
2025-01-16 01:39:35.72	334.00	31.45	
2025-01-16 01:39:35.92	333.94	31.47	
2025-01-16 01:39:36.13	333.87	31.49	
2025-01-16 01:39:36.33	333.81	31.50	
2025-01-16 01:39:36.53	333.75	31.52	
2025-01-16 01:39:36.74	333.68	31.54	
2025-01-16 01:39:36.94	333.62	31.56	
2025-01-16 01:39:37.14	333.55	31.58	
2025-01-16 01:39:37.34	333.49	31.60	
2025-01-16 01:39:37.55	333.42	31.62	
2025-01-16 01:39:37.75	333.36	31.64	
2025-01-16 01:39:37.95	333.30	31.66	
2025-01-16 01:39:38.16	333.23	31.68	
2025-01-16 01:39:38.36	333.17	31.69	
2025-01-16 01:39:38.56	333.10	31.71	
2025-01-16 01:39:38.77	333.04	31.73	
2025-01-16 01:39:38.97	332.97	31.75	
2025-01-16 01:39:39.17	332.91	31.77	
2025-01-16 01:39:39.37	332.84	31.79	
2025-01-16 01:39:39.58	332.77	31.81	
2025-01-16 01:39:39.78	332.71	31.83	
2025-01-16 01:39:39.98	332.65	31.84	
2025-01-16 01:39:40.19	332.58	31.86	
2025-01-16 01:39:40.39	332.51	31.88	
2025-01-16 01:39:40.59	332.45	31.90	
2025-01-16 01:39:40.80	332.38	31.92	
2025-01-16 01:39:41.00	332.32	31.94	
2025-01-16 01:39:41.20	332.25	31.96	
2025-01-16 01:39:41.40	332.19	31.97	
2025-01-16 01:39:41.61	332.12	31.99	
2025-01-16 01:39:41.81	332.05	32.01	
2025-01-16 01:39:42.01	331.99	32.03	
2025-01-16 01:39:42.22	331.92	32.05	
2025-01-16 01:39:42.42	331.85	32.07	
2025-01-16 01:39:42.62	331.79	32.08	
2025-01-16 01:39:42.83	331.72	32.10	
2025-01-16 01:39:43.03	331.65	32.12	
2025-01-16 01:39:43.23	331.59	32.14	
2025-01-16 01:39:43.43	331.52	32.16	
2025-01-16 01:39:43.64	331.45	32.18	
2025-01-16 01:39:43.84	331.39	32.19	
2025-01-16 01:39:44.04	331.32	32.21	
2025-01-16 01:39:44.25	331.25	32.23	
2025-01-16 01:39:44.45	331.19	32.25	
2025-01-16 01:39:44.65	331.12	32.27	
2025-01-16 01:39:44.85	331.05	32.28	
2025-01-16 01:39:45.06	330.98	32.30	
2025-01-16 01:39:45.26	330.92	32.32	
2025-01-16 01:39:45.46	330.85	32.34	
2025-01-16 01:39:45.67	330.78	32.36	
2025-01-16 01:39:45.87	330.71	32.37	
2025-01-16 01:39:46.07	330.65	32.39	
2025-01-16 01:39:46.28	330.58	32.41	
2025-01-16 01:39:46.48	330.51	32.43	
2025-01-16 01:39:46.68	330.44	32.44	
2025-01-16 01:39:46.88	330.38	32.46	
2025-01-16 01:39:47.09	330.31	32.48	
2025-01-16 01:39:47.29	330.24	32.50	
2025-01-16 01:39:47.49	330.17	32.51	
2025-01-16 01:39:47.70	330.10	32.53	
2025-01-16 01:39:47.90	330.03	32.55	
2025-01-16 01:39:48.10	329.97	32.56	
2025-01-16 01:39:48.31	329.90	32.58	
2025-01-16 01:39:48.51	329.83	32.60	
2025-01-16 01:39:48.71	329.76	32.62	
2025-01-16 01:39:48.91	329.69	32.63	
2025-01-16 01:39:49.12	329.62	32.65	
2025-01-16 01:39:49.32	329.55	32.67	
2025-01-16 01:39:49.52	329.49	32.69	
2025-01-16 01:39:49.73	329.41	32.70	
2025-01-16 01:39:49.93	329.35	32.72	
2025-01-16 01:39:50.13	329.28	32.74	
2025-01-16 01:39:50.34	329.21	32.75	
2025-01-16 01:39:50.54	329.14	32.77	
2025-01-16 01:39:50.74	329.07	32.79	
2025-01-16 01:39:50.94	329.00	32.80	
2025-01-16 01:39:51.15	328.93	32.82	
2025-01-16 01:39:51.35	328.86	32.84	
2025-01-16 01:39:51.55	328.79	32.85	
2025-01-16 01:39:51.76	328.72	32.87	
2025-01-16 01:39:51.96	328.65	32.89	
2025-01-16 01:39:52.16	328.58	32.90	
2025-01-16 01:39:52.37	328.51	32.92	
2025-01-16 01:39:52.57	328.44	32.94	
2025-01-16 01:39:52.77	328.37	32.95	
2025-01-16 01:39:52.97	328.30	32.97	
2025-01-16 01:39:53.18	328.23	32.99	
2025-01-16 01:39:53.38	328.16	33.00	
2025-01-16 01:39:53.58	328.09	33.02	
2025-01-16 01:39:53.79	328.02	33.04	
2025-01-16 01:39:53.99	327.95	33.05	
2025-01-16 01:39:54.19	327.88	33.07	
2025-01-16 01:39:54.40	327.81	33.08	
2025-01-16 01:39:54.60	327.74	33.10	
2025-01-16 01:39:54.80	327.67	33.12	
2025-01-16 01:39:55.00	327.60	33.13	
2025-01-16 01:39:55.21	327.52	33.15	
2025-01-16 01:39:55.41	327.45	33.16	
2025-01-16 01:39:55.61	327.38	33.18	
2025-01-16 01:39:55.82	327.31	33.20	
2025-01-16 01:39:56.02	327.24	33.21	
2025-01-16 01:39:56.22	327.17	33.23	
2025-01-16 01:39:56.43	327.10	33.24	
2025-01-16 01:39:56.63	327.02	33.26	
2025-01-16 01:39:56.83	326.95	33.27	
2025-01-16 01:39:57.03	326.88	33.29	
2025-01-16 01:39:57.24	326.81	33.31	
2025-01-16 01:39:57.44	326.74	33.32	
2025-01-16 01:39:57.64	326.67	33.34	
2025-01-16 01:39:57.85	326.59	33.35	
2025-01-16 01:39:58.05	326.52	33.37	
2025-01-16 01:39:58.25	326.45	33.38	
2025-01-16 01:39:58.46	326.38	33.40	
2025-01-16 01:39:58.66	326.31	33.41	
2025-01-16 01:39:58.86	326.23	33.43	
2025-01-16 01:39:59.06	326.16	33.44	
2025-01-16 01:39:59.27	326.09	33.46	
2025-01-16 01:39:59.47	326.02	33.47	
2025-01-16 01:39:59.67	325.95	33.49	
2025-01-16 01:39:59.88	325.87	33.50	
2025-01-16 01:40:00.08	325.80	33.52	
2025-01-16 01:40:00.28	325.73	33.53	
2025-01-16 01:40:00.48	325.66	33.55	
2025-01-16 01:40:00.69	325.58	33.56	
2025-01-16 01:40:00.89	325.51	33.58	
2025-01-16 01:40:01.09	325.44	33.59	
2025-01-16 01:40:01.30	325.36	33.61	
2025-01-16 01:40:01.50	325.29	33.62	
2025-01-16 01:40:01.70	325.22	33.64	
2025-01-16 01:40:01.91	325.14	33.65	
2025-01-16 01:40:02.11	325.07	33.66	
2025-01-16 01:40:02.31	325.00	33.68	
2025-01-16 01:40:02.51	324.92	33.69	
2025-01-16 01:40:02.72	324.85	33.71	
2025-01-16 01:40:02.92	324.78	33.72	
2025-01-16 01:40:03.12	324.70	33.74	
2025-01-16 01:40:03.33	324.63	33.75	
2025-01-16 01:40:03.53	324.55	33.76	
2025-01-16 01:40:03.73	324.48	33.78	
2025-01-16 01:40:03.94	324.41	33.79	
2025-01-16 01:40:04.14	324.33	33.81	
2025-01-16 01:40:04.34	324.26	33.82	
2025-01-16 01:40:04.54	324.19	33.83	
2025-01-16 01:40:04.75	324.11	33.85	
2025-01-16 01:40:04.95	324.04	33.86	
2025-01-16 01:40:05.15	323.96	33.88	
2025-01-16 01:40:05.36	323.89	33.89	
2025-01-16 01:40:05.56	323.81	33.90	
2025-01-16 01:40:05.76	323.74	33.92	
2025-01-16 01:40:05.97	323.66	33.93	
2025-01-16 01:40:06.17	323.59	33.94	
2025-01-16 01:40:06.37	323.52	33.96	
2025-01-16 01:40:06.57	323.44	33.97	
2025-01-16 01:40:06.78	323.37	33.98	
2025-01-16 01:40:06.98	323.29	34.00	
2025-01-16 01:40:07.18	323.22	34.01	
2025-01-16 01:40:07.39	323.14	34.02	
2025-01-16 01:40:07.59	323.07	34.04	
2025-01-16 01:40:07.79	322.99	34.05	
2025-01-16 01:40:08.00	322.91	34.06	
2025-01-16 01:40:08.20	322.84	34.08	
2025-01-16 01:40:08.40	322.77	34.09	
2025-01-16 01:40:08.60	322.69	34.10	
2025-01-16 01:40:08.81	322.61	34.12	
2025-01-16 01:40:09.01	322.54	34.13	
2025-01-16 01:40:09.21	322.47	34.14	
2025-01-16 01:40:09.42	322.39	34.15	
2025-01-16 01:40:09.62	322.31	34.17	
2025-01-16 01:40:09.82	322.24	34.18	
2025-01-16 01:40:10.03	322.16	34.19	
2025-01-16 01:40:10.23	322.09	34.20	
2025-01-16 01:40:10.43	322.01	34.22	
2025-01-16 01:40:10.63	321.94	34.23	
2025-01-16 01:40:10.84	321.86	34.24	
2025-01-16 01:40:11.04	321.78	34.25	
2025-01-16 01:40:11.24	321.71	34.27	
2025-01-16 01:40:11.45	321.63	34.28	
2025-01-16 01:40:11.65	321.55	34.29	
2025-01-16 01:40:11.85	321.48	34.30	
2025-01-16 01:40:12.06	321.40	34.31	
2025-01-16 01:40:12.26	321.32	34.33	
2025-01-16 01:40:12.46	321.25	34.34	
2025-01-16 01:40:12.66	321.17	34.35	
