passes_logs/2025/01/16/SPB_Silybum_02/SPB_Silybum_02__20250116_031500_SUOMI_NPP_rec.log

#Pass ID: 20250116_031500_SUOMI NPP
#Satellite: SUOMI NPP
#Configuration: NPP
#Start time: 2025-01-16 03:14:59

#Version: 2.0.20230423
#Station: SPB_Silybum_02
#Location: 30.233357 lon 59.946436 lat
#TLE: 1 37849U 11061A   25015.13132341  .00000162  00000+0  97654-4 0  9994
#TLE: 2 37849  98.7446 316.1182 0001675  40.9055 319.2247 14.19538225684933

#Time	Az	El	Level	Level2	SNR	BER	Gain	Gain2
2025-01-16 03:15:01.39	14.39	4.04	
2025-01-16 03:15:01.59	14.37	4.05	
2025-01-16 03:15:01.79	14.35	4.06	
2025-01-16 03:15:02.00	14.33	4.07	
2025-01-16 03:15:02.20	14.31	4.08	
2025-01-16 03:15:02.40	14.29	4.09	
2025-01-16 03:15:02.60	14.27	4.10	
2025-01-16 03:15:02.81	14.25	4.11	
2025-01-16 03:15:03.01	14.23	4.12	
2025-01-16 03:15:03.21	14.21	4.13	
2025-01-16 03:15:03.42	14.18	4.14	
2025-01-16 03:15:03.62	14.16	4.15	
2025-01-16 03:15:03.82	14.14	4.16	
2025-01-16 03:15:04.03	14.12	4.17	
2025-01-16 03:15:04.23	14.10	4.18	
2025-01-16 03:15:04.43	14.08	4.19	
2025-01-16 03:15:04.64	14.06	4.20	
2025-01-16 03:15:04.84	14.04	4.21	
2025-01-16 03:15:05.04	14.02	4.22	
2025-01-16 03:15:05.24	14.00	4.23	
2025-01-16 03:15:05.45	13.97	4.24	
2025-01-16 03:15:05.65	13.95	4.25	
2025-01-16 03:15:05.85	13.93	4.26	
2025-01-16 03:15:06.06	13.91	4.27	
2025-01-16 03:15:06.26	13.89	4.28	
2025-01-16 03:15:06.46	13.87	4.29	
2025-01-16 03:15:06.67	13.85	4.30	
2025-01-16 03:15:06.87	13.83	4.31	
2025-01-16 03:15:07.07	13.81	4.32	
2025-01-16 03:15:07.28	13.78	4.33	
2025-01-16 03:15:07.48	13.76	4.34	
2025-01-16 03:15:07.68	13.74	4.35	
2025-01-16 03:15:07.88	13.72	4.36	
2025-01-16 03:15:08.09	13.70	4.37	
2025-01-16 03:15:08.29	13.68	4.38	
2025-01-16 03:15:08.49	13.66	4.39	
2025-01-16 03:15:08.70	13.63	4.40	
2025-01-16 03:15:08.90	13.61	4.41	
2025-01-16 03:15:09.10	13.59	4.42	
2025-01-16 03:15:09.31	13.57	4.43	
2025-01-16 03:15:09.51	13.55	4.44	
2025-01-16 03:15:09.71	13.53	4.45	
2025-01-16 03:15:09.92	13.51	4.46	
2025-01-16 03:15:10.12	13.48	4.47	
2025-01-16 03:15:10.32	13.46	4.48	
2025-01-16 03:15:10.52	13.44	4.49	
2025-01-16 03:15:10.73	13.42	4.50	
2025-01-16 03:15:10.93	13.40	4.51	
2025-01-16 03:15:11.13	13.38	4.52	
2025-01-16 03:15:11.34	13.36	4.53	
2025-01-16 03:15:11.54	13.33	4.54	
2025-01-16 03:15:11.74	13.31	4.55	
2025-01-16 03:15:11.95	13.29	4.56	
2025-01-16 03:15:12.15	13.27	4.57	
2025-01-16 03:15:12.35	13.25	4.58	
2025-01-16 03:15:12.56	13.23	4.59	
2025-01-16 03:15:12.76	13.20	4.60	
2025-01-16 03:15:12.96	13.18	4.61	
2025-01-16 03:15:13.16	13.16	4.62	
2025-01-16 03:15:13.37	13.14	4.63	
2025-01-16 03:15:13.57	13.12	4.64	
2025-01-16 03:15:13.77	13.10	4.65	
2025-01-16 03:15:13.98	13.07	4.66	
2025-01-16 03:15:14.18	13.05	4.67	
2025-01-16 03:15:14.38	13.03	4.68	
2025-01-16 03:15:14.59	13.01	4.69	
2025-01-16 03:15:14.79	12.99	4.70	
2025-01-16 03:15:14.99	12.97	4.71	
2025-01-16 03:15:15.20	12.94	4.72	
2025-01-16 03:15:15.40	12.92	4.73	
2025-01-16 03:15:15.60	12.90	4.74	
2025-01-16 03:15:15.80	12.88	4.75	
2025-01-16 03:15:16.01	12.86	4.76	
2025-01-16 03:15:16.21	12.83	4.77	
2025-01-16 03:15:16.41	12.81	4.78	
2025-01-16 03:15:16.62	12.79	4.79	
2025-01-16 03:15:16.82	12.77	4.80	
2025-01-16 03:15:17.02	12.75	4.81	
2025-01-16 03:15:17.23	12.72	4.82	
2025-01-16 03:15:17.43	12.70	4.83	
2025-01-16 03:15:17.63	12.68	4.84	
2025-01-16 03:15:17.84	12.66	4.85	
2025-01-16 03:15:18.04	12.64	4.86	
2025-01-16 03:15:18.24	12.61	4.87	
2025-01-16 03:15:18.45	12.59	4.88	
2025-01-16 03:15:18.65	12.57	4.89	
2025-01-16 03:15:18.85	12.55	4.90	
2025-01-16 03:15:19.05	12.53	4.91	
2025-01-16 03:15:19.26	12.50	4.92	
2025-01-16 03:15:19.46	12.48	4.93	
2025-01-16 03:15:19.66	12.46	4.94	
2025-01-16 03:15:19.87	12.44	4.95	
2025-01-16 03:15:20.07	12.42	4.96	
2025-01-16 03:15:20.27	12.39	4.97	
2025-01-16 03:15:20.48	12.37	4.98	
2025-01-16 03:15:20.68	12.35	4.99	
2025-01-16 03:15:20.88	12.33	5.00	
2025-01-16 03:15:21.08	12.30	5.01	
2025-01-16 03:15:21.29	12.28	5.02	
2025-01-16 03:15:21.49	12.26	5.03	
2025-01-16 03:15:21.69	12.24	5.04	
2025-01-16 03:15:21.90	12.21	5.05	
2025-01-16 03:15:22.10	12.19	5.06	
2025-01-16 03:15:22.30	12.17	5.07	
2025-01-16 03:15:22.51	12.15	5.08	
2025-01-16 03:15:22.71	12.13	5.09	
2025-01-16 03:15:22.91	12.10	5.10	
2025-01-16 03:15:23.12	12.08	5.11	
2025-01-16 03:15:23.32	12.06	5.12	
2025-01-16 03:15:23.52	12.04	5.13	
2025-01-16 03:15:23.73	12.01	5.14	
2025-01-16 03:15:23.93	11.99	5.15	
2025-01-16 03:15:24.13	11.97	5.15	
2025-01-16 03:15:24.33	11.95	5.16	
2025-01-16 03:15:24.54	11.92	5.17	
2025-01-16 03:15:24.74	11.90	5.18	
2025-01-16 03:15:24.94	11.88	5.19	
2025-01-16 03:15:25.15	11.85	5.20	
2025-01-16 03:15:25.35	11.83	5.21	
2025-01-16 03:15:25.55	11.81	5.22	
2025-01-16 03:15:25.76	11.79	5.23	
2025-01-16 03:15:25.96	11.76	5.24	
2025-01-16 03:15:26.16	11.74	5.25	
2025-01-16 03:15:26.37	11.72	5.26	
2025-01-16 03:15:26.57	11.70	5.27	
2025-01-16 03:15:26.77	11.67	5.28	
2025-01-16 03:15:26.97	11.65	5.29	
2025-01-16 03:15:27.18	11.63	5.30	
2025-01-16 03:15:27.38	11.61	5.31	
2025-01-16 03:15:27.58	11.58	5.32	
2025-01-16 03:15:27.79	11.56	5.33	
2025-01-16 03:15:27.99	11.54	5.34	
2025-01-16 03:15:28.19	11.51	5.35	
2025-01-16 03:15:28.40	11.49	5.36	
2025-01-16 03:15:28.61	11.47	5.37	
2025-01-16 03:15:28.82	11.44	5.38	
2025-01-16 03:15:29.02	11.42	5.39	
2025-01-16 03:15:29.22	11.40	5.40	
2025-01-16 03:15:29.43	11.38	5.41	
2025-01-16 03:15:29.63	11.35	5.42	
2025-01-16 03:15:29.83	11.33	5.43	
2025-01-16 03:15:30.03	11.31	5.44	
2025-01-16 03:15:30.24	11.28	5.45	
2025-01-16 03:15:30.44	11.26	5.46	
2025-01-16 03:15:30.64	11.24	5.47	
2025-01-16 03:15:30.85	11.21	5.48	
2025-01-16 03:15:31.05	11.19	5.49	
2025-01-16 03:15:31.25	11.17	5.50	
2025-01-16 03:15:31.46	11.14	5.51	
2025-01-16 03:15:31.66	11.12	5.52	
2025-01-16 03:15:31.86	11.10	5.53	
2025-01-16 03:15:32.07	11.08	5.54	
2025-01-16 03:15:32.27	11.05	5.55	
2025-01-16 03:15:32.47	11.03	5.56	
2025-01-16 03:15:32.67	11.01	5.57	
2025-01-16 03:15:32.88	10.98	5.58	
2025-01-16 03:15:33.08	10.96	5.59	
2025-01-16 03:15:33.28	10.94	5.60	
2025-01-16 03:15:33.49	10.91	5.61	
2025-01-16 03:15:33.69	10.89	5.62	
2025-01-16 03:15:33.89	10.87	5.63	
2025-01-16 03:15:34.10	10.84	5.64	
2025-01-16 03:15:34.30	10.82	5.65	
2025-01-16 03:15:34.50	10.80	5.66	
2025-01-16 03:15:34.71	10.77	5.67	
2025-01-16 03:15:34.91	10.75	5.68	
2025-01-16 03:15:35.11	10.73	5.69	
2025-01-16 03:15:35.31	10.70	5.70	
2025-01-16 03:15:35.52	10.68	5.71	
2025-01-16 03:15:35.72	10.66	5.72	
2025-01-16 03:15:35.92	10.63	5.73	
2025-01-16 03:15:36.13	10.61	5.74	
2025-01-16 03:15:36.33	10.59	5.75	
2025-01-16 03:15:36.53	10.56	5.76	
2025-01-16 03:15:36.74	10.54	5.77	
2025-01-16 03:15:36.94	10.52	5.78	
2025-01-16 03:15:37.14	10.49	5.79	
2025-01-16 03:15:37.35	10.47	5.80	
2025-01-16 03:15:37.55	10.45	5.81	
2025-01-16 03:15:37.75	10.42	5.82	
2025-01-16 03:15:37.95	10.40	5.83	
2025-01-16 03:15:38.16	10.37	5.84	
2025-01-16 03:15:38.36	10.35	5.85	
2025-01-16 03:15:38.56	10.33	5.86	
2025-01-16 03:15:38.77	10.30	5.87	
2025-01-16 03:15:38.97	10.28	5.88	
2025-01-16 03:15:39.17	10.26	5.89	
2025-01-16 03:15:39.38	10.23	5.90	
2025-01-16 03:15:39.58	10.21	5.91	
2025-01-16 03:15:39.78	10.19	5.92	
2025-01-16 03:15:39.99	10.16	5.93	
2025-01-16 03:15:40.19	10.14	5.94	
2025-01-16 03:15:40.39	10.11	5.95	
2025-01-16 03:15:40.59	10.09	5.96	
2025-01-16 03:15:40.80	10.07	5.97	
2025-01-16 03:15:41.00	10.04	5.98	
2025-01-16 03:15:41.20	10.02	5.99	
2025-01-16 03:15:41.41	9.99	6.00	
2025-01-16 03:15:41.61	9.97	6.00	
2025-01-16 03:15:41.81	9.95	6.01	
2025-01-16 03:15:42.02	9.92	6.02	
2025-01-16 03:15:42.22	9.90	6.03	
2025-01-16 03:15:42.42	9.87	6.04	
2025-01-16 03:15:42.63	9.85	6.05	
2025-01-16 03:15:42.83	9.83	6.06	
2025-01-16 03:15:43.03	9.80	6.07	
2025-01-16 03:15:43.23	9.78	6.08	
2025-01-16 03:15:43.44	9.75	6.09	
2025-01-16 03:15:43.64	9.73	6.10	
2025-01-16 03:15:43.84	9.71	6.11	
2025-01-16 03:15:44.05	9.68	6.12	
2025-01-16 03:15:44.25	9.66	6.13	
2025-01-16 03:15:44.45	9.63	6.14	
2025-01-16 03:15:44.66	9.61	6.15	
2025-01-16 03:15:44.87	9.58	6.16	
2025-01-16 03:15:45.07	9.56	6.17	
2025-01-16 03:15:45.28	9.54	6.18	
2025-01-16 03:15:45.48	9.51	6.19	
2025-01-16 03:15:45.68	9.49	6.20	
2025-01-16 03:15:45.89	9.46	6.21	
2025-01-16 03:15:46.09	9.44	6.22	
2025-01-16 03:15:46.29	9.41	6.23	
2025-01-16 03:15:46.49	9.39	6.24	
2025-01-16 03:15:46.70	9.37	6.25	
2025-01-16 03:15:46.90	9.34	6.26	
2025-01-16 03:15:47.10	9.32	6.27	
2025-01-16 03:15:47.31	9.29	6.28	
2025-01-16 03:15:47.51	9.27	6.29	
2025-01-16 03:15:47.71	9.24	6.30	
2025-01-16 03:15:47.92	9.22	6.31	
2025-01-16 03:15:48.12	9.20	6.32	
2025-01-16 03:15:48.32	9.17	6.33	
2025-01-16 03:15:48.53	9.15	6.34	
2025-01-16 03:15:48.73	9.12	6.35	
2025-01-16 03:15:48.93	9.10	6.36	
2025-01-16 03:15:49.13	9.07	6.37	
2025-01-16 03:15:49.34	9.05	6.38	
2025-01-16 03:15:49.54	9.02	6.39	
2025-01-16 03:15:49.74	9.00	6.40	
2025-01-16 03:15:49.95	8.97	6.41	
2025-01-16 03:15:50.15	8.95	6.42	
2025-01-16 03:15:50.35	8.93	6.43	
2025-01-16 03:15:50.56	8.90	6.44	
2025-01-16 03:15:50.76	8.88	6.45	
2025-01-16 03:15:50.96	8.85	6.46	
2025-01-16 03:15:51.17	8.83	6.47	
2025-01-16 03:15:51.37	8.80	6.48	
2025-01-16 03:15:51.57	8.78	6.49	
2025-01-16 03:15:51.77	8.75	6.50	
2025-01-16 03:15:51.98	8.73	6.51	
2025-01-16 03:15:52.18	8.70	6.52	
2025-01-16 03:15:52.38	8.68	6.53	
2025-01-16 03:15:52.59	8.65	6.54	
2025-01-16 03:15:52.79	8.63	6.55	
2025-01-16 03:15:52.99	8.60	6.55	
2025-01-16 03:15:53.20	8.58	6.56	
2025-01-16 03:15:53.40	8.55	6.57	
2025-01-16 03:15:53.60	8.53	6.58	
2025-01-16 03:15:53.81	8.50	6.59	
2025-01-16 03:15:54.01	8.48	6.60	
2025-01-16 03:15:54.21	8.45	6.61	
2025-01-16 03:15:54.43	8.43	6.62	
2025-01-16 03:15:54.63	8.40	6.63	
2025-01-16 03:15:54.84	8.38	6.64	
2025-01-16 03:15:55.04	8.35	6.65	
2025-01-16 03:15:55.24	8.33	6.66	
2025-01-16 03:15:55.45	8.30	6.67	
2025-01-16 03:15:55.65	8.28	6.68	
2025-01-16 03:15:55.85	8.25	6.69	
2025-01-16 03:15:56.05	8.23	6.70	
2025-01-16 03:15:56.26	8.20	6.71	
2025-01-16 03:15:56.46	8.18	6.72	
2025-01-16 03:15:56.66	8.15	6.73	
2025-01-16 03:15:56.87	8.13	6.74	
2025-01-16 03:15:57.07	8.10	6.75	
2025-01-16 03:15:57.27	8.08	6.76	
2025-01-16 03:15:57.48	8.05	6.77	
2025-01-16 03:15:57.68	8.03	6.78	
2025-01-16 03:15:57.88	8.00	6.79	
2025-01-16 03:15:58.09	7.97	6.80	
2025-01-16 03:15:58.29	7.95	6.81	
2025-01-16 03:15:58.49	7.92	6.82	
2025-01-16 03:15:58.69	7.90	6.83	
2025-01-16 03:15:58.90	7.87	6.84	
2025-01-16 03:15:59.10	7.85	6.85	
2025-01-16 03:15:59.30	7.82	6.86	
2025-01-16 03:15:59.51	7.80	6.87	
2025-01-16 03:15:59.71	7.77	6.88	
2025-01-16 03:15:59.91	7.75	6.89	
2025-01-16 03:16:00.12	7.72	6.90	
2025-01-16 03:16:00.32	7.70	6.91	
2025-01-16 03:16:00.52	7.67	6.92	
2025-01-16 03:16:00.73	7.64	6.93	
2025-01-16 03:16:00.93	7.62	6.94	
2025-01-16 03:16:01.13	7.59	6.95	
2025-01-16 03:16:01.33	7.57	6.95	
2025-01-16 03:16:01.54	7.54	6.96	
2025-01-16 03:16:01.74	7.52	6.97	
2025-01-16 03:16:01.94	7.49	6.98	
2025-01-16 03:16:02.15	7.47	6.99	
2025-01-16 03:16:02.35	7.44	7.00	
2025-01-16 03:16:02.55	7.41	7.01	
2025-01-16 03:16:02.76	7.39	7.02	
2025-01-16 03:16:02.96	7.36	7.03	
2025-01-16 03:16:03.16	7.34	7.04	
2025-01-16 03:16:03.37	7.31	7.05	
2025-01-16 03:16:03.57	7.29	7.06	
2025-01-16 03:16:03.77	7.26	7.07	
2025-01-16 03:16:03.97	7.23	7.08	
2025-01-16 03:16:04.18	7.21	7.09	
2025-01-16 03:16:04.38	7.18	7.10	
2025-01-16 03:16:04.58	7.16	7.11	
2025-01-16 03:16:04.79	7.13	7.12	
2025-01-16 03:16:04.99	7.10	7.13	
2025-01-16 03:16:05.19	7.08	7.14	
2025-01-16 03:16:05.40	7.05	7.15	
2025-01-16 03:16:05.60	7.03	7.16	
2025-01-16 03:16:05.80	7.00	7.17	
2025-01-16 03:16:06.01	6.97	7.18	
2025-01-16 03:16:06.21	6.95	7.19	
2025-01-16 03:16:06.41	6.92	7.20	
2025-01-16 03:16:06.61	6.90	7.21	
2025-01-16 03:16:06.82	6.87	7.22	
2025-01-16 03:16:07.02	6.85	7.23	
2025-01-16 03:16:07.22	6.82	7.24	
2025-01-16 03:16:07.43	6.79	7.25	
2025-01-16 03:16:07.63	6.77	7.26	
2025-01-16 03:16:07.83	6.74	7.26	
2025-01-16 03:16:08.04	6.71	7.27	
2025-01-16 03:16:08.24	6.69	7.28	
2025-01-16 03:16:08.44	6.66	7.29	
2025-01-16 03:16:08.65	6.64	7.30	
2025-01-16 03:16:08.85	6.61	7.31	
2025-01-16 03:16:09.05	6.58	7.32	
2025-01-16 03:16:09.25	6.56	7.33	
2025-01-16 03:16:09.46	6.53	7.34	
2025-01-16 03:16:09.66	6.50	7.35	
2025-01-16 03:16:09.86	6.48	7.36	
2025-01-16 03:16:10.07	6.45	7.37	
2025-01-16 03:16:10.27	6.43	7.38	
2025-01-16 03:16:10.47	6.40	7.39	
2025-01-16 03:16:10.68	6.37	7.40	
2025-01-16 03:16:10.88	6.35	7.41	
2025-01-16 03:16:11.08	6.32	7.42	
2025-01-16 03:16:11.29	6.29	7.43	
2025-01-16 03:16:11.49	6.27	7.44	
2025-01-16 03:16:11.69	6.24	7.45	
2025-01-16 03:16:11.90	6.21	7.46	
2025-01-16 03:16:12.10	6.19	7.47	
2025-01-16 03:16:12.30	6.16	7.48	
2025-01-16 03:16:12.50	6.14	7.49	
2025-01-16 03:16:12.71	6.11	7.50	
2025-01-16 03:16:12.91	6.08	7.51	
2025-01-16 03:16:13.11	6.06	7.51	
2025-01-16 03:16:13.32	6.03	7.52	
2025-01-16 03:16:13.52	6.00	7.53	
2025-01-16 03:16:13.72	5.98	7.54	
2025-01-16 03:16:13.93	5.95	7.55	
2025-01-16 03:16:14.13	5.92	7.56	
2025-01-16 03:16:14.33	5.90	7.57	
2025-01-16 03:16:14.54	5.87	7.58	
2025-01-16 03:16:14.74	5.84	7.59	
2025-01-16 03:16:14.94	5.82	7.60	
2025-01-16 03:16:15.14	5.79	7.61	
2025-01-16 03:16:15.35	5.76	7.62	
2025-01-16 03:16:15.55	5.73	7.63	
2025-01-16 03:16:15.75	5.71	7.64	
2025-01-16 03:16:15.96	5.68	7.65	
2025-01-16 03:16:16.16	5.65	7.66	
2025-01-16 03:16:16.36	5.63	7.67	
2025-01-16 03:16:16.57	5.60	7.68	
2025-01-16 03:16:16.77	5.57	7.69	
2025-01-16 03:16:16.97	5.55	7.70	
2025-01-16 03:16:17.18	5.52	7.71	
2025-01-16 03:16:17.38	5.49	7.72	
2025-01-16 03:16:17.58	5.47	7.73	
2025-01-16 03:16:17.78	5.44	7.73	
2025-01-16 03:16:17.99	5.41	7.74	
2025-01-16 03:16:18.19	5.38	7.75	
2025-01-16 03:16:18.39	5.36	7.76	
2025-01-16 03:16:18.60	5.33	7.77	
2025-01-16 03:16:18.80	5.30	7.78	
2025-01-16 03:16:19.00	5.28	7.79	
2025-01-16 03:16:19.21	5.25	7.80	
2025-01-16 03:16:19.41	5.22	7.81	
2025-01-16 03:16:19.61	5.19	7.82	
2025-01-16 03:16:19.82	5.17	7.83	
2025-01-16 03:16:20.02	5.14	7.84	
2025-01-16 03:16:20.22	5.11	7.85	
2025-01-16 03:16:20.42	5.09	7.86	
2025-01-16 03:16:20.63	5.06	7.87	
2025-01-16 03:16:20.83	5.03	7.88	
2025-01-16 03:16:21.03	5.00	7.89	
2025-01-16 03:16:21.24	4.98	7.90	
2025-01-16 03:16:21.44	4.95	7.91	
2025-01-16 03:16:21.64	4.92	7.92	
2025-01-16 03:16:21.85	4.89	7.93	
2025-01-16 03:16:22.05	4.87	7.93	
2025-01-16 03:16:22.25	4.84	7.94	
2025-01-16 03:16:22.46	4.81	7.95	
2025-01-16 03:16:22.66	4.78	7.96	
2025-01-16 03:16:22.86	4.76	7.97	
2025-01-16 03:16:23.06	4.73	7.98	
2025-01-16 03:16:23.27	4.70	7.99	
2025-01-16 03:16:23.47	4.67	8.00	
2025-01-16 03:16:23.67	4.65	8.01	
2025-01-16 03:16:23.88	4.62	8.02	
2025-01-16 03:16:24.08	4.59	8.03	
2025-01-16 03:16:24.28	4.56	8.04	
2025-01-16 03:16:24.49	4.54	8.05	
2025-01-16 03:16:24.69	4.51	8.06	
2025-01-16 03:16:24.89	4.48	8.07	
2025-01-16 03:16:25.10	4.45	8.08	
2025-01-16 03:16:25.30	4.43	8.09	
2025-01-16 03:16:25.50	4.40	8.10	
2025-01-16 03:16:25.70	4.37	8.10	
2025-01-16 03:16:25.91	4.34	8.11	
2025-01-16 03:16:26.11	4.32	8.12	
2025-01-16 03:16:26.31	4.29	8.13	
2025-01-16 03:16:26.52	4.26	8.14	
2025-01-16 03:16:26.72	4.23	8.15	
2025-01-16 03:16:26.92	4.20	8.16	
2025-01-16 03:16:27.13	4.18	8.17	
2025-01-16 03:16:27.33	4.15	8.18	
2025-01-16 03:16:27.53	4.12	8.19	
2025-01-16 03:16:27.74	4.09	8.20	
2025-01-16 03:16:27.94	4.06	8.21	
2025-01-16 03:16:28.14	4.04	8.22	
2025-01-16 03:16:28.34	4.01	8.23	
2025-01-16 03:16:28.55	3.98	8.24	
2025-01-16 03:16:28.75	3.95	8.25	
2025-01-16 03:16:28.95	3.93	8.26	
2025-01-16 03:16:29.16	3.90	8.27	
2025-01-16 03:16:29.36	3.87	8.27	
2025-01-16 03:16:29.56	3.84	8.28	
2025-01-16 03:16:29.77	3.81	8.29	
2025-01-16 03:16:29.97	3.78	8.30	
2025-01-16 03:16:30.17	3.76	8.31	
2025-01-16 03:16:30.38	3.73	8.32	
2025-01-16 03:16:30.58	3.70	8.33	
2025-01-16 03:16:30.78	3.67	8.34	
2025-01-16 03:16:30.98	3.64	8.35	
2025-01-16 03:16:31.19	3.62	8.36	
2025-01-16 03:16:31.39	3.59	8.37	
2025-01-16 03:16:31.59	3.56	8.38	
2025-01-16 03:16:31.80	3.53	8.39	
2025-01-16 03:16:32.00	3.50	8.40	
2025-01-16 03:16:32.20	3.47	8.41	
2025-01-16 03:16:32.41	3.45	8.41	
2025-01-16 03:16:32.61	3.42	8.42	
2025-01-16 03:16:32.81	3.39	8.43	
2025-01-16 03:16:33.02	3.36	8.44	
2025-01-16 03:16:33.22	3.33	8.45	
2025-01-16 03:16:33.42	3.30	8.46	
2025-01-16 03:16:33.63	3.27	8.47	
2025-01-16 03:16:33.83	3.25	8.48	
2025-01-16 03:16:34.03	3.22	8.49	
2025-01-16 03:16:34.23	3.19	8.50	
2025-01-16 03:16:34.44	3.16	8.51	
2025-01-16 03:16:34.64	3.13	8.52	
2025-01-16 03:16:34.84	3.10	8.53	
2025-01-16 03:16:35.05	3.08	8.54	
2025-01-16 03:16:35.25	3.05	8.55	
2025-01-16 03:16:35.45	3.02	8.55	
2025-01-16 03:16:35.66	2.99	8.56	
2025-01-16 03:16:35.86	2.96	8.57	
2025-01-16 03:16:36.06	2.93	8.58	
2025-01-16 03:16:36.27	2.90	8.59	
2025-01-16 03:16:36.47	2.88	8.60	
2025-01-16 03:16:36.67	2.85	8.61	
2025-01-16 03:16:36.87	2.82	8.62	
2025-01-16 03:16:37.08	2.79	8.63	
2025-01-16 03:16:37.28	2.76	8.64	
2025-01-16 03:16:37.48	2.73	8.65	
2025-01-16 03:16:37.69	2.70	8.66	
2025-01-16 03:16:37.89	2.67	8.67	
2025-01-16 03:16:38.09	2.65	8.67	
2025-01-16 03:16:38.30	2.62	8.68	
2025-01-16 03:16:38.50	2.59	8.69	
2025-01-16 03:16:38.70	2.56	8.70	
2025-01-16 03:16:38.91	2.53	8.71	
2025-01-16 03:16:39.11	2.50	8.72	
2025-01-16 03:16:39.31	2.47	8.73	
2025-01-16 03:16:39.51	2.44	8.74	
2025-01-16 03:16:39.72	2.41	8.75	
2025-01-16 03:16:39.92	2.38	8.76	
2025-01-16 03:16:40.12	2.36	8.77	
2025-01-16 03:16:40.33	2.33	8.78	
2025-01-16 03:16:40.53	2.30	8.79	
2025-01-16 03:16:40.73	2.27	8.79	
2025-01-16 03:16:40.94	2.24	8.80	
2025-01-16 03:16:41.14	2.21	8.81	
2025-01-16 03:16:41.34	2.18	8.82	
2025-01-16 03:16:41.55	2.15	8.83	
2025-01-16 03:16:41.75	2.12	8.84	
2025-01-16 03:16:41.95	2.09	8.85	
2025-01-16 03:16:42.15	2.06	8.86	
2025-01-16 03:16:42.36	2.03	8.87	
2025-01-16 03:16:42.56	2.01	8.88	
2025-01-16 03:16:42.76	1.98	8.89	
2025-01-16 03:16:42.97	1.95	8.90	
2025-01-16 03:16:43.17	1.92	8.90	
2025-01-16 03:16:43.37	1.89	8.91	
2025-01-16 03:16:43.58	1.86	8.92	
2025-01-16 03:16:43.78	1.83	8.93	
2025-01-16 03:16:43.98	1.80	8.94	
2025-01-16 03:16:44.19	1.77	8.95	
2025-01-16 03:16:44.39	1.74	8.96	
2025-01-16 03:16:44.59	1.71	8.97	
2025-01-16 03:16:44.79	1.68	8.98	
2025-01-16 03:16:45.00	1.65	8.99	
2025-01-16 03:16:45.20	1.62	9.00	
2025-01-16 03:16:45.40	1.59	9.00	
2025-01-16 03:16:45.61	1.56	9.01	
2025-01-16 03:16:45.81	1.53	9.02	
2025-01-16 03:16:46.01	1.51	9.03	
2025-01-16 03:16:46.22	1.47	9.04	
2025-01-16 03:16:46.42	1.45	9.05	
2025-01-16 03:16:46.62	1.42	9.06	
2025-01-16 03:16:46.83	1.39	9.07	
2025-01-16 03:16:47.03	1.36	9.08	
2025-01-16 03:16:47.23	1.33	9.09	
2025-01-16 03:16:47.43	1.30	9.10	
2025-01-16 03:16:47.64	1.27	9.10	
2025-01-16 03:16:47.84	1.24	9.11	
2025-01-16 03:16:48.04	1.21	9.12	
2025-01-16 03:16:48.25	1.18	9.13	
2025-01-16 03:16:48.45	1.15	9.14	
2025-01-16 03:16:48.65	1.12	9.15	
2025-01-16 03:16:48.86	1.09	9.16	
2025-01-16 03:16:49.06	1.06	9.17	
2025-01-16 03:16:49.26	1.03	9.18	
2025-01-16 03:16:49.47	1.00	9.19	
2025-01-16 03:16:49.67	0.97	9.20	
2025-01-16 03:16:49.87	0.94	9.20	
2025-01-16 03:16:50.07	0.91	9.21	
2025-01-16 03:16:50.28	0.88	9.22	
2025-01-16 03:16:50.48	0.85	9.23	
2025-01-16 03:16:50.68	0.82	9.24	
2025-01-16 03:16:50.89	0.79	9.25	
2025-01-16 03:16:51.09	0.76	9.26	
2025-01-16 03:16:51.29	0.73	9.27	
2025-01-16 03:16:51.50	0.70	9.28	
2025-01-16 03:16:51.70	0.67	9.29	
2025-01-16 03:16:51.90	0.64	9.29	
2025-01-16 03:16:52.11	0.61	9.30	
2025-01-16 03:16:52.31	0.58	9.31	
2025-01-16 03:16:52.51	0.55	9.32	
2025-01-16 03:16:52.71	0.52	9.33	
2025-01-16 03:16:52.92	0.49	9.34	
2025-01-16 03:16:53.12	0.46	9.35	
2025-01-16 03:16:53.32	0.43	9.36	
2025-01-16 03:16:53.53	0.40	9.37	
2025-01-16 03:16:53.73	0.37	9.37	
2025-01-16 03:16:53.93	0.34	9.38	
2025-01-16 03:16:54.14	0.31	9.39	
2025-01-16 03:16:54.34	0.28	9.40	
2025-01-16 03:16:54.54	0.25	9.41	
2025-01-16 03:16:54.75	0.21	9.42	
2025-01-16 03:16:54.95	0.18	9.43	
2025-01-16 03:16:55.15	0.15	9.44	
2025-01-16 03:16:55.36	0.12	9.45	
2025-01-16 03:16:55.56	0.09	9.45	
2025-01-16 03:16:55.76	0.06	9.46	
2025-01-16 03:16:55.96	0.03	9.47	
2025-01-16 03:16:56.17	0.00	9.48	
2025-01-16 03:16:56.37	359.97	9.49	
2025-01-16 03:16:56.57	359.94	9.50	
2025-01-16 03:16:56.78	359.91	9.51	
2025-01-16 03:16:56.98	359.88	9.52	
2025-01-16 03:16:57.18	359.85	9.53	
2025-01-16 03:16:57.39	359.82	9.53	
2025-01-16 03:16:57.59	359.79	9.54	
2025-01-16 03:16:57.79	359.76	9.55	
2025-01-16 03:16:58.00	359.73	9.56	
2025-01-16 03:16:58.20	359.70	9.57	
2025-01-16 03:16:58.40	359.66	9.58	
2025-01-16 03:16:58.60	359.63	9.59	
2025-01-16 03:16:58.81	359.60	9.60	
2025-01-16 03:16:59.01	359.57	9.61	
2025-01-16 03:16:59.21	359.54	9.61	
2025-01-16 03:16:59.42	359.51	9.62	
2025-01-16 03:16:59.62	359.48	9.63	
2025-01-16 03:16:59.82	359.45	9.64	
2025-01-16 03:17:00.03	359.42	9.65	
2025-01-16 03:17:00.23	359.39	9.66	
2025-01-16 03:17:00.43	359.36	9.67	
2025-01-16 03:17:00.64	359.32	9.68	
2025-01-16 03:17:00.84	359.29	9.68	
2025-01-16 03:17:01.04	359.26	9.69	
2025-01-16 03:17:01.24	359.23	9.70	
2025-01-16 03:17:01.45	359.20	9.71	
2025-01-16 03:17:01.65	359.17	9.72	
2025-01-16 03:17:01.85	359.14	9.73	
2025-01-16 03:17:02.06	359.11	9.74	
2025-01-16 03:17:02.26	359.08	9.75	
2025-01-16 03:17:02.46	359.05	9.75	
2025-01-16 03:17:02.67	359.01	9.76	
2025-01-16 03:17:02.87	358.98	9.77	
2025-01-16 03:17:03.07	358.95	9.78	
2025-01-16 03:17:03.28	358.92	9.79	
2025-01-16 03:17:03.48	358.89	9.80	
2025-01-16 03:17:03.68	358.86	9.81	
2025-01-16 03:17:03.88	358.83	9.81	
2025-01-16 03:17:04.09	358.80	9.82	
2025-01-16 03:17:04.29	358.77	9.83	
2025-01-16 03:17:04.49	358.73	9.84	
2025-01-16 03:17:04.70	358.70	9.85	
2025-01-16 03:17:04.90	358.67	9.86	
2025-01-16 03:17:05.10	358.64	9.87	
2025-01-16 03:17:05.31	358.61	9.88	
2025-01-16 03:17:05.51	358.58	9.88	
2025-01-16 03:17:05.71	358.55	9.89	
2025-01-16 03:17:05.92	358.51	9.90	
2025-01-16 03:17:06.12	358.48	9.91	
2025-01-16 03:17:06.32	358.45	9.92	
2025-01-16 03:17:06.52	358.42	9.93	
2025-01-16 03:17:06.73	358.39	9.94	
2025-01-16 03:17:06.93	358.36	9.94	
2025-01-16 03:17:07.13	358.33	9.95	
2025-01-16 03:17:07.34	358.29	9.96	
2025-01-16 03:17:07.54	358.26	9.97	
2025-01-16 03:17:07.74	358.23	9.98	
2025-01-16 03:17:07.95	358.20	9.99	
2025-01-16 03:17:08.15	358.17	10.00	
2025-01-16 03:17:08.35	358.14	10.00	
2025-01-16 03:17:08.56	358.10	10.01	
2025-01-16 03:17:08.76	358.07	10.02	
2025-01-16 03:17:08.96	358.04	10.03	
2025-01-16 03:17:09.16	358.01	10.04	
2025-01-16 03:17:09.37	357.98	10.05	
2025-01-16 03:17:09.57	357.94	10.06	
2025-01-16 03:17:09.77	357.91	10.06	
2025-01-16 03:17:09.98	357.88	10.07	
2025-01-16 03:17:10.18	357.85	10.08	
2025-01-16 03:17:10.38	357.82	10.09	
2025-01-16 03:17:10.59	357.78	10.10	
2025-01-16 03:17:10.79	357.75	10.11	
2025-01-16 03:17:10.99	357.72	10.12	
2025-01-16 03:17:11.20	357.69	10.12	
2025-01-16 03:17:11.40	357.66	10.13	
2025-01-16 03:17:11.60	357.63	10.14	
2025-01-16 03:17:11.80	357.59	10.15	
2025-01-16 03:17:12.01	357.56	10.16	
2025-01-16 03:17:12.21	357.53	10.17	
2025-01-16 03:17:12.41	357.50	10.18	
2025-01-16 03:17:12.62	357.47	10.18	
2025-01-16 03:17:12.82	357.43	10.19	
2025-01-16 03:17:13.02	357.40	10.20	
2025-01-16 03:17:13.23	357.37	10.21	
2025-01-16 03:17:13.43	357.34	10.22	
2025-01-16 03:17:13.63	357.31	10.23	
2025-01-16 03:17:13.84	357.27	10.23	
2025-01-16 03:17:14.04	357.24	10.24	
2025-01-16 03:17:14.24	357.21	10.25	
2025-01-16 03:17:14.44	357.18	10.26	
2025-01-16 03:17:14.65	357.14	10.27	
2025-01-16 03:17:14.85	357.11	10.28	
2025-01-16 03:17:15.05	357.08	10.28	
2025-01-16 03:17:15.26	357.05	10.29	
2025-01-16 03:17:15.46	357.01	10.30	
2025-01-16 03:17:15.66	356.98	10.31	
2025-01-16 03:17:15.87	356.95	10.32	
2025-01-16 03:17:16.07	356.92	10.33	
2025-01-16 03:17:16.27	356.89	10.33	
2025-01-16 03:17:16.48	356.85	10.34	
2025-01-16 03:17:16.68	356.82	10.35	
2025-01-16 03:17:16.88	356.79	10.36	
2025-01-16 03:17:17.08	356.76	10.37	
2025-01-16 03:17:17.29	356.72	10.38	
2025-01-16 03:17:17.49	356.69	10.38	
2025-01-16 03:17:17.69	356.66	10.39	
2025-01-16 03:17:17.90	356.62	10.40	
2025-01-16 03:17:18.10	356.59	10.41	
2025-01-16 03:17:18.30	356.56	10.42	
2025-01-16 03:17:18.51	356.53	10.43	
2025-01-16 03:17:18.71	356.49	10.43	
2025-01-16 03:17:18.91	356.46	10.44	
2025-01-16 03:17:19.12	356.43	10.45	
2025-01-16 03:17:19.32	356.40	10.46	
2025-01-16 03:17:19.52	356.36	10.47	
2025-01-16 03:17:19.73	356.33	10.48	
2025-01-16 03:17:19.93	356.30	10.48	
2025-01-16 03:17:20.13	356.27	10.49	
2025-01-16 03:17:20.33	356.23	10.50	
2025-01-16 03:17:20.54	356.20	10.51	
2025-01-16 03:17:20.74	356.17	10.52	
2025-01-16 03:17:20.94	356.14	10.52	
2025-01-16 03:17:21.15	356.10	10.53	
2025-01-16 03:17:21.35	356.07	10.54	
2025-01-16 03:17:21.55	356.04	10.55	
2025-01-16 03:17:21.76	356.00	10.56	
2025-01-16 03:17:21.96	355.97	10.57	
2025-01-16 03:17:22.16	355.94	10.57	
2025-01-16 03:17:22.37	355.90	10.58	
2025-01-16 03:17:22.57	355.87	10.59	
2025-01-16 03:17:22.77	355.84	10.60	
2025-01-16 03:17:22.97	355.81	10.61	
2025-01-16 03:17:23.18	355.77	10.61	
2025-01-16 03:17:23.38	355.74	10.62	
2025-01-16 03:17:23.58	355.71	10.63	
2025-01-16 03:17:23.79	355.67	10.64	
2025-01-16 03:17:23.99	355.64	10.65	
2025-01-16 03:17:24.19	355.61	10.66	
2025-01-16 03:17:24.40	355.57	10.66	
2025-01-16 03:17:24.60	355.54	10.67	
2025-01-16 03:17:24.80	355.51	10.68	
2025-01-16 03:17:25.01	355.47	10.69	
2025-01-16 03:17:25.21	355.44	10.70	
2025-01-16 03:17:25.41	355.41	10.70	
2025-01-16 03:17:25.61	355.37	10.71	
2025-01-16 03:17:25.82	355.34	10.72	
2025-01-16 03:17:26.02	355.31	10.73	
2025-01-16 03:17:26.22	355.27	10.74	
2025-01-16 03:17:26.43	355.24	10.74	
2025-01-16 03:17:26.63	355.21	10.75	
2025-01-16 03:17:26.83	355.17	10.76	
2025-01-16 03:17:27.04	355.14	10.77	
2025-01-16 03:17:27.24	355.11	10.78	
2025-01-16 03:17:27.44	355.07	10.78	
2025-01-16 03:17:27.65	355.04	10.79	
2025-01-16 03:17:27.85	355.01	10.80	
2025-01-16 03:17:28.05	354.97	10.81	
2025-01-16 03:17:28.25	354.94	10.82	
2025-01-16 03:17:28.46	354.91	10.82	
2025-01-16 03:17:28.66	354.87	10.83	
2025-01-16 03:17:28.86	354.84	10.84	
2025-01-16 03:17:29.07	354.81	10.85	
2025-01-16 03:17:29.27	354.77	10.86	
2025-01-16 03:17:29.47	354.74	10.86	
2025-01-16 03:17:29.68	354.70	10.87	
2025-01-16 03:17:29.88	354.67	10.88	
2025-01-16 03:17:30.08	354.64	10.89	
2025-01-16 03:17:30.29	354.60	10.90	
2025-01-16 03:17:30.49	354.57	10.90	
2025-01-16 03:17:30.69	354.54	10.91	
2025-01-16 03:17:30.89	354.50	10.92	
2025-01-16 03:17:31.10	354.47	10.93	
2025-01-16 03:17:31.30	354.44	10.93	
2025-01-16 03:17:31.50	354.40	10.94	
2025-01-16 03:17:31.71	354.37	10.95	
2025-01-16 03:17:31.91	354.33	10.96	
2025-01-16 03:17:32.11	354.30	10.97	
2025-01-16 03:17:32.32	354.27	10.97	
2025-01-16 03:17:32.52	354.23	10.98	
2025-01-16 03:17:32.72	354.20	10.99	
2025-01-16 03:17:32.93	354.16	11.00	
2025-01-16 03:17:33.13	354.13	11.01	
2025-01-16 03:17:33.33	354.10	11.01	
2025-01-16 03:17:33.53	354.06	11.02	
2025-01-16 03:17:33.74	354.03	11.03	
2025-01-16 03:17:33.94	353.99	11.04	
2025-01-16 03:17:34.14	353.96	11.04	
2025-01-16 03:17:34.35	353.93	11.05	
2025-01-16 03:17:34.55	353.89	11.06	
2025-01-16 03:17:34.75	353.86	11.07	
2025-01-16 03:17:34.96	353.82	11.07	
2025-01-16 03:17:35.16	353.79	11.08	
2025-01-16 03:17:35.36	353.76	11.09	
2025-01-16 03:17:35.57	353.72	11.10	
2025-01-16 03:17:35.77	353.69	11.11	
2025-01-16 03:17:35.97	353.65	11.11	
2025-01-16 03:17:36.17	353.62	11.12	
2025-01-16 03:17:36.38	353.58	11.13	
2025-01-16 03:17:36.58	353.55	11.14	
2025-01-16 03:17:36.78	353.52	11.14	
2025-01-16 03:17:36.99	353.48	11.15	
2025-01-16 03:17:37.19	353.45	11.16	
2025-01-16 03:17:37.39	353.41	11.17	
2025-01-16 03:17:37.60	353.38	11.17	
2025-01-16 03:17:37.80	353.34	11.18	
2025-01-16 03:17:38.00	353.31	11.19	
2025-01-16 03:17:38.21	353.27	11.20	
2025-01-16 03:17:38.41	353.24	11.21	
2025-01-16 03:17:38.61	353.21	11.21	
2025-01-16 03:17:38.81	353.17	11.22	
2025-01-16 03:17:39.02	353.14	11.23	
2025-01-16 03:17:39.22	353.10	11.24	
2025-01-16 03:17:39.42	353.07	11.24	
2025-01-16 03:17:39.63	353.03	11.25	
2025-01-16 03:17:39.83	353.00	11.26	
2025-01-16 03:17:40.03	352.97	11.27	
2025-01-16 03:17:40.24	352.93	11.27	
2025-01-16 03:17:40.44	352.90	11.28	
2025-01-16 03:17:40.64	352.86	11.29	
2025-01-16 03:17:40.85	352.83	11.30	
2025-01-16 03:17:41.05	352.79	11.30	
2025-01-16 03:17:41.25	352.76	11.31	
2025-01-16 03:17:41.46	352.72	11.32	
2025-01-16 03:17:41.66	352.69	11.33	
2025-01-16 03:17:41.86	352.65	11.33	
2025-01-16 03:17:42.06	352.62	11.34	
2025-01-16 03:17:42.27	352.58	11.35	
2025-01-16 03:17:42.47	352.55	11.36	
2025-01-16 03:17:42.67	352.51	11.36	
2025-01-16 03:17:42.88	352.48	11.37	
2025-01-16 03:17:43.08	352.44	11.38	
2025-01-16 03:17:43.28	352.41	11.38	
2025-01-16 03:17:43.49	352.37	11.39	
2025-01-16 03:17:43.69	352.34	11.40	
2025-01-16 03:17:43.89	352.30	11.41	
2025-01-16 03:17:44.10	352.27	11.41	
2025-01-16 03:17:44.30	352.23	11.42	
2025-01-16 03:17:44.50	352.20	11.43	
2025-01-16 03:17:44.70	352.16	11.44	
2025-01-16 03:17:44.91	352.13	11.44	
2025-01-16 03:17:45.11	352.09	11.45	
2025-01-16 03:17:45.31	352.06	11.46	
2025-01-16 03:17:45.52	352.02	11.47	
2025-01-16 03:17:45.72	351.99	11.47	
2025-01-16 03:17:45.92	351.95	11.48	
2025-01-16 03:17:46.13	351.92	11.49	
2025-01-16 03:17:46.33	351.88	11.50	
2025-01-16 03:17:46.53	351.85	11.50	
2025-01-16 03:17:46.74	351.81	11.51	
2025-01-16 03:17:46.94	351.78	11.52	
2025-01-16 03:17:47.14	351.74	11.52	
2025-01-16 03:17:47.34	351.71	11.53	
2025-01-16 03:17:47.55	351.67	11.54	
2025-01-16 03:17:47.75	351.64	11.55	
2025-01-16 03:17:47.95	351.60	11.55	
2025-01-16 03:17:48.16	351.57	11.56	
2025-01-16 03:17:48.36	351.53	11.57	
2025-01-16 03:17:48.56	351.50	11.57	
2025-01-16 03:17:48.77	351.46	11.58	
2025-01-16 03:17:48.97	351.43	11.59	
2025-01-16 03:17:49.17	351.39	11.60	
2025-01-16 03:17:49.38	351.35	11.60	
2025-01-16 03:17:49.58	351.32	11.61	
2025-01-16 03:17:49.78	351.28	11.62	
2025-01-16 03:17:49.98	351.25	11.62	
2025-01-16 03:17:50.19	351.21	11.63	
2025-01-16 03:17:50.39	351.18	11.64	
2025-01-16 03:17:50.59	351.14	11.65	
2025-01-16 03:17:50.80	351.11	11.65	
2025-01-16 03:17:51.00	351.07	11.66	
2025-01-16 03:17:51.20	351.04	11.67	
2025-01-16 03:17:51.41	351.00	11.67	
2025-01-16 03:17:51.61	350.96	11.68	
2025-01-16 03:17:51.81	350.93	11.69	
2025-01-16 03:17:52.02	350.89	11.70	
2025-01-16 03:17:52.22	350.86	11.70	
2025-01-16 03:17:52.42	350.82	11.71	
2025-01-16 03:17:52.62	350.79	11.72	
2025-01-16 03:17:52.83	350.75	11.72	
2025-01-16 03:17:53.03	350.71	11.73	
2025-01-16 03:17:53.23	350.68	11.74	
2025-01-16 03:17:53.44	350.64	11.74	
2025-01-16 03:17:53.64	350.61	11.75	
2025-01-16 03:17:53.84	350.57	11.76	
2025-01-16 03:17:54.05	350.53	11.77	
2025-01-16 03:17:54.25	350.50	11.77	
2025-01-16 03:17:54.45	350.46	11.78	
2025-01-16 03:17:54.66	350.43	11.79	
2025-01-16 03:17:54.86	350.39	11.79	
2025-01-16 03:17:55.06	350.36	11.80	
2025-01-16 03:17:55.26	350.32	11.81	
2025-01-16 03:17:55.47	350.28	11.81	
2025-01-16 03:17:55.67	350.25	11.82	
2025-01-16 03:17:55.87	350.21	11.83	
2025-01-16 03:17:56.08	350.18	11.83	
2025-01-16 03:17:56.28	350.14	11.84	
2025-01-16 03:17:56.48	350.11	11.85	
2025-01-16 03:17:56.69	350.07	11.86	
2025-01-16 03:17:56.89	350.03	11.86	
2025-01-16 03:17:57.09	350.00	11.87	
2025-01-16 03:17:57.30	349.96	11.88	
2025-01-16 03:17:57.50	349.92	11.88	
2025-01-16 03:17:57.70	349.89	11.89	
2025-01-16 03:17:57.90	349.85	11.90	
2025-01-16 03:17:58.11	349.82	11.90	
2025-01-16 03:17:58.31	349.78	11.91	
2025-01-16 03:17:58.51	349.74	11.92	
2025-01-16 03:17:58.72	349.71	11.92	
2025-01-16 03:17:58.92	349.67	11.93	
2025-01-16 03:17:59.12	349.64	11.94	
2025-01-16 03:17:59.33	349.60	11.94	
2025-01-16 03:17:59.53	349.56	11.95	
2025-01-16 03:17:59.73	349.53	11.96	
2025-01-16 03:17:59.94	349.49	11.96	
2025-01-16 03:18:00.14	349.45	11.97	
2025-01-16 03:18:00.34	349.42	11.98	
2025-01-16 03:18:00.54	349.38	11.98	
2025-01-16 03:18:00.75	349.34	11.99	
2025-01-16 03:18:00.95	349.31	12.00	
2025-01-16 03:18:01.15	349.27	12.00	
2025-01-16 03:18:01.36	349.23	12.01	
2025-01-16 03:18:01.56	349.20	12.02	
2025-01-16 03:18:01.76	349.16	12.02	
2025-01-16 03:18:01.97	349.13	12.03	
2025-01-16 03:18:02.17	349.09	12.04	
2025-01-16 03:18:02.37	349.05	12.04	
2025-01-16 03:18:02.58	349.02	12.05	
2025-01-16 03:18:02.78	348.98	12.06	
2025-01-16 03:18:02.98	348.94	12.06	
2025-01-16 03:18:03.18	348.91	12.07	
2025-01-16 03:18:03.39	348.87	12.08	
2025-01-16 03:18:03.59	348.83	12.08	
2025-01-16 03:18:03.79	348.80	12.09	
2025-01-16 03:18:04.00	348.76	12.10	
2025-01-16 03:18:04.20	348.72	12.10	
2025-01-16 03:18:04.40	348.69	12.11	
2025-01-16 03:18:04.61	348.65	12.11	
2025-01-16 03:18:04.81	348.61	12.12	
2025-01-16 03:18:05.01	348.58	12.13	
2025-01-16 03:18:05.22	348.54	12.13	
2025-01-16 03:18:05.42	348.50	12.14	
2025-01-16 03:18:05.62	348.47	12.15	
2025-01-16 03:18:05.83	348.43	12.15	
2025-01-16 03:18:06.03	348.39	12.16	
2025-01-16 03:18:06.23	348.36	12.17	
2025-01-16 03:18:06.43	348.32	12.17	
2025-01-16 03:18:06.64	348.28	12.18	
2025-01-16 03:18:06.84	348.25	12.18	
2025-01-16 03:18:07.04	348.21	12.19	
2025-01-16 03:18:07.25	348.17	12.20	
2025-01-16 03:18:07.45	348.14	12.20	
2025-01-16 03:18:07.65	348.10	12.21	
2025-01-16 03:18:07.86	348.06	12.22	
2025-01-16 03:18:08.06	348.02	12.22	
2025-01-16 03:18:08.26	347.99	12.23	
2025-01-16 03:18:08.47	347.95	12.24	
2025-01-16 03:18:08.67	347.91	12.24	
2025-01-16 03:18:08.87	347.88	12.25	
2025-01-16 03:18:09.07	347.84	12.25	
2025-01-16 03:18:09.28	347.80	12.26	
2025-01-16 03:18:09.48	347.77	12.27	
2025-01-16 03:18:09.68	347.73	12.27	
2025-01-16 03:18:09.89	347.69	12.28	
2025-01-16 03:18:10.09	347.65	12.29	
2025-01-16 03:18:10.29	347.62	12.29	
2025-01-16 03:18:10.50	347.58	12.30	
2025-01-16 03:18:10.70	347.54	12.30	
2025-01-16 03:18:10.90	347.51	12.31	
2025-01-16 03:18:11.11	347.47	12.32	
2025-01-16 03:18:11.31	347.43	12.32	
2025-01-16 03:18:11.51	347.39	12.33	
2025-01-16 03:18:11.71	347.36	12.33	
2025-01-16 03:18:11.92	347.32	12.34	
2025-01-16 03:18:12.12	347.28	12.35	
2025-01-16 03:18:12.32	347.25	12.35	
2025-01-16 03:18:12.53	347.21	12.36	
2025-01-16 03:18:12.73	347.17	12.36	
2025-01-16 03:18:12.93	347.13	12.37	
2025-01-16 03:18:13.14	347.09	12.38	
2025-01-16 03:18:13.34	347.06	12.38	
2025-01-16 03:18:13.54	347.02	12.39	
2025-01-16 03:18:13.75	346.98	12.40	
2025-01-16 03:18:13.95	346.95	12.40	
2025-01-16 03:18:14.15	346.91	12.41	
2025-01-16 03:18:14.35	346.87	12.41	
2025-01-16 03:18:14.56	346.83	12.42	
2025-01-16 03:18:14.76	346.80	12.43	
2025-01-16 03:18:14.96	346.76	12.43	
2025-01-16 03:18:15.17	346.72	12.44	
2025-01-16 03:18:15.37	346.68	12.44	
2025-01-16 03:18:15.57	346.65	12.45	
2025-01-16 03:18:15.78	346.61	12.45	
2025-01-16 03:18:15.98	346.57	12.46	
2025-01-16 03:18:16.18	346.53	12.47	
2025-01-16 03:18:16.39	346.49	12.47	
2025-01-16 03:18:16.59	346.46	12.48	
2025-01-16 03:18:16.79	346.42	12.48	
2025-01-16 03:18:16.99	346.38	12.49	
2025-01-16 03:18:17.20	346.34	12.50	
2025-01-16 03:18:17.40	346.31	12.50	
2025-01-16 03:18:17.60	346.27	12.51	
2025-01-16 03:18:17.81	346.23	12.51	
2025-01-16 03:18:18.01	346.19	12.52	
2025-01-16 03:18:18.21	346.16	12.52	
2025-01-16 03:18:18.42	346.12	12.53	
2025-01-16 03:18:18.62	346.08	12.54	
2025-01-16 03:18:18.82	346.04	12.54	
2025-01-16 03:18:19.03	346.00	12.55	
2025-01-16 03:18:19.23	345.97	12.55	
2025-01-16 03:18:19.43	345.93	12.56	
2025-01-16 03:18:19.63	345.89	12.56	
2025-01-16 03:18:19.84	345.85	12.57	
2025-01-16 03:18:20.04	345.82	12.58	
2025-01-16 03:18:20.24	345.78	12.58	
2025-01-16 03:18:20.45	345.74	12.59	
2025-01-16 03:18:20.65	345.70	12.59	
2025-01-16 03:18:20.85	345.67	12.60	
2025-01-16 03:18:21.06	345.63	12.60	
2025-01-16 03:18:21.26	345.59	12.61	
2025-01-16 03:18:21.46	345.55	12.62	
2025-01-16 03:18:21.67	345.51	12.62	
2025-01-16 03:18:21.87	345.47	12.63	
2025-01-16 03:18:22.07	345.44	12.63	
2025-01-16 03:18:22.27	345.40	12.64	
2025-01-16 03:18:22.48	345.36	12.64	
2025-01-16 03:18:22.68	345.32	12.65	
2025-01-16 03:18:22.88	345.29	12.65	
2025-01-16 03:18:23.09	345.25	12.66	
2025-01-16 03:18:23.29	345.21	12.67	
2025-01-16 03:18:23.49	345.17	12.67	
2025-01-16 03:18:23.70	345.13	12.68	
2025-01-16 03:18:23.90	345.09	12.68	
2025-01-16 03:18:24.10	345.06	12.69	
2025-01-16 03:18:24.31	345.02	12.69	
2025-01-16 03:18:24.51	344.98	12.70	
2025-01-16 03:18:24.71	344.94	12.70	
2025-01-16 03:18:24.91	344.90	12.71	
2025-01-16 03:18:25.12	344.86	12.71	
2025-01-16 03:18:25.32	344.83	12.72	
2025-01-16 03:18:25.52	344.79	12.73	
2025-01-16 03:18:25.73	344.75	12.73	
2025-01-16 03:18:25.93	344.71	12.74	
2025-01-16 03:18:26.13	344.67	12.74	
2025-01-16 03:18:26.34	344.63	12.75	
2025-01-16 03:18:26.54	344.60	12.75	
2025-01-16 03:18:26.74	344.56	12.76	
2025-01-16 03:18:26.95	344.52	12.76	
2025-01-16 03:18:27.15	344.48	12.77	
2025-01-16 03:18:27.35	344.44	12.77	
2025-01-16 03:18:27.56	344.40	12.78	
2025-01-16 03:18:27.76	344.37	12.78	
2025-01-16 03:18:27.96	344.33	12.79	
2025-01-16 03:18:28.16	344.29	12.79	
2025-01-16 03:18:28.37	344.25	12.80	
2025-01-16 03:18:28.57	344.21	12.80	
2025-01-16 03:18:28.77	344.17	12.81	
2025-01-16 03:18:28.98	344.13	12.81	
2025-01-16 03:18:29.18	344.10	12.82	
2025-01-16 03:18:29.38	344.06	12.83	
2025-01-16 03:18:29.59	344.02	12.83	
2025-01-16 03:18:29.79	343.98	12.84	
2025-01-16 03:18:29.99	343.94	12.84	
2025-01-16 03:18:30.20	343.90	12.85	
2025-01-16 03:18:30.40	343.87	12.85	
2025-01-16 03:18:30.60	343.83	12.86	
2025-01-16 03:18:30.80	343.79	12.86	
2025-01-16 03:18:31.01	343.75	12.87	
2025-01-16 03:18:31.21	343.71	12.87	
2025-01-16 03:18:31.41	343.67	12.88	
2025-01-16 03:18:31.62	343.63	12.88	
2025-01-16 03:18:31.82	343.60	12.89	
2025-01-16 03:18:32.02	343.56	12.89	
2025-01-16 03:18:32.23	343.52	12.90	
2025-01-16 03:18:32.43	343.48	12.90	
2025-01-16 03:18:32.63	343.44	12.91	
2025-01-16 03:18:32.84	343.40	12.91	
2025-01-16 03:18:33.04	343.36	12.92	
2025-01-16 03:18:33.24	343.32	12.92	
2025-01-16 03:18:33.44	343.29	12.93	
2025-01-16 03:18:33.65	343.25	12.93	
2025-01-16 03:18:33.85	343.21	12.94	
2025-01-16 03:18:34.05	343.17	12.94	
2025-01-16 03:18:34.26	343.13	12.95	
2025-01-16 03:18:34.46	343.09	12.95	
2025-01-16 03:18:34.66	343.05	12.96	
2025-01-16 03:18:34.87	343.01	12.96	
2025-01-16 03:18:35.07	342.97	12.96	
2025-01-16 03:18:35.27	342.94	12.97	
2025-01-16 03:18:35.48	342.90	12.97	
2025-01-16 03:18:35.68	342.86	12.98	
2025-01-16 03:18:35.88	342.82	12.98	
2025-01-16 03:18:36.08	342.78	12.99	
2025-01-16 03:18:36.29	342.74	12.99	
2025-01-16 03:18:36.49	342.70	13.00	
2025-01-16 03:18:36.69	342.66	13.00	
2025-01-16 03:18:36.90	342.62	13.01	
2025-01-16 03:18:37.10	342.58	13.01	
2025-01-16 03:18:37.30	342.55	13.02	
2025-01-16 03:18:37.51	342.51	13.02	
2025-01-16 03:18:37.71	342.47	13.03	
2025-01-16 03:18:37.91	342.43	13.03	
2025-01-16 03:18:38.12	342.39	13.04	
2025-01-16 03:18:38.32	342.35	13.04	
2025-01-16 03:18:38.52	342.31	13.04	
2025-01-16 03:18:38.72	342.27	13.05	
2025-01-16 03:18:38.93	342.23	13.05	
2025-01-16 03:18:39.13	342.19	13.06	
2025-01-16 03:18:39.33	342.16	13.06	
2025-01-16 03:18:39.54	342.11	13.07	
2025-01-16 03:18:39.74	342.08	13.07	
2025-01-16 03:18:39.94	342.04	13.08	
2025-01-16 03:18:40.15	342.00	13.08	
2025-01-16 03:18:40.35	341.96	13.09	
2025-01-16 03:18:40.55	341.92	13.09	
2025-01-16 03:18:40.76	341.88	13.09	
2025-01-16 03:18:40.96	341.84	13.10	
2025-01-16 03:18:41.16	341.80	13.10	
2025-01-16 03:18:41.36	341.76	13.11	
2025-01-16 03:18:41.57	341.72	13.11	
2025-01-16 03:18:41.77	341.68	13.12	
2025-01-16 03:18:41.97	341.64	13.12	
2025-01-16 03:18:42.18	341.60	13.13	
2025-01-16 03:18:42.38	341.57	13.13	
2025-01-16 03:18:42.58	341.53	13.13	
2025-01-16 03:18:42.79	341.49	13.14	
2025-01-16 03:18:42.99	341.45	13.14	
2025-01-16 03:18:43.19	341.41	13.15	
2025-01-16 03:18:43.40	341.37	13.15	
2025-01-16 03:18:43.60	341.33	13.16	
2025-01-16 03:18:43.80	341.29	13.16	
2025-01-16 03:18:44.00	341.25	13.16	
2025-01-16 03:18:44.21	341.21	13.17	
2025-01-16 03:18:44.41	341.17	13.17	
2025-01-16 03:18:44.61	341.13	13.18	
2025-01-16 03:18:44.82	341.09	13.18	
2025-01-16 03:18:45.02	341.05	13.19	
2025-01-16 03:18:45.22	341.01	13.19	
2025-01-16 03:18:45.43	340.97	13.19	
2025-01-16 03:18:45.63	340.93	13.20	
2025-01-16 03:18:45.83	340.90	13.20	
2025-01-16 03:18:46.04	340.85	13.21	
2025-01-16 03:18:46.24	340.82	13.21	
2025-01-16 03:18:46.44	340.78	13.22	
2025-01-16 03:18:46.64	340.74	13.22	
2025-01-16 03:18:46.85	340.70	13.22	
2025-01-16 03:18:47.05	340.66	13.23	
2025-01-16 03:18:47.25	340.62	13.23	
2025-01-16 03:18:47.46	340.58	13.24	
2025-01-16 03:18:47.66	340.54	13.24	
2025-01-16 03:18:47.86	340.50	13.24	
2025-01-16 03:18:48.07	340.46	13.25	
2025-01-16 03:18:48.27	340.42	13.25	
2025-01-16 03:18:48.47	340.38	13.26	
2025-01-16 03:18:48.68	340.34	13.26	
2025-01-16 03:18:48.88	340.30	13.26	
2025-01-16 03:18:49.08	340.26	13.27	
2025-01-16 03:18:49.29	340.22	13.27	
2025-01-16 03:18:49.49	340.18	13.28	
2025-01-16 03:18:49.69	340.14	13.28	
2025-01-16 03:18:49.89	340.10	13.28	
2025-01-16 03:18:50.10	340.06	13.29	
2025-01-16 03:18:50.30	340.02	13.29	
2025-01-16 03:18:50.50	339.98	13.29	
2025-01-16 03:18:50.71	339.94	13.30	
2025-01-16 03:18:50.91	339.90	13.30	
2025-01-16 03:18:51.11	339.86	13.31	
2025-01-16 03:18:51.32	339.82	13.31	
2025-01-16 03:18:51.52	339.78	13.31	
2025-01-16 03:18:51.72	339.74	13.32	
2025-01-16 03:18:51.93	339.70	13.32	
2025-01-16 03:18:52.13	339.66	13.33	
2025-01-16 03:18:52.33	339.62	13.33	
2025-01-16 03:18:52.53	339.58	13.33	
2025-01-16 03:18:52.74	339.54	13.34	
2025-01-16 03:18:52.94	339.50	13.34	
2025-01-16 03:18:53.14	339.46	13.34	
2025-01-16 03:18:53.35	339.42	13.35	
2025-01-16 03:18:53.55	339.38	13.35	
2025-01-16 03:18:53.75	339.34	13.36	
2025-01-16 03:18:53.96	339.30	13.36	
2025-01-16 03:18:54.16	339.26	13.36	
2025-01-16 03:18:54.36	339.22	13.37	
2025-01-16 03:18:54.57	339.18	13.37	
2025-01-16 03:18:54.77	339.14	13.37	
2025-01-16 03:18:54.97	339.10	13.38	
2025-01-16 03:18:55.17	339.06	13.38	
2025-01-16 03:18:55.38	339.02	13.38	
2025-01-16 03:18:55.58	338.98	13.39	
2025-01-16 03:18:55.78	338.94	13.39	
2025-01-16 03:18:55.99	338.90	13.39	
2025-01-16 03:18:56.19	338.86	13.40	
2025-01-16 03:18:56.39	338.82	13.40	
2025-01-16 03:18:56.60	338.78	13.40	
2025-01-16 03:18:56.80	338.74	13.41	
2025-01-16 03:18:57.00	338.70	13.41	
2025-01-16 03:18:57.21	338.66	13.42	
2025-01-16 03:18:57.41	338.62	13.42	
2025-01-16 03:18:57.61	338.58	13.42	
2025-01-16 03:18:57.81	338.54	13.43	
2025-01-16 03:18:58.02	338.50	13.43	
2025-01-16 03:18:58.22	338.46	13.43	
2025-01-16 03:18:58.42	338.42	13.44	
2025-01-16 03:18:58.63	338.38	13.44	
2025-01-16 03:18:58.83	338.34	13.44	
2025-01-16 03:18:59.03	338.30	13.45	
2025-01-16 03:18:59.24	338.26	13.45	
2025-01-16 03:18:59.44	338.22	13.45	
2025-01-16 03:18:59.64	338.18	13.46	
2025-01-16 03:18:59.85	338.14	13.46	
2025-01-16 03:19:00.05	338.10	13.46	
2025-01-16 03:19:00.25	338.06	13.47	
2025-01-16 03:19:00.45	338.02	13.47	
2025-01-16 03:19:00.66	337.98	13.47	
2025-01-16 03:19:00.86	337.94	13.47	
2025-01-16 03:19:01.06	337.90	13.48	
2025-01-16 03:19:01.27	337.86	13.48	
2025-01-16 03:19:01.47	337.82	13.48	
2025-01-16 03:19:01.67	337.78	13.49	
2025-01-16 03:19:01.88	337.74	13.49	
2025-01-16 03:19:02.08	337.70	13.49	
2025-01-16 03:19:02.28	337.66	13.50	
2025-01-16 03:19:02.49	337.62	13.50	
2025-01-16 03:19:02.69	337.58	13.50	
2025-01-16 03:19:02.89	337.54	13.51	
2025-01-16 03:19:03.09	337.50	13.51	
2025-01-16 03:19:03.30	337.45	13.51	
2025-01-16 03:19:03.50	337.41	13.51	
2025-01-16 03:19:03.70	337.37	13.52	
2025-01-16 03:19:03.91	337.33	13.52	
2025-01-16 03:19:04.11	337.29	13.52	
2025-01-16 03:19:04.31	337.25	13.53	
2025-01-16 03:19:04.52	337.21	13.53	
2025-01-16 03:19:04.72	337.17	13.53	
2025-01-16 03:19:04.92	337.13	13.54	
2025-01-16 03:19:05.13	337.09	13.54	
2025-01-16 03:19:05.33	337.05	13.54	
2025-01-16 03:19:05.53	337.01	13.54	
2025-01-16 03:19:05.73	336.97	13.55	
2025-01-16 03:19:05.94	336.93	13.55	
2025-01-16 03:19:06.14	336.89	13.55	
2025-01-16 03:19:06.34	336.85	13.56	
2025-01-16 03:19:06.55	336.81	13.56	
2025-01-16 03:19:06.75	336.77	13.56	
2025-01-16 03:19:06.95	336.73	13.56	
2025-01-16 03:19:07.16	336.68	13.57	
2025-01-16 03:19:07.36	336.65	13.57	
2025-01-16 03:19:07.56	336.61	13.57	
2025-01-16 03:19:07.77	336.56	13.57	
2025-01-16 03:19:07.97	336.52	13.58	
2025-01-16 03:19:08.17	336.48	13.58	
2025-01-16 03:19:08.37	336.44	13.58	
2025-01-16 03:19:08.58	336.40	13.59	
2025-01-16 03:19:08.78	336.36	13.59	
2025-01-16 03:19:08.98	336.32	13.59	
2025-01-16 03:19:09.19	336.28	13.59	
2025-01-16 03:19:09.39	336.24	13.60	
2025-01-16 03:19:09.59	336.20	13.60	
2025-01-16 03:19:09.80	336.16	13.60	
2025-01-16 03:19:10.00	336.12	13.60	
2025-01-16 03:19:10.20	336.08	13.61	
2025-01-16 03:19:10.41	336.03	13.61	
2025-01-16 03:19:10.61	335.99	13.61	
2025-01-16 03:19:10.81	335.95	13.61	
2025-01-16 03:19:11.01	335.91	13.62	
2025-01-16 03:19:11.22	335.87	13.62	
2025-01-16 03:19:11.42	335.83	13.62	
2025-01-16 03:19:11.62	335.79	13.62	
2025-01-16 03:19:11.83	335.75	13.63	
2025-01-16 03:19:12.03	335.71	13.63	
2025-01-16 03:19:12.23	335.67	13.63	
2025-01-16 03:19:12.44	335.63	13.63	
2025-01-16 03:19:12.64	335.59	13.64	
2025-01-16 03:19:12.84	335.55	13.64	
2025-01-16 03:19:13.05	335.51	13.64	
2025-01-16 03:19:13.25	335.47	13.64	
2025-01-16 03:19:13.45	335.43	13.65	
2025-01-16 03:19:13.66	335.38	13.65	
2025-01-16 03:19:13.86	335.34	13.65	
2025-01-16 03:19:14.06	335.30	13.65	
2025-01-16 03:19:14.26	335.26	13.65	
2025-01-16 03:19:14.47	335.22	13.66	
2025-01-16 03:19:14.67	335.18	13.66	
2025-01-16 03:19:14.87	335.14	13.66	
2025-01-16 03:19:15.08	335.10	13.66	
2025-01-16 03:19:15.28	335.06	13.67	
2025-01-16 03:19:15.48	335.02	13.67	
2025-01-16 03:19:15.69	334.98	13.67	
2025-01-16 03:19:15.89	334.93	13.67	
2025-01-16 03:19:16.09	334.89	13.67	
2025-01-16 03:19:16.30	334.85	13.68	
2025-01-16 03:19:16.50	334.81	13.68	
2025-01-16 03:19:16.70	334.77	13.68	
2025-01-16 03:19:16.90	334.73	13.68	
2025-01-16 03:19:17.11	334.69	13.68	
2025-01-16 03:19:17.31	334.65	13.69	
2025-01-16 03:19:17.51	334.61	13.69	
2025-01-16 03:19:17.72	334.57	13.69	
2025-01-16 03:19:17.92	334.53	13.69	
2025-01-16 03:19:18.12	334.49	13.69	
2025-01-16 03:19:18.33	334.44	13.70	
2025-01-16 03:19:18.53	334.40	13.70	
2025-01-16 03:19:18.73	334.36	13.70	
2025-01-16 03:19:18.94	334.32	13.70	
2025-01-16 03:19:19.14	334.28	13.70	
2025-01-16 03:19:19.34	334.24	13.71	
2025-01-16 03:19:19.54	334.20	13.71	
2025-01-16 03:19:19.75	334.16	13.71	
2025-01-16 03:19:19.95	334.12	13.71	
2025-01-16 03:19:20.15	334.08	13.71	
2025-01-16 03:19:20.36	334.03	13.72	
2025-01-16 03:19:20.56	333.99	13.72	
2025-01-16 03:19:20.76	333.95	13.72	
2025-01-16 03:19:20.97	333.91	13.72	
2025-01-16 03:19:21.17	333.87	13.72	
2025-01-16 03:19:21.37	333.83	13.72	
2025-01-16 03:19:21.58	333.79	13.73	
2025-01-16 03:19:21.78	333.75	13.73	
2025-01-16 03:19:21.98	333.71	13.73	
2025-01-16 03:19:22.18	333.67	13.73	
2025-01-16 03:19:22.39	333.62	13.73	
2025-01-16 03:19:22.59	333.58	13.74	
2025-01-16 03:19:22.79	333.54	13.74	
2025-01-16 03:19:23.00	333.50	13.74	
2025-01-16 03:19:23.20	333.46	13.74	
2025-01-16 03:19:23.40	333.42	13.74	
2025-01-16 03:19:23.61	333.38	13.74	
2025-01-16 03:19:23.81	333.34	13.74	
2025-01-16 03:19:24.01	333.30	13.75	
2025-01-16 03:19:24.22	333.25	13.75	
2025-01-16 03:19:24.42	333.21	13.75	
2025-01-16 03:19:24.62	333.17	13.75	
2025-01-16 03:19:24.82	333.13	13.75	
2025-01-16 03:19:25.03	333.09	13.75	
2025-01-16 03:19:25.23	333.05	13.76	
2025-01-16 03:19:25.43	333.01	13.76	
2025-01-16 03:19:25.64	332.97	13.76	
2025-01-16 03:19:25.84	332.93	13.76	
2025-01-16 03:19:26.04	332.89	13.76	
2025-01-16 03:19:26.25	332.84	13.76	
2025-01-16 03:19:26.45	332.80	13.76	
2025-01-16 03:19:26.65	332.76	13.77	
2025-01-16 03:19:26.86	332.72	13.77	
2025-01-16 03:19:27.06	332.68	13.77	
2025-01-16 03:19:27.26	332.64	13.77	
2025-01-16 03:19:27.46	332.60	13.77	
2025-01-16 03:19:27.67	332.56	13.77	
2025-01-16 03:19:27.87	332.52	13.77	
2025-01-16 03:19:28.07	332.48	13.77	
2025-01-16 03:19:28.28	332.43	13.78	
2025-01-16 03:19:28.48	332.39	13.78	
2025-01-16 03:19:28.68	332.35	13.78	
2025-01-16 03:19:28.89	332.31	13.78	
2025-01-16 03:19:29.09	332.27	13.78	
2025-01-16 03:19:29.29	332.23	13.78	
2025-01-16 03:19:29.50	332.19	13.78	
2025-01-16 03:19:29.70	332.14	13.78	
2025-01-16 03:19:29.90	332.10	13.79	
2025-01-16 03:19:30.10	332.06	13.79	
2025-01-16 03:19:30.31	332.02	13.79	
2025-01-16 03:19:30.51	331.98	13.79	
2025-01-16 03:19:30.71	331.94	13.79	
2025-01-16 03:19:30.92	331.90	13.79	
2025-01-16 03:19:31.12	331.86	13.79	
2025-01-16 03:19:31.32	331.82	13.79	
2025-01-16 03:19:31.53	331.77	13.79	
2025-01-16 03:19:31.73	331.73	13.80	
2025-01-16 03:19:31.93	331.69	13.80	
2025-01-16 03:19:32.14	331.65	13.80	
2025-01-16 03:19:32.34	331.61	13.80	
2025-01-16 03:19:32.54	331.57	13.80	
2025-01-16 03:19:32.74	331.53	13.80	
2025-01-16 03:19:32.95	331.49	13.80	
2025-01-16 03:19:33.15	331.44	13.80	
2025-01-16 03:19:33.35	331.40	13.80	
2025-01-16 03:19:33.56	331.36	13.80	
2025-01-16 03:19:33.76	331.32	13.81	
2025-01-16 03:19:33.96	331.28	13.81	
2025-01-16 03:19:34.17	331.24	13.81	
2025-01-16 03:19:34.37	331.20	13.81	
2025-01-16 03:19:34.57	331.16	13.81	
2025-01-16 03:19:34.78	331.11	13.81	
2025-01-16 03:19:34.98	331.07	13.81	
2025-01-16 03:19:35.18	331.03	13.81	
2025-01-16 03:19:35.39	330.99	13.81	
2025-01-16 03:19:35.59	330.95	13.81	
2025-01-16 03:19:35.79	330.91	13.81	
2025-01-16 03:19:35.99	330.87	13.81	
2025-01-16 03:19:36.20	330.83	13.81	
2025-01-16 03:19:36.40	330.78	13.82	
2025-01-16 03:19:36.60	330.74	13.82	
2025-01-16 03:19:36.81	330.70	13.82	
2025-01-16 03:19:37.01	330.66	13.82	
2025-01-16 03:19:37.21	330.62	13.82	
2025-01-16 03:19:37.42	330.58	13.82	
2025-01-16 03:19:37.62	330.54	13.82	
2025-01-16 03:19:37.82	330.50	13.82	
2025-01-16 03:19:38.02	330.46	13.82	
2025-01-16 03:19:38.23	330.41	13.82	
2025-01-16 03:19:38.43	330.37	13.82	
2025-01-16 03:19:38.63	330.33	13.82	
2025-01-16 03:19:38.84	330.29	13.82	
2025-01-16 03:19:39.04	330.25	13.82	
2025-01-16 03:19:39.24	330.21	13.82	
2025-01-16 03:19:39.45	330.16	13.82	
2025-01-16 03:19:39.65	330.12	13.82	
2025-01-16 03:19:39.85	330.08	13.82	
2025-01-16 03:19:40.06	330.04	13.83	
2025-01-16 03:19:40.26	330.00	13.83	
2025-01-16 03:19:40.46	329.96	13.83	
2025-01-16 03:19:40.67	329.92	13.83	
2025-01-16 03:19:40.87	329.88	13.83	
2025-01-16 03:19:41.07	329.84	13.83	
2025-01-16 03:19:41.27	329.79	13.83	
2025-01-16 03:19:41.48	329.75	13.83	
2025-01-16 03:19:41.68	329.71	13.83	
2025-01-16 03:19:41.88	329.67	13.83	
2025-01-16 03:19:42.09	329.63	13.83	
2025-01-16 03:19:42.29	329.59	13.83	
2025-01-16 03:19:42.49	329.55	13.83	
2025-01-16 03:19:42.70	329.50	13.83	
2025-01-16 03:19:42.90	329.46	13.83	
2025-01-16 03:19:43.10	329.42	13.83	
2025-01-16 03:19:43.31	329.38	13.83	
2025-01-16 03:19:43.51	329.34	13.83	
2025-01-16 03:19:43.71	329.30	13.83	
2025-01-16 03:19:43.91	329.26	13.83	
2025-01-16 03:19:44.12	329.21	13.83	
2025-01-16 03:19:44.32	329.17	13.83	
2025-01-16 03:19:44.52	329.13	13.83	
2025-01-16 03:19:44.73	329.09	13.83	
2025-01-16 03:19:44.93	329.05	13.83	
2025-01-16 03:19:45.13	329.01	13.83	
2025-01-16 03:19:45.34	328.97	13.83	
2025-01-16 03:19:45.54	328.93	13.83	
2025-01-16 03:19:45.74	328.89	13.83	
2025-01-16 03:19:45.95	328.84	13.83	
2025-01-16 03:19:46.15	328.80	13.83	
2025-01-16 03:19:46.35	328.76	13.83	
2025-01-16 03:19:46.55	328.72	13.83	
2025-01-16 03:19:46.76	328.68	13.83	
2025-01-16 03:19:46.96	328.64	13.83	
2025-01-16 03:19:47.16	328.60	13.83	
2025-01-16 03:19:47.37	328.55	13.83	
2025-01-16 03:19:47.57	328.51	13.83	
2025-01-16 03:19:47.77	328.47	13.83	
2025-01-16 03:19:47.98	328.43	13.83	
2025-01-16 03:19:48.18	328.39	13.83	
2025-01-16 03:19:48.38	328.35	13.83	
2025-01-16 03:19:48.59	328.31	13.83	
2025-01-16 03:19:48.79	328.27	13.83	
2025-01-16 03:19:48.99	328.22	13.83	
2025-01-16 03:19:49.19	328.18	13.83	
2025-01-16 03:19:49.40	328.14	13.83	
2025-01-16 03:19:49.60	328.10	13.83	
2025-01-16 03:19:49.80	328.06	13.83	
2025-01-16 03:19:50.01	328.02	13.83	
2025-01-16 03:19:50.21	327.98	13.83	
2025-01-16 03:19:50.41	327.94	13.83	
2025-01-16 03:19:50.62	327.89	13.83	
2025-01-16 03:19:50.82	327.85	13.83	
2025-01-16 03:19:51.02	327.81	13.83	
2025-01-16 03:19:51.23	327.77	13.83	
2025-01-16 03:19:51.43	327.73	13.83	
2025-01-16 03:19:51.63	327.69	13.82	
2025-01-16 03:19:51.83	327.65	13.82	
2025-01-16 03:19:52.04	327.60	13.82	
2025-01-16 03:19:52.24	327.56	13.82	
2025-01-16 03:19:52.44	327.52	13.82	
2025-01-16 03:19:52.65	327.48	13.82	
2025-01-16 03:19:52.85	327.44	13.82	
2025-01-16 03:19:53.05	327.40	13.82	
2025-01-16 03:19:53.26	327.36	13.82	
2025-01-16 03:19:53.46	327.32	13.82	
2025-01-16 03:19:53.66	327.27	13.82	
2025-01-16 03:19:53.87	327.23	13.82	
2025-01-16 03:19:54.07	327.19	13.82	
2025-01-16 03:19:54.27	327.15	13.82	
2025-01-16 03:19:54.47	327.11	13.82	
2025-01-16 03:19:54.68	327.07	13.82	
2025-01-16 03:19:54.88	327.03	13.82	
2025-01-16 03:19:55.08	326.99	13.82	
2025-01-16 03:19:55.29	326.94	13.81	
2025-01-16 03:19:55.49	326.90	13.81	
2025-01-16 03:19:55.69	326.86	13.81	
2025-01-16 03:19:55.90	326.82	13.81	
2025-01-16 03:19:56.10	326.78	13.81	
2025-01-16 03:19:56.30	326.74	13.81	
2025-01-16 03:19:56.51	326.70	13.81	
2025-01-16 03:19:56.71	326.65	13.81	
2025-01-16 03:19:56.91	326.61	13.81	
2025-01-16 03:19:57.12	326.57	13.81	
2025-01-16 03:19:57.32	326.53	13.81	
2025-01-16 03:19:57.52	326.49	13.81	
2025-01-16 03:19:57.72	326.45	13.81	
2025-01-16 03:19:57.93	326.41	13.80	
2025-01-16 03:19:58.13	326.37	13.80	
2025-01-16 03:19:58.33	326.33	13.80	
2025-01-16 03:19:58.54	326.28	13.80	
2025-01-16 03:19:58.74	326.24	13.80	
2025-01-16 03:19:58.94	326.20	13.80	
2025-01-16 03:19:59.15	326.16	13.80	
2025-01-16 03:19:59.35	326.12	13.80	
2025-01-16 03:19:59.55	326.08	13.80	
2025-01-16 03:19:59.76	326.04	13.80	
2025-01-16 03:19:59.96	325.99	13.79	
2025-01-16 03:20:00.16	325.95	13.79	
2025-01-16 03:20:00.36	325.91	13.79	
2025-01-16 03:20:00.57	325.87	13.79	
2025-01-16 03:20:00.77	325.83	13.79	
2025-01-16 03:20:00.97	325.79	13.79	
2025-01-16 03:20:01.18	325.75	13.79	
2025-01-16 03:20:01.38	325.71	13.79	
2025-01-16 03:20:01.58	325.67	13.79	
2025-01-16 03:20:01.79	325.62	13.78	
2025-01-16 03:20:01.99	325.58	13.78	
2025-01-16 03:20:02.19	325.54	13.78	
2025-01-16 03:20:02.40	325.50	13.78	
2025-01-16 03:20:02.60	325.46	13.78	
2025-01-16 03:20:02.80	325.42	13.78	
2025-01-16 03:20:03.00	325.38	13.78	
2025-01-16 03:20:03.21	325.34	13.78	
2025-01-16 03:20:03.41	325.30	13.77	
2025-01-16 03:20:03.61	325.25	13.77	
2025-01-16 03:20:03.82	325.21	13.77	
2025-01-16 03:20:04.02	325.17	13.77	
2025-01-16 03:20:04.22	325.13	13.77	
2025-01-16 03:20:04.43	325.09	13.77	
2025-01-16 03:20:04.63	325.05	13.77	
2025-01-16 03:20:04.83	325.01	13.77	
2025-01-16 03:20:05.04	324.96	13.76	
2025-01-16 03:20:05.24	324.92	13.76	
2025-01-16 03:20:05.44	324.88	13.76	
2025-01-16 03:20:05.64	324.84	13.76	
2025-01-16 03:20:05.85	324.80	13.76	
2025-01-16 03:20:06.05	324.76	13.76	
2025-01-16 03:20:06.25	324.72	13.76	
2025-01-16 03:20:06.46	324.68	13.75	
2025-01-16 03:20:06.66	324.64	13.75	
2025-01-16 03:20:06.86	324.60	13.75	
2025-01-16 03:20:07.07	324.55	13.75	
2025-01-16 03:20:07.27	324.51	13.75	
2025-01-16 03:20:07.47	324.47	13.75	
2025-01-16 03:20:07.68	324.43	13.74	
2025-01-16 03:20:07.88	324.39	13.74	
2025-01-16 03:20:08.08	324.35	13.74	
2025-01-16 03:20:08.28	324.31	13.74	
2025-01-16 03:20:08.49	324.27	13.74	
2025-01-16 03:20:08.69	324.23	13.74	
2025-01-16 03:20:08.89	324.19	13.74	
2025-01-16 03:20:09.10	324.14	13.73	
2025-01-16 03:20:09.30	324.10	13.73	
2025-01-16 03:20:09.50	324.06	13.73	
2025-01-16 03:20:09.71	324.02	13.73	
2025-01-16 03:20:09.91	323.98	13.73	
2025-01-16 03:20:10.11	323.94	13.72	
2025-01-16 03:20:10.32	323.90	13.72	
2025-01-16 03:20:10.52	323.86	13.72	
2025-01-16 03:20:10.72	323.82	13.72	
2025-01-16 03:20:10.92	323.78	13.72	
2025-01-16 03:20:11.13	323.73	13.72	
2025-01-16 03:20:11.33	323.69	13.71	
2025-01-16 03:20:11.53	323.65	13.71	
2025-01-16 03:20:11.74	323.61	13.71	
2025-01-16 03:20:11.94	323.57	13.71	
2025-01-16 03:20:12.14	323.53	13.71	
2025-01-16 03:20:12.35	323.49	13.70	
2025-01-16 03:20:12.55	323.45	13.70	
2025-01-16 03:20:12.75	323.41	13.70	
2025-01-16 03:20:12.96	323.36	13.70	
2025-01-16 03:20:13.16	323.32	13.70	
2025-01-16 03:20:13.36	323.28	13.69	
2025-01-16 03:20:13.56	323.24	13.69	
2025-01-16 03:20:13.77	323.20	13.69	
2025-01-16 03:20:13.97	323.16	13.69	
2025-01-16 03:20:14.17	323.12	13.69	
2025-01-16 03:20:14.38	323.08	13.68	
2025-01-16 03:20:14.58	323.04	13.68	
2025-01-16 03:20:14.78	323.00	13.68	
2025-01-16 03:20:14.99	322.96	13.68	
2025-01-16 03:20:15.19	322.91	13.68	
2025-01-16 03:20:15.39	322.87	13.67	
2025-01-16 03:20:15.60	322.83	13.67	
2025-01-16 03:20:15.80	322.79	13.67	
2025-01-16 03:20:16.00	322.75	13.67	
2025-01-16 03:20:16.20	322.71	13.67	
2025-01-16 03:20:16.41	322.67	13.66	
2025-01-16 03:20:16.61	322.63	13.66	
2025-01-16 03:20:16.81	322.59	13.66	
2025-01-16 03:20:17.02	322.55	13.66	
2025-01-16 03:20:17.22	322.51	13.65	
2025-01-16 03:20:17.42	322.47	13.65	
2025-01-16 03:20:17.63	322.42	13.65	
2025-01-16 03:20:17.83	322.38	13.65	
2025-01-16 03:20:18.03	322.34	13.65	
2025-01-16 03:20:18.24	322.30	13.64	
2025-01-16 03:20:18.44	322.26	13.64	
2025-01-16 03:20:18.64	322.22	13.64	
2025-01-16 03:20:18.84	322.18	13.64	
2025-01-16 03:20:19.05	322.14	13.63	
2025-01-16 03:20:19.25	322.10	13.63	
2025-01-16 03:20:19.45	322.06	13.63	
2025-01-16 03:20:19.66	322.02	13.63	
2025-01-16 03:20:19.86	321.98	13.62	
2025-01-16 03:20:20.06	321.94	13.62	
2025-01-16 03:20:20.27	321.89	13.62	
2025-01-16 03:20:20.47	321.85	13.62	
2025-01-16 03:20:20.67	321.81	13.61	
2025-01-16 03:20:20.88	321.77	13.61	
2025-01-16 03:20:21.08	321.73	13.61	
2025-01-16 03:20:21.28	321.69	13.61	
2025-01-16 03:20:21.49	321.65	13.60	
2025-01-16 03:20:21.69	321.61	13.60	
2025-01-16 03:20:21.89	321.57	13.60	
2025-01-16 03:20:22.09	321.53	13.60	
2025-01-16 03:20:22.30	321.49	13.59	
2025-01-16 03:20:22.50	321.45	13.59	
2025-01-16 03:20:22.70	321.41	13.59	
2025-01-16 03:20:22.91	321.36	13.59	
2025-01-16 03:20:23.11	321.32	13.58	
2025-01-16 03:20:23.31	321.28	13.58	
2025-01-16 03:20:23.52	321.24	13.58	
2025-01-16 03:20:23.72	321.20	13.57	
2025-01-16 03:20:23.92	321.16	13.57	
2025-01-16 03:20:24.13	321.12	13.57	
2025-01-16 03:20:24.33	321.08	13.57	
2025-01-16 03:20:24.53	321.04	13.56	
2025-01-16 03:20:24.73	321.00	13.56	
2025-01-16 03:20:24.94	320.96	13.56	
2025-01-16 03:20:25.14	320.92	13.56	
2025-01-16 03:20:25.34	320.88	13.55	
2025-01-16 03:20:25.55	320.84	13.55	
2025-01-16 03:20:25.75	320.80	13.55	
2025-01-16 03:20:25.95	320.76	13.54	
2025-01-16 03:20:26.16	320.72	13.54	
2025-01-16 03:20:26.36	320.68	13.54	
2025-01-16 03:20:26.56	320.64	13.54	
2025-01-16 03:20:26.77	320.59	13.53	
2025-01-16 03:20:26.97	320.55	13.53	
2025-01-16 03:20:27.17	320.51	13.53	
2025-01-16 03:20:27.37	320.47	13.52	
2025-01-16 03:20:27.58	320.43	13.52	
2025-01-16 03:20:27.78	320.39	13.52	
2025-01-16 03:20:27.98	320.35	13.51	
2025-01-16 03:20:28.19	320.31	13.51	
2025-01-16 03:20:28.39	320.27	13.51	
2025-01-16 03:20:28.59	320.23	13.51	
2025-01-16 03:20:28.80	320.19	13.50	
2025-01-16 03:20:29.00	320.15	13.50	
2025-01-16 03:20:29.20	320.11	13.50	
2025-01-16 03:20:29.41	320.07	13.49	
2025-01-16 03:20:29.61	320.03	13.49	
2025-01-16 03:20:29.81	319.99	13.49	
2025-01-16 03:20:30.01	319.95	13.48	
2025-01-16 03:20:30.22	319.91	13.48	
2025-01-16 03:20:30.42	319.87	13.48	
2025-01-16 03:20:30.62	319.83	13.47	
2025-01-16 03:20:30.83	319.79	13.47	
2025-01-16 03:20:31.03	319.75	13.47	
2025-01-16 03:20:31.23	319.71	13.46	
2025-01-16 03:20:31.44	319.66	13.46	
2025-01-16 03:20:31.64	319.63	13.46	
2025-01-16 03:20:31.84	319.59	13.46	
2025-01-16 03:20:32.05	319.54	13.45	
2025-01-16 03:20:32.25	319.50	13.45	
2025-01-16 03:20:32.45	319.46	13.45	
2025-01-16 03:20:32.65	319.42	13.44	
2025-01-16 03:20:32.86	319.38	13.44	
2025-01-16 03:20:33.06	319.34	13.44	
2025-01-16 03:20:33.26	319.30	13.43	
2025-01-16 03:20:33.47	319.26	13.43	
2025-01-16 03:20:33.67	319.22	13.43	
2025-01-16 03:20:33.87	319.18	13.42	
2025-01-16 03:20:34.08	319.14	13.42	
2025-01-16 03:20:34.28	319.10	13.41	
2025-01-16 03:20:34.48	319.06	13.41	
2025-01-16 03:20:34.69	319.02	13.41	
2025-01-16 03:20:34.89	318.98	13.40	
2025-01-16 03:20:35.09	318.94	13.40	
2025-01-16 03:20:35.29	318.90	13.40	
2025-01-16 03:20:35.50	318.86	13.39	
2025-01-16 03:20:35.70	318.82	13.39	
2025-01-16 03:20:35.90	318.78	13.39	
2025-01-16 03:20:36.11	318.74	13.38	
2025-01-16 03:20:36.31	318.70	13.38	
2025-01-16 03:20:36.51	318.66	13.38	
2025-01-16 03:20:36.72	318.62	13.37	
2025-01-16 03:20:36.92	318.58	13.37	
