passes_logs/2025/01/16/SPB_Silybum_02/SPB_Silybum_02__20250116_163929_TERRA_rec.log

#Pass ID: 20250116_163929_TERRA
#Satellite: TERRA
#Configuration: TERRA
#Start time: 2025-01-16 16:39:27

#Version: 2.0.20230423
#Station: SPB_Silybum_02
#Location: 30.233357 lon 59.946436 lat
#TLE: 1 25994U 99068A   25015.81469206  .00000761  00000+0  16641-3 0  9994
#TLE: 2 25994  98.0214  78.8192 0003429  70.9720  38.3229 14.60396307334199

#Time	Az	El	Level	Level2	SNR	BER	Gain	Gain2
2025-01-16 16:39:29.95	103.65	4.05	
2025-01-16 16:39:30.16	103.64	4.06	
2025-01-16 16:39:30.36	103.62	4.07	
2025-01-16 16:39:30.56	103.60	4.08	
2025-01-16 16:39:30.77	103.58	4.09	
2025-01-16 16:39:30.97	103.56	4.11	
2025-01-16 16:39:31.17	103.54	4.12	
2025-01-16 16:39:31.37	103.52	4.13	
2025-01-16 16:39:31.58	103.51	4.14	
2025-01-16 16:39:31.78	103.49	4.16	
2025-01-16 16:39:31.98	103.47	4.17	
2025-01-16 16:39:32.19	103.45	4.18	
2025-01-16 16:39:32.39	103.43	4.19	
2025-01-16 16:39:32.59	103.41	4.20	
2025-01-16 16:39:32.80	103.39	4.22	
2025-01-16 16:39:33.00	103.37	4.23	
2025-01-16 16:39:33.20	103.36	4.24	
2025-01-16 16:39:33.41	103.34	4.25	
2025-01-16 16:39:33.61	103.32	4.27	
2025-01-16 16:39:33.81	103.30	4.28	
2025-01-16 16:39:34.01	103.28	4.29	
2025-01-16 16:39:34.22	103.26	4.30	
2025-01-16 16:39:34.42	103.24	4.32	
2025-01-16 16:39:34.62	103.22	4.33	
2025-01-16 16:39:34.83	103.21	4.34	
2025-01-16 16:39:35.03	103.19	4.35	
2025-01-16 16:39:35.23	103.17	4.36	
2025-01-16 16:39:35.44	103.15	4.38	
2025-01-16 16:39:35.64	103.13	4.39	
2025-01-16 16:39:35.84	103.11	4.40	
2025-01-16 16:39:36.05	103.09	4.41	
2025-01-16 16:39:36.25	103.07	4.43	
2025-01-16 16:39:36.45	103.05	4.44	
2025-01-16 16:39:36.66	103.03	4.45	
2025-01-16 16:39:36.86	103.02	4.46	
2025-01-16 16:39:37.06	103.00	4.48	
2025-01-16 16:39:37.26	102.98	4.49	
2025-01-16 16:39:37.47	102.96	4.50	
2025-01-16 16:39:37.67	102.94	4.51	
2025-01-16 16:39:37.87	102.92	4.52	
2025-01-16 16:39:38.08	102.90	4.54	
2025-01-16 16:39:38.28	102.88	4.55	
2025-01-16 16:39:38.48	102.86	4.56	
2025-01-16 16:39:38.69	102.84	4.57	
2025-01-16 16:39:38.89	102.82	4.59	
2025-01-16 16:39:39.09	102.80	4.60	
2025-01-16 16:39:39.30	102.78	4.61	
2025-01-16 16:39:39.50	102.77	4.62	
2025-01-16 16:39:39.70	102.75	4.64	
2025-01-16 16:39:39.90	102.73	4.65	
2025-01-16 16:39:40.11	102.71	4.66	
2025-01-16 16:39:40.31	102.69	4.67	
2025-01-16 16:39:40.51	102.67	4.69	
2025-01-16 16:39:40.72	102.65	4.70	
2025-01-16 16:39:40.92	102.63	4.71	
2025-01-16 16:39:41.12	102.61	4.72	
2025-01-16 16:39:41.33	102.59	4.74	
2025-01-16 16:39:41.53	102.57	4.75	
2025-01-16 16:39:41.73	102.55	4.76	
2025-01-16 16:39:41.94	102.53	4.77	
2025-01-16 16:39:42.14	102.51	4.78	
2025-01-16 16:39:42.34	102.49	4.80	
2025-01-16 16:39:42.54	102.47	4.81	
2025-01-16 16:39:42.75	102.45	4.82	
2025-01-16 16:39:42.95	102.43	4.83	
2025-01-16 16:39:43.15	102.41	4.85	
2025-01-16 16:39:43.36	102.39	4.86	
2025-01-16 16:39:43.56	102.38	4.87	
2025-01-16 16:39:43.76	102.36	4.88	
2025-01-16 16:39:43.97	102.34	4.90	
2025-01-16 16:39:44.17	102.32	4.91	
2025-01-16 16:39:44.37	102.30	4.92	
2025-01-16 16:39:44.58	102.28	4.93	
2025-01-16 16:39:44.78	102.26	4.95	
2025-01-16 16:39:44.98	102.24	4.96	
2025-01-16 16:39:45.18	102.22	4.97	
2025-01-16 16:39:45.39	102.20	4.98	
2025-01-16 16:39:45.59	102.18	5.00	
2025-01-16 16:39:45.79	102.16	5.01	
2025-01-16 16:39:46.00	102.14	5.02	
2025-01-16 16:39:46.20	102.12	5.03	
2025-01-16 16:39:46.40	102.10	5.05	
2025-01-16 16:39:46.61	102.08	5.06	
2025-01-16 16:39:46.81	102.06	5.07	
2025-01-16 16:39:47.01	102.04	5.08	
2025-01-16 16:39:47.22	102.02	5.10	
2025-01-16 16:39:47.42	102.00	5.11	
2025-01-16 16:39:47.62	101.98	5.12	
2025-01-16 16:39:47.82	101.96	5.13	
2025-01-16 16:39:48.03	101.94	5.15	
2025-01-16 16:39:48.23	101.92	5.16	
2025-01-16 16:39:48.43	101.90	5.17	
2025-01-16 16:39:48.64	101.88	5.18	
2025-01-16 16:39:48.84	101.86	5.20	
2025-01-16 16:39:49.04	101.84	5.21	
2025-01-16 16:39:49.25	101.82	5.22	
2025-01-16 16:39:49.45	101.80	5.23	
2025-01-16 16:39:49.65	101.78	5.25	
2025-01-16 16:39:49.86	101.75	5.26	
2025-01-16 16:39:50.06	101.73	5.27	
2025-01-16 16:39:50.26	101.71	5.28	
2025-01-16 16:39:50.46	101.69	5.30	
2025-01-16 16:39:50.67	101.67	5.31	
2025-01-16 16:39:50.87	101.65	5.32	
2025-01-16 16:39:51.07	101.63	5.33	
2025-01-16 16:39:51.28	101.61	5.35	
2025-01-16 16:39:51.48	101.59	5.36	
2025-01-16 16:39:51.68	101.57	5.37	
2025-01-16 16:39:51.89	101.55	5.38	
2025-01-16 16:39:52.09	101.53	5.40	
2025-01-16 16:39:52.29	101.51	5.41	
2025-01-16 16:39:52.50	101.49	5.42	
2025-01-16 16:39:52.70	101.47	5.44	
2025-01-16 16:39:52.90	101.45	5.45	
2025-01-16 16:39:53.10	101.43	5.46	
2025-01-16 16:39:53.31	101.41	5.47	
2025-01-16 16:39:53.51	101.39	5.49	
2025-01-16 16:39:53.71	101.37	5.50	
2025-01-16 16:39:53.92	101.34	5.51	
2025-01-16 16:39:54.12	101.32	5.52	
2025-01-16 16:39:54.32	101.30	5.54	
2025-01-16 16:39:54.53	101.28	5.55	
2025-01-16 16:39:54.73	101.26	5.56	
2025-01-16 16:39:54.93	101.24	5.57	
2025-01-16 16:39:55.14	101.22	5.59	
2025-01-16 16:39:55.34	101.20	5.60	
2025-01-16 16:39:55.54	101.18	5.61	
2025-01-16 16:39:55.74	101.16	5.62	
2025-01-16 16:39:55.95	101.14	5.64	
2025-01-16 16:39:56.15	101.12	5.65	
2025-01-16 16:39:56.35	101.10	5.66	
2025-01-16 16:39:56.56	101.07	5.68	
2025-01-16 16:39:56.76	101.05	5.69	
2025-01-16 16:39:56.96	101.03	5.70	
2025-01-16 16:39:57.17	101.01	5.71	
2025-01-16 16:39:57.37	100.99	5.73	
2025-01-16 16:39:57.57	100.97	5.74	
2025-01-16 16:39:57.78	100.95	5.75	
2025-01-16 16:39:57.98	100.93	5.76	
2025-01-16 16:39:58.18	100.91	5.78	
2025-01-16 16:39:58.38	100.89	5.79	
2025-01-16 16:39:58.59	100.86	5.80	
2025-01-16 16:39:58.79	100.84	5.81	
2025-01-16 16:39:58.99	100.82	5.83	
2025-01-16 16:39:59.20	100.80	5.84	
2025-01-16 16:39:59.40	100.78	5.85	
2025-01-16 16:39:59.60	100.76	5.87	
2025-01-16 16:39:59.81	100.74	5.88	
2025-01-16 16:40:00.01	100.72	5.89	
2025-01-16 16:40:00.21	100.69	5.90	
2025-01-16 16:40:00.42	100.67	5.92	
2025-01-16 16:40:00.62	100.65	5.93	
2025-01-16 16:40:00.82	100.63	5.94	
2025-01-16 16:40:01.03	100.61	5.95	
2025-01-16 16:40:01.23	100.59	5.97	
2025-01-16 16:40:01.43	100.57	5.98	
2025-01-16 16:40:01.63	100.54	5.99	
2025-01-16 16:40:01.84	100.52	6.01	
2025-01-16 16:40:02.04	100.50	6.02	
2025-01-16 16:40:02.24	100.48	6.03	
2025-01-16 16:40:02.45	100.46	6.04	
2025-01-16 16:40:02.65	100.44	6.06	
2025-01-16 16:40:02.85	100.42	6.07	
2025-01-16 16:40:03.06	100.39	6.08	
2025-01-16 16:40:03.26	100.37	6.10	
2025-01-16 16:40:03.46	100.35	6.11	
2025-01-16 16:40:03.67	100.33	6.12	
2025-01-16 16:40:03.87	100.31	6.13	
2025-01-16 16:40:04.07	100.29	6.15	
2025-01-16 16:40:04.27	100.26	6.16	
2025-01-16 16:40:04.48	100.24	6.17	
2025-01-16 16:40:04.68	100.22	6.18	
2025-01-16 16:40:04.88	100.20	6.20	
2025-01-16 16:40:05.09	100.18	6.21	
2025-01-16 16:40:05.29	100.15	6.22	
2025-01-16 16:40:05.49	100.13	6.24	
2025-01-16 16:40:05.70	100.11	6.25	
2025-01-16 16:40:05.90	100.09	6.26	
2025-01-16 16:40:06.10	100.07	6.27	
2025-01-16 16:40:06.31	100.04	6.29	
2025-01-16 16:40:06.51	100.02	6.30	
2025-01-16 16:40:06.71	100.00	6.31	
2025-01-16 16:40:06.91	99.98	6.33	
2025-01-16 16:40:07.12	99.96	6.34	
2025-01-16 16:40:07.32	99.93	6.35	
2025-01-16 16:40:07.52	99.91	6.36	
2025-01-16 16:40:07.73	99.89	6.38	
2025-01-16 16:40:07.93	99.87	6.39	
2025-01-16 16:40:08.13	99.85	6.40	
2025-01-16 16:40:08.34	99.82	6.42	
2025-01-16 16:40:08.54	99.80	6.43	
2025-01-16 16:40:08.74	99.78	6.44	
2025-01-16 16:40:08.95	99.76	6.45	
2025-01-16 16:40:09.15	99.73	6.47	
2025-01-16 16:40:09.35	99.71	6.48	
2025-01-16 16:40:09.55	99.69	6.49	
2025-01-16 16:40:09.76	99.67	6.51	
2025-01-16 16:40:09.96	99.65	6.52	
2025-01-16 16:40:10.16	99.62	6.53	
2025-01-16 16:40:10.37	99.60	6.54	
2025-01-16 16:40:10.57	99.58	6.56	
2025-01-16 16:40:10.77	99.56	6.57	
2025-01-16 16:40:10.98	99.53	6.58	
2025-01-16 16:40:11.18	99.51	6.60	
2025-01-16 16:40:11.38	99.49	6.61	
2025-01-16 16:40:11.59	99.47	6.62	
2025-01-16 16:40:11.79	99.44	6.63	
2025-01-16 16:40:11.99	99.42	6.65	
2025-01-16 16:40:12.19	99.40	6.66	
2025-01-16 16:40:12.40	99.38	6.67	
2025-01-16 16:40:12.60	99.35	6.69	
2025-01-16 16:40:12.80	99.33	6.70	
2025-01-16 16:40:13.01	99.31	6.71	
2025-01-16 16:40:13.21	99.29	6.73	
2025-01-16 16:40:13.41	99.26	6.74	
2025-01-16 16:40:13.62	99.24	6.75	
2025-01-16 16:40:13.82	99.22	6.76	
2025-01-16 16:40:14.02	99.19	6.78	
2025-01-16 16:40:14.23	99.17	6.79	
2025-01-16 16:40:14.43	99.15	6.80	
2025-01-16 16:40:14.63	99.13	6.82	
2025-01-16 16:40:14.83	99.10	6.83	
2025-01-16 16:40:15.04	99.08	6.84	
2025-01-16 16:40:15.24	99.06	6.85	
2025-01-16 16:40:15.44	99.03	6.87	
2025-01-16 16:40:15.65	99.01	6.88	
2025-01-16 16:40:15.85	98.99	6.89	
2025-01-16 16:40:16.05	98.97	6.91	
2025-01-16 16:40:16.26	98.94	6.92	
2025-01-16 16:40:16.46	98.92	6.93	
2025-01-16 16:40:16.66	98.90	6.95	
2025-01-16 16:40:16.87	98.87	6.96	
2025-01-16 16:40:17.07	98.85	6.97	
2025-01-16 16:40:17.27	98.83	6.98	
2025-01-16 16:40:17.47	98.80	7.00	
2025-01-16 16:40:17.68	98.78	7.01	
2025-01-16 16:40:17.88	98.76	7.02	
2025-01-16 16:40:18.08	98.73	7.04	
2025-01-16 16:40:18.29	98.71	7.05	
2025-01-16 16:40:18.49	98.69	7.06	
2025-01-16 16:40:18.69	98.66	7.08	
2025-01-16 16:40:18.90	98.64	7.09	
2025-01-16 16:40:19.10	98.62	7.10	
2025-01-16 16:40:19.30	98.59	7.11	
2025-01-16 16:40:19.51	98.57	7.13	
2025-01-16 16:40:19.71	98.55	7.14	
2025-01-16 16:40:19.91	98.52	7.15	
2025-01-16 16:40:20.11	98.50	7.17	
2025-01-16 16:40:20.32	98.48	7.18	
2025-01-16 16:40:20.52	98.45	7.19	
2025-01-16 16:40:20.72	98.43	7.21	
2025-01-16 16:40:20.93	98.41	7.22	
2025-01-16 16:40:21.13	98.38	7.23	
2025-01-16 16:40:21.33	98.36	7.25	
2025-01-16 16:40:21.54	98.34	7.26	
2025-01-16 16:40:21.74	98.31	7.27	
2025-01-16 16:40:21.94	98.29	7.28	
2025-01-16 16:40:22.15	98.26	7.30	
2025-01-16 16:40:22.35	98.24	7.31	
2025-01-16 16:40:22.55	98.22	7.32	
2025-01-16 16:40:22.76	98.19	7.34	
2025-01-16 16:40:22.96	98.17	7.35	
2025-01-16 16:40:23.16	98.15	7.36	
2025-01-16 16:40:23.36	98.12	7.38	
2025-01-16 16:40:23.57	98.10	7.39	
2025-01-16 16:40:23.77	98.07	7.40	
2025-01-16 16:40:23.97	98.05	7.42	
2025-01-16 16:40:24.18	98.03	7.43	
2025-01-16 16:40:24.38	98.00	7.44	
2025-01-16 16:40:24.58	97.98	7.45	
2025-01-16 16:40:24.79	97.95	7.47	
2025-01-16 16:40:24.99	97.93	7.48	
2025-01-16 16:40:25.19	97.91	7.49	
2025-01-16 16:40:25.39	97.88	7.51	
2025-01-16 16:40:25.60	97.86	7.52	
2025-01-16 16:40:25.80	97.83	7.53	
2025-01-16 16:40:26.00	97.81	7.55	
2025-01-16 16:40:26.21	97.79	7.56	
2025-01-16 16:40:26.41	97.76	7.57	
2025-01-16 16:40:26.61	97.74	7.59	
2025-01-16 16:40:26.82	97.71	7.60	
2025-01-16 16:40:27.02	97.69	7.61	
2025-01-16 16:40:27.22	97.66	7.63	
2025-01-16 16:40:27.43	97.64	7.64	
2025-01-16 16:40:27.63	97.62	7.65	
2025-01-16 16:40:27.83	97.59	7.66	
2025-01-16 16:40:28.04	97.57	7.68	
2025-01-16 16:40:28.24	97.54	7.69	
2025-01-16 16:40:28.44	97.52	7.70	
2025-01-16 16:40:28.64	97.49	7.72	
2025-01-16 16:40:28.85	97.47	7.73	
2025-01-16 16:40:29.05	97.44	7.74	
2025-01-16 16:40:29.25	97.42	7.76	
2025-01-16 16:40:29.46	97.39	7.77	
2025-01-16 16:40:29.66	97.37	7.78	
2025-01-16 16:40:29.86	97.35	7.80	
2025-01-16 16:40:30.07	97.32	7.81	
2025-01-16 16:40:30.27	97.30	7.82	
2025-01-16 16:40:30.47	97.27	7.84	
2025-01-16 16:40:30.68	97.25	7.85	
2025-01-16 16:40:30.88	97.22	7.86	
2025-01-16 16:40:31.08	97.20	7.88	
2025-01-16 16:40:31.28	97.17	7.89	
2025-01-16 16:40:31.49	97.15	7.90	
2025-01-16 16:40:31.69	97.12	7.92	
2025-01-16 16:40:31.89	97.10	7.93	
2025-01-16 16:40:32.10	97.07	7.94	
2025-01-16 16:40:32.30	97.05	7.96	
2025-01-16 16:40:32.50	97.02	7.97	
2025-01-16 16:40:32.71	97.00	7.98	
2025-01-16 16:40:32.91	96.97	8.00	
2025-01-16 16:40:33.11	96.95	8.01	
2025-01-16 16:40:33.32	96.92	8.02	
2025-01-16 16:40:33.52	96.90	8.03	
2025-01-16 16:40:33.72	96.87	8.05	
2025-01-16 16:40:33.92	96.85	8.06	
2025-01-16 16:40:34.13	96.82	8.07	
2025-01-16 16:40:34.33	96.80	8.09	
2025-01-16 16:40:34.53	96.77	8.10	
2025-01-16 16:40:34.74	96.75	8.11	
2025-01-16 16:40:34.94	96.72	8.13	
2025-01-16 16:40:35.14	96.70	8.14	
2025-01-16 16:40:35.35	96.67	8.15	
2025-01-16 16:40:35.55	96.65	8.17	
2025-01-16 16:40:35.75	96.62	8.18	
2025-01-16 16:40:35.96	96.60	8.19	
2025-01-16 16:40:36.16	96.57	8.21	
2025-01-16 16:40:36.36	96.55	8.22	
2025-01-16 16:40:36.56	96.52	8.23	
2025-01-16 16:40:36.77	96.49	8.25	
2025-01-16 16:40:36.97	96.47	8.26	
2025-01-16 16:40:37.17	96.44	8.27	
2025-01-16 16:40:37.38	96.42	8.29	
2025-01-16 16:40:37.58	96.39	8.30	
2025-01-16 16:40:37.78	96.37	8.31	
2025-01-16 16:40:37.99	96.34	8.33	
2025-01-16 16:40:38.19	96.31	8.34	
2025-01-16 16:40:38.39	96.29	8.35	
2025-01-16 16:40:38.60	96.26	8.37	
2025-01-16 16:40:38.80	96.24	8.38	
2025-01-16 16:40:39.00	96.21	8.39	
2025-01-16 16:40:39.20	96.19	8.41	
2025-01-16 16:40:39.41	96.16	8.42	
2025-01-16 16:40:39.61	96.13	8.43	
2025-01-16 16:40:39.81	96.11	8.45	
2025-01-16 16:40:40.02	96.08	8.46	
2025-01-16 16:40:40.22	96.06	8.47	
2025-01-16 16:40:40.42	96.03	8.49	
2025-01-16 16:40:40.63	96.00	8.50	
2025-01-16 16:40:40.83	95.98	8.51	
2025-01-16 16:40:41.03	95.95	8.53	
2025-01-16 16:40:41.24	95.93	8.54	
2025-01-16 16:40:41.44	95.90	8.55	
2025-01-16 16:40:41.64	95.88	8.57	
2025-01-16 16:40:41.84	95.85	8.58	
2025-01-16 16:40:42.05	95.82	8.59	
2025-01-16 16:40:42.25	95.80	8.61	
2025-01-16 16:40:42.45	95.77	8.62	
2025-01-16 16:40:42.66	95.74	8.63	
2025-01-16 16:40:42.86	95.72	8.65	
2025-01-16 16:40:43.06	95.69	8.66	
2025-01-16 16:40:43.27	95.66	8.67	
2025-01-16 16:40:43.47	95.64	8.69	
2025-01-16 16:40:43.67	95.61	8.70	
2025-01-16 16:40:43.88	95.59	8.71	
2025-01-16 16:40:44.08	95.56	8.73	
2025-01-16 16:40:44.28	95.53	8.74	
2025-01-16 16:40:44.48	95.51	8.75	
2025-01-16 16:40:44.69	95.48	8.77	
2025-01-16 16:40:44.89	95.45	8.78	
2025-01-16 16:40:45.09	95.43	8.79	
2025-01-16 16:40:45.30	95.40	8.81	
2025-01-16 16:40:45.50	95.37	8.82	
2025-01-16 16:40:45.70	95.35	8.83	
2025-01-16 16:40:45.91	95.32	8.85	
2025-01-16 16:40:46.11	95.29	8.86	
2025-01-16 16:40:46.31	95.27	8.87	
2025-01-16 16:40:46.52	95.24	8.89	
2025-01-16 16:40:46.72	95.21	8.90	
2025-01-16 16:40:46.92	95.19	8.91	
2025-01-16 16:40:47.13	95.16	8.93	
2025-01-16 16:40:47.33	95.13	8.94	
2025-01-16 16:40:47.53	95.11	8.95	
2025-01-16 16:40:47.73	95.08	8.97	
2025-01-16 16:40:47.94	95.05	8.98	
2025-01-16 16:40:48.14	95.03	9.00	
2025-01-16 16:40:48.34	95.00	9.01	
2025-01-16 16:40:48.55	94.97	9.02	
2025-01-16 16:40:48.75	94.94	9.04	
2025-01-16 16:40:48.95	94.92	9.05	
2025-01-16 16:40:49.16	94.89	9.06	
2025-01-16 16:40:49.36	94.86	9.08	
2025-01-16 16:40:49.56	94.84	9.09	
2025-01-16 16:40:49.77	94.81	9.10	
2025-01-16 16:40:49.97	94.78	9.12	
2025-01-16 16:40:50.17	94.76	9.13	
2025-01-16 16:40:50.37	94.73	9.14	
2025-01-16 16:40:50.58	94.70	9.16	
2025-01-16 16:40:50.78	94.67	9.17	
2025-01-16 16:40:50.98	94.65	9.18	
2025-01-16 16:40:51.19	94.62	9.20	
2025-01-16 16:40:51.39	94.59	9.21	
2025-01-16 16:40:51.59	94.56	9.22	
2025-01-16 16:40:51.80	94.54	9.24	
2025-01-16 16:40:52.00	94.51	9.25	
2025-01-16 16:40:52.20	94.48	9.26	
2025-01-16 16:40:52.41	94.45	9.28	
2025-01-16 16:40:52.61	94.43	9.29	
2025-01-16 16:40:52.81	94.40	9.30	
2025-01-16 16:40:53.01	94.37	9.32	
2025-01-16 16:40:53.22	94.34	9.33	
2025-01-16 16:40:53.42	94.32	9.35	
2025-01-16 16:40:53.62	94.29	9.36	
2025-01-16 16:40:53.83	94.26	9.37	
2025-01-16 16:40:54.03	94.23	9.39	
2025-01-16 16:40:54.23	94.20	9.40	
2025-01-16 16:40:54.44	94.18	9.41	
2025-01-16 16:40:54.64	94.15	9.43	
2025-01-16 16:40:54.84	94.12	9.44	
2025-01-16 16:40:55.05	94.09	9.45	
2025-01-16 16:40:55.25	94.06	9.47	
2025-01-16 16:40:55.45	94.04	9.48	
2025-01-16 16:40:55.65	94.01	9.49	
2025-01-16 16:40:55.86	93.98	9.51	
2025-01-16 16:40:56.06	93.95	9.52	
2025-01-16 16:40:56.26	93.93	9.53	
2025-01-16 16:40:56.47	93.90	9.55	
2025-01-16 16:40:56.67	93.87	9.56	
2025-01-16 16:40:56.87	93.84	9.57	
2025-01-16 16:40:57.08	93.81	9.59	
2025-01-16 16:40:57.28	93.78	9.60	
2025-01-16 16:40:57.48	93.76	9.62	
2025-01-16 16:40:57.69	93.73	9.63	
2025-01-16 16:40:57.89	93.70	9.64	
2025-01-16 16:40:58.09	93.67	9.66	
2025-01-16 16:40:58.29	93.64	9.67	
2025-01-16 16:40:58.50	93.61	9.68	
2025-01-16 16:40:58.70	93.59	9.70	
2025-01-16 16:40:58.90	93.56	9.71	
2025-01-16 16:40:59.11	93.53	9.72	
2025-01-16 16:40:59.31	93.50	9.74	
2025-01-16 16:40:59.51	93.47	9.75	
2025-01-16 16:40:59.72	93.44	9.76	
2025-01-16 16:40:59.92	93.41	9.78	
2025-01-16 16:41:00.12	93.39	9.79	
2025-01-16 16:41:00.33	93.36	9.81	
2025-01-16 16:41:00.53	93.33	9.82	
2025-01-16 16:41:00.73	93.30	9.83	
2025-01-16 16:41:00.93	93.27	9.85	
2025-01-16 16:41:01.14	93.24	9.86	
2025-01-16 16:41:01.34	93.21	9.87	
2025-01-16 16:41:01.54	93.19	9.89	
2025-01-16 16:41:01.75	93.16	9.90	
2025-01-16 16:41:01.95	93.13	9.91	
2025-01-16 16:41:02.15	93.10	9.93	
2025-01-16 16:41:02.36	93.07	9.94	
2025-01-16 16:41:02.56	93.04	9.95	
2025-01-16 16:41:02.76	93.01	9.97	
2025-01-16 16:41:02.97	92.98	9.98	
2025-01-16 16:41:03.17	92.95	9.99	
2025-01-16 16:41:03.37	92.92	10.01	
2025-01-16 16:41:03.57	92.90	10.02	
2025-01-16 16:41:03.78	92.87	10.04	
2025-01-16 16:41:03.98	92.84	10.05	
2025-01-16 16:41:04.18	92.81	10.06	
2025-01-16 16:41:04.39	92.78	10.08	
2025-01-16 16:41:04.59	92.75	10.09	
2025-01-16 16:41:04.79	92.72	10.10	
2025-01-16 16:41:05.00	92.69	10.12	
2025-01-16 16:41:05.20	92.66	10.13	
2025-01-16 16:41:05.40	92.63	10.14	
2025-01-16 16:41:05.61	92.60	10.16	
2025-01-16 16:41:05.81	92.57	10.17	
2025-01-16 16:41:06.01	92.54	10.18	
2025-01-16 16:41:06.21	92.51	10.20	
2025-01-16 16:41:06.42	92.48	10.21	
2025-01-16 16:41:06.62	92.46	10.23	
2025-01-16 16:41:06.82	92.43	10.24	
2025-01-16 16:41:07.03	92.40	10.25	
2025-01-16 16:41:07.23	92.37	10.27	
2025-01-16 16:41:07.43	92.34	10.28	
2025-01-16 16:41:07.64	92.31	10.29	
2025-01-16 16:41:07.84	92.28	10.31	
2025-01-16 16:41:08.04	92.25	10.32	
2025-01-16 16:41:08.25	92.22	10.33	
2025-01-16 16:41:08.45	92.19	10.35	
2025-01-16 16:41:08.65	92.16	10.36	
2025-01-16 16:41:08.86	92.13	10.38	
2025-01-16 16:41:09.06	92.10	10.39	
2025-01-16 16:41:09.26	92.07	10.40	
2025-01-16 16:41:09.46	92.04	10.42	
2025-01-16 16:41:09.67	92.01	10.43	
2025-01-16 16:41:09.87	91.98	10.44	
2025-01-16 16:41:10.07	91.95	10.46	
2025-01-16 16:41:10.28	91.92	10.47	
2025-01-16 16:41:10.48	91.89	10.48	
2025-01-16 16:41:10.68	91.86	10.50	
2025-01-16 16:41:10.89	91.83	10.51	
2025-01-16 16:41:11.09	91.80	10.53	
2025-01-16 16:41:11.29	91.77	10.54	
2025-01-16 16:41:11.50	91.74	10.55	
2025-01-16 16:41:11.70	91.71	10.57	
2025-01-16 16:41:11.90	91.68	10.58	
2025-01-16 16:41:12.10	91.65	10.59	
2025-01-16 16:41:12.31	91.61	10.61	
2025-01-16 16:41:12.51	91.58	10.62	
2025-01-16 16:41:12.71	91.55	10.63	
2025-01-16 16:41:12.92	91.52	10.65	
2025-01-16 16:41:13.12	91.49	10.66	
2025-01-16 16:41:13.32	91.46	10.67	
2025-01-16 16:41:13.53	91.43	10.69	
2025-01-16 16:41:13.73	91.40	10.70	
2025-01-16 16:41:13.93	91.37	10.72	
2025-01-16 16:41:14.14	91.34	10.73	
2025-01-16 16:41:14.34	91.31	10.74	
2025-01-16 16:41:14.54	91.28	10.76	
2025-01-16 16:41:14.74	91.25	10.77	
2025-01-16 16:41:14.95	91.22	10.78	
2025-01-16 16:41:15.15	91.19	10.80	
2025-01-16 16:41:15.35	91.16	10.81	
2025-01-16 16:41:15.56	91.12	10.83	
2025-01-16 16:41:15.76	91.09	10.84	
2025-01-16 16:41:15.96	91.06	10.85	
2025-01-16 16:41:16.17	91.03	10.87	
2025-01-16 16:41:16.37	91.00	10.88	
2025-01-16 16:41:16.57	90.97	10.89	
2025-01-16 16:41:16.78	90.94	10.91	
2025-01-16 16:41:16.98	90.91	10.92	
2025-01-16 16:41:17.18	90.88	10.93	
2025-01-16 16:41:17.38	90.85	10.95	
2025-01-16 16:41:17.59	90.81	10.96	
2025-01-16 16:41:17.79	90.78	10.98	
2025-01-16 16:41:17.99	90.75	10.99	
2025-01-16 16:41:18.20	90.72	11.00	
2025-01-16 16:41:18.40	90.69	11.02	
2025-01-16 16:41:18.60	90.66	11.03	
2025-01-16 16:41:18.81	90.62	11.04	
2025-01-16 16:41:19.01	90.59	11.06	
2025-01-16 16:41:19.21	90.56	11.07	
2025-01-16 16:41:19.42	90.53	11.08	
2025-01-16 16:41:19.62	90.50	11.10	
2025-01-16 16:41:19.82	90.47	11.11	
2025-01-16 16:41:20.02	90.44	11.13	
2025-01-16 16:41:20.23	90.40	11.14	
2025-01-16 16:41:20.43	90.37	11.15	
2025-01-16 16:41:20.63	90.34	11.17	
2025-01-16 16:41:20.84	90.31	11.18	
2025-01-16 16:41:21.04	90.28	11.19	
2025-01-16 16:41:21.24	90.25	11.21	
2025-01-16 16:41:21.45	90.21	11.22	
2025-01-16 16:41:21.65	90.18	11.23	
2025-01-16 16:41:21.85	90.15	11.25	
2025-01-16 16:41:22.06	90.12	11.26	
2025-01-16 16:41:22.26	90.09	11.28	
2025-01-16 16:41:22.46	90.05	11.29	
2025-01-16 16:41:22.66	90.02	11.30	
2025-01-16 16:41:22.87	89.99	11.32	
2025-01-16 16:41:23.07	89.96	11.33	
2025-01-16 16:41:23.27	89.93	11.34	
2025-01-16 16:41:23.48	89.89	11.36	
2025-01-16 16:41:23.68	89.86	11.37	
2025-01-16 16:41:23.88	89.83	11.38	
2025-01-16 16:41:24.09	89.80	11.40	
2025-01-16 16:41:24.29	89.76	11.41	
2025-01-16 16:41:24.49	89.73	11.43	
2025-01-16 16:41:24.70	89.70	11.44	
2025-01-16 16:41:24.90	89.67	11.45	
2025-01-16 16:41:25.10	89.64	11.47	
2025-01-16 16:41:25.30	89.60	11.48	
2025-01-16 16:41:25.51	89.57	11.49	
2025-01-16 16:41:25.71	89.54	11.51	
2025-01-16 16:41:25.91	89.51	11.52	
2025-01-16 16:41:26.12	89.47	11.54	
2025-01-16 16:41:26.32	89.44	11.55	
2025-01-16 16:41:26.52	89.41	11.56	
2025-01-16 16:41:26.73	89.37	11.58	
2025-01-16 16:41:26.93	89.34	11.59	
2025-01-16 16:41:27.13	89.31	11.60	
2025-01-16 16:41:27.34	89.28	11.62	
2025-01-16 16:41:27.54	89.24	11.63	
2025-01-16 16:41:27.74	89.21	11.64	
2025-01-16 16:41:27.94	89.18	11.66	
2025-01-16 16:41:28.15	89.14	11.67	
2025-01-16 16:41:28.35	89.11	11.69	
2025-01-16 16:41:28.55	89.08	11.70	
2025-01-16 16:41:28.76	89.05	11.71	
2025-01-16 16:41:28.96	89.01	11.73	
2025-01-16 16:41:29.16	88.98	11.74	
2025-01-16 16:41:29.37	88.95	11.75	
2025-01-16 16:41:29.57	88.91	11.77	
2025-01-16 16:41:29.77	88.88	11.78	
2025-01-16 16:41:29.98	88.85	11.80	
2025-01-16 16:41:30.18	88.81	11.81	
2025-01-16 16:41:30.38	88.78	11.82	
2025-01-16 16:41:30.59	88.75	11.84	
2025-01-16 16:41:30.79	88.71	11.85	
2025-01-16 16:41:30.99	88.68	11.86	
2025-01-16 16:41:31.19	88.65	11.88	
2025-01-16 16:41:31.40	88.61	11.89	
2025-01-16 16:41:31.60	88.58	11.90	
2025-01-16 16:41:31.80	88.55	11.92	
2025-01-16 16:41:32.01	88.51	11.93	
2025-01-16 16:41:32.21	88.48	11.95	
2025-01-16 16:41:32.41	88.45	11.96	
2025-01-16 16:41:32.62	88.41	11.97	
2025-01-16 16:41:32.82	88.38	11.99	
2025-01-16 16:41:33.02	88.35	12.00	
2025-01-16 16:41:33.22	88.31	12.01	
2025-01-16 16:41:33.43	88.28	12.03	
2025-01-16 16:41:33.63	88.24	12.04	
2025-01-16 16:41:33.83	88.21	12.05	
2025-01-16 16:41:34.04	88.18	12.07	
2025-01-16 16:41:34.24	88.14	12.08	
2025-01-16 16:41:34.44	88.11	12.09	
2025-01-16 16:41:34.65	88.07	12.11	
2025-01-16 16:41:34.85	88.04	12.12	
2025-01-16 16:41:35.05	88.01	12.14	
2025-01-16 16:41:35.26	87.97	12.15	
2025-01-16 16:41:35.46	87.94	12.16	
2025-01-16 16:41:35.66	87.90	12.18	
2025-01-16 16:41:35.87	87.87	12.19	
2025-01-16 16:41:36.07	87.83	12.20	
2025-01-16 16:41:36.27	87.80	12.22	
2025-01-16 16:41:36.47	87.77	12.23	
2025-01-16 16:41:36.68	87.73	12.25	
2025-01-16 16:41:36.88	87.70	12.26	
2025-01-16 16:41:37.08	87.66	12.27	
2025-01-16 16:41:37.29	87.63	12.29	
2025-01-16 16:41:37.49	87.59	12.30	
2025-01-16 16:41:37.69	87.56	12.31	
2025-01-16 16:41:37.90	87.52	12.33	
2025-01-16 16:41:38.10	87.49	12.34	
2025-01-16 16:41:38.30	87.46	12.35	
2025-01-16 16:41:38.51	87.42	12.37	
2025-01-16 16:41:38.71	87.39	12.38	
2025-01-16 16:41:38.91	87.35	12.39	
2025-01-16 16:41:39.11	87.32	12.41	
2025-01-16 16:41:39.32	87.28	12.42	
2025-01-16 16:41:39.52	87.25	12.44	
2025-01-16 16:41:39.72	87.21	12.45	
2025-01-16 16:41:39.93	87.18	12.46	
2025-01-16 16:41:40.13	87.14	12.48	
2025-01-16 16:41:40.33	87.11	12.49	
2025-01-16 16:41:40.54	87.07	12.50	
2025-01-16 16:41:40.74	87.04	12.52	
2025-01-16 16:41:40.94	87.00	12.53	
2025-01-16 16:41:41.15	86.97	12.55	
2025-01-16 16:41:41.35	86.93	12.56	
2025-01-16 16:41:41.55	86.90	12.57	
2025-01-16 16:41:41.75	86.86	12.59	
2025-01-16 16:41:41.96	86.83	12.60	
2025-01-16 16:41:42.16	86.79	12.61	
2025-01-16 16:41:42.36	86.76	12.63	
2025-01-16 16:41:42.57	86.72	12.64	
2025-01-16 16:41:42.77	86.69	12.65	
2025-01-16 16:41:42.97	86.65	12.67	
2025-01-16 16:41:43.18	86.61	12.68	
2025-01-16 16:41:43.38	86.58	12.69	
2025-01-16 16:41:43.58	86.54	12.71	
2025-01-16 16:41:43.79	86.51	12.72	
2025-01-16 16:41:43.99	86.47	12.74	
2025-01-16 16:41:44.19	86.44	12.75	
2025-01-16 16:41:44.39	86.40	12.76	
2025-01-16 16:41:44.60	86.36	12.78	
2025-01-16 16:41:44.80	86.33	12.79	
2025-01-16 16:41:45.00	86.29	12.80	
2025-01-16 16:41:45.21	86.26	12.82	
2025-01-16 16:41:45.41	86.22	12.83	
2025-01-16 16:41:45.61	86.19	12.84	
2025-01-16 16:41:45.82	86.15	12.86	
2025-01-16 16:41:46.02	86.11	12.87	
2025-01-16 16:41:46.22	86.08	12.88	
2025-01-16 16:41:46.43	86.04	12.90	
2025-01-16 16:41:46.63	86.01	12.91	
2025-01-16 16:41:46.83	85.97	12.92	
2025-01-16 16:41:47.03	85.93	12.94	
2025-01-16 16:41:47.24	85.90	12.95	
2025-01-16 16:41:47.44	85.86	12.97	
2025-01-16 16:41:47.64	85.83	12.98	
2025-01-16 16:41:47.85	85.79	12.99	
2025-01-16 16:41:48.05	85.75	13.01	
2025-01-16 16:41:48.25	85.72	13.02	
2025-01-16 16:41:48.46	85.68	13.03	
2025-01-16 16:41:48.66	85.64	13.05	
2025-01-16 16:41:48.86	85.61	13.06	
2025-01-16 16:41:49.07	85.57	13.07	
2025-01-16 16:41:49.27	85.53	13.09	
2025-01-16 16:41:49.47	85.50	13.10	
2025-01-16 16:41:49.67	85.46	13.11	
2025-01-16 16:41:49.88	85.42	13.13	
2025-01-16 16:41:50.08	85.39	13.14	
2025-01-16 16:41:50.28	85.35	13.15	
2025-01-16 16:41:50.49	85.31	13.17	
2025-01-16 16:41:50.69	85.28	13.18	
2025-01-16 16:41:50.89	85.24	13.20	
2025-01-16 16:41:51.10	85.20	13.21	
2025-01-16 16:41:51.30	85.17	13.22	
2025-01-16 16:41:51.50	85.13	13.24	
2025-01-16 16:41:51.71	85.09	13.25	
2025-01-16 16:41:51.91	85.06	13.26	
2025-01-16 16:41:52.11	85.02	13.28	
2025-01-16 16:41:52.31	84.98	13.29	
2025-01-16 16:41:52.52	84.94	13.30	
2025-01-16 16:41:52.72	84.91	13.32	
2025-01-16 16:41:52.92	84.87	13.33	
2025-01-16 16:41:53.13	84.83	13.34	
2025-01-16 16:41:53.33	84.80	13.36	
2025-01-16 16:41:53.53	84.76	13.37	
2025-01-16 16:41:53.74	84.72	13.38	
2025-01-16 16:41:53.94	84.68	13.40	
2025-01-16 16:41:54.14	84.65	13.41	
2025-01-16 16:41:54.35	84.61	13.42	
2025-01-16 16:41:54.55	84.57	13.44	
2025-01-16 16:41:54.75	84.53	13.45	
2025-01-16 16:41:54.96	84.50	13.46	
2025-01-16 16:41:55.16	84.46	13.48	
2025-01-16 16:41:55.36	84.42	13.49	
2025-01-16 16:41:55.56	84.38	13.50	
2025-01-16 16:41:55.77	84.35	13.52	
2025-01-16 16:41:55.97	84.31	13.53	
2025-01-16 16:41:56.17	84.27	13.54	
2025-01-16 16:41:56.38	84.23	13.56	
2025-01-16 16:41:56.58	84.19	13.57	
2025-01-16 16:41:56.78	84.16	13.59	
2025-01-16 16:41:56.99	84.12	13.60	
2025-01-16 16:41:57.19	84.08	13.61	
2025-01-16 16:41:57.39	84.04	13.63	
2025-01-16 16:41:57.60	84.00	13.64	
2025-01-16 16:41:57.80	83.97	13.65	
2025-01-16 16:41:58.00	83.93	13.67	
2025-01-16 16:41:58.20	83.89	13.68	
2025-01-16 16:41:58.41	83.85	13.69	
2025-01-16 16:41:58.61	83.81	13.71	
2025-01-16 16:41:58.81	83.78	13.72	
2025-01-16 16:41:59.02	83.74	13.73	
2025-01-16 16:41:59.22	83.70	13.75	
2025-01-16 16:41:59.42	83.66	13.76	
2025-01-16 16:41:59.63	83.62	13.77	
2025-01-16 16:41:59.83	83.58	13.79	
2025-01-16 16:42:00.03	83.55	13.80	
2025-01-16 16:42:00.24	83.51	13.81	
2025-01-16 16:42:00.44	83.47	13.83	
2025-01-16 16:42:00.64	83.43	13.84	
2025-01-16 16:42:00.84	83.39	13.85	
2025-01-16 16:42:01.05	83.35	13.87	
2025-01-16 16:42:01.25	83.31	13.88	
2025-01-16 16:42:01.45	83.28	13.89	
2025-01-16 16:42:01.66	83.24	13.91	
2025-01-16 16:42:01.86	83.20	13.92	
2025-01-16 16:42:02.06	83.16	13.93	
2025-01-16 16:42:02.27	83.12	13.95	
2025-01-16 16:42:02.47	83.08	13.96	
2025-01-16 16:42:02.67	83.04	13.97	
2025-01-16 16:42:02.88	83.00	13.99	
2025-01-16 16:42:03.08	82.96	14.00	
2025-01-16 16:42:03.28	82.92	14.01	
2025-01-16 16:42:03.48	82.89	14.02	
2025-01-16 16:42:03.69	82.85	14.04	
2025-01-16 16:42:03.89	82.81	14.05	
2025-01-16 16:42:04.09	82.77	14.06	
2025-01-16 16:42:04.30	82.73	14.08	
2025-01-16 16:42:04.50	82.69	14.09	
2025-01-16 16:42:04.70	82.65	14.10	
2025-01-16 16:42:04.91	82.61	14.12	
2025-01-16 16:42:05.11	82.57	14.13	
2025-01-16 16:42:05.31	82.53	14.14	
2025-01-16 16:42:05.52	82.49	14.16	
2025-01-16 16:42:05.72	82.45	14.17	
2025-01-16 16:42:05.92	82.41	14.18	
2025-01-16 16:42:06.12	82.37	14.20	
2025-01-16 16:42:06.33	82.33	14.21	
2025-01-16 16:42:06.53	82.29	14.22	
2025-01-16 16:42:06.73	82.25	14.24	
2025-01-16 16:42:06.94	82.21	14.25	
2025-01-16 16:42:07.14	82.17	14.26	
2025-01-16 16:42:07.34	82.14	14.28	
2025-01-16 16:42:07.55	82.09	14.29	
2025-01-16 16:42:07.75	82.05	14.30	
2025-01-16 16:42:07.95	82.02	14.32	
2025-01-16 16:42:08.16	81.97	14.33	
2025-01-16 16:42:08.36	81.93	14.34	
2025-01-16 16:42:08.56	81.90	14.36	
2025-01-16 16:42:08.76	81.86	14.37	
2025-01-16 16:42:08.97	81.81	14.38	
2025-01-16 16:42:09.17	81.77	14.39	
2025-01-16 16:42:09.37	81.74	14.41	
2025-01-16 16:42:09.58	81.69	14.42	
2025-01-16 16:42:09.78	81.65	14.43	
2025-01-16 16:42:09.98	81.61	14.45	
2025-01-16 16:42:10.19	81.57	14.46	
2025-01-16 16:42:10.39	81.53	14.47	
2025-01-16 16:42:10.59	81.49	14.49	
2025-01-16 16:42:10.80	81.45	14.50	
2025-01-16 16:42:11.00	81.41	14.51	
2025-01-16 16:42:11.20	81.37	14.53	
2025-01-16 16:42:11.40	81.33	14.54	
2025-01-16 16:42:11.61	81.29	14.55	
2025-01-16 16:42:11.81	81.25	14.56	
2025-01-16 16:42:12.01	81.21	14.58	
2025-01-16 16:42:12.22	81.17	14.59	
2025-01-16 16:42:12.42	81.13	14.60	
2025-01-16 16:42:12.62	81.09	14.62	
2025-01-16 16:42:12.83	81.04	14.63	
2025-01-16 16:42:13.03	81.00	14.64	
2025-01-16 16:42:13.23	80.96	14.66	
2025-01-16 16:42:13.44	80.92	14.67	
2025-01-16 16:42:13.64	80.88	14.68	
2025-01-16 16:42:13.84	80.84	14.69	
2025-01-16 16:42:14.04	80.80	14.71	
2025-01-16 16:42:14.25	80.76	14.72	
2025-01-16 16:42:14.45	80.72	14.73	
2025-01-16 16:42:14.65	80.68	14.75	
2025-01-16 16:42:14.86	80.63	14.76	
2025-01-16 16:42:15.06	80.59	14.77	
2025-01-16 16:42:15.26	80.55	14.79	
2025-01-16 16:42:15.47	80.51	14.80	
2025-01-16 16:42:15.67	80.47	14.81	
2025-01-16 16:42:15.87	80.43	14.82	
2025-01-16 16:42:16.08	80.38	14.84	
2025-01-16 16:42:16.28	80.34	14.85	
2025-01-16 16:42:16.48	80.30	14.86	
2025-01-16 16:42:16.69	80.26	14.88	
2025-01-16 16:42:16.89	80.22	14.89	
2025-01-16 16:42:17.09	80.18	14.90	
2025-01-16 16:42:17.29	80.14	14.91	
2025-01-16 16:42:17.50	80.09	14.93	
2025-01-16 16:42:17.70	80.05	14.94	
2025-01-16 16:42:17.90	80.01	14.95	
2025-01-16 16:42:18.11	79.97	14.97	
2025-01-16 16:42:18.31	79.93	14.98	
2025-01-16 16:42:18.51	79.89	14.99	
2025-01-16 16:42:18.72	79.84	15.00	
2025-01-16 16:42:18.92	79.80	15.02	
2025-01-16 16:42:19.12	79.76	15.03	
2025-01-16 16:42:19.33	79.72	15.04	
2025-01-16 16:42:19.53	79.67	15.06	
2025-01-16 16:42:19.73	79.63	15.07	
2025-01-16 16:42:19.93	79.59	15.08	
2025-01-16 16:42:20.14	79.55	15.09	
2025-01-16 16:42:20.34	79.51	15.11	
2025-01-16 16:42:20.54	79.46	15.12	
2025-01-16 16:42:20.75	79.42	15.13	
2025-01-16 16:42:20.95	79.38	15.15	
2025-01-16 16:42:21.15	79.34	15.16	
2025-01-16 16:42:21.36	79.29	15.17	
2025-01-16 16:42:21.56	79.25	15.18	
2025-01-16 16:42:21.76	79.21	15.20	
2025-01-16 16:42:21.97	79.16	15.21	
2025-01-16 16:42:22.17	79.12	15.22	
2025-01-16 16:42:22.37	79.08	15.23	
2025-01-16 16:42:22.57	79.04	15.25	
2025-01-16 16:42:22.78	78.99	15.26	
2025-01-16 16:42:22.98	78.95	15.27	
2025-01-16 16:42:23.18	78.91	15.28	
2025-01-16 16:42:23.39	78.87	15.30	
2025-01-16 16:42:23.59	78.82	15.31	
2025-01-16 16:42:23.79	78.78	15.32	
2025-01-16 16:42:24.00	78.74	15.34	
2025-01-16 16:42:24.20	78.69	15.35	
2025-01-16 16:42:24.40	78.65	15.36	
2025-01-16 16:42:24.61	78.61	15.37	
2025-01-16 16:42:24.81	78.56	15.39	
2025-01-16 16:42:25.01	78.52	15.40	
2025-01-16 16:42:25.21	78.48	15.41	
2025-01-16 16:42:25.42	78.43	15.42	
2025-01-16 16:42:25.62	78.39	15.44	
2025-01-16 16:42:25.82	78.35	15.45	
2025-01-16 16:42:26.03	78.30	15.46	
2025-01-16 16:42:26.23	78.26	15.47	
2025-01-16 16:42:26.43	78.22	15.49	
2025-01-16 16:42:26.64	78.17	15.50	
2025-01-16 16:42:26.84	78.13	15.51	
2025-01-16 16:42:27.04	78.09	15.52	
2025-01-16 16:42:27.25	78.04	15.54	
2025-01-16 16:42:27.45	78.00	15.55	
2025-01-16 16:42:27.65	77.96	15.56	
2025-01-16 16:42:27.85	77.91	15.57	
2025-01-16 16:42:28.06	77.87	15.59	
2025-01-16 16:42:28.26	77.83	15.60	
2025-01-16 16:42:28.46	77.78	15.61	
2025-01-16 16:42:28.67	77.74	15.62	
2025-01-16 16:42:28.87	77.69	15.64	
2025-01-16 16:42:29.07	77.65	15.65	
2025-01-16 16:42:29.28	77.60	15.66	
2025-01-16 16:42:29.48	77.56	15.67	
2025-01-16 16:42:29.68	77.52	15.68	
2025-01-16 16:42:29.89	77.47	15.70	
2025-01-16 16:42:30.09	77.43	15.71	
2025-01-16 16:42:30.29	77.39	15.72	
2025-01-16 16:42:30.49	77.34	15.73	
2025-01-16 16:42:30.70	77.30	15.75	
2025-01-16 16:42:30.90	77.25	15.76	
2025-01-16 16:42:31.10	77.21	15.77	
2025-01-16 16:42:31.31	77.16	15.78	
2025-01-16 16:42:31.51	77.12	15.80	
2025-01-16 16:42:31.71	77.07	15.81	
2025-01-16 16:42:31.92	77.03	15.82	
2025-01-16 16:42:32.12	76.99	15.83	
2025-01-16 16:42:32.32	76.94	15.84	
2025-01-16 16:42:32.53	76.89	15.86	
2025-01-16 16:42:32.73	76.85	15.87	
2025-01-16 16:42:32.93	76.81	15.88	
2025-01-16 16:42:33.13	76.76	15.89	
2025-01-16 16:42:33.34	76.72	15.91	
2025-01-16 16:42:33.54	76.67	15.92	
2025-01-16 16:42:33.74	76.63	15.93	
2025-01-16 16:42:33.95	76.58	15.94	
2025-01-16 16:42:34.15	76.54	15.95	
2025-01-16 16:42:34.35	76.49	15.97	
2025-01-16 16:42:34.56	76.45	15.98	
2025-01-16 16:42:34.76	76.40	15.99	
2025-01-16 16:42:34.96	76.36	16.00	
2025-01-16 16:42:35.17	76.31	16.02	
2025-01-16 16:42:35.37	76.27	16.03	
2025-01-16 16:42:35.57	76.22	16.04	
2025-01-16 16:42:35.77	76.18	16.05	
2025-01-16 16:42:35.98	76.13	16.06	
2025-01-16 16:42:36.18	76.09	16.08	
2025-01-16 16:42:36.38	76.04	16.09	
2025-01-16 16:42:36.59	75.99	16.10	
2025-01-16 16:42:36.79	75.95	16.11	
2025-01-16 16:42:36.99	75.90	16.12	
2025-01-16 16:42:37.20	75.86	16.14	
2025-01-16 16:42:37.40	75.81	16.15	
2025-01-16 16:42:37.60	75.77	16.16	
2025-01-16 16:42:37.81	75.72	16.17	
2025-01-16 16:42:38.01	75.68	16.18	
2025-01-16 16:42:38.21	75.63	16.20	
2025-01-16 16:42:38.41	75.59	16.21	
2025-01-16 16:42:38.62	75.54	16.22	
2025-01-16 16:42:38.82	75.49	16.23	
2025-01-16 16:42:39.02	75.45	16.24	
2025-01-16 16:42:39.23	75.40	16.26	
2025-01-16 16:42:39.43	75.36	16.27	
2025-01-16 16:42:39.63	75.31	16.28	
2025-01-16 16:42:39.84	75.26	16.29	
2025-01-16 16:42:40.04	75.22	16.30	
2025-01-16 16:42:40.24	75.17	16.31	
2025-01-16 16:42:40.45	75.12	16.33	
2025-01-16 16:42:40.65	75.08	16.34	
2025-01-16 16:42:40.85	75.03	16.35	
2025-01-16 16:42:41.06	74.98	16.36	
2025-01-16 16:42:41.26	74.94	16.37	
2025-01-16 16:42:41.46	74.89	16.39	
2025-01-16 16:42:41.66	74.85	16.40	
2025-01-16 16:42:41.87	74.80	16.41	
2025-01-16 16:42:42.07	74.75	16.42	
2025-01-16 16:42:42.27	74.71	16.43	
2025-01-16 16:42:42.48	74.66	16.44	
2025-01-16 16:42:42.68	74.61	16.46	
2025-01-16 16:42:42.88	74.57	16.47	
2025-01-16 16:42:43.09	74.52	16.48	
2025-01-16 16:42:43.29	74.47	16.49	
2025-01-16 16:42:43.49	74.43	16.50	
2025-01-16 16:42:43.70	74.38	16.51	
2025-01-16 16:42:43.90	74.33	16.53	
2025-01-16 16:42:44.10	74.29	16.54	
2025-01-16 16:42:44.30	74.24	16.55	
2025-01-16 16:42:44.51	74.19	16.56	
2025-01-16 16:42:44.71	74.15	16.57	
2025-01-16 16:42:44.91	74.10	16.58	
2025-01-16 16:42:45.12	74.05	16.60	
2025-01-16 16:42:45.32	74.01	16.61	
2025-01-16 16:42:45.52	73.96	16.62	
2025-01-16 16:42:45.73	73.91	16.63	
2025-01-16 16:42:45.93	73.86	16.64	
2025-01-16 16:42:46.13	73.82	16.65	
2025-01-16 16:42:46.34	73.77	16.66	
2025-01-16 16:42:46.54	73.72	16.68	
2025-01-16 16:42:46.74	73.67	16.69	
2025-01-16 16:42:46.94	73.63	16.70	
2025-01-16 16:42:47.15	73.58	16.71	
2025-01-16 16:42:47.35	73.53	16.72	
2025-01-16 16:42:47.55	73.49	16.73	
2025-01-16 16:42:47.76	73.44	16.74	
2025-01-16 16:42:47.96	73.39	16.75	
2025-01-16 16:42:48.16	73.34	16.77	
2025-01-16 16:42:48.37	73.29	16.78	
2025-01-16 16:42:48.57	73.25	16.79	
2025-01-16 16:42:48.77	73.20	16.80	
2025-01-16 16:42:48.98	73.15	16.81	
2025-01-16 16:42:49.18	73.10	16.82	
2025-01-16 16:42:49.38	73.06	16.83	
2025-01-16 16:42:49.58	73.01	16.84	
2025-01-16 16:42:49.79	72.96	16.86	
2025-01-16 16:42:49.99	72.91	16.87	
2025-01-16 16:42:50.19	72.86	16.88	
2025-01-16 16:42:50.40	72.81	16.89	
2025-01-16 16:42:50.60	72.77	16.90	
2025-01-16 16:42:50.80	72.72	16.91	
2025-01-16 16:42:51.01	72.67	16.92	
2025-01-16 16:42:51.21	72.62	16.93	
2025-01-16 16:42:51.41	72.58	16.95	
2025-01-16 16:42:51.62	72.53	16.96	
2025-01-16 16:42:51.82	72.48	16.97	
2025-01-16 16:42:52.02	72.43	16.98	
2025-01-16 16:42:52.22	72.38	16.99	
2025-01-16 16:42:52.43	72.33	17.00	
2025-01-16 16:42:52.63	72.28	17.01	
2025-01-16 16:42:52.83	72.24	17.02	
2025-01-16 16:42:53.04	72.19	17.03	
2025-01-16 16:42:53.24	72.14	17.05	
2025-01-16 16:42:53.44	72.09	17.06	
2025-01-16 16:42:53.65	72.04	17.07	
2025-01-16 16:42:53.85	71.99	17.08	
2025-01-16 16:42:54.05	71.94	17.09	
2025-01-16 16:42:54.26	71.89	17.10	
2025-01-16 16:42:54.46	71.85	17.11	
2025-01-16 16:42:54.66	71.80	17.12	
2025-01-16 16:42:54.86	71.75	17.13	
2025-01-16 16:42:55.07	71.70	17.14	
2025-01-16 16:42:55.27	71.65	17.15	
2025-01-16 16:42:55.47	71.60	17.16	
2025-01-16 16:42:55.68	71.55	17.18	
2025-01-16 16:42:55.88	71.50	17.19	
2025-01-16 16:42:56.08	71.46	17.20	
2025-01-16 16:42:56.29	71.41	17.21	
2025-01-16 16:42:56.49	71.36	17.22	
2025-01-16 16:42:56.69	71.31	17.23	
2025-01-16 16:42:56.90	71.26	17.24	
2025-01-16 16:42:57.10	71.21	17.25	
2025-01-16 16:42:57.30	71.16	17.26	
2025-01-16 16:42:57.50	71.11	17.27	
2025-01-16 16:42:57.71	71.06	17.28	
2025-01-16 16:42:57.91	71.01	17.29	
2025-01-16 16:42:58.11	70.96	17.30	
2025-01-16 16:42:58.32	70.91	17.32	
2025-01-16 16:42:58.52	70.86	17.33	
2025-01-16 16:42:58.72	70.81	17.34	
2025-01-16 16:42:58.93	70.76	17.35	
2025-01-16 16:42:59.13	70.71	17.36	
2025-01-16 16:42:59.33	70.67	17.37	
2025-01-16 16:42:59.54	70.61	17.38	
2025-01-16 16:42:59.74	70.56	17.39	
2025-01-16 16:42:59.94	70.52	17.40	
2025-01-16 16:43:00.14	70.47	17.41	
2025-01-16 16:43:00.35	70.42	17.42	
2025-01-16 16:43:00.55	70.37	17.43	
2025-01-16 16:43:00.75	70.32	17.44	
2025-01-16 16:43:00.96	70.27	17.45	
2025-01-16 16:43:01.16	70.22	17.46	
2025-01-16 16:43:01.36	70.17	17.47	
2025-01-16 16:43:01.57	70.11	17.48	
2025-01-16 16:43:01.77	70.07	17.49	
2025-01-16 16:43:01.97	70.02	17.50	
2025-01-16 16:43:02.18	69.96	17.51	
2025-01-16 16:43:02.38	69.91	17.52	
2025-01-16 16:43:02.58	69.87	17.53	
2025-01-16 16:43:02.79	69.81	17.54	
2025-01-16 16:43:02.99	69.76	17.55	
2025-01-16 16:43:03.19	69.71	17.56	
2025-01-16 16:43:03.39	69.66	17.57	
2025-01-16 16:43:03.60	69.61	17.59	
2025-01-16 16:43:03.80	69.56	17.60	
2025-01-16 16:43:04.00	69.51	17.61	
2025-01-16 16:43:04.21	69.46	17.62	
2025-01-16 16:43:04.41	69.41	17.63	
2025-01-16 16:43:04.61	69.36	17.64	
2025-01-16 16:43:04.82	69.31	17.65	
2025-01-16 16:43:05.02	69.26	17.66	
2025-01-16 16:43:05.22	69.21	17.67	
2025-01-16 16:43:05.43	69.16	17.68	
2025-01-16 16:43:05.63	69.11	17.69	
2025-01-16 16:43:05.83	69.06	17.70	
2025-01-16 16:43:06.03	69.01	17.71	
2025-01-16 16:43:06.24	68.95	17.72	
2025-01-16 16:43:06.44	68.90	17.73	
2025-01-16 16:43:06.64	68.85	17.74	
2025-01-16 16:43:06.85	68.80	17.75	
2025-01-16 16:43:07.05	68.75	17.76	
2025-01-16 16:43:07.25	68.70	17.76	
2025-01-16 16:43:07.46	68.65	17.78	
2025-01-16 16:43:07.66	68.60	17.78	
2025-01-16 16:43:07.86	68.55	17.79	
2025-01-16 16:43:08.07	68.49	17.80	
2025-01-16 16:43:08.27	68.44	17.81	
2025-01-16 16:43:08.47	68.39	17.82	
2025-01-16 16:43:08.67	68.34	17.83	
2025-01-16 16:43:08.88	68.29	17.84	
2025-01-16 16:43:09.08	68.24	17.85	
2025-01-16 16:43:09.28	68.19	17.86	
2025-01-16 16:43:09.49	68.13	17.87	
2025-01-16 16:43:09.69	68.08	17.88	
2025-01-16 16:43:09.89	68.03	17.89	
2025-01-16 16:43:10.10	67.98	17.90	
2025-01-16 16:43:10.30	67.93	17.91	
2025-01-16 16:43:10.50	67.88	17.92	
2025-01-16 16:43:10.71	67.82	17.93	
2025-01-16 16:43:10.91	67.77	17.94	
2025-01-16 16:43:11.11	67.72	17.95	
2025-01-16 16:43:11.31	67.67	17.96	
2025-01-16 16:43:11.52	67.62	17.97	
2025-01-16 16:43:11.72	67.57	17.98	
2025-01-16 16:43:11.92	67.51	17.99	
2025-01-16 16:43:12.13	67.46	18.00	
2025-01-16 16:43:12.33	67.41	18.01	
2025-01-16 16:43:12.53	67.36	18.01	
2025-01-16 16:43:12.74	67.30	18.02	
2025-01-16 16:43:12.94	67.25	18.03	
2025-01-16 16:43:13.14	67.20	18.04	
2025-01-16 16:43:13.35	67.15	18.05	
2025-01-16 16:43:13.55	67.10	18.06	
2025-01-16 16:43:13.75	67.05	18.07	
2025-01-16 16:43:13.95	66.99	18.08	
2025-01-16 16:43:14.16	66.94	18.09	
2025-01-16 16:43:14.36	66.89	18.10	
2025-01-16 16:43:14.56	66.84	18.11	
2025-01-16 16:43:14.77	66.78	18.12	
2025-01-16 16:43:14.97	66.73	18.13	
2025-01-16 16:43:15.17	66.68	18.13	
2025-01-16 16:43:15.38	66.63	18.14	
2025-01-16 16:43:15.58	66.57	18.15	
2025-01-16 16:43:15.78	66.52	18.16	
2025-01-16 16:43:15.99	66.47	18.17	
2025-01-16 16:43:16.19	66.42	18.18	
2025-01-16 16:43:16.39	66.36	18.19	
2025-01-16 16:43:16.59	66.31	18.20	
2025-01-16 16:43:16.80	66.26	18.21	
2025-01-16 16:43:17.00	66.21	18.22	
2025-01-16 16:43:17.20	66.15	18.22	
2025-01-16 16:43:17.41	66.10	18.23	
2025-01-16 16:43:17.61	66.05	18.24	
2025-01-16 16:43:17.81	65.99	18.25	
2025-01-16 16:43:18.02	65.94	18.26	
2025-01-16 16:43:18.22	65.89	18.27	
2025-01-16 16:43:18.42	65.84	18.28	
2025-01-16 16:43:18.63	65.78	18.29	
2025-01-16 16:43:18.83	65.73	18.30	
2025-01-16 16:43:19.03	65.68	18.30	
2025-01-16 16:43:19.23	65.62	18.31	
2025-01-16 16:43:19.44	65.57	18.32	
2025-01-16 16:43:19.64	65.52	18.33	
2025-01-16 16:43:19.84	65.46	18.34	
2025-01-16 16:43:20.05	65.41	18.35	
2025-01-16 16:43:20.25	65.36	18.36	
2025-01-16 16:43:20.45	65.30	18.36	
2025-01-16 16:43:20.66	65.25	18.37	
2025-01-16 16:43:20.86	65.20	18.38	
2025-01-16 16:43:21.06	65.14	18.39	
2025-01-16 16:43:21.27	65.09	18.40	
2025-01-16 16:43:21.47	65.04	18.41	
2025-01-16 16:43:21.67	64.98	18.42	
2025-01-16 16:43:21.87	64.93	18.42	
2025-01-16 16:43:22.08	64.88	18.43	
2025-01-16 16:43:22.28	64.82	18.44	
2025-01-16 16:43:22.48	64.77	18.45	
2025-01-16 16:43:22.69	64.71	18.46	
2025-01-16 16:43:22.89	64.66	18.47	
2025-01-16 16:43:23.09	64.61	18.47	
2025-01-16 16:43:23.30	64.55	18.48	
2025-01-16 16:43:23.50	64.50	18.49	
2025-01-16 16:43:23.70	64.45	18.50	
2025-01-16 16:43:23.91	64.39	18.51	
2025-01-16 16:43:24.11	64.34	18.52	
2025-01-16 16:43:24.31	64.29	18.52	
2025-01-16 16:43:24.52	64.23	18.53	
2025-01-16 16:43:24.72	64.18	18.54	
2025-01-16 16:43:24.92	64.12	18.55	
2025-01-16 16:43:25.12	64.07	18.56	
2025-01-16 16:43:25.33	64.01	18.56	
2025-01-16 16:43:25.53	63.96	18.57	
2025-01-16 16:43:25.73	63.91	18.58	
2025-01-16 16:43:25.94	63.85	18.59	
2025-01-16 16:43:26.14	63.80	18.60	
2025-01-16 16:43:26.34	63.75	18.60	
2025-01-16 16:43:26.55	63.69	18.61	
2025-01-16 16:43:26.75	63.64	18.62	
2025-01-16 16:43:26.95	63.58	18.63	
2025-01-16 16:43:27.16	63.53	18.64	
2025-01-16 16:43:27.36	63.47	18.64	
2025-01-16 16:43:27.56	63.42	18.65	
2025-01-16 16:43:27.76	63.37	18.66	
2025-01-16 16:43:27.97	63.31	18.67	
2025-01-16 16:43:28.17	63.26	18.67	
2025-01-16 16:43:28.37	63.20	18.68	
2025-01-16 16:43:28.58	63.15	18.69	
2025-01-16 16:43:28.78	63.09	18.70	
2025-01-16 16:43:28.98	63.04	18.71	
2025-01-16 16:43:29.19	62.98	18.71	
2025-01-16 16:43:29.39	62.93	18.72	
2025-01-16 16:43:29.59	62.87	18.73	
2025-01-16 16:43:29.80	62.82	18.74	
2025-01-16 16:43:30.00	62.76	18.74	
2025-01-16 16:43:30.20	62.71	18.75	
2025-01-16 16:43:30.40	62.66	18.76	
2025-01-16 16:43:30.61	62.60	18.77	
2025-01-16 16:43:30.81	62.55	18.77	
2025-01-16 16:43:31.01	62.49	18.78	
2025-01-16 16:43:31.22	62.44	18.79	
2025-01-16 16:43:31.42	62.38	18.80	
2025-01-16 16:43:31.62	62.33	18.80	
2025-01-16 16:43:31.83	62.27	18.81	
2025-01-16 16:43:32.03	62.22	18.82	
2025-01-16 16:43:32.23	62.16	18.82	
2025-01-16 16:43:32.44	62.10	18.83	
2025-01-16 16:43:32.64	62.05	18.84	
2025-01-16 16:43:32.84	62.00	18.85	
2025-01-16 16:43:33.04	61.94	18.85	
2025-01-16 16:43:33.25	61.88	18.86	
2025-01-16 16:43:33.45	61.83	18.87	
2025-01-16 16:43:33.65	61.78	18.87	
2025-01-16 16:43:33.86	61.72	18.88	
2025-01-16 16:43:34.06	61.66	18.89	
2025-01-16 16:43:34.26	61.61	18.90	
2025-01-16 16:43:34.47	61.55	18.90	
2025-01-16 16:43:34.67	61.50	18.91	
2025-01-16 16:43:34.87	61.44	18.92	
2025-01-16 16:43:35.08	61.39	18.92	
2025-01-16 16:43:35.28	61.33	18.93	
2025-01-16 16:43:35.48	61.28	18.94	
2025-01-16 16:43:35.68	61.22	18.94	
2025-01-16 16:43:35.89	61.17	18.95	
2025-01-16 16:43:36.09	61.11	18.96	
2025-01-16 16:43:36.29	61.06	18.97	
2025-01-16 16:43:36.50	61.00	18.97	
2025-01-16 16:43:36.70	60.94	18.98	
2025-01-16 16:43:36.90	60.89	18.99	
2025-01-16 16:43:37.11	60.83	18.99	
2025-01-16 16:43:37.31	60.78	19.00	
2025-01-16 16:43:37.51	60.72	19.01	
2025-01-16 16:43:37.72	60.66	19.01	
2025-01-16 16:43:37.92	60.61	19.02	
2025-01-16 16:43:38.12	60.55	19.03	
2025-01-16 16:43:38.32	60.50	19.03	
2025-01-16 16:43:38.53	60.44	19.04	
2025-01-16 16:43:38.73	60.39	19.04	
2025-01-16 16:43:38.93	60.33	19.05	
2025-01-16 16:43:39.14	60.27	19.06	
2025-01-16 16:43:39.34	60.22	19.06	
2025-01-16 16:43:39.54	60.16	19.07	
2025-01-16 16:43:39.75	60.11	19.08	
2025-01-16 16:43:39.95	60.05	19.08	
2025-01-16 16:43:40.15	60.00	19.09	
2025-01-16 16:43:40.36	59.94	19.10	
2025-01-16 16:43:40.56	59.88	19.10	
2025-01-16 16:43:40.76	59.83	19.11	
2025-01-16 16:43:40.96	59.77	19.11	
2025-01-16 16:43:41.17	59.71	19.12	
2025-01-16 16:43:41.37	59.66	19.13	
2025-01-16 16:43:41.57	59.60	19.13	
2025-01-16 16:43:41.78	59.54	19.14	
2025-01-16 16:43:41.98	59.49	19.14	
2025-01-16 16:43:42.18	59.43	19.15	
2025-01-16 16:43:42.39	59.38	19.16	
2025-01-16 16:43:42.59	59.32	19.16	
2025-01-16 16:43:42.79	59.26	19.17	
2025-01-16 16:43:43.00	59.21	19.18	
2025-01-16 16:43:43.20	59.15	19.18	
2025-01-16 16:43:43.40	59.10	19.19	
2025-01-16 16:43:43.60	59.04	19.19	
2025-01-16 16:43:43.81	58.98	19.20	
2025-01-16 16:43:44.01	58.93	19.20	
2025-01-16 16:43:44.21	58.87	19.21	
2025-01-16 16:43:44.42	58.81	19.22	
2025-01-16 16:43:44.62	58.76	19.22	
2025-01-16 16:43:44.82	58.70	19.23	
2025-01-16 16:43:45.03	58.64	19.23	
2025-01-16 16:43:45.23	58.59	19.24	
2025-01-16 16:43:45.43	58.53	19.24	
2025-01-16 16:43:45.64	58.47	19.25	
2025-01-16 16:43:45.84	58.42	19.26	
2025-01-16 16:43:46.04	58.36	19.26	
2025-01-16 16:43:46.24	58.30	19.27	
2025-01-16 16:43:46.45	58.25	19.27	
2025-01-16 16:43:46.65	58.19	19.28	
2025-01-16 16:43:46.85	58.13	19.28	
2025-01-16 16:43:47.06	58.08	19.29	
2025-01-16 16:43:47.26	58.02	19.29	
2025-01-16 16:43:47.46	57.96	19.30	
2025-01-16 16:43:47.67	57.90	19.30	
2025-01-16 16:43:47.87	57.85	19.31	
2025-01-16 16:43:48.07	57.79	19.32	
2025-01-16 16:43:48.28	57.73	19.32	
2025-01-16 16:43:48.48	57.68	19.33	
2025-01-16 16:43:48.68	57.62	19.33	
2025-01-16 16:43:48.89	57.56	19.34	
2025-01-16 16:43:49.09	57.51	19.34	
2025-01-16 16:43:49.29	57.45	19.35	
2025-01-16 16:43:49.49	57.39	19.35	
2025-01-16 16:43:49.70	57.33	19.36	
2025-01-16 16:43:49.90	57.28	19.36	
2025-01-16 16:43:50.10	57.22	19.37	
2025-01-16 16:43:50.31	57.16	19.37	
2025-01-16 16:43:50.51	57.11	19.38	
2025-01-16 16:43:50.71	57.05	19.38	
2025-01-16 16:43:50.92	56.99	19.39	
2025-01-16 16:43:51.12	56.94	19.39	
2025-01-16 16:43:51.32	56.88	19.40	
2025-01-16 16:43:51.53	56.82	19.40	
2025-01-16 16:43:51.73	56.76	19.41	
2025-01-16 16:43:51.93	56.71	19.41	
2025-01-16 16:43:52.13	56.65	19.42	
2025-01-16 16:43:52.34	56.59	19.42	
2025-01-16 16:43:52.54	56.53	19.42	
2025-01-16 16:43:52.74	56.48	19.43	
2025-01-16 16:43:52.95	56.42	19.43	
2025-01-16 16:43:53.15	56.36	19.44	
2025-01-16 16:43:53.35	56.31	19.44	
2025-01-16 16:43:53.56	56.25	19.45	
2025-01-16 16:43:53.76	56.19	19.45	
2025-01-16 16:43:53.96	56.13	19.46	
2025-01-16 16:43:54.17	56.07	19.46	
2025-01-16 16:43:54.37	56.02	19.47	
2025-01-16 16:43:54.57	55.96	19.47	
2025-01-16 16:43:54.77	55.90	19.47	
2025-01-16 16:43:54.98	55.84	19.48	
2025-01-16 16:43:55.18	55.79	19.48	
2025-01-16 16:43:55.38	55.73	19.49	
2025-01-16 16:43:55.59	55.67	19.49	
2025-01-16 16:43:55.79	55.61	19.50	
2025-01-16 16:43:55.99	55.56	19.50	
2025-01-16 16:43:56.20	55.50	19.50	
2025-01-16 16:43:56.40	55.44	19.51	
2025-01-16 16:43:56.60	55.38	19.51	
2025-01-16 16:43:56.81	55.32	19.52	
2025-01-16 16:43:57.01	55.27	19.52	
2025-01-16 16:43:57.21	55.21	19.52	
2025-01-16 16:43:57.41	55.15	19.53	
2025-01-16 16:43:57.62	55.09	19.53	
2025-01-16 16:43:57.82	55.04	19.54	
2025-01-16 16:43:58.02	54.98	19.54	
2025-01-16 16:43:58.23	54.92	19.54	
2025-01-16 16:43:58.43	54.86	19.55	
2025-01-16 16:43:58.63	54.81	19.55	
2025-01-16 16:43:58.84	54.75	19.56	
2025-01-16 16:43:59.04	54.69	19.56	
2025-01-16 16:43:59.24	54.63	19.56	
2025-01-16 16:43:59.45	54.57	19.57	
2025-01-16 16:43:59.65	54.52	19.57	
2025-01-16 16:43:59.85	54.46	19.57	
2025-01-16 16:44:00.05	54.40	19.58	
2025-01-16 16:44:00.26	54.34	19.58	
2025-01-16 16:44:00.46	54.29	19.59	
2025-01-16 16:44:00.66	54.23	19.59	
2025-01-16 16:44:00.87	54.17	19.59	
2025-01-16 16:44:01.07	54.11	19.60	
2025-01-16 16:44:01.27	54.05	19.60	
2025-01-16 16:44:01.48	53.99	19.60	
2025-01-16 16:44:01.68	53.94	19.61	
2025-01-16 16:44:01.88	53.88	19.61	
2025-01-16 16:44:02.09	53.82	19.61	
2025-01-16 16:44:02.29	53.76	19.62	
2025-01-16 16:44:02.49	53.70	19.62	
2025-01-16 16:44:02.69	53.65	19.62	
2025-01-16 16:44:02.90	53.59	19.63	
2025-01-16 16:44:03.10	53.53	19.63	
2025-01-16 16:44:03.30	53.47	19.63	
2025-01-16 16:44:03.51	53.41	19.64	
2025-01-16 16:44:03.71	53.36	19.64	
2025-01-16 16:44:03.91	53.30	19.64	
2025-01-16 16:44:04.12	53.24	19.64	
2025-01-16 16:44:04.32	53.18	19.65	
2025-01-16 16:44:04.52	53.12	19.65	
2025-01-16 16:44:04.73	53.06	19.65	
2025-01-16 16:44:04.93	53.01	19.66	
2025-01-16 16:44:05.13	52.95	19.66	
2025-01-16 16:44:05.33	52.89	19.66	
2025-01-16 16:44:05.54	52.83	19.67	
2025-01-16 16:44:05.74	52.77	19.67	
2025-01-16 16:44:05.94	52.72	19.67	
2025-01-16 16:44:06.15	52.66	19.67	
2025-01-16 16:44:06.35	52.60	19.68	
2025-01-16 16:44:06.55	52.54	19.68	
2025-01-16 16:44:06.76	52.48	19.68	
2025-01-16 16:44:06.96	52.42	19.68	
2025-01-16 16:44:07.16	52.37	19.69	
2025-01-16 16:44:07.37	52.30	19.69	
2025-01-16 16:44:07.57	52.25	19.69	
2025-01-16 16:44:07.77	52.19	19.69	
2025-01-16 16:44:07.97	52.13	19.70	
2025-01-16 16:44:08.18	52.07	19.70	
2025-01-16 16:44:08.38	52.01	19.70	
2025-01-16 16:44:08.58	51.96	19.70	
2025-01-16 16:44:08.79	51.90	19.71	
2025-01-16 16:44:08.99	51.84	19.71	
2025-01-16 16:44:09.19	51.78	19.71	
2025-01-16 16:44:09.40	51.72	19.71	
2025-01-16 16:44:09.60	51.66	19.72	
2025-01-16 16:44:09.80	51.61	19.72	
2025-01-16 16:44:10.01	51.54	19.72	
2025-01-16 16:44:10.21	51.49	19.72	
2025-01-16 16:44:10.41	51.43	19.73	
2025-01-16 16:44:10.62	51.37	19.73	
2025-01-16 16:44:10.82	51.31	19.73	
2025-01-16 16:44:11.02	51.25	19.73	
2025-01-16 16:44:11.22	51.20	19.73	
2025-01-16 16:44:11.43	51.14	19.74	
2025-01-16 16:44:11.63	51.08	19.74	
2025-01-16 16:44:11.83	51.02	19.74	
2025-01-16 16:44:12.04	50.96	19.74	
2025-01-16 16:44:12.24	50.90	19.74	
2025-01-16 16:44:12.44	50.84	19.74	
2025-01-16 16:44:12.65	50.78	19.75	
2025-01-16 16:44:12.85	50.73	19.75	
2025-01-16 16:44:13.05	50.67	19.75	
2025-01-16 16:44:13.26	50.61	19.75	
2025-01-16 16:44:13.46	50.55	19.75	
2025-01-16 16:44:13.66	50.49	19.76	
2025-01-16 16:44:13.86	50.43	19.76	
2025-01-16 16:44:14.07	50.37	19.76	
2025-01-16 16:44:14.27	50.32	19.76	
2025-01-16 16:44:14.47	50.26	19.76	
2025-01-16 16:44:14.68	50.20	19.76	
2025-01-16 16:44:14.88	50.14	19.76	
2025-01-16 16:44:15.08	50.08	19.77	
2025-01-16 16:44:15.29	50.02	19.77	
2025-01-16 16:44:15.49	49.96	19.77	
2025-01-16 16:44:15.69	49.91	19.77	
2025-01-16 16:44:15.90	49.84	19.77	
2025-01-16 16:44:16.10	49.79	19.77	
2025-01-16 16:44:16.30	49.73	19.77	
2025-01-16 16:44:16.50	49.67	19.78	
2025-01-16 16:44:16.71	49.61	19.78	
2025-01-16 16:44:16.91	49.55	19.78	
2025-01-16 16:44:17.11	49.49	19.78	
2025-01-16 16:44:17.32	49.43	19.78	
2025-01-16 16:44:17.52	49.38	19.78	
2025-01-16 16:44:17.72	49.32	19.78	
2025-01-16 16:44:17.93	49.26	19.78	
2025-01-16 16:44:18.13	49.20	19.78	
2025-01-16 16:44:18.33	49.14	19.79	
2025-01-16 16:44:18.54	49.08	19.79	
2025-01-16 16:44:18.74	49.02	19.79	
2025-01-16 16:44:18.94	48.96	19.79	
2025-01-16 16:44:19.14	48.91	19.79	
2025-01-16 16:44:19.35	48.85	19.79	
2025-01-16 16:44:19.55	48.79	19.79	
2025-01-16 16:44:19.75	48.73	19.79	
2025-01-16 16:44:19.96	48.67	19.79	
2025-01-16 16:44:20.16	48.61	19.79	
2025-01-16 16:44:20.36	48.55	19.79	
2025-01-16 16:44:20.57	48.49	19.79	
2025-01-16 16:44:20.77	48.44	19.79	
2025-01-16 16:44:20.97	48.38	19.80	
2025-01-16 16:44:21.18	48.32	19.80	
2025-01-16 16:44:21.38	48.26	19.80	
2025-01-16 16:44:21.58	48.20	19.80	
2025-01-16 16:44:21.78	48.14	19.80	
2025-01-16 16:44:21.99	48.08	19.80	
2025-01-16 16:44:22.19	48.02	19.80	
2025-01-16 16:44:22.39	47.97	19.80	
2025-01-16 16:44:22.60	47.91	19.80	
2025-01-16 16:44:22.80	47.85	19.80	
2025-01-16 16:44:23.00	47.79	19.80	
2025-01-16 16:44:23.21	47.73	19.80	
2025-01-16 16:44:23.41	47.67	19.80	
2025-01-16 16:44:23.61	47.61	19.80	
2025-01-16 16:44:23.82	47.55	19.80	
2025-01-16 16:44:24.02	47.49	19.80	
2025-01-16 16:44:24.22	47.44	19.80	
2025-01-16 16:44:24.42	47.38	19.80	
2025-01-16 16:44:24.63	47.32	19.80	
2025-01-16 16:44:24.83	47.26	19.80	
2025-01-16 16:44:25.03	47.20	19.80	
2025-01-16 16:44:25.24	47.14	19.80	
2025-01-16 16:44:25.44	47.08	19.80	
2025-01-16 16:44:25.64	47.02	19.80	
2025-01-16 16:44:25.85	46.96	19.80	
2025-01-16 16:44:26.05	46.91	19.80	
2025-01-16 16:44:26.25	46.85	19.80	
2025-01-16 16:44:26.46	46.79	19.80	
2025-01-16 16:44:26.66	46.73	19.80	
2025-01-16 16:44:26.86	46.67	19.80	
2025-01-16 16:44:27.06	46.61	19.80	
2025-01-16 16:44:27.27	46.55	19.80	
2025-01-16 16:44:27.47	46.49	19.80	
2025-01-16 16:44:27.67	46.44	19.80	
2025-01-16 16:44:27.88	46.38	19.80	
2025-01-16 16:44:28.08	46.32	19.80	
2025-01-16 16:44:28.28	46.26	19.80	
2025-01-16 16:44:28.49	46.20	19.80	
2025-01-16 16:44:28.69	46.14	19.80	
2025-01-16 16:44:28.89	46.08	19.79	
2025-01-16 16:44:29.10	46.02	19.79	
2025-01-16 16:44:29.30	45.96	19.79	
2025-01-16 16:44:29.50	45.91	19.79	
2025-01-16 16:44:29.70	45.85	19.79	
2025-01-16 16:44:29.91	45.79	19.79	
2025-01-16 16:44:30.11	45.73	19.79	
2025-01-16 16:44:30.31	45.67	19.79	
2025-01-16 16:44:30.52	45.61	19.79	
2025-01-16 16:44:30.72	45.55	19.79	
2025-01-16 16:44:30.92	45.50	19.79	
2025-01-16 16:44:31.13	45.44	19.79	
2025-01-16 16:44:31.33	45.38	19.79	
2025-01-16 16:44:31.53	45.32	19.78	
2025-01-16 16:44:31.74	45.26	19.78	
2025-01-16 16:44:31.94	45.20	19.78	
2025-01-16 16:44:32.14	45.14	19.78	
2025-01-16 16:44:32.35	45.08	19.78	
2025-01-16 16:44:32.55	45.02	19.78	
2025-01-16 16:44:32.75	44.97	19.78	
2025-01-16 16:44:32.95	44.91	19.78	
2025-01-16 16:44:33.16	44.85	19.78	
2025-01-16 16:44:33.36	44.79	19.77	
2025-01-16 16:44:33.56	44.73	19.77	
2025-01-16 16:44:33.77	44.67	19.77	
2025-01-16 16:44:33.97	44.61	19.77	
2025-01-16 16:44:34.17	44.56	19.77	
2025-01-16 16:44:34.38	44.50	19.77	
2025-01-16 16:44:34.58	44.44	19.77	
2025-01-16 16:44:34.78	44.38	19.76	
2025-01-16 16:44:34.99	44.32	19.76	
2025-01-16 16:44:35.19	44.26	19.76	
2025-01-16 16:44:35.39	44.20	19.76	
2025-01-16 16:44:35.59	44.15	19.76	
2025-01-16 16:44:35.80	44.09	19.76	
2025-01-16 16:44:36.00	44.03	19.75	
2025-01-16 16:44:36.20	43.97	19.75	
2025-01-16 16:44:36.41	43.91	19.75	
2025-01-16 16:44:36.61	43.85	19.75	
2025-01-16 16:44:36.81	43.79	19.75	
2025-01-16 16:44:37.02	43.73	19.75	
2025-01-16 16:44:37.22	43.68	19.74	
2025-01-16 16:44:37.42	43.62	19.74	
2025-01-16 16:44:37.63	43.56	19.74	
2025-01-16 16:44:37.83	43.50	19.74	
2025-01-16 16:44:38.03	43.44	19.74	
2025-01-16 16:44:38.23	43.38	19.73	
2025-01-16 16:44:38.44	43.32	19.73	
2025-01-16 16:44:38.64	43.27	19.73	
2025-01-16 16:44:38.84	43.21	19.73	
2025-01-16 16:44:39.05	43.15	19.73	
2025-01-16 16:44:39.25	43.09	19.72	
2025-01-16 16:44:39.45	43.03	19.72	
2025-01-16 16:44:39.66	42.97	19.72	
2025-01-16 16:44:39.86	42.91	19.72	
2025-01-16 16:44:40.06	42.86	19.72	
2025-01-16 16:44:40.27	42.80	19.71	
2025-01-16 16:44:40.47	42.74	19.71	
2025-01-16 16:44:40.67	42.68	19.71	
2025-01-16 16:44:40.87	42.62	19.71	
2025-01-16 16:44:41.08	42.56	19.70	
2025-01-16 16:44:41.28	42.51	19.70	
2025-01-16 16:44:41.48	42.45	19.70	
2025-01-16 16:44:41.69	42.39	19.70	
2025-01-16 16:44:41.89	42.33	19.69	
2025-01-16 16:44:42.09	42.27	19.69	
2025-01-16 16:44:42.30	42.21	19.69	
2025-01-16 16:44:42.50	42.16	19.69	
2025-01-16 16:44:42.70	42.10	19.68	
2025-01-16 16:44:42.91	42.04	19.68	
2025-01-16 16:44:43.11	41.98	19.68	
2025-01-16 16:44:43.31	41.92	19.68	
2025-01-16 16:44:43.51	41.87	19.67	
2025-01-16 16:44:43.72	41.81	19.67	
2025-01-16 16:44:43.92	41.75	19.67	
2025-01-16 16:44:44.12	41.69	19.66	
2025-01-16 16:44:44.33	41.63	19.66	
2025-01-16 16:44:44.53	41.57	19.66	
2025-01-16 16:44:44.73	41.52	19.66	
2025-01-16 16:44:44.94	41.46	19.65	
2025-01-16 16:44:45.14	41.40	19.65	
2025-01-16 16:44:45.34	41.34	19.65	
2025-01-16 16:44:45.55	41.28	19.64	
2025-01-16 16:44:45.75	41.22	19.64	
2025-01-16 16:44:45.95	41.17	19.64	
2025-01-16 16:44:46.15	41.11	19.63	
2025-01-16 16:44:46.36	41.05	19.63	
2025-01-16 16:44:46.56	40.99	19.63	
2025-01-16 16:44:46.76	40.93	19.63	
2025-01-16 16:44:46.97	40.87	19.62	
2025-01-16 16:44:47.17	40.82	19.62	
2025-01-16 16:44:47.37	40.76	19.62	
2025-01-16 16:44:47.58	40.70	19.61	
2025-01-16 16:44:47.78	40.64	19.61	
2025-01-16 16:44:47.98	40.59	19.61	
2025-01-16 16:44:48.19	40.53	19.60	
2025-01-16 16:44:48.39	40.47	19.60	
2025-01-16 16:44:48.59	40.41	19.60	
2025-01-16 16:44:48.79	40.35	19.59	
2025-01-16 16:44:49.00	40.29	19.59	
2025-01-16 16:44:49.20	40.24	19.58	
2025-01-16 16:44:49.40	40.18	19.58	
2025-01-16 16:44:49.61	40.12	19.58	
2025-01-16 16:44:49.81	40.06	19.57	
2025-01-16 16:44:50.01	40.01	19.57	
2025-01-16 16:44:50.22	39.95	19.57	
2025-01-16 16:44:50.42	39.89	19.56	
2025-01-16 16:44:50.62	39.83	19.56	
2025-01-16 16:44:50.83	39.77	19.55	
2025-01-16 16:44:51.03	39.72	19.55	
2025-01-16 16:44:51.23	39.66	19.55	
2025-01-16 16:44:51.43	39.60	19.54	
2025-01-16 16:44:51.64	39.54	19.54	
2025-01-16 16:44:51.84	39.49	19.54	
2025-01-16 16:44:52.04	39.43	19.53	
2025-01-16 16:44:52.25	39.37	19.53	
2025-01-16 16:44:52.45	39.31	19.52	
2025-01-16 16:44:52.65	39.26	19.52	
2025-01-16 16:44:52.86	39.20	19.52	
2025-01-16 16:44:53.06	39.14	19.51	
2025-01-16 16:44:53.26	39.08	19.51	
2025-01-16 16:44:53.47	39.02	19.50	
2025-01-16 16:44:53.67	38.97	19.50	
2025-01-16 16:44:53.87	38.91	19.49	
2025-01-16 16:44:54.07	38.85	19.49	
2025-01-16 16:44:54.28	38.79	19.49	
2025-01-16 16:44:54.48	38.74	19.48	
2025-01-16 16:44:54.68	38.68	19.48	
2025-01-16 16:44:54.89	38.62	19.47	
2025-01-16 16:44:55.09	38.56	19.47	
2025-01-16 16:44:55.29	38.51	19.46	
2025-01-16 16:44:55.50	38.45	19.46	
2025-01-16 16:44:55.70	38.39	19.46	
2025-01-16 16:44:55.90	38.34	19.45	
2025-01-16 16:44:56.11	38.28	19.45	
2025-01-16 16:44:56.31	38.22	19.44	
2025-01-16 16:44:56.51	38.16	19.44	
2025-01-16 16:44:56.72	38.10	19.43	
2025-01-16 16:44:56.92	38.05	19.43	
2025-01-16 16:44:57.12	37.99	19.42	
2025-01-16 16:44:57.32	37.93	19.42	
2025-01-16 16:44:57.53	37.88	19.41	
2025-01-16 16:44:57.73	37.82	19.41	
2025-01-16 16:44:57.93	37.76	19.40	
2025-01-16 16:44:58.14	37.70	19.40	
2025-01-16 16:44:58.34	37.65	19.39	
2025-01-16 16:44:58.54	37.59	19.39	
2025-01-16 16:44:58.75	37.53	19.39	
2025-01-16 16:44:58.95	37.48	19.38	
2025-01-16 16:44:59.15	37.42	19.38	
2025-01-16 16:44:59.36	37.36	19.37	
2025-01-16 16:44:59.56	37.30	19.37	
2025-01-16 16:44:59.76	37.25	19.36	
2025-01-16 16:44:59.96	37.19	19.36	
2025-01-16 16:45:00.17	37.13	19.35	
2025-01-16 16:45:00.37	37.08	19.35	
2025-01-16 16:45:00.57	37.02	19.34	
2025-01-16 16:45:00.78	36.96	19.33	
2025-01-16 16:45:00.98	36.91	19.33	
2025-01-16 16:45:01.18	36.85	19.32	
2025-01-16 16:45:01.39	36.79	19.32	
2025-01-16 16:45:01.59	36.74	19.31	
2025-01-16 16:45:01.79	36.68	19.31	
2025-01-16 16:45:02.00	36.62	19.30	
2025-01-16 16:45:02.20	36.57	19.30	
2025-01-16 16:45:02.40	36.51	19.29	
2025-01-16 16:45:02.60	36.45	19.29	
2025-01-16 16:45:02.81	36.39	19.28	
2025-01-16 16:45:03.01	36.34	19.28	
2025-01-16 16:45:03.21	36.28	19.27	
2025-01-16 16:45:03.42	36.22	19.27	
2025-01-16 16:45:03.62	36.17	19.26	
2025-01-16 16:45:03.82	36.11	19.25	
2025-01-16 16:45:04.03	36.05	19.25	
2025-01-16 16:45:04.23	36.00	19.24	
2025-01-16 16:45:04.43	35.94	19.24	
2025-01-16 16:45:04.64	35.88	19.23	
2025-01-16 16:45:04.84	35.83	19.23	
2025-01-16 16:45:05.04	35.77	19.22	
2025-01-16 16:45:05.24	35.72	19.21	
2025-01-16 16:45:05.45	35.66	19.21	
2025-01-16 16:45:05.65	35.60	19.20	
2025-01-16 16:45:05.85	35.55	19.20	
2025-01-16 16:45:06.06	35.49	19.19	
2025-01-16 16:45:06.26	35.43	19.19	
2025-01-16 16:45:06.46	35.38	19.18	
2025-01-16 16:45:06.67	35.32	19.17	
2025-01-16 16:45:06.87	35.27	19.17	
2025-01-16 16:45:07.07	35.21	19.16	
2025-01-16 16:45:07.28	35.15	19.16	
2025-01-16 16:45:07.48	35.10	19.15	
