passes_logs/2025/01/20/LEX_Murmansk/LEX_Murmansk__20250120_182258_NOAA_18_rec.log

#Pass ID: 20250120_182258_NOAA 18
#Satellite: NOAA 18
#Configuration: NOAA 18
#Start time: 2025-01-20 18:22:53.061797

#LorettStation: 1.0.0 05.05.2024
#Station: LEX_Murmansk
#Location: 33.156738 lon 68.926811 lat
#TLE: 1 28654U 05018A   25020.18862715  .00000449  00000+0  26167-3 0  9997
#TLE: 2 28654  98.8558 101.1913 0014575 164.8261 195.3351 14.13491567 13918

#Time	Az	El	Level	SNR
2025-01-20 18:23:09.305022	136.8	16.8	-91.4	8.2
2025-01-20 18:23:10.476572	136.8	16.9	-91.6	5.2
2025-01-20 18:23:11.635025	136.7	17.0	-91.7	7.3
2025-01-20 18:23:12.799855	136.7	17.1	-91.7	7.8
2025-01-20 18:23:13.956134	136.7	17.3	-91.5	6.7
2025-01-20 18:23:15.081960	136.6	17.4	-91.0	7.9
2025-01-20 18:23:16.238727	136.6	17.5	-91.4	9.9
2025-01-20 18:23:17.390288	136.5	17.7	-91.4	13.4
2025-01-20 18:23:18.547157	136.5	17.8	-91.0	10.1
2025-01-20 18:23:19.712638	136.5	17.9	-91.3	11.8
2025-01-20 18:23:20.865770	136.4	18.1	-91.6	10.1
2025-01-20 18:23:22.028338	136.4	18.2	-91.6	12.0
2025-01-20 18:23:23.179855	136.3	18.4	-91.8	12.2
2025-01-20 18:23:24.348431	136.3	18.5	-91.6	12.0
2025-01-20 18:23:25.508280	136.3	18.6	-91.6	8.7
2025-01-20 18:23:26.676982	136.2	18.8	-91.6	8.6
2025-01-20 18:23:27.840004	136.2	18.9	-91.4	9.8
2025-01-20 18:23:29.001895	136.1	19.1	-91.8	6.5
2025-01-20 18:23:30.172676	136.1	19.2	-91.4	11.0
2025-01-20 18:23:31.336876	136.1	19.3	-91.6	11.5
2025-01-20 18:23:32.505277	136.0	19.5	-91.8	10.9
2025-01-20 18:23:33.666140	136.0	19.6	-91.4	11.5
2025-01-20 18:23:34.832953	135.9	19.8	-91.6	12.5
2025-01-20 18:23:35.991301	135.9	19.9	-91.3	9.3
2025-01-20 18:23:37.156651	135.8	20.1	-91.3	11.0
2025-01-20 18:23:38.317244	135.8	20.2	-91.4	13.9
2025-01-20 18:23:39.480470	135.7	20.4	-91.6	12.8
2025-01-20 18:23:40.645165	135.7	20.5	-91.8	9.5
2025-01-20 18:23:41.828011	135.7	20.7	-91.3	13.6
2025-01-20 18:23:42.994595	135.6	20.8	-91.9	5.9
2025-01-20 18:23:44.160952	135.6	21.0	-91.6	12.6
2025-01-20 18:23:45.322154	135.5	21.1	-91.8	12.3
2025-01-20 18:23:46.480894	135.5	21.3	-91.8	11.0
2025-01-20 18:23:47.651934	135.4	21.4	-91.4	15.3
2025-01-20 18:23:48.816242	135.4	21.6	-91.6	14.3
2025-01-20 18:23:50.002841	135.3	21.8	-91.5	16.0
2025-01-20 18:23:51.170984	135.3	21.9	-91.7	15.3
2025-01-20 18:23:52.334482	135.2	22.1	-91.4	15.6
2025-01-20 18:23:53.501589	135.2	22.2	-92.0	12.9
2025-01-20 18:23:54.669418	135.1	22.4	-91.9	15.0
2025-01-20 18:23:55.821830	135.1	22.6	-91.7	12.8
2025-01-20 18:23:56.984302	135.0	22.7	-92.0	10.4
2025-01-20 18:23:58.142622	134.9	22.9	-91.7	13.2
2025-01-20 18:23:59.319102	134.9	23.1	-91.4	12.1
2025-01-20 18:24:00.473621	134.8	23.2	-91.5	6.6
2025-01-20 18:24:01.628257	134.8	23.4	-92.1	11.5
2025-01-20 18:24:02.785141	134.7	23.6	-92.1	14.8
2025-01-20 18:24:03.952383	134.7	23.7	-91.9	14.0
2025-01-20 18:24:05.112152	134.6	23.9	-91.4	16.6
2025-01-20 18:24:06.253250	134.5	24.1	-91.6	15.4
2025-01-20 18:24:07.375879	134.5	24.2	-91.4	14.3
2025-01-20 18:24:08.497990	134.4	24.4	-92.2	13.7
2025-01-20 18:24:09.617908	134.4	24.6	-91.3	17.3
2025-01-20 18:24:10.738121	134.3	24.7	-91.6	16.9
2025-01-20 18:24:11.857941	134.3	24.9	-92.0	15.9
2025-01-20 18:24:12.977800	134.2	25.1	-91.6	13.4
2025-01-20 18:24:14.098679	134.1	25.3	-91.8	10.8
2025-01-20 18:24:15.220396	134.1	25.4	-91.7	15.5
2025-01-20 18:24:16.351460	134.0	25.6	-92.0	13.9
2025-01-20 18:24:17.499425	133.9	25.8	-91.9	5.4
2025-01-20 18:24:18.663196	133.9	26.0	-92.2	13.8
2025-01-20 18:24:19.826235	133.8	26.2	-92.2	14.4
2025-01-20 18:24:20.988003	133.7	26.3	-92.1	14.2
2025-01-20 18:24:22.144390	133.7	26.5	-91.8	14.0
2025-01-20 18:24:23.311117	133.6	26.7	-91.8	11.0
2025-01-20 18:24:24.481037	133.5	26.9	-92.1	8.1
2025-01-20 18:24:25.641972	133.5	27.1	-91.8	11.4
2025-01-20 18:24:26.802198	133.4	27.3	-91.7	11.1
2025-01-20 18:24:27.969880	133.3	27.5	-91.8	9.0
2025-01-20 18:24:29.133050	133.2	27.7	-91.8	10.7
2025-01-20 18:24:30.301557	133.2	27.9	-91.5	7.9
2025-01-20 18:24:31.465660	133.1	28.1	-92.1	6.4
2025-01-20 18:24:32.627080	133.0	28.3	-92.0	5.7
2025-01-20 18:24:33.797016	132.9	28.5	-91.6	6.2
2025-01-20 18:24:34.954399	132.8	28.7	-91.8	4.6
2025-01-20 18:24:36.119049	132.8	28.9	-91.7	6.2
2025-01-20 18:24:37.281949	132.7	29.1	-92.2	8.5
2025-01-20 18:24:38.445295	132.6	29.3	-92.0	10.0
2025-01-20 18:24:39.612021	132.5	29.5	-92.0	9.8
2025-01-20 18:24:40.774721	132.4	29.7	-92.0	12.5
2025-01-20 18:24:41.937021	132.3	29.9	-92.1	10.6
2025-01-20 18:24:43.099918	132.3	30.1	-91.6	10.6
2025-01-20 18:24:44.266222	132.2	30.3	-91.6	14.2
2025-01-20 18:24:45.425426	132.1	30.6	-91.8	9.2
2025-01-20 18:24:46.580647	132.0	30.8	-91.2	9.0
2025-01-20 18:24:47.748978	131.9	31.0	-91.9	9.5
2025-01-20 18:24:48.914906	131.8	31.2	-92.0	6.6
2025-01-20 18:24:50.078053	131.7	31.4	-92.1	4.6
2025-01-20 18:24:51.239045	131.6	31.7	-92.1	9.4
2025-01-20 18:24:52.399570	131.5	31.9	-92.0	7.9
2025-01-20 18:24:53.568817	131.4	32.1	-92.0	9.0
2025-01-20 18:24:54.737348	131.3	32.3	-91.6	10.7
2025-01-20 18:24:55.894066	131.2	32.6	-91.9	14.4
2025-01-20 18:24:57.050393	131.1	32.8	-92.2	15.5
2025-01-20 18:24:58.215832	131.0	33.0	-91.7	14.5
2025-01-20 18:24:59.384260	130.9	33.3	-92.4	12.4
2025-01-20 18:25:00.544589	130.8	33.5	-92.3	13.4
2025-01-20 18:25:01.709292	130.7	33.7	-92.2	15.3
2025-01-20 18:25:02.870676	130.6	34.0	-92.3	14.5
2025-01-20 18:25:04.034674	130.4	34.2	-92.1	16.6
2025-01-20 18:25:05.199660	130.3	34.5	-91.6	15.0
2025-01-20 18:25:06.356060	130.2	34.7	-91.9	13.4
2025-01-20 18:25:07.522037	130.1	34.9	-92.3	7.3
2025-01-20 18:25:08.694299	130.0	35.2	-92.0	15.0
2025-01-20 18:25:09.869642	129.8	35.4	-92.3	12.8
2025-01-20 18:25:11.027188	129.7	35.7	-91.9	12.8
2025-01-20 18:25:12.196299	129.6	36.0	-91.2	14.2
2025-01-20 18:25:13.360116	129.5	36.2	-91.5	14.4
2025-01-20 18:25:14.524252	129.3	36.5	-91.4	15.3
2025-01-20 18:25:15.691157	129.2	36.7	-92.3	15.9
2025-01-20 18:25:16.848963	129.1	37.0	-92.3	13.6
2025-01-20 18:25:18.008641	128.9	37.2	-92.3	12.5
2025-01-20 18:25:19.169190	128.8	37.5	-91.6	16.8
2025-01-20 18:25:20.339226	128.6	37.8	-92.1	17.1
2025-01-20 18:25:21.503126	128.5	38.0	-92.2	18.8
2025-01-20 18:25:22.667183	128.4	38.3	-92.0	14.7
2025-01-20 18:25:23.835827	128.2	38.6	-91.9	10.4
2025-01-20 18:25:24.996367	128.0	38.9	-91.5	7.8
2025-01-20 18:25:26.160302	127.9	39.1	-91.7	10.3
2025-01-20 18:25:27.316033	127.7	39.4	-91.9	13.8
2025-01-20 18:25:28.476671	127.6	39.7	-92.1	6.4
2025-01-20 18:25:29.638547	127.4	40.0	-92.1	14.0
2025-01-20 18:25:30.806899	127.2	40.3	-92.5	14.8
2025-01-20 18:25:31.967717	127.1	40.5	-91.7	15.2
2025-01-20 18:25:33.127539	126.9	40.8	-92.3	17.0
2025-01-20 18:25:34.292245	126.7	41.1	-92.1	18.0
2025-01-20 18:25:35.452575	126.6	41.4	-92.0	11.6
2025-01-20 18:25:36.604048	126.4	41.7	-91.7	13.5
2025-01-20 18:25:37.766659	126.2	42.0	-92.0	19.0
2025-01-20 18:25:38.929745	126.0	42.3	-92.0	18.1
2025-01-20 18:25:40.091551	125.8	42.6	-91.8	19.6
2025-01-20 18:25:41.259038	125.6	42.9	-91.9	16.8
2025-01-20 18:25:42.421078	125.4	43.2	-92.0	13.1
2025-01-20 18:25:43.586430	125.2	43.5	-92.0	12.0
2025-01-20 18:25:44.750565	125.0	43.8	-92.3	13.7
2025-01-20 18:25:45.916745	124.8	44.1	-92.5	7.0
2025-01-20 18:25:47.075658	124.6	44.4	-92.0	7.8
2025-01-20 18:25:48.238600	124.4	44.7	-92.1	17.7
2025-01-20 18:25:49.408777	124.1	45.1	-91.9	12.6
2025-01-20 18:25:50.572979	123.9	45.4	-92.1	16.7
2025-01-20 18:25:51.742584	123.7	45.7	-91.9	18.6
2025-01-20 18:25:52.906143	123.4	46.0	-92.1	15.5
2025-01-20 18:25:54.072889	123.2	46.3	-92.0	16.0
2025-01-20 18:25:55.233999	122.9	46.7	-91.9	16.8
2025-01-20 18:25:56.391752	122.7	47.0	-92.0	10.7
2025-01-20 18:25:57.553874	122.4	47.3	-92.2	10.4
2025-01-20 18:25:58.719567	122.1	47.7	-92.2	16.5
2025-01-20 18:25:59.887379	121.9	48.0	-92.0	13.8
2025-01-20 18:26:01.054413	121.6	48.3	-92.2	15.8
2025-01-20 18:26:02.219923	121.3	48.7	-92.1	15.7
2025-01-20 18:26:03.384941	121.0	49.0	-92.0	16.1
2025-01-20 18:26:04.551103	120.7	49.4	-92.2	11.1
2025-01-20 18:26:05.735312	120.4	49.7	-92.1	13.6
2025-01-20 18:26:06.895580	120.1	50.0	-92.0	7.4
2025-01-20 18:26:08.055580	119.8	50.4	-92.2	6.4
2025-01-20 18:26:09.217360	119.5	50.7	-92.3	14.2
2025-01-20 18:26:10.372900	119.1	51.1	-91.9	12.5
2025-01-20 18:26:11.532378	118.8	51.4	-92.1	12.5
2025-01-20 18:26:12.678082	118.4	51.8	-92.1	17.4
2025-01-20 18:26:13.799243	118.1	52.1	-91.8	10.6
2025-01-20 18:26:14.919681	117.8	52.5	-91.9	14.2
2025-01-20 18:26:16.039049	117.4	52.8	-92.2	17.3
2025-01-20 18:26:17.160299	117.0	53.1	-91.6	15.5
2025-01-20 18:26:18.283516	116.6	53.5	-91.9	17.1
2025-01-20 18:26:19.403980	116.3	53.8	-92.0	8.8
2025-01-20 18:26:20.526550	115.9	54.2	-92.3	16.6
2025-01-20 18:26:21.648692	115.5	54.5	-92.2	14.4
2025-01-20 18:26:22.786364	115.0	54.9	-92.5	21.6
2025-01-20 18:26:23.950311	114.6	55.2	-92.6	18.4
2025-01-20 18:26:25.112479	114.1	55.6	-92.0	18.5
2025-01-20 18:26:26.246950	113.7	56.0	-92.1	19.5
2025-01-20 18:26:27.382555	113.2	56.3	-92.3	18.7
2025-01-20 18:26:28.543612	112.7	56.7	-92.0	12.2
2025-01-20 18:26:29.686815	112.2	57.0	-92.2	16.7
2025-01-20 18:26:30.839158	111.7	57.4	-91.7	12.3
2025-01-20 18:26:31.998744	111.2	57.8	-91.9	6.9
2025-01-20 18:26:33.160731	110.6	58.1	-92.0	13.5
2025-01-20 18:26:34.329322	110.1	58.5	-92.2	17.5
2025-01-20 18:26:35.496108	109.5	58.9	-92.4	9.1
2025-01-20 18:26:36.654952	108.9	59.2	-92.3	12.2
2025-01-20 18:26:37.829274	108.3	59.6	-92.1	16.4
2025-01-20 18:26:38.992311	107.6	60.0	-92.4	11.5
2025-01-20 18:26:40.156870	107.0	60.3	-92.0	13.6
2025-01-20 18:26:41.326502	106.3	60.7	-92.3	16.7
2025-01-20 18:26:42.489660	105.6	61.0	-92.1	21.0
2025-01-20 18:26:43.634994	105.0	61.4	-92.1	20.8
2025-01-20 18:26:44.766576	104.2	61.7	-92.4	20.0
2025-01-20 18:26:45.921543	103.5	62.1	-92.0	15.4
2025-01-20 18:26:47.070323	102.7	62.4	-91.7	9.3
2025-01-20 18:26:48.240394	102.0	62.8	-91.8	18.0
2025-01-20 18:26:49.402050	101.1	63.1	-92.3	11.8
2025-01-20 18:26:50.559448	100.3	63.5	-92.0	13.9
2025-01-20 18:26:51.722427	99.5	63.8	-92.2	22.4
2025-01-20 18:26:52.885587	98.6	64.1	-92.3	19.9
2025-01-20 18:26:54.049495	97.7	64.5	-92.0	20.2
2025-01-20 18:26:55.215846	96.7	64.8	-92.1	17.6
2025-01-20 18:26:56.380085	95.7	65.1	-91.9	20.8
2025-01-20 18:26:57.533092	94.8	65.4	-92.1	17.5
2025-01-20 18:26:58.692962	93.7	65.7	-91.8	15.8
2025-01-20 18:26:59.863742	92.7	66.0	-92.0	12.4
2025-01-20 18:27:01.025347	91.6	66.3	-92.0	10.2
2025-01-20 18:27:02.194049	90.5	66.6	-91.8	18.3
2025-01-20 18:27:03.352584	89.4	66.9	-92.1	13.8
2025-01-20 18:27:04.526922	88.2	67.2	-91.7	8.3
2025-01-20 18:27:05.684614	87.0	67.4	-92.0	17.0
2025-01-20 18:27:06.846697	85.8	67.7	-92.2	16.0
2025-01-20 18:27:08.011101	84.5	67.9	-92.1	5.4
2025-01-20 18:27:09.174499	83.2	68.2	-91.8	18.6
2025-01-20 18:27:10.345405	81.9	68.4	-91.6	14.2
2025-01-20 18:27:11.503872	80.5	68.6	-92.0	9.1
2025-01-20 18:27:12.635156	79.2	68.8	-92.2	13.5
2025-01-20 18:27:13.781590	77.8	69.0	-92.4	14.5
2025-01-20 18:27:14.939599	76.3	69.2	-91.6	13.0
2025-01-20 18:27:16.085359	74.9	69.4	-91.6	14.8
2025-01-20 18:27:17.243765	73.4	69.5	-91.3	14.6
2025-01-20 18:27:18.393858	71.9	69.7	-91.7	18.2
2025-01-20 18:27:19.557109	70.4	69.8	-91.9	17.9
2025-01-20 18:27:20.710408	68.8	69.9	-91.5	14.5
2025-01-20 18:27:21.868388	67.3	70.0	-92.0	8.3
2025-01-20 18:27:23.032201	65.7	70.1	-92.0	11.2
2025-01-20 18:27:24.199599	64.1	70.2	-91.5	14.5
2025-01-20 18:27:25.362413	62.4	70.3	-91.6	15.6
2025-01-20 18:27:26.531419	60.8	70.3	-92.2	11.7
2025-01-20 18:27:27.695924	59.2	70.3	-91.9	16.8
2025-01-20 18:27:28.861463	57.5	70.4	-92.1	14.8
2025-01-20 18:27:30.019019	55.9	70.4	-92.4	11.5
2025-01-20 18:27:31.174053	54.3	70.3	-92.0	13.4
2025-01-20 18:27:32.301003	52.7	70.3	-92.1	11.1
2025-01-20 18:27:33.451995	51.0	70.3	-92.2	4.7
2025-01-20 18:27:34.607846	49.4	70.2	-91.9	10.7
2025-01-20 18:27:35.766592	47.8	70.2	-92.1	14.6
2025-01-20 18:27:36.921296	46.2	70.1	-91.7	8.9
2025-01-20 18:27:38.082994	44.7	70.0	-91.9	6.2
2025-01-20 18:27:39.245650	43.1	69.9	-92.2	14.3
2025-01-20 18:27:40.407711	41.5	69.7	-92.4	9.8
2025-01-20 18:27:41.570771	40.0	69.6	-92.6	9.2
2025-01-20 18:27:42.733563	38.5	69.4	-92.5	12.3
2025-01-20 18:27:43.901843	37.0	69.3	-92.1	9.5
2025-01-20 18:27:45.064611	35.6	69.1	-91.7	11.1
2025-01-20 18:27:46.235593	34.2	68.9	-91.5	11.1
2025-01-20 18:27:47.395050	32.8	68.7	-92.1	10.2
2025-01-20 18:27:48.555043	31.4	68.5	-91.8	14.0
2025-01-20 18:27:49.719249	30.1	68.2	-92.3	22.0
2025-01-20 18:27:50.891995	28.8	68.0	-92.2	16.2
2025-01-20 18:27:52.054222	27.5	67.8	-91.9	14.9
2025-01-20 18:27:53.221086	26.2	67.5	-91.8	19.4
2025-01-20 18:27:54.392855	25.0	67.2	-91.3	16.3
2025-01-20 18:27:55.551429	23.8	67.0	-91.9	19.6
2025-01-20 18:27:56.708535	22.7	66.7	-92.1	21.6
2025-01-20 18:27:57.866355	21.6	66.4	-92.0	18.0
2025-01-20 18:27:59.030160	20.5	66.1	-92.0	16.4
2025-01-20 18:28:00.189916	19.4	65.8	-92.0	19.6
2025-01-20 18:28:01.359749	18.4	65.5	-92.2	18.0
2025-01-20 18:28:02.526044	17.4	65.2	-92.2	20.1
2025-01-20 18:28:03.698053	16.4	64.9	-91.7	23.4
2025-01-20 18:28:04.865624	15.5	64.6	-91.7	21.1
2025-01-20 18:28:06.025936	14.5	64.2	-91.9	21.2
2025-01-20 18:28:07.183454	13.7	63.9	-91.8	20.8
2025-01-20 18:28:08.338018	12.8	63.6	-92.3	19.0
2025-01-20 18:28:09.464612	12.0	63.2	-91.8	18.1
2025-01-20 18:28:10.585701	11.2	62.9	-92.1	20.3
2025-01-20 18:28:11.706104	10.4	62.6	-91.5	21.6
2025-01-20 18:28:12.826938	9.7	62.2	-91.7	22.2
2025-01-20 18:28:13.947631	8.9	61.9	-92.2	18.8
2025-01-20 18:28:15.068306	8.2	61.6	-91.6	15.2
2025-01-20 18:28:16.189134	7.5	61.2	-91.9	22.8
2025-01-20 18:28:17.310654	6.9	60.9	-91.4	20.8
2025-01-20 18:28:18.439060	6.2	60.5	-92.0	14.1
2025-01-20 18:28:19.593268	5.6	60.2	-92.0	12.1
2025-01-20 18:28:20.760049	4.9	59.8	-92.2	18.6
2025-01-20 18:28:21.915504	4.3	59.4	-92.4	10.2
2025-01-20 18:28:23.075262	3.7	59.1	-91.5	9.5
2025-01-20 18:28:24.230890	3.1	58.7	-91.3	13.9
2025-01-20 18:28:25.397742	2.5	58.4	-92.2	9.5
2025-01-20 18:28:26.560930	2.0	58.0	-91.8	7.8
2025-01-20 18:28:27.720764	1.4	57.6	-91.9	16.8
2025-01-20 18:28:28.881924	0.9	57.3	-92.4	10.2
2025-01-20 18:28:30.045675	0.4	56.9	-92.1	9.7
2025-01-20 18:28:31.208850	359.9	56.5	-92.3	9.9
2025-01-20 18:28:32.366694	359.4	56.2	-91.9	9.4
2025-01-20 18:28:33.533542	358.9	55.8	-92.0	9.1
2025-01-20 18:28:34.691341	358.5	55.4	-91.9	14.4
2025-01-20 18:28:35.859379	358.0	55.1	-92.0	15.3
2025-01-20 18:28:37.026373	357.6	54.7	-92.2	7.2
2025-01-20 18:28:38.184842	357.2	54.4	-92.2	16.6
2025-01-20 18:28:39.349551	356.7	54.0	-92.3	14.6
2025-01-20 18:28:40.516200	356.3	53.6	-92.0	12.8
2025-01-20 18:28:41.683821	355.9	53.3	-91.7	17.2
2025-01-20 18:28:42.853434	355.5	52.9	-92.3	15.4
2025-01-20 18:28:44.017918	355.2	52.6	-92.6	9.6
2025-01-20 18:28:45.179494	354.8	52.2	-92.2	12.8
2025-01-20 18:28:46.344502	354.4	51.8	-91.9	14.6
2025-01-20 18:28:47.500756	354.1	51.5	-92.0	15.1
2025-01-20 18:28:48.661888	353.8	51.1	-92.4	17.2
2025-01-20 18:28:49.823642	353.4	50.8	-92.2	18.7
2025-01-20 18:28:50.980149	353.1	50.5	-92.5	14.9
2025-01-20 18:28:52.145709	352.8	50.1	-92.4	14.3
2025-01-20 18:28:53.268078	352.5	49.8	-92.0	13.5
2025-01-20 18:28:54.422278	352.2	49.4	-92.2	14.8
2025-01-20 18:28:55.577731	351.9	49.1	-92.4	12.8
2025-01-20 18:28:56.730436	351.6	48.8	-92.5	18.8
2025-01-20 18:28:57.889553	351.3	48.4	-92.2	13.7
2025-01-20 18:28:59.020944	351.0	48.1	-92.0	14.0
2025-01-20 18:29:00.151712	350.8	47.8	-91.9	16.2
2025-01-20 18:29:01.316817	350.5	47.4	-91.7	19.1
2025-01-20 18:29:02.470478	350.2	47.1	-92.1	11.3
2025-01-20 18:29:03.643669	350.0	46.8	-92.3	18.5
2025-01-20 18:29:04.802380	349.7	46.5	-91.7	18.2
2025-01-20 18:29:05.971941	349.5	46.1	-92.5	12.1
2025-01-20 18:29:07.138931	349.2	45.8	-91.9	21.7
2025-01-20 18:29:08.299740	349.0	45.5	-91.9	22.4
2025-01-20 18:29:09.457842	348.8	45.2	-92.2	19.1
2025-01-20 18:29:10.601641	348.5	44.9	-92.4	21.8
2025-01-20 18:29:11.735830	348.3	44.5	-92.0	21.6
2025-01-20 18:29:12.891598	348.1	44.2	-92.3	21.9
2025-01-20 18:29:14.043470	347.9	43.9	-92.3	21.9
2025-01-20 18:29:15.195565	347.7	43.6	-92.0	17.5
2025-01-20 18:29:16.348836	347.5	43.3	-91.9	22.9
2025-01-20 18:29:17.502226	347.3	43.0	-91.9	16.9
2025-01-20 18:29:18.655081	347.1	42.7	-92.3	20.7
2025-01-20 18:29:19.816415	346.9	42.4	-92.1	20.2
2025-01-20 18:29:20.976917	346.7	42.1	-92.1	14.6
2025-01-20 18:29:22.143070	346.5	41.8	-91.9	20.7
2025-01-20 18:29:23.305033	346.3	41.5	-91.8	22.5
2025-01-20 18:29:24.468952	346.2	41.2	-92.1	10.2
2025-01-20 18:29:25.629206	346.0	40.9	-92.1	14.8
2025-01-20 18:29:26.793867	345.8	40.7	-92.3	16.8
2025-01-20 18:29:27.954410	345.6	40.4	-92.1	11.5
2025-01-20 18:29:29.116624	345.5	40.1	-92.2	14.3
2025-01-20 18:29:30.281747	345.3	39.8	-92.0	17.8
2025-01-20 18:29:31.444267	345.1	39.5	-92.0	12.8
2025-01-20 18:29:32.605079	345.0	39.2	-92.0	13.6
2025-01-20 18:29:33.764711	344.8	39.0	-91.9	15.8
2025-01-20 18:29:34.898566	344.7	38.7	-92.3	16.7
2025-01-20 18:29:36.048095	344.5	38.4	-92.2	14.8
2025-01-20 18:29:37.204006	344.4	38.2	-91.8	17.5
2025-01-20 18:29:38.355929	344.2	37.9	-92.1	13.5
2025-01-20 18:29:39.512001	344.1	37.6	-92.4	10.1
2025-01-20 18:29:40.669028	344.0	37.4	-92.0	12.9
2025-01-20 18:29:41.822001	343.8	37.1	-92.1	11.7
2025-01-20 18:29:42.954790	343.7	36.8	-92.4	11.2
2025-01-20 18:29:44.106069	343.6	36.6	-92.1	11.0
2025-01-20 18:29:45.255285	343.4	36.3	-92.0	10.1
2025-01-20 18:29:46.411435	343.3	36.1	-92.1	7.9
2025-01-20 18:29:47.566437	343.2	35.8	-92.3	12.0
2025-01-20 18:29:48.723862	343.1	35.6	-91.9	17.6
2025-01-20 18:29:49.882797	342.9	35.3	-91.9	18.2
2025-01-20 18:29:51.044459	342.8	35.1	-92.1	8.8
2025-01-20 18:29:52.210186	342.7	34.8	-92.0	18.0
2025-01-20 18:29:53.379172	342.6	34.6	-92.4	13.8
2025-01-20 18:29:54.543878	342.5	34.3	-92.2	8.3
2025-01-20 18:29:55.707046	342.3	34.1	-92.5	12.3
2025-01-20 18:29:56.877222	342.2	33.9	-92.4	12.0
2025-01-20 18:29:58.040081	342.1	33.6	-91.8	9.9
2025-01-20 18:29:59.203962	342.0	33.4	-91.4	11.3
2025-01-20 18:30:00.367597	341.9	33.1	-92.2	7.4
2025-01-20 18:30:01.530872	341.8	32.9	-92.3	4.6
2025-01-20 18:30:02.703453	341.7	32.7	-91.9	18.3
2025-01-20 18:30:03.864304	341.6	32.4	-92.4	15.6
2025-01-20 18:30:05.009554	341.5	32.2	-92.1	5.2
2025-01-20 18:30:06.140616	341.4	32.0	-92.4	11.0
2025-01-20 18:30:07.305893	341.3	31.8	-92.3	14.5
2025-01-20 18:30:08.451282	341.2	31.6	-91.7	11.1
2025-01-20 18:30:09.608308	341.1	31.3	-92.7	7.2
2025-01-20 18:30:10.769608	341.0	31.1	-92.4	11.4
2025-01-20 18:30:11.909679	340.9	30.9	-91.8	11.3
2025-01-20 18:30:13.051464	340.8	30.7	-92.5	7.7
2025-01-20 18:30:14.200369	340.7	30.5	-91.4	12.7
2025-01-20 18:30:15.355832	340.6	30.3	-92.0	10.0
2025-01-20 18:30:16.517785	340.5	30.0	-92.5	7.5
2025-01-20 18:30:17.678951	340.5	29.8	-92.1	15.0
2025-01-20 18:30:18.838104	340.4	29.6	-91.9	9.7
2025-01-20 18:30:20.001869	340.3	29.4	-92.1	3.9
2025-01-20 18:30:21.165161	340.2	29.2	-92.3	9.0
2025-01-20 18:30:22.331766	340.1	29.0	-91.9	8.2
2025-01-20 18:30:23.497696	340.0	28.8	-92.2	10.6
2025-01-20 18:30:24.656697	340.0	28.6	-91.9	12.7
2025-01-20 18:30:25.819504	339.9	28.4	-92.2	11.9
2025-01-20 18:30:26.983609	339.8	28.2	-92.4	10.2
2025-01-20 18:30:28.147526	339.7	28.0	-92.0	19.3
2025-01-20 18:30:29.313638	339.7	27.8	-92.3	10.2
2025-01-20 18:30:30.471429	339.6	27.6	-91.9	8.0
2025-01-20 18:30:31.622227	339.5	27.4	-92.3	5.1
2025-01-20 18:30:32.752141	339.4	27.2	-92.4	7.2
2025-01-20 18:30:33.904817	339.4	27.0	-92.1	9.0
2025-01-20 18:30:35.059362	339.3	26.8	-92.3	7.1
2025-01-20 18:30:36.214763	339.2	26.7	-91.8	13.2
2025-01-20 18:30:37.379873	339.2	26.5	-91.9	14.6
2025-01-20 18:30:38.525692	339.1	26.3	-92.2	17.2
2025-01-20 18:30:39.651844	339.0	26.1	-91.6	12.3
2025-01-20 18:30:40.808813	338.9	25.9	-92.4	18.6
2025-01-20 18:30:41.962304	338.9	25.7	-92.3	17.1
2025-01-20 18:30:43.127677	338.8	25.5	-91.9	9.1
2025-01-20 18:30:44.290396	338.8	25.4	-91.9	12.4
2025-01-20 18:30:45.455386	338.7	25.2	-92.0	6.3
2025-01-20 18:30:46.617826	338.6	25.0	-91.9	11.8
2025-01-20 18:30:47.775878	338.6	24.8	-92.1	9.4
2025-01-20 18:30:48.937784	338.5	24.7	-92.2	9.8
2025-01-20 18:30:50.098283	338.4	24.5	-91.9	8.6
2025-01-20 18:30:51.258934	338.4	24.3	-91.8	11.7
2025-01-20 18:30:52.428424	338.3	24.1	-92.3	18.0
2025-01-20 18:30:53.595292	338.3	24.0	-92.5	12.2
2025-01-20 18:30:54.760938	338.2	23.8	-92.1	14.6
2025-01-20 18:30:55.925259	338.1	23.6	-92.1	10.6
2025-01-20 18:30:57.088639	338.1	23.4	-91.9	12.8
2025-01-20 18:30:58.253635	338.0	23.3	-92.3	12.6
2025-01-20 18:30:59.419029	338.0	23.1	-92.0	11.8
2025-01-20 18:31:00.568680	337.9	22.9	-91.7	6.0
2025-01-20 18:31:01.728598	337.9	22.8	-91.9	15.3
2025-01-20 18:31:02.893765	337.8	22.6	-92.0	7.6
2025-01-20 18:31:04.059952	337.8	22.5	-91.9	7.8
2025-01-20 18:31:05.220944	337.7	22.3	-92.2	6.8
2025-01-20 18:31:06.388996	337.7	22.1	-92.0	9.1
2025-01-20 18:31:07.552488	337.6	22.0	-92.0	12.3
2025-01-20 18:31:08.714913	337.6	21.8	-92.1	13.9
2025-01-20 18:31:09.880688	337.5	21.7	-91.8	19.3
2025-01-20 18:31:11.043644	337.5	21.5	-92.2	15.2
2025-01-20 18:31:12.198923	337.4	21.3	-92.0	11.2
2025-01-20 18:31:13.363024	337.4	21.2	-91.7	12.9
2025-01-20 18:31:14.527978	337.3	21.0	-92.2	6.0
2025-01-20 18:31:15.692464	337.3	20.9	-91.9	13.3
2025-01-20 18:31:16.852041	337.2	20.7	-91.7	7.9
2025-01-20 18:31:18.008840	337.2	20.6	-91.9	5.1
2025-01-20 18:31:19.179002	337.1	20.4	-91.7	9.3
2025-01-20 18:31:20.341036	337.1	20.3	-92.1	10.7
2025-01-20 18:31:21.516605	337.0	20.1	-91.9	5.9
2025-01-20 18:31:22.675014	337.0	20.0	-92.4	6.7
2025-01-20 18:31:23.844073	336.9	19.8	-92.2	6.8
2025-01-20 18:31:25.006424	336.9	19.7	-92.2	9.1
2025-01-20 18:31:26.174863	336.9	19.5	-91.5	5.8
2025-01-20 18:31:27.338410	336.8	19.4	-91.8	7.8
2025-01-20 18:31:28.495118	336.8	19.2	-91.9	3.8
2025-01-20 18:31:29.661196	336.7	19.1	-91.9	5.0
2025-01-20 18:31:30.827215	336.7	19.0	-91.8	10.5
2025-01-20 18:31:31.987873	336.6	18.8	-92.3	6.6
2025-01-20 18:31:33.150657	336.6	18.7	-92.1	7.2
2025-01-20 18:31:34.314941	336.6	18.5	-92.3	5.9
2025-01-20 18:31:35.480928	336.5	18.4	-92.4	4.3
2025-01-20 18:31:36.647269	336.5	18.3	-91.9	7.0
2025-01-20 18:31:37.813680	336.4	18.1	-92.2	8.0
2025-01-20 18:31:38.970744	336.4	18.0	-91.8	6.1
2025-01-20 18:31:40.133727	336.4	17.8	-92.0	5.9
2025-01-20 18:31:41.298128	336.3	17.7	-91.8	2.5
2025-01-20 18:31:42.463254	336.3	17.6	-92.3	5.0
2025-01-20 18:31:43.625582	336.3	17.4	-92.2	5.3
2025-01-20 18:31:44.784881	336.2	17.3	-91.9	4.9
2025-01-20 18:31:45.917083	336.2	17.2	-92.4	5.6
2025-01-20 18:31:47.039833	336.2	17.1	-91.8	6.1
2025-01-20 18:31:48.163916	336.1	16.9	-91.8	5.3
2025-01-20 18:31:49.284394	336.1	16.8	-91.9	6.5
2025-01-20 18:31:50.404884	336.0	16.7	-92.0	6.0
2025-01-20 18:31:51.525339	336.0	16.5	-91.8	3.2
2025-01-20 18:31:52.646470	336.0	16.4	-92.1	4.7
2025-01-20 18:31:53.766769	335.9	16.3	-91.9	4.3
2025-01-20 18:31:54.893542	335.9	16.2	-91.9	5.7
2025-01-20 18:31:56.042049	335.9	16.1	-92.2	4.2
2025-01-20 18:31:57.207415	335.9	15.9	-92.1	5.1
2025-01-20 18:31:58.362235	335.8	15.8	-91.9	5.6
2025-01-20 18:31:59.524296	335.8	15.7	-92.1	5.8
2025-01-20 18:32:00.672649	335.8	15.6	-92.3	3.5
2025-01-20 18:32:01.835906	335.7	15.4	-92.2	2.5
2025-01-20 18:32:02.989286	335.7	15.3	-92.2	5.7
2025-01-20 18:32:04.117716	335.7	15.2	-92.3	5.8
2025-01-20 18:32:05.281100	335.6	15.1	-92.2	6.8
2025-01-20 18:32:06.411951	335.6	14.9	-92.2	5.7
2025-01-20 18:32:07.557090	335.6	14.8	-92.3	5.9
2025-01-20 18:32:08.705584	335.5	14.7	-92.7	5.4
2025-01-20 18:32:09.856327	335.5	14.6	-91.8	6.0
2025-01-20 18:32:11.023814	335.5	14.5	-92.2	5.3
#Closed at: 2025-01-20 18:22:58.109385