passes_logs/2025/01/20/LEX_Murmansk/LEX_Murmansk__20250120_093946_NOAA_19_rec.log

#Pass ID: 20250120_093946_NOAA 19
#Satellite: NOAA 19
#Configuration: NOAA 19
#Start time: 2025-01-20 09:39:41.919774

#LorettStation: 1.0.0 05.05.2024
#Station: LEX_Murmansk
#Location: 33.156738 lon 68.926811 lat
#TLE: 1 33591U 09005A   25019.18116543  .00000338  00000+0  20449-3 0  9996
#TLE: 2 33591  99.0189  82.9757 0014332  46.3357 313.9000 14.13262914822133

#Time	Az	El	Level	SNR
2025-01-20 09:39:54.107583	24.1	16.3	-86.1	3.0
2025-01-20 09:39:55.266785	24.1	16.4	-87.7	1.9
2025-01-20 09:39:56.421915	24.0	16.6	-88.0	4.9
2025-01-20 09:39:57.575124	24.0	16.7	-87.3	0.7
2025-01-20 09:39:58.737440	23.9	16.8	-87.5	1.9
2025-01-20 09:39:59.893141	23.9	16.9	-87.5	2.6
2025-01-20 09:40:01.039412	23.8	17.1	-87.2	2.0
2025-01-20 09:40:02.190214	23.8	17.2	-87.1	2.1
2025-01-20 09:40:03.341207	23.7	17.3	-86.5	3.7
2025-01-20 09:40:04.495742	23.7	17.5	-86.6	2.4
2025-01-20 09:40:05.652136	23.6	17.6	-86.5	2.1
2025-01-20 09:40:06.809228	23.6	17.7	-86.1	2.1
2025-01-20 09:40:07.966628	23.5	17.9	-86.3	3.5
2025-01-20 09:40:09.128991	23.5	18.0	-85.9	2.6
2025-01-20 09:40:10.280674	23.4	18.1	-86.4	2.4
2025-01-20 09:40:11.440458	23.3	18.3	-86.4	3.4
2025-01-20 09:40:12.597060	23.3	18.4	-86.8	4.8
2025-01-20 09:40:13.747922	23.2	18.5	-87.2	4.0
2025-01-20 09:40:14.900998	23.2	18.7	-86.8	5.0
2025-01-20 09:40:16.060146	23.1	18.8	-87.3	4.2
2025-01-20 09:40:17.217071	23.1	18.9	-87.2	3.1
2025-01-20 09:40:18.373655	23.0	19.1	-86.8	2.5
2025-01-20 09:40:19.528883	22.9	19.2	-86.9	7.1
2025-01-20 09:40:20.692236	22.9	19.4	-86.6	3.8
2025-01-20 09:40:21.843442	22.8	19.5	-86.3	1.7
2025-01-20 09:40:22.999397	22.8	19.7	-86.3	4.4
2025-01-20 09:40:24.159906	22.7	19.8	-86.6	2.1
2025-01-20 09:40:25.308842	22.6	19.9	-86.1	3.7
2025-01-20 09:40:26.473064	22.6	20.1	-86.8	4.4
2025-01-20 09:40:27.631671	22.5	20.2	-86.6	2.3
2025-01-20 09:40:28.784609	22.4	20.4	-86.6	11.9
2025-01-20 09:40:29.946125	22.4	20.5	-86.8	5.4
2025-01-20 09:40:31.101905	22.3	20.7	-86.7	3.8
2025-01-20 09:40:32.253368	22.2	20.8	-87.4	3.9
2025-01-20 09:40:33.401855	22.2	21.0	-87.1	6.1
2025-01-20 09:40:34.565777	22.1	21.1	-87.3	7.4
2025-01-20 09:40:35.727589	22.0	21.3	-87.0	7.9
2025-01-20 09:40:36.889763	22.0	21.4	-86.8	2.8
2025-01-20 09:40:38.047462	21.9	21.6	-86.8	8.0
2025-01-20 09:40:39.205531	21.8	21.8	-86.9	3.7
2025-01-20 09:40:40.362600	21.7	21.9	-87.4	6.8
2025-01-20 09:40:41.521845	21.7	22.1	-87.2	2.8
2025-01-20 09:40:42.678851	21.6	22.2	-86.7	4.2
2025-01-20 09:40:43.835988	21.5	22.4	-87.0	2.3
2025-01-20 09:40:44.991077	21.4	22.5	-86.2	9.0
2025-01-20 09:40:46.150930	21.4	22.7	-86.2	6.1
2025-01-20 09:40:47.301628	21.3	22.9	-86.4	4.8
2025-01-20 09:40:48.448888	21.2	23.0	-85.9	8.6
2025-01-20 09:40:49.599808	21.1	23.2	-85.8	9.0
2025-01-20 09:40:50.766879	21.1	23.3	-86.0	3.8
2025-01-20 09:40:51.919810	21.0	23.5	-86.1	6.5
2025-01-20 09:40:53.077275	20.9	23.7	-86.5	10.3
2025-01-20 09:40:54.233301	20.8	23.8	-87.4	7.7
2025-01-20 09:40:55.391280	20.7	24.0	-87.3	6.3
2025-01-20 09:40:56.545097	20.6	24.2	-85.8	5.3
2025-01-20 09:40:57.702870	20.6	24.4	-87.3	1.8
2025-01-20 09:40:58.853840	20.5	24.5	-86.0	3.2
2025-01-20 09:41:00.010172	20.4	24.7	-86.8	3.0
2025-01-20 09:41:01.162413	20.3	24.9	-87.0	7.5
2025-01-20 09:41:02.321341	20.2	25.0	-86.0	6.5
2025-01-20 09:41:03.473726	20.1	25.2	-86.5	9.7
2025-01-20 09:41:04.633630	20.0	25.4	-87.6	4.5
2025-01-20 09:41:05.786589	19.9	25.6	-86.3	4.4
2025-01-20 09:41:06.941150	19.8	25.8	-86.1	6.6
2025-01-20 09:41:08.095590	19.7	25.9	-86.6	5.9
2025-01-20 09:41:09.247713	19.6	26.1	-88.2	7.1
2025-01-20 09:41:10.406296	19.5	26.3	-88.2	5.4
2025-01-20 09:41:11.561729	19.5	26.5	-88.2	2.0
2025-01-20 09:41:12.713943	19.4	26.7	-88.0	4.2
2025-01-20 09:41:13.856637	19.3	26.8	-88.0	3.6
2025-01-20 09:41:15.008544	19.2	27.0	-88.0	3.8
2025-01-20 09:41:16.161143	19.0	27.2	-88.3	4.1
2025-01-20 09:41:17.313123	18.9	27.4	-88.6	4.1
2025-01-20 09:41:18.475201	18.8	27.6	-87.8	7.6
2025-01-20 09:41:19.635041	18.7	27.8	-88.3	9.3
2025-01-20 09:41:20.792613	18.6	28.0	-88.3	5.3
2025-01-20 09:41:21.943603	18.5	28.2	-88.5	5.9
2025-01-20 09:41:23.094039	18.4	28.4	-88.4	5.7
2025-01-20 09:41:24.247453	18.3	28.6	-88.2	4.4
2025-01-20 09:41:25.407813	18.2	28.8	-88.4	6.1
2025-01-20 09:41:26.556603	18.1	29.0	-88.5	11.0
2025-01-20 09:41:27.711492	17.9	29.2	-88.1	7.2
2025-01-20 09:41:28.871100	17.8	29.4	-88.3	2.0
2025-01-20 09:41:30.026315	17.7	29.6	-87.7	2.5
2025-01-20 09:41:31.183856	17.6	29.8	-88.2	2.7
2025-01-20 09:41:32.340350	17.5	30.0	-88.4	3.4
2025-01-20 09:41:33.492035	17.3	30.2	-86.8	3.5
2025-01-20 09:41:34.649200	17.2	30.4	-87.1	3.7
2025-01-20 09:41:35.811698	17.1	30.6	-87.2	5.4
2025-01-20 09:41:36.963476	17.0	30.8	-87.2	6.3
2025-01-20 09:41:38.114238	16.8	31.0	-86.9	7.7
2025-01-20 09:41:39.271443	16.7	31.2	-87.9	9.1
2025-01-20 09:41:40.421934	16.6	31.4	-88.1	4.7
2025-01-20 09:41:41.584299	16.4	31.7	-87.4	9.7
2025-01-20 09:41:42.742670	16.3	31.9	-86.6	7.0
2025-01-20 09:41:43.896500	16.1	32.1	-87.5	6.5
2025-01-20 09:41:45.047432	16.0	32.3	-87.2	7.7
2025-01-20 09:41:46.197886	15.9	32.5	-86.5	2.6
2025-01-20 09:41:47.359323	15.7	32.8	-87.0	3.8
2025-01-20 09:41:48.514871	15.6	33.0	-86.9	3.0
2025-01-20 09:41:49.665624	15.4	33.2	-86.7	4.9
2025-01-20 09:41:50.824618	15.3	33.4	-86.7	3.7
2025-01-20 09:41:51.982223	15.1	33.7	-86.7	4.8
2025-01-20 09:41:53.141275	14.9	33.9	-86.3	4.9
2025-01-20 09:41:54.292880	14.8	34.1	-86.5	6.6
2025-01-20 09:41:55.440110	14.6	34.3	-86.9	14.0
2025-01-20 09:41:56.599913	14.5	34.6	-86.9	7.8
2025-01-20 09:41:57.756357	14.3	34.8	-86.7	5.3
2025-01-20 09:41:58.903839	14.1	35.1	-86.8	9.8
2025-01-20 09:42:00.059781	14.0	35.3	-86.8	6.0
2025-01-20 09:42:01.217748	13.8	35.5	-87.1	5.9
2025-01-20 09:42:02.368183	13.6	35.8	-87.4	10.5
2025-01-20 09:42:03.525160	13.4	36.0	-87.4	9.7
2025-01-20 09:42:04.678704	13.2	36.3	-86.2	6.9
2025-01-20 09:42:05.837344	13.1	36.5	-87.9	7.8
2025-01-20 09:42:06.984480	12.9	36.8	-87.2	5.9
2025-01-20 09:42:08.140513	12.7	37.0	-87.0	4.7
2025-01-20 09:42:09.292375	12.5	37.3	-87.8	3.3
2025-01-20 09:42:10.446994	12.3	37.5	-87.9	5.0
2025-01-20 09:42:11.605265	12.1	37.8	-87.4	7.9
2025-01-20 09:42:12.761806	11.9	38.0	-87.4	7.9
2025-01-20 09:42:13.915502	11.7	38.3	-86.9	8.8
2025-01-20 09:42:15.069435	11.5	38.5	-87.0	12.1
2025-01-20 09:42:16.225173	11.3	38.8	-87.0	10.0
2025-01-20 09:42:17.386906	11.0	39.0	-86.8	7.5
2025-01-20 09:42:18.550696	10.8	39.3	-87.0	5.7
2025-01-20 09:42:19.700711	10.6	39.6	-87.4	6.5
2025-01-20 09:42:20.860997	10.4	39.8	-87.0	6.3
2025-01-20 09:42:22.019141	10.1	40.1	-87.4	12.8
2025-01-20 09:42:23.178855	9.9	40.4	-87.2	10.1
2025-01-20 09:42:24.329454	9.7	40.6	-87.6	9.1
2025-01-20 09:42:25.484371	9.4	40.9	-88.1	9.2
2025-01-20 09:42:26.646645	9.2	41.2	-86.8	7.1
2025-01-20 09:42:27.809505	8.9	41.5	-87.9	4.1
2025-01-20 09:42:28.968156	8.7	41.7	-87.4	4.0
2025-01-20 09:42:30.114620	8.4	42.0	-88.3	5.0
2025-01-20 09:42:31.264390	8.1	42.3	-88.3	4.6
2025-01-20 09:42:32.418919	7.9	42.6	-88.3	7.9
2025-01-20 09:42:33.569247	7.6	42.9	-87.9	11.0
2025-01-20 09:42:34.723701	7.3	43.1	-87.2	10.8
2025-01-20 09:42:35.883864	7.0	43.4	-87.9	14.4
2025-01-20 09:42:37.035379	6.7	43.7	-88.0	9.4
2025-01-20 09:42:38.186998	6.4	44.0	-88.0	7.2
2025-01-20 09:42:39.339252	6.1	44.3	-88.0	8.8
2025-01-20 09:42:40.492491	5.8	44.6	-88.0	11.0
2025-01-20 09:42:41.650342	5.5	44.9	-87.6	8.3
2025-01-20 09:42:42.803699	5.2	45.1	-87.7	9.9
2025-01-20 09:42:43.953761	4.9	45.4	-88.0	10.2
2025-01-20 09:42:45.115824	4.6	45.7	-87.6	13.1
2025-01-20 09:42:46.266335	4.2	46.0	-87.8	9.0
2025-01-20 09:42:47.435135	3.9	46.3	-87.6	7.1
2025-01-20 09:42:48.586630	3.5	46.6	-87.7	4.2
2025-01-20 09:42:49.755039	3.2	46.9	-87.0	2.4
2025-01-20 09:42:50.913521	2.8	47.2	-87.4	4.7
2025-01-20 09:42:52.073868	2.4	47.5	-87.2	5.4
2025-01-20 09:42:53.236784	2.1	47.8	-87.0	2.5
2025-01-20 09:42:54.388314	1.7	48.1	-87.7	7.1
2025-01-20 09:42:55.539866	1.3	48.4	-87.1	10.5
2025-01-20 09:42:56.696310	0.9	48.7	-87.2	10.3
2025-01-20 09:42:57.851766	0.5	49.0	-87.0	15.3
2025-01-20 09:42:59.009479	0.1	49.3	-86.5	10.7
2025-01-20 09:43:00.166498	359.6	49.6	-86.5	7.2
2025-01-20 09:43:01.321310	359.2	49.9	-86.9	3.9
2025-01-20 09:43:02.479890	358.8	50.2	-86.9	4.5
2025-01-20 09:43:03.638074	358.3	50.5	-87.1	4.4
2025-01-20 09:43:04.796662	357.8	50.8	-87.0	4.8
2025-01-20 09:43:05.947209	357.4	51.1	-87.1	6.4
2025-01-20 09:43:07.107907	356.9	51.4	-86.6	9.8
2025-01-20 09:43:08.262104	356.4	51.7	-87.2	10.9
2025-01-20 09:43:09.414105	355.9	52.0	-88.3	11.3
2025-01-20 09:43:10.576801	355.4	52.3	-88.3	9.2
2025-01-20 09:43:11.730686	354.9	52.6	-88.1	7.6
2025-01-20 09:43:12.888442	354.4	53.0	-87.7	3.4
2025-01-20 09:43:14.040362	353.8	53.2	-87.2	3.7
2025-01-20 09:43:15.192740	353.3	53.5	-88.2	5.6
2025-01-20 09:43:16.345250	352.7	53.8	-88.2	4.2
2025-01-20 09:43:17.499943	352.1	54.1	-88.4	1.0
2025-01-20 09:43:18.659963	351.5	54.4	-87.9	2.3
2025-01-20 09:43:19.816552	350.9	54.7	-87.9	5.6
2025-01-20 09:43:20.968611	350.3	55.0	-85.5	6.9
2025-01-20 09:43:22.121838	349.7	55.3	-87.7	12.3
2025-01-20 09:43:23.271924	349.1	55.6	-87.8	12.5
2025-01-20 09:43:24.419795	348.4	55.9	-88.1	8.3
2025-01-20 09:43:25.580698	347.7	56.2	-88.6	2.9
2025-01-20 09:43:26.739717	347.1	56.5	-88.6	0.2
2025-01-20 09:43:27.895199	346.4	56.7	-88.3	2.1
2025-01-20 09:43:29.048190	345.7	57.0	-88.1	5.2
2025-01-20 09:43:30.205936	344.9	57.3	-88.3	6.0
2025-01-20 09:43:31.367547	344.2	57.6	-87.9	10.3
2025-01-20 09:43:32.521157	343.5	57.8	-87.5	10.1
2025-01-20 09:43:33.686939	342.7	58.1	-87.9	8.7
2025-01-20 09:43:34.840323	341.9	58.3	-85.2	8.2
2025-01-20 09:43:35.986994	341.1	58.6	-88.5	10.1
2025-01-20 09:43:37.145308	340.3	58.9	-88.0	3.0
2025-01-20 09:43:38.303324	339.5	59.1	-88.4	6.5
2025-01-20 09:43:39.457112	338.6	59.3	-88.7	9.8
2025-01-20 09:43:40.608757	337.8	59.6	-87.9	12.4
2025-01-20 09:43:41.762227	336.9	59.8	-88.6	13.3
2025-01-20 09:43:42.922025	336.0	60.0	-88.3	13.1
2025-01-20 09:43:44.073804	335.1	60.3	-88.6	11.4
2025-01-20 09:43:45.232718	334.2	60.5	-87.8	8.9
2025-01-20 09:43:46.389608	333.2	60.7	-88.1	7.9
2025-01-20 09:43:47.546230	332.3	60.9	-88.8	5.8
2025-01-20 09:43:48.697413	331.3	61.1	-88.6	4.8
2025-01-20 09:43:49.857086	330.3	61.3	-88.0	3.6
2025-01-20 09:43:51.015991	329.3	61.5	-88.1	3.9
2025-01-20 09:43:52.173629	328.3	61.6	-89.0	5.1
2025-01-20 09:43:53.336662	327.3	61.8	-88.5	6.4
2025-01-20 09:43:54.488510	326.2	62.0	-88.0	9.7
2025-01-20 09:43:55.641354	325.2	62.1	-88.0	10.8
2025-01-20 09:43:56.798725	324.1	62.3	-88.6	9.3
2025-01-20 09:43:57.960171	323.0	62.4	-88.7	10.7
2025-01-20 09:43:59.115006	321.9	62.5	-88.9	11.4
2025-01-20 09:44:00.270058	320.8	62.7	-88.9	11.5
2025-01-20 09:44:01.424002	319.7	62.8	-88.2	11.2
2025-01-20 09:44:02.581825	318.6	62.9	-87.9	10.4
2025-01-20 09:44:03.734559	317.5	63.0	-88.5	5.8
2025-01-20 09:44:04.881609	316.3	63.0	-88.8	7.8
2025-01-20 09:44:06.037674	315.2	63.1	-88.6	7.8
2025-01-20 09:44:07.201540	314.0	63.2	-88.6	5.6
2025-01-20 09:44:08.358106	312.9	63.2	-88.3	6.6
2025-01-20 09:44:09.521170	311.7	63.3	-88.2	7.9
2025-01-20 09:44:10.674528	310.5	63.3	-88.3	5.7
2025-01-20 09:44:11.820665	309.4	63.3	-88.8	5.0
2025-01-20 09:44:12.981509	308.2	63.3	-88.9	3.5
2025-01-20 09:44:14.137233	307.0	63.4	-88.8	3.1
2025-01-20 09:44:15.289712	305.8	63.3	-89.1	3.5
2025-01-20 09:44:16.445405	304.6	63.3	-89.2	4.5
2025-01-20 09:44:17.600415	303.5	63.3	-89.2	4.8
2025-01-20 09:44:18.756032	302.3	63.3	-88.7	3.5
2025-01-20 09:44:19.907435	301.1	63.2	-88.9	3.3
2025-01-20 09:44:21.064749	300.0	63.2	-88.2	4.5
2025-01-20 09:44:22.213315	298.8	63.1	-89.1	2.5
2025-01-20 09:44:23.361045	297.7	63.0	-89.0	3.8
2025-01-20 09:44:24.513712	296.6	62.9	-88.9	4.0
2025-01-20 09:44:25.666126	295.4	62.9	-88.6	5.5
2025-01-20 09:44:26.822582	294.3	62.8	-89.1	5.0
2025-01-20 09:44:27.977997	293.2	62.6	-88.6	5.2
2025-01-20 09:44:29.131107	292.1	62.5	-89.2	4.6
2025-01-20 09:44:30.285688	291.0	62.4	-88.2	3.8
2025-01-20 09:44:31.442187	289.9	62.3	-88.9	4.7
2025-01-20 09:44:32.606174	288.8	62.1	-88.4	6.3
2025-01-20 09:44:33.762231	287.8	62.0	-88.9	3.8
2025-01-20 09:44:34.908455	286.8	61.8	-88.1	2.5
2025-01-20 09:44:36.073317	285.7	61.6	-88.6	5.6
2025-01-20 09:44:37.227552	284.7	61.4	-88.8	7.3
2025-01-20 09:44:38.381456	283.7	61.3	-88.4	4.0
2025-01-20 09:44:39.536778	282.7	61.1	-89.1	5.1
2025-01-20 09:44:40.685048	281.8	60.9	-89.2	3.7
2025-01-20 09:44:41.842542	280.8	60.7	-88.9	8.1
2025-01-20 09:44:42.993841	279.9	60.5	-88.1	11.8
2025-01-20 09:44:44.151452	279.0	60.2	-88.7	8.9
2025-01-20 09:44:45.298083	278.1	60.0	-88.7	9.6
2025-01-20 09:44:46.451664	277.2	59.8	-88.4	7.3
2025-01-20 09:44:47.615648	276.3	59.6	-89.0	12.2
2025-01-20 09:44:48.776495	275.4	59.3	-89.4	7.2
2025-01-20 09:44:49.925979	274.6	59.1	-89.0	9.4
2025-01-20 09:44:51.079488	273.8	58.8	-89.0	8.1
2025-01-20 09:44:52.236340	273.0	58.6	-87.6	8.0
2025-01-20 09:44:53.387831	272.2	58.3	-88.5	8.5
2025-01-20 09:44:54.540989	271.4	58.1	-88.5	9.0
2025-01-20 09:44:55.696732	270.6	57.8	-88.9	4.2
2025-01-20 09:44:56.849017	269.9	57.5	-88.6	4.9
2025-01-20 09:44:57.997953	269.2	57.3	-89.0	5.5
2025-01-20 09:44:59.154508	268.4	57.0	-88.3	7.4
2025-01-20 09:45:00.311689	267.7	56.7	-87.6	4.9
2025-01-20 09:45:01.467072	267.0	56.4	-89.3	5.9
2025-01-20 09:45:02.619696	266.4	56.2	-88.4	6.0
2025-01-20 09:45:03.771871	265.7	55.9	-88.3	4.9
2025-01-20 09:45:04.923146	265.0	55.6	-88.0	5.7
2025-01-20 09:45:06.074580	264.4	55.3	-87.8	4.5
2025-01-20 09:45:07.221518	263.8	55.0	-88.1	5.3
2025-01-20 09:45:08.378092	263.2	54.7	-88.8	8.3
2025-01-20 09:45:09.526874	262.6	54.4	-87.7	5.3
2025-01-20 09:45:10.674707	262.0	54.1	-88.1	6.3
2025-01-20 09:45:11.824972	261.4	53.8	-88.8	6.0
2025-01-20 09:45:12.983648	260.9	53.5	-88.9	10.3
2025-01-20 09:45:14.142124	260.3	53.2	-88.9	12.4
2025-01-20 09:45:15.284961	259.8	52.9	-88.8	7.6
2025-01-20 09:45:16.442039	259.2	52.6	-88.2	10.3
2025-01-20 09:45:17.599664	258.7	52.3	-88.1	12.0
2025-01-20 09:45:18.756100	258.2	52.0	-87.8	6.2
2025-01-20 09:45:19.918764	257.7	51.7	-87.3	9.3
2025-01-20 09:45:21.076858	257.2	51.4	-87.8	13.7
2025-01-20 09:45:22.229257	256.7	51.1	-88.1	11.5
2025-01-20 09:45:23.391108	256.3	50.8	-88.4	8.7
2025-01-20 09:45:24.545126	255.8	50.5	-88.5	12.8
2025-01-20 09:45:25.706042	255.4	50.2	-88.5	16.3
2025-01-20 09:45:26.863754	254.9	49.9	-88.5	16.3
2025-01-20 09:45:28.023431	254.5	49.6	-88.8	18.1
2025-01-20 09:45:29.186585	254.1	49.3	-88.7	18.4
2025-01-20 09:45:30.353835	253.6	49.0	-88.6	19.8
2025-01-20 09:45:31.507617	253.2	48.7	-88.0	18.0
2025-01-20 09:45:32.670590	252.8	48.4	-88.3	8.2
2025-01-20 09:45:33.828452	252.4	48.1	-88.0	15.3
2025-01-20 09:45:34.987229	252.0	47.8	-88.6	10.4
2025-01-20 09:45:36.143974	251.7	47.5	-88.3	15.4
2025-01-20 09:45:37.306593	251.3	47.2	-88.6	18.3
2025-01-20 09:45:38.457168	250.9	46.9	-88.2	16.3
2025-01-20 09:45:39.619973	250.6	46.6	-88.1	14.4
2025-01-20 09:45:40.780929	250.2	46.3	-88.4	17.1
2025-01-20 09:45:41.940999	249.9	46.0	-88.5	9.2
2025-01-20 09:45:43.095291	249.6	45.7	-88.4	12.4
2025-01-20 09:45:44.261611	249.2	45.4	-88.1	20.0
2025-01-20 09:45:45.411458	248.9	45.1	-88.2	6.4
2025-01-20 09:45:46.560839	248.6	44.8	-87.8	11.6
2025-01-20 09:45:47.719194	248.3	44.6	-88.4	18.2
2025-01-20 09:45:48.875473	248.0	44.3	-88.0	15.1
2025-01-20 09:45:50.034689	247.7	44.0	-87.9	10.1
2025-01-20 09:45:51.188089	247.4	43.7	-88.6	18.1
2025-01-20 09:45:52.346236	247.1	43.4	-88.8	20.3
2025-01-20 09:45:53.500159	246.8	43.1	-88.5	14.4
2025-01-20 09:45:54.655594	246.5	42.8	-88.4	18.9
2025-01-20 09:45:55.815776	246.2	42.6	-88.7	18.2
2025-01-20 09:45:56.974418	246.0	42.3	-88.9	16.3
2025-01-20 09:45:58.128212	245.7	42.0	-89.0	18.6
2025-01-20 09:45:59.274221	245.4	41.7	-89.5	18.7
2025-01-20 09:46:00.428065	245.2	41.5	-87.6	15.2
2025-01-20 09:46:01.582687	244.9	41.2	-89.2	13.7
2025-01-20 09:46:02.735627	244.7	40.9	-88.7	17.5
2025-01-20 09:46:03.884277	244.5	40.6	-88.0	11.4
2025-01-20 09:46:05.038329	244.2	40.4	-89.2	11.2
2025-01-20 09:46:06.191226	244.0	40.1	-89.5	4.3
2025-01-20 09:46:07.342447	243.7	39.8	-89.3	11.2
2025-01-20 09:46:08.502496	243.5	39.6	-89.5	4.6
2025-01-20 09:46:09.656959	243.3	39.3	-89.6	8.0
2025-01-20 09:46:10.830613	243.1	39.0	-88.9	10.2
2025-01-20 09:46:11.988738	242.9	38.8	-88.8	3.5
2025-01-20 09:46:13.159137	242.6	38.5	-89.6	5.6
2025-01-20 09:46:14.319868	242.4	38.3	-89.6	6.6
2025-01-20 09:46:15.477168	242.2	38.0	-89.4	6.2
2025-01-20 09:46:16.638686	242.0	37.7	-89.2	5.6
2025-01-20 09:46:17.787837	241.8	37.5	-89.1	5.5
2025-01-20 09:46:18.955925	241.6	37.2	-89.5	6.7
2025-01-20 09:46:20.109426	241.4	37.0	-89.4	6.5
2025-01-20 09:46:21.247197	241.2	36.7	-88.9	5.6
2025-01-20 09:46:22.367731	241.1	36.5	-89.3	3.3
2025-01-20 09:46:23.488207	240.9	36.3	-88.9	3.2
2025-01-20 09:46:24.608716	240.7	36.0	-89.2	2.6
2025-01-20 09:46:25.729716	240.5	35.8	-89.0	3.9
2025-01-20 09:46:26.850822	240.4	35.6	-89.3	7.2
2025-01-20 09:46:27.972050	240.2	35.3	-88.6	3.7
2025-01-20 09:46:29.093252	240.0	35.1	-89.1	3.6
2025-01-20 09:46:30.228603	239.8	34.9	-89.0	6.7
2025-01-20 09:46:31.376454	239.7	34.6	-89.1	5.1
2025-01-20 09:46:32.532520	239.5	34.4	-89.3	8.6
2025-01-20 09:46:33.677750	239.4	34.2	-89.3	6.8
2025-01-20 09:46:34.833616	239.2	33.9	-89.5	6.9
2025-01-20 09:46:35.990042	239.0	33.7	-89.6	12.2
2025-01-20 09:46:37.147454	238.9	33.5	-89.7	10.6
2025-01-20 09:46:38.295586	238.7	33.3	-89.5	11.6
2025-01-20 09:46:39.454725	238.6	33.0	-88.1	5.5
2025-01-20 09:46:40.610900	238.4	32.8	-88.9	5.8
2025-01-20 09:46:41.758517	238.3	32.6	-89.4	9.7
2025-01-20 09:46:42.911164	238.1	32.4	-88.9	3.4
2025-01-20 09:46:44.062222	238.0	32.1	-89.1	5.7
2025-01-20 09:46:45.220322	237.9	31.9	-89.6	9.3
2025-01-20 09:46:46.372613	237.7	31.7	-89.6	9.6
2025-01-20 09:46:47.533677	237.6	31.5	-89.7	4.8
2025-01-20 09:46:48.689042	237.4	31.3	-89.3	7.9
2025-01-20 09:46:49.837038	237.3	31.1	-89.6	4.3
2025-01-20 09:46:50.990797	237.2	30.9	-89.6	7.6
2025-01-20 09:46:52.147291	237.1	30.6	-89.8	7.8
2025-01-20 09:46:53.306017	236.9	30.4	-89.8	7.4
2025-01-20 09:46:54.464636	236.8	30.2	-89.2	3.5
2025-01-20 09:46:55.625862	236.7	30.0	-89.3	3.6
2025-01-20 09:46:56.782956	236.5	29.8	-88.3	3.9
2025-01-20 09:46:57.939229	236.4	29.6	-89.4	2.9
2025-01-20 09:46:59.096717	236.3	29.4	-89.7	3.5
2025-01-20 09:47:00.243224	236.2	29.2	-89.4	6.7
2025-01-20 09:47:01.405047	236.1	29.0	-88.1	5.4
2025-01-20 09:47:02.555903	236.0	28.8	-89.6	1.8
2025-01-20 09:47:03.717922	235.8	28.6	-88.6	8.2
2025-01-20 09:47:04.870595	235.7	28.4	-89.1	7.5
2025-01-20 09:47:06.028549	235.6	28.2	-88.0	4.2
2025-01-20 09:47:07.182327	235.5	28.0	-87.9	7.4
2025-01-20 09:47:08.340555	235.4	27.8	-87.9	9.1
2025-01-20 09:47:09.490015	235.3	27.6	-88.3	8.6
2025-01-20 09:47:10.641936	235.2	27.5	-88.7	11.5
2025-01-20 09:47:11.794923	235.1	27.3	-88.4	5.7
2025-01-20 09:47:12.945499	235.0	27.1	-88.5	5.9
2025-01-20 09:47:14.100949	234.9	26.9	-88.6	3.8
2025-01-20 09:47:15.249199	234.8	26.7	-88.4	6.4
2025-01-20 09:47:16.401377	234.7	26.5	-88.7	3.2
2025-01-20 09:47:17.558230	234.6	26.3	-88.0	3.5
2025-01-20 09:47:18.709413	234.5	26.2	-88.7	5.4
2025-01-20 09:47:19.873762	234.4	26.0	-88.6	3.7
2025-01-20 09:47:21.027277	234.3	25.8	-88.4	2.0
2025-01-20 09:47:22.185194	234.2	25.6	-88.4	5.5
2025-01-20 09:47:23.342546	234.1	25.4	-88.3	4.9
2025-01-20 09:47:24.494375	234.0	25.3	-88.2	1.5
2025-01-20 09:47:25.642581	233.9	25.1	-88.8	3.4
2025-01-20 09:47:26.805033	233.8	24.9	-88.6	6.3
2025-01-20 09:47:27.958350	233.7	24.7	-88.8	5.4
2025-01-20 09:47:29.110456	233.7	24.6	-88.4	4.4
2025-01-20 09:47:30.265658	233.6	24.4	-89.0	7.4
2025-01-20 09:47:31.423279	233.5	24.2	-88.9	4.5
2025-01-20 09:47:32.572419	233.4	24.1	-88.8	4.7
2025-01-20 09:47:33.726955	233.3	23.9	-88.7	6.5
2025-01-20 09:47:34.876573	233.2	23.7	-89.0	5.7
2025-01-20 09:47:36.027996	233.2	23.6	-88.6	6.1
2025-01-20 09:47:37.177931	233.1	23.4	-88.9	5.6
2025-01-20 09:47:38.340786	233.0	23.2	-89.1	6.2
2025-01-20 09:47:39.475722	232.9	23.1	-89.5	10.4
2025-01-20 09:47:40.629241	232.8	22.9	-89.4	10.9
2025-01-20 09:47:41.781475	232.8	22.8	-89.6	9.9
2025-01-20 09:47:42.941388	232.7	22.6	-89.6	10.2
2025-01-20 09:47:44.098191	232.6	22.4	-89.2	7.9
2025-01-20 09:47:45.250377	232.5	22.3	-89.3	8.8
2025-01-20 09:47:46.409583	232.5	22.1	-89.7	5.6
2025-01-20 09:47:47.559297	232.4	22.0	-89.7	4.5
2025-01-20 09:47:48.714406	232.3	21.8	-89.9	6.1
2025-01-20 09:47:49.866085	232.2	21.6	-89.9	5.8
2025-01-20 09:47:51.025549	232.2	21.5	-90.3	4.4
2025-01-20 09:47:52.176805	232.1	21.3	-89.9	7.8
2025-01-20 09:47:53.328239	232.0	21.2	-89.6	7.9
2025-01-20 09:47:54.474039	232.0	21.0	-89.9	8.5
2025-01-20 09:47:55.626400	231.9	20.9	-89.6	6.7
2025-01-20 09:47:56.782456	231.8	20.7	-89.8	7.9
2025-01-20 09:47:57.940964	231.7	20.6	-89.8	6.2
2025-01-20 09:47:59.099722	231.7	20.4	-89.6	7.2
2025-01-20 09:48:00.245490	231.6	20.3	-89.2	8.0
2025-01-20 09:48:01.408907	231.6	20.1	-89.4	6.1
2025-01-20 09:48:02.560805	231.5	20.0	-89.8	4.1
2025-01-20 09:48:03.718046	231.4	19.9	-89.6	5.7
2025-01-20 09:48:04.874816	231.4	19.7	-89.6	4.8
2025-01-20 09:48:06.032875	231.3	19.6	-89.3	5.6
2025-01-20 09:48:07.187263	231.2	19.4	-89.5	7.9
2025-01-20 09:48:08.341311	231.2	19.3	-89.5	7.1
2025-01-20 09:48:09.489704	231.1	19.1	-89.8	8.0
2025-01-20 09:48:10.650336	231.1	19.0	-89.1	5.5
2025-01-20 09:48:11.803924	231.0	18.9	-89.1	8.3
2025-01-20 09:48:12.963144	230.9	18.7	-89.5	3.7
2025-01-20 09:48:14.119000	230.9	18.6	-89.7	5.5
2025-01-20 09:48:15.273239	230.8	18.5	-89.5	8.3
2025-01-20 09:48:16.430433	230.8	18.3	-89.4	3.8
2025-01-20 09:48:17.586125	230.7	18.2	-89.5	5.2
2025-01-20 09:48:18.739755	230.6	18.0	-90.0	9.2
2025-01-20 09:48:19.901756	230.6	17.9	-89.5	3.7
2025-01-20 09:48:21.057316	230.5	17.8	-89.5	6.4
2025-01-20 09:48:22.211684	230.5	17.6	-89.9	6.7
2025-01-20 09:48:23.370652	230.4	17.5	-89.3	4.6
2025-01-20 09:48:24.527273	230.4	17.4	-89.3	6.0
2025-01-20 09:48:25.676394	230.3	17.2	-88.6	5.3
2025-01-20 09:48:26.835632	230.3	17.1	-89.4	4.3
2025-01-20 09:48:27.990121	230.2	17.0	-89.5	4.3
2025-01-20 09:48:29.144168	230.2	16.9	-89.4	4.6
2025-01-20 09:48:30.301408	230.1	16.7	-89.6	5.4
2025-01-20 09:48:31.451183	230.1	16.6	-89.9	3.8
2025-01-20 09:48:32.607788	230.0	16.5	-90.0	3.2
2025-01-20 09:48:33.767290	230.0	16.3	-89.7	4.1
2025-01-20 09:48:34.932535	229.9	16.2	-89.8	4.7
2025-01-20 09:48:36.085051	229.9	16.1	-89.7	2.8
2025-01-20 09:48:37.242918	229.8	16.0	-89.9	3.8
2025-01-20 09:48:38.389425	229.8	15.8	-89.7	5.6
2025-01-20 09:48:39.544795	229.7	15.7	-89.9	3.5
2025-01-20 09:48:40.707063	229.7	15.6	-89.6	3.5
2025-01-20 09:48:41.869896	229.6	15.5	-89.4	2.6
2025-01-20 09:48:43.018754	229.6	15.4	-90.2	3.9
2025-01-20 09:48:44.174394	229.5	15.2	-89.9	4.2
2025-01-20 09:48:45.330517	229.5	15.1	-89.8	4.1
2025-01-20 09:48:46.483498	229.4	15.0	-89.3	2.3
2025-01-20 09:48:47.640690	229.4	14.9	-89.9	6.4
2025-01-20 09:48:48.796772	229.4	14.8	-90.1	3.1
2025-01-20 09:48:49.949920	229.3	14.6	-89.1	3.4
2025-01-20 09:48:51.104975	229.3	14.5	-89.8	5.7
#Closed at: 2025-01-20 09:39:46.930825