passes_logs/2025/01/20/LEX_Murmansk/LEX_Murmansk__20250120_100346_NOAA_18_rec.log

#Pass ID: 20250120_100346_NOAA 18
#Satellite: NOAA 18
#Configuration: NOAA 18
#Start time: 2025-01-20 10:03:41.568279

#LorettStation: 1.0.0 05.05.2024
#Station: LEX_Murmansk
#Location: 33.156738 lon 68.926811 lat
#TLE: 1 28654U 05018A   25019.12683114  .00000403  00000+0  23745-3 0  9992
#TLE: 2 28654  98.8559 100.1402 0014536 167.7337 192.4191 14.13490232 13765

#Time	Az	El	Level	SNR
2025-01-20 10:03:53.690628	25.4	16.3	-91.0	5.0
2025-01-20 10:03:54.842118	25.4	16.4	-91.3	4.3
2025-01-20 10:03:55.990942	25.4	16.6	-91.0	4.9
2025-01-20 10:03:57.142825	25.4	16.7	-90.8	4.8
2025-01-20 10:03:58.294435	25.4	16.8	-91.0	6.6
2025-01-20 10:03:59.440469	25.4	16.9	-90.9	4.2
2025-01-20 10:04:00.587833	25.5	17.1	-91.3	5.5
2025-01-20 10:04:01.736610	25.5	17.2	-91.4	4.3
2025-01-20 10:04:02.892365	25.5	17.3	-91.0	5.9
2025-01-20 10:04:04.039795	25.5	17.5	-91.1	6.5
2025-01-20 10:04:05.188841	25.5	17.6	-91.3	5.4
2025-01-20 10:04:06.340125	25.5	17.7	-91.4	7.9
2025-01-20 10:04:07.495395	25.5	17.9	-91.1	4.3
2025-01-20 10:04:08.649445	25.5	18.0	-91.3	8.3
2025-01-20 10:04:09.798484	25.5	18.2	-91.1	10.0
2025-01-20 10:04:10.957680	25.5	18.3	-91.4	9.1
2025-01-20 10:04:12.112806	25.5	18.4	-90.9	18.6
2025-01-20 10:04:13.263913	25.5	18.6	-91.2	18.3
2025-01-20 10:04:14.427831	25.5	18.7	-91.4	13.8
2025-01-20 10:04:15.575979	25.5	18.9	-91.1	11.5
2025-01-20 10:04:16.731244	25.5	19.0	-91.3	15.6
2025-01-20 10:04:17.877797	25.5	19.1	-90.9	12.2
2025-01-20 10:04:19.029207	25.5	19.3	-91.0	16.5
2025-01-20 10:04:20.179671	25.5	19.4	-91.1	14.4
2025-01-20 10:04:21.332006	25.5	19.6	-91.4	14.0
2025-01-20 10:04:22.483452	25.5	19.7	-90.9	5.5
2025-01-20 10:04:23.633688	25.5	19.9	-91.1	7.4
2025-01-20 10:04:24.791318	25.5	20.0	-91.2	6.3
2025-01-20 10:04:25.939177	25.5	20.2	-91.2	4.0
2025-01-20 10:04:27.094572	25.5	20.3	-91.3	7.9
2025-01-20 10:04:28.249070	25.5	20.5	-91.6	9.6
2025-01-20 10:04:29.401131	25.5	20.6	-91.1	7.4
2025-01-20 10:04:30.547431	25.6	20.8	-91.3	10.0
2025-01-20 10:04:31.701055	25.6	20.9	-91.4	16.1
2025-01-20 10:04:32.856607	25.6	21.1	-90.5	17.6
2025-01-20 10:04:34.004267	25.6	21.2	-91.2	17.2
2025-01-20 10:04:35.160131	25.6	21.4	-91.3	13.3
2025-01-20 10:04:36.312718	25.6	21.5	-91.1	14.7
2025-01-20 10:04:37.468295	25.6	21.7	-91.0	8.0
2025-01-20 10:04:38.616513	25.6	21.9	-91.5	9.0
2025-01-20 10:04:39.769513	25.6	22.0	-91.4	12.2
2025-01-20 10:04:40.918124	25.6	22.2	-91.1	8.6
2025-01-20 10:04:42.073065	25.6	22.3	-91.4	13.9
2025-01-20 10:04:43.217834	25.6	22.5	-91.6	5.7
2025-01-20 10:04:44.375504	25.6	22.7	-91.5	10.0
2025-01-20 10:04:45.524988	25.6	22.8	-91.3	10.0
2025-01-20 10:04:46.676068	25.6	23.0	-91.2	12.1
2025-01-20 10:04:47.832650	25.6	23.2	-91.1	10.1
2025-01-20 10:04:48.988126	25.6	23.3	-91.3	14.3
2025-01-20 10:04:50.138584	25.6	23.5	-91.3	14.3
2025-01-20 10:04:51.283038	25.6	23.7	-91.7	18.6
2025-01-20 10:04:52.436799	25.6	23.8	-91.2	7.9
2025-01-20 10:04:53.586955	25.6	24.0	-91.4	6.5
2025-01-20 10:04:54.736714	25.6	24.2	-91.2	12.3
2025-01-20 10:04:55.887050	25.6	24.4	-91.1	9.8
2025-01-20 10:04:57.034057	25.6	24.5	-91.5	9.0
2025-01-20 10:04:58.184504	25.6	24.7	-91.2	14.5
2025-01-20 10:04:59.336079	25.6	24.9	-91.3	14.8
2025-01-20 10:05:00.479282	25.6	25.1	-91.5	18.6
2025-01-20 10:05:01.637015	25.6	25.2	-91.6	8.9
2025-01-20 10:05:02.788093	25.7	25.4	-91.2	13.8
2025-01-20 10:05:03.939147	25.7	25.6	-91.4	5.7
2025-01-20 10:05:05.099127	25.7	25.8	-91.3	15.1
2025-01-20 10:05:06.250812	25.7	26.0	-91.3	14.9
2025-01-20 10:05:07.398770	25.7	26.2	-91.5	10.3
2025-01-20 10:05:08.552159	25.7	26.4	-91.8	11.0
2025-01-20 10:05:09.699136	25.7	26.5	-91.2	7.5
2025-01-20 10:05:10.847131	25.7	26.7	-91.5	6.0
2025-01-20 10:05:11.984748	25.7	26.9	-91.0	2.3
2025-01-20 10:05:13.132128	25.7	27.1	-90.9	6.7
2025-01-20 10:05:14.286351	25.7	27.3	-90.9	8.4
2025-01-20 10:05:15.430406	25.7	27.5	-91.4	10.8
2025-01-20 10:05:16.588410	25.7	27.7	-91.4	6.8
2025-01-20 10:05:17.737614	25.7	27.9	-91.2	9.4
2025-01-20 10:05:18.893409	25.7	28.1	-91.3	9.9
2025-01-20 10:05:20.042704	25.7	28.3	-91.2	9.5
2025-01-20 10:05:21.193374	25.7	28.5	-91.1	11.9
2025-01-20 10:05:22.335839	25.7	28.7	-91.0	8.2
2025-01-20 10:05:23.482871	25.7	28.9	-90.9	17.0
2025-01-20 10:05:24.631928	25.7	29.1	-91.1	16.3
2025-01-20 10:05:25.778200	25.7	29.3	-91.0	4.0
2025-01-20 10:05:26.927702	25.7	29.5	-91.0	4.0
2025-01-20 10:05:28.078387	25.7	29.8	-91.1	5.6
2025-01-20 10:05:29.225748	25.7	30.0	-91.4	4.6
2025-01-20 10:05:30.381496	25.7	30.2	-90.5	4.9
2025-01-20 10:05:31.529914	25.7	30.4	-90.9	6.7
2025-01-20 10:05:32.679754	25.7	30.6	-91.0	5.8
2025-01-20 10:05:33.826319	25.7	30.8	-91.1	13.7
2025-01-20 10:05:34.976568	25.7	31.1	-91.3	10.0
2025-01-20 10:05:36.135730	25.7	31.3	-90.9	9.5
2025-01-20 10:05:37.294153	25.7	31.5	-91.0	7.8
2025-01-20 10:05:38.446970	25.7	31.8	-90.9	7.7
2025-01-20 10:05:39.589081	25.7	32.0	-90.8	10.0
2025-01-20 10:05:40.739489	25.7	32.2	-90.5	9.3
2025-01-20 10:05:41.887307	25.8	32.4	-91.3	5.4
2025-01-20 10:05:43.036600	25.8	32.7	-91.3	4.7
2025-01-20 10:05:44.190345	25.8	32.9	-91.3	10.7
2025-01-20 10:05:45.342674	25.8	33.2	-90.9	12.8
2025-01-20 10:05:46.502093	25.8	33.4	-91.2	7.6
2025-01-20 10:05:47.647837	25.8	33.6	-91.0	12.2
2025-01-20 10:05:48.798469	25.8	33.9	-91.0	12.1
2025-01-20 10:05:49.941801	25.8	34.1	-91.3	12.6
2025-01-20 10:05:51.099464	25.8	34.4	-91.2	11.5
2025-01-20 10:05:52.251335	25.8	34.6	-91.1	10.0
2025-01-20 10:05:53.402975	25.8	34.9	-91.1	5.1
2025-01-20 10:05:54.559021	25.8	35.1	-91.0	6.2
2025-01-20 10:05:55.715681	25.8	35.4	-91.0	14.0
2025-01-20 10:05:56.872441	25.8	35.7	-90.6	11.6
2025-01-20 10:05:58.031529	25.8	35.9	-91.1	14.0
2025-01-20 10:05:59.178725	25.8	36.2	-91.1	12.6
2025-01-20 10:06:00.321029	25.8	36.4	-90.7	18.0
2025-01-20 10:06:01.469361	25.8	36.7	-90.8	10.1
2025-01-20 10:06:02.619274	25.8	37.0	-91.1	12.1
2025-01-20 10:06:03.769482	25.8	37.2	-91.3	15.2
2025-01-20 10:06:04.913775	25.8	37.5	-91.0	8.2
2025-01-20 10:06:06.061970	25.8	37.8	-91.1	11.9
2025-01-20 10:06:07.216911	25.8	38.1	-91.6	14.1
2025-01-20 10:06:08.370095	25.8	38.4	-91.3	14.6
2025-01-20 10:06:09.521788	25.8	38.6	-91.0	14.3
2025-01-20 10:06:10.674095	25.8	38.9	-91.2	14.9
2025-01-20 10:06:11.822267	25.8	39.2	-91.3	18.2
2025-01-20 10:06:12.975621	25.8	39.5	-91.2	15.5
2025-01-20 10:06:14.136335	25.8	39.8	-91.3	18.4
2025-01-20 10:06:15.286093	25.8	40.1	-91.3	21.2
2025-01-20 10:06:16.434080	25.8	40.4	-90.9	23.4
2025-01-20 10:06:17.593445	25.8	40.7	-91.1	19.7
2025-01-20 10:06:18.744641	25.8	41.0	-91.1	19.0
2025-01-20 10:06:19.900413	25.8	41.3	-91.4	11.4
2025-01-20 10:06:21.056032	25.8	41.6	-91.3	7.9
2025-01-20 10:06:22.208549	25.8	41.9	-91.4	14.0
2025-01-20 10:06:23.370859	25.8	42.2	-90.9	13.3
2025-01-20 10:06:24.526519	25.8	42.6	-91.3	14.0
2025-01-20 10:06:25.678139	25.8	42.9	-91.2	18.8
2025-01-20 10:06:26.830254	25.8	43.2	-91.1	17.1
2025-01-20 10:06:27.983033	25.8	43.5	-91.1	18.5
2025-01-20 10:06:29.143804	25.8	43.8	-91.2	20.1
2025-01-20 10:06:30.289572	25.8	44.2	-91.4	22.6
2025-01-20 10:06:31.443388	25.8	44.5	-91.6	17.2
2025-01-20 10:06:32.595729	25.8	44.8	-90.8	14.0
2025-01-20 10:06:33.755127	25.8	45.2	-91.1	20.0
2025-01-20 10:06:34.906816	25.8	45.5	-91.0	18.3
2025-01-20 10:06:36.058346	25.8	45.9	-90.7	17.1
2025-01-20 10:06:37.205391	25.8	46.2	-90.5	13.7
2025-01-20 10:06:38.355384	25.8	46.6	-90.1	11.6
2025-01-20 10:06:39.509909	25.8	46.9	-90.8	7.0
2025-01-20 10:06:40.656259	25.8	47.3	-90.8	15.2
2025-01-20 10:06:41.808613	25.8	47.6	-91.0	17.4
2025-01-20 10:06:42.958193	25.8	48.0	-91.5	12.6
2025-01-20 10:06:44.122984	25.8	48.4	-90.8	19.7
2025-01-20 10:06:45.271784	25.8	48.7	-91.2	20.5
2025-01-20 10:06:46.421839	25.8	49.1	-90.6	17.6
2025-01-20 10:06:47.583141	25.8	49.5	-90.4	13.8
2025-01-20 10:06:48.740357	25.8	49.9	-90.3	5.1
2025-01-20 10:06:49.894948	25.8	50.2	-90.3	5.0
2025-01-20 10:06:51.042630	25.8	50.6	-90.8	3.9
2025-01-20 10:06:52.192474	25.8	51.0	-90.6	8.7
2025-01-20 10:06:53.340940	25.8	51.4	-91.0	15.5
2025-01-20 10:06:54.500544	25.8	51.8	-90.7	12.9
2025-01-20 10:06:55.650863	25.8	52.2	-91.1	17.6
2025-01-20 10:06:56.802980	25.8	52.6	-91.2	17.9
2025-01-20 10:06:57.952694	25.8	53.0	-91.7	16.6
2025-01-20 10:06:59.097688	25.8	53.4	-91.1	13.1
2025-01-20 10:07:00.241763	25.8	53.8	-91.2	17.0
2025-01-20 10:07:01.388883	25.8	54.2	-91.5	7.8
2025-01-20 10:07:02.538346	25.8	54.6	-91.6	5.5
2025-01-20 10:07:03.689309	25.8	55.0	-91.5	5.0
2025-01-20 10:07:04.847535	25.8	55.5	-91.4	7.3
2025-01-20 10:07:06.006807	25.8	55.9	-91.2	10.3
2025-01-20 10:07:07.156297	25.8	56.3	-91.4	13.8
2025-01-20 10:07:08.302648	25.7	56.8	-91.5	13.6
2025-01-20 10:07:09.449520	25.7	57.2	-91.2	15.4
2025-01-20 10:07:10.602666	25.7	57.6	-91.4	13.5
2025-01-20 10:07:11.759627	25.7	58.1	-91.2	13.7
2025-01-20 10:07:12.911301	25.7	58.5	-91.0	12.3
2025-01-20 10:07:14.058593	25.7	59.0	-91.2	8.8
2025-01-20 10:07:15.205701	25.7	59.4	-91.1	15.6
2025-01-20 10:07:16.354159	25.7	59.9	-91.2	16.7
2025-01-20 10:07:17.503084	25.7	60.3	-91.3	15.7
2025-01-20 10:07:18.660159	25.7	60.8	-91.5	12.6
2025-01-20 10:07:19.807518	25.7	61.3	-91.3	16.6
2025-01-20 10:07:20.959940	25.7	61.7	-91.2	16.8
2025-01-20 10:07:22.115963	25.7	62.2	-91.2	20.6
2025-01-20 10:07:23.274078	25.6	62.7	-91.1	20.3
2025-01-20 10:07:24.422665	25.6	63.2	-91.6	11.5
2025-01-20 10:07:25.582128	25.6	63.7	-91.4	5.3
2025-01-20 10:07:26.732493	25.6	64.2	-91.5	16.9
2025-01-20 10:07:27.883493	25.6	64.6	-91.2	11.3
2025-01-20 10:07:29.036148	25.6	65.1	-91.4	6.4
2025-01-20 10:07:30.179349	25.6	65.6	-91.5	9.3
2025-01-20 10:07:31.333571	25.5	66.1	-91.1	12.0
2025-01-20 10:07:32.486457	25.5	66.6	-90.9	7.9
2025-01-20 10:07:33.640822	25.5	67.1	-90.6	10.9
2025-01-20 10:07:34.789634	25.5	67.6	-91.6	19.1
2025-01-20 10:07:35.941319	25.5	68.2	-91.3	22.2
2025-01-20 10:07:37.089360	25.4	68.7	-91.3	18.6
2025-01-20 10:07:38.238402	25.4	69.2	-91.1	19.5
2025-01-20 10:07:39.388452	25.4	69.7	-90.9	14.3
2025-01-20 10:07:40.534497	25.4	70.2	-91.4	10.4
2025-01-20 10:07:41.687445	25.3	70.8	-91.0	18.3
2025-01-20 10:07:42.840014	25.3	71.3	-91.3	13.9
2025-01-20 10:07:43.996294	25.3	71.8	-91.1	11.2
2025-01-20 10:07:45.150684	25.2	72.4	-90.7	17.0
2025-01-20 10:07:46.305911	25.2	72.9	-91.4	23.7
2025-01-20 10:07:47.451600	25.2	73.4	-91.5	16.2
2025-01-20 10:07:48.605635	25.1	74.0	-91.4	13.1
2025-01-20 10:07:49.756105	25.1	74.5	-90.9	18.2
2025-01-20 10:07:50.908134	25.0	75.1	-91.3	22.5
2025-01-20 10:07:52.058643	25.0	75.6	-90.9	23.2
2025-01-20 10:07:53.214048	24.9	76.2	-91.2	20.8
2025-01-20 10:07:54.362413	24.8	76.7	-91.4	14.6
2025-01-20 10:07:55.518002	24.7	77.3	-90.9	10.6
2025-01-20 10:07:56.670670	24.7	77.8	-90.6	13.9
2025-01-20 10:07:57.825457	24.6	78.4	-88.8	16.8
2025-01-20 10:07:58.979912	24.5	79.0	-91.3	12.4
2025-01-20 10:08:00.127789	24.4	79.5	-91.5	17.7
2025-01-20 10:08:01.275456	24.2	80.1	-91.4	21.7
2025-01-20 10:08:02.424821	24.1	80.7	-91.2	14.9
2025-01-20 10:08:03.577675	23.9	81.2	-91.4	12.9
2025-01-20 10:08:04.733095	23.8	81.8	-91.1	22.3
2025-01-20 10:08:05.879101	23.5	82.4	-90.2	14.7
2025-01-20 10:08:07.028542	23.3	82.9	-91.1	16.9
2025-01-20 10:08:08.184840	23.0	83.5	-91.1	23.5
2025-01-20 10:08:09.334608	22.7	84.1	-90.9	23.5
2025-01-20 10:08:10.481433	22.2	84.7	-91.3	20.2
2025-01-20 10:08:11.638092	21.7	85.2	-91.5	20.4
2025-01-20 10:08:12.789199	21.0	85.8	-91.5	21.7
2025-01-20 10:08:13.940072	20.1	86.4	-91.4	22.6
2025-01-20 10:08:15.098053	18.9	87.0	-91.4	22.9
2025-01-20 10:08:16.247068	17.0	87.5	-91.4	24.6
2025-01-20 10:08:17.404185	14.1	88.1	-89.8	22.8
2025-01-20 10:08:18.559089	8.5	88.7	-91.5	22.5
2025-01-20 10:08:19.721185	355.1	89.2	-91.5	22.5
2025-01-20 10:08:20.870875	308.5	89.6	-91.2	22.5
2025-01-20 10:08:22.021333	246.3	89.4	-90.6	18.1
2025-01-20 10:08:23.176988	227.5	88.8	-89.0	22.9
2025-01-20 10:08:24.325638	220.6	88.3	-90.7	27.1
2025-01-20 10:08:25.479373	217.1	87.7	-91.5	15.3
2025-01-20 10:08:26.627004	215.0	87.2	-90.2	21.9
2025-01-20 10:08:27.793673	213.6	86.6	-91.1	27.6
2025-01-20 10:08:28.944578	212.6	86.0	-91.2	16.2
2025-01-20 10:08:30.094395	211.8	85.4	-87.9	16.8
2025-01-20 10:08:31.247712	211.3	84.8	-88.5	21.9
2025-01-20 10:08:32.397046	210.8	84.3	-91.6	12.1
2025-01-20 10:08:33.548430	210.4	83.7	-91.4	10.8
2025-01-20 10:08:34.699918	210.1	83.1	-91.4	24.3
2025-01-20 10:08:35.857216	209.9	82.5	-91.6	13.3
2025-01-20 10:08:37.007882	209.6	82.0	-91.4	10.7
2025-01-20 10:08:38.163523	209.5	81.4	-91.5	15.4
2025-01-20 10:08:39.312942	209.3	80.8	-91.8	19.4
2025-01-20 10:08:40.462605	209.1	80.3	-91.9	14.4
2025-01-20 10:08:41.611042	209.0	79.7	-91.1	13.5
2025-01-20 10:08:42.762791	208.9	79.1	-91.5	15.0
2025-01-20 10:08:43.916403	208.8	78.6	-91.4	6.7
2025-01-20 10:08:45.070535	208.7	78.0	-91.4	12.3
2025-01-20 10:08:46.228937	208.6	77.4	-91.3	13.4
2025-01-20 10:08:47.380015	208.5	76.9	-91.9	11.0
2025-01-20 10:08:48.535792	208.5	76.3	-91.4	6.4
2025-01-20 10:08:49.686535	208.4	75.8	-91.4	16.6
2025-01-20 10:08:50.840910	208.3	75.2	-91.4	18.3
2025-01-20 10:08:51.997545	208.3	74.7	-91.3	15.2
2025-01-20 10:08:53.160057	208.2	74.1	-91.1	15.4
2025-01-20 10:08:54.309331	208.2	73.6	-91.4	19.0
2025-01-20 10:08:55.463125	208.2	73.0	-91.1	14.2
2025-01-20 10:08:56.612937	208.1	72.5	-91.4	14.4
2025-01-20 10:08:57.767852	208.1	71.9	-91.5	22.3
2025-01-20 10:08:58.921661	208.0	71.4	-91.5	9.6
2025-01-20 10:09:00.077983	208.0	70.9	-91.4	7.4
2025-01-20 10:09:01.221471	208.0	70.4	-91.7	12.9
2025-01-20 10:09:02.375827	208.0	69.8	-91.6	11.0
2025-01-20 10:09:03.532832	207.9	69.3	-91.5	10.1
2025-01-20 10:09:04.688849	207.9	68.8	-91.2	16.3
2025-01-20 10:09:05.843750	207.9	68.3	-91.5	13.6
2025-01-20 10:09:06.995050	207.9	67.7	-91.2	8.0
2025-01-20 10:09:08.152826	207.8	67.2	-91.0	16.1
2025-01-20 10:09:09.304358	207.8	66.7	-90.8	18.3
2025-01-20 10:09:10.467698	207.8	66.2	-91.0	7.6
2025-01-20 10:09:11.613098	207.8	65.7	-91.2	8.2
2025-01-20 10:09:12.767986	207.8	65.2	-91.2	18.0
2025-01-20 10:09:13.915955	207.8	64.7	-91.4	11.0
2025-01-20 10:09:15.077088	207.7	64.2	-91.5	13.6
2025-01-20 10:09:16.227809	207.7	63.7	-91.2	16.0
2025-01-20 10:09:17.382837	207.7	63.2	-91.3	15.0
2025-01-20 10:09:18.536658	207.7	62.8	-91.5	10.7
2025-01-20 10:09:19.687111	207.7	62.3	-91.4	13.6
2025-01-20 10:09:20.841915	207.7	61.8	-91.4	17.3
2025-01-20 10:09:21.997237	207.7	61.3	-91.2	17.5
2025-01-20 10:09:23.148492	207.7	60.9	-91.2	21.0
2025-01-20 10:09:24.293019	207.7	60.4	-91.3	17.2
2025-01-20 10:09:25.445719	207.6	59.9	-91.3	15.5
2025-01-20 10:09:26.598571	207.6	59.5	-91.3	18.2
2025-01-20 10:09:27.748855	207.6	59.0	-91.0	14.4
2025-01-20 10:09:28.895118	207.6	58.6	-91.4	17.6
2025-01-20 10:09:30.036552	207.6	58.1	-91.0	17.9
2025-01-20 10:09:31.191747	207.6	57.7	-91.0	18.8
2025-01-20 10:09:32.344992	207.6	57.2	-91.3	20.4
2025-01-20 10:09:33.498570	207.6	56.8	-91.3	20.1
2025-01-20 10:09:34.651667	207.6	56.3	-91.4	21.6
2025-01-20 10:09:35.806937	207.6	55.9	-91.5	21.6
2025-01-20 10:09:36.958713	207.6	55.5	-91.5	12.5
2025-01-20 10:09:38.105289	207.6	55.1	-91.2	15.9
2025-01-20 10:09:39.251736	207.6	54.6	-90.9	22.6
2025-01-20 10:09:40.397276	207.6	54.2	-91.2	13.1
2025-01-20 10:09:41.551490	207.6	53.8	-90.9	11.0
2025-01-20 10:09:42.698150	207.6	53.4	-91.2	11.8
2025-01-20 10:09:43.852143	207.6	53.0	-91.1	8.4
2025-01-20 10:09:45.000121	207.5	52.6	-91.2	10.2
2025-01-20 10:09:46.147955	207.5	52.2	-91.2	16.6
2025-01-20 10:09:47.299502	207.5	51.8	-91.0	17.1
2025-01-20 10:09:48.444481	207.5	51.4	-91.3	14.6
2025-01-20 10:09:49.598219	207.5	51.0	-91.4	16.0
2025-01-20 10:09:50.747389	207.5	50.6	-90.6	16.7
2025-01-20 10:09:51.896274	207.5	50.2	-90.2	14.1
2025-01-20 10:09:53.047281	207.5	49.8	-90.5	17.7
2025-01-20 10:09:54.190593	207.5	49.5	-90.8	17.9
2025-01-20 10:09:55.341981	207.5	49.1	-90.7	16.4
2025-01-20 10:09:56.491136	207.5	48.7	-91.1	16.6
2025-01-20 10:09:57.647622	207.5	48.3	-90.8	18.4
2025-01-20 10:09:58.795238	207.5	48.0	-91.0	18.4
2025-01-20 10:09:59.942477	207.5	47.6	-90.9	13.0
2025-01-20 10:10:01.097385	207.5	47.2	-90.7	12.7
2025-01-20 10:10:02.248413	207.5	46.9	-90.8	17.5
2025-01-20 10:10:03.399293	207.5	46.5	-91.1	9.2
2025-01-20 10:10:04.550077	207.5	46.2	-91.4	8.4
2025-01-20 10:10:05.706415	207.5	45.8	-90.5	16.4
2025-01-20 10:10:06.853732	207.5	45.5	-90.4	15.4
2025-01-20 10:10:08.009946	207.5	45.1	-90.0	7.9
2025-01-20 10:10:09.170095	207.5	44.8	-90.6	16.0
2025-01-20 10:10:10.319520	207.5	44.5	-90.8	16.9
2025-01-20 10:10:11.467759	207.5	44.1	-91.1	13.0
2025-01-20 10:10:12.622263	207.5	43.8	-90.7	17.4
2025-01-20 10:10:13.778119	207.5	43.5	-91.0	20.1
2025-01-20 10:10:14.936464	207.5	43.1	-91.0	19.3
2025-01-20 10:10:16.093056	207.5	42.8	-91.2	18.2
2025-01-20 10:10:17.243683	207.5	42.5	-91.3	18.4
2025-01-20 10:10:18.397390	207.5	42.2	-91.5	18.2
2025-01-20 10:10:19.552397	207.5	41.9	-91.3	17.8
2025-01-20 10:10:20.698634	207.5	41.5	-91.3	19.8
2025-01-20 10:10:21.846013	207.5	41.2	-91.2	18.6
2025-01-20 10:10:22.994048	207.5	40.9	-91.3	13.5
2025-01-20 10:10:24.146904	207.5	40.6	-91.1	15.7
2025-01-20 10:10:25.302352	207.5	40.3	-91.6	16.4
2025-01-20 10:10:26.714533	207.5	39.9	-91.5	9.0
2025-01-20 10:10:27.862944	207.5	39.7	-91.3	13.2
2025-01-20 10:10:29.014753	207.5	39.4	-91.5	15.8
2025-01-20 10:10:30.174516	207.5	39.1	-91.6	13.2
2025-01-20 10:10:31.324044	207.5	38.8	-91.4	14.9
2025-01-20 10:10:32.470420	207.5	38.5	-90.9	14.7
2025-01-20 10:10:33.618151	207.5	38.2	-91.6	10.9
2025-01-20 10:10:34.768059	207.5	37.9	-91.5	13.6
2025-01-20 10:10:35.915549	207.5	37.6	-91.1	11.0
2025-01-20 10:10:37.065852	207.5	37.4	-91.6	11.3
2025-01-20 10:10:38.217061	207.5	37.1	-91.3	10.1
2025-01-20 10:10:39.372051	207.5	36.8	-91.3	9.6
2025-01-20 10:10:40.519859	207.5	36.5	-91.6	12.1
2025-01-20 10:10:41.670245	207.5	36.3	-91.6	5.9
2025-01-20 10:10:42.821595	207.5	36.0	-91.1	7.5
2025-01-20 10:10:43.968756	207.5	35.8	-91.6	11.4
2025-01-20 10:10:45.120311	207.5	35.5	-91.5	11.0
2025-01-20 10:10:46.267871	207.5	35.2	-91.1	8.1
2025-01-20 10:10:47.422473	207.5	35.0	-91.3	12.3
2025-01-20 10:10:48.572431	207.5	34.7	-90.7	9.0
2025-01-20 10:10:49.729769	207.6	34.5	-91.7	7.4
2025-01-20 10:10:50.883493	207.6	34.2	-91.6	10.6
2025-01-20 10:10:52.030619	207.6	34.0	-91.7	8.0
2025-01-20 10:10:53.181756	207.6	33.7	-91.1	5.9
2025-01-20 10:10:54.340521	207.6	33.5	-91.2	6.3
2025-01-20 10:10:55.496291	207.6	33.2	-91.3	3.6
2025-01-20 10:10:56.652671	207.6	33.0	-91.3	4.1
2025-01-20 10:10:57.800956	207.6	32.7	-91.3	4.6
2025-01-20 10:10:58.954321	207.6	32.5	-91.3	7.4
2025-01-20 10:11:00.104217	207.6	32.3	-91.7	5.5
2025-01-20 10:11:01.251207	207.6	32.0	-91.3	5.6
2025-01-20 10:11:02.407695	207.6	31.8	-90.8	4.2
2025-01-20 10:11:03.561344	207.6	31.6	-91.5	7.7
2025-01-20 10:11:04.712543	207.6	31.3	-91.6	4.6
2025-01-20 10:11:05.863379	207.6	31.1	-91.5	7.8
2025-01-20 10:11:07.022114	207.6	30.9	-91.8	5.7
2025-01-20 10:11:08.170635	207.6	30.7	-91.1	5.0
2025-01-20 10:11:09.321982	207.6	30.4	-91.4	5.4
2025-01-20 10:11:10.470410	207.6	30.2	-91.6	6.7
2025-01-20 10:11:11.623700	207.6	30.0	-91.5	6.1
2025-01-20 10:11:12.770877	207.6	29.8	-91.2	5.0
2025-01-20 10:11:13.914581	207.6	29.6	-91.1	6.7
2025-01-20 10:11:15.060364	207.6	29.4	-89.8	6.4
2025-01-20 10:11:16.216338	207.6	29.1	-91.1	4.6
2025-01-20 10:11:17.372183	207.6	28.9	-91.2	7.2
2025-01-20 10:11:18.519850	207.6	28.7	-90.9	11.3
2025-01-20 10:11:19.666263	207.6	28.5	-91.1	9.2
2025-01-20 10:11:20.835136	207.6	28.3	-91.1	10.1
2025-01-20 10:11:21.976733	207.6	28.1	-91.4	9.6
2025-01-20 10:11:23.125248	207.6	27.9	-90.7	10.3
2025-01-20 10:11:24.271015	207.6	27.7	-91.1	8.5
2025-01-20 10:11:25.419705	207.6	27.5	-91.2	12.8
2025-01-20 10:11:26.578746	207.6	27.3	-91.3	13.0
2025-01-20 10:11:27.729196	207.6	27.1	-91.0	8.4
2025-01-20 10:11:28.886359	207.6	26.9	-90.9	11.6
2025-01-20 10:11:30.037676	207.6	26.7	-90.6	12.9
2025-01-20 10:11:31.195855	207.6	26.5	-90.7	9.6
2025-01-20 10:11:32.346143	207.6	26.3	-90.8	9.6
2025-01-20 10:11:33.500709	207.6	26.1	-91.3	11.4
2025-01-20 10:11:34.646691	207.6	25.9	-91.0	12.0
2025-01-20 10:11:35.798709	207.6	25.8	-90.9	12.4
2025-01-20 10:11:36.952963	207.7	25.6	-91.1	12.1
2025-01-20 10:11:38.103333	207.7	25.4	-91.3	12.8
2025-01-20 10:11:39.256597	207.7	25.2	-91.3	11.7
2025-01-20 10:11:40.405296	207.7	25.0	-91.0	11.9
2025-01-20 10:11:41.562707	207.7	24.8	-91.0	12.5
2025-01-20 10:11:42.713948	207.7	24.7	-90.9	7.5
2025-01-20 10:11:43.870112	207.7	24.5	-90.7	10.0
2025-01-20 10:11:45.022343	207.7	24.3	-91.1	13.8
2025-01-20 10:11:46.168461	207.7	24.1	-91.3	9.0
2025-01-20 10:11:47.321761	207.7	24.0	-91.1	10.7
2025-01-20 10:11:48.469562	207.7	23.8	-91.0	13.7
2025-01-20 10:11:49.612265	207.7	23.6	-91.3	15.5
2025-01-20 10:11:50.765937	207.7	23.4	-91.3	15.5
2025-01-20 10:11:51.917927	207.7	23.3	-90.8	16.5
2025-01-20 10:11:53.066304	207.7	23.1	-91.2	15.6
2025-01-20 10:11:54.218821	207.7	22.9	-90.8	12.7
2025-01-20 10:11:55.368519	207.7	22.8	-91.3	12.8
2025-01-20 10:11:56.521451	207.7	22.6	-91.0	15.2
2025-01-20 10:11:57.680505	207.7	22.4	-91.1	9.7
2025-01-20 10:11:58.830979	207.7	22.3	-91.0	9.9
2025-01-20 10:11:59.981280	207.7	22.1	-91.3	13.6
2025-01-20 10:12:01.127532	207.7	21.9	-91.2	14.2
2025-01-20 10:12:02.294179	207.7	21.8	-90.9	13.7
2025-01-20 10:12:03.443290	207.7	21.6	-91.1	12.7
2025-01-20 10:12:04.597098	207.7	21.5	-91.1	12.8
2025-01-20 10:12:05.748046	207.7	21.3	-90.9	11.4
2025-01-20 10:12:06.895418	207.7	21.1	-91.5	11.1
2025-01-20 10:12:08.050871	207.7	21.0	-91.1	10.1
2025-01-20 10:12:09.195840	207.7	20.8	-91.5	6.8
2025-01-20 10:12:10.342105	207.7	20.7	-91.1	5.9
2025-01-20 10:12:11.490499	207.7	20.5	-91.1	8.6
2025-01-20 10:12:12.640699	207.7	20.4	-91.0	7.5
2025-01-20 10:12:13.791475	207.7	20.2	-90.7	6.0
2025-01-20 10:12:14.943172	207.8	20.1	-91.0	7.7
2025-01-20 10:12:16.093803	207.8	19.9	-91.1	9.0
2025-01-20 10:12:17.247710	207.8	19.8	-91.2	9.2
2025-01-20 10:12:18.392186	207.8	19.6	-91.0	7.3
2025-01-20 10:12:19.541867	207.8	19.5	-90.7	3.5
2025-01-20 10:12:20.690728	207.8	19.3	-91.2	6.1
2025-01-20 10:12:21.839221	207.8	19.2	-91.2	5.5
2025-01-20 10:12:22.989277	207.8	19.0	-91.3	6.5
2025-01-20 10:12:24.144618	207.8	18.9	-90.6	6.1
2025-01-20 10:12:25.297413	207.8	18.7	-90.8	3.8
2025-01-20 10:12:26.446518	207.8	18.6	-90.8	6.0
2025-01-20 10:12:27.594236	207.8	18.5	-90.8	4.2
2025-01-20 10:12:28.751806	207.8	18.3	-91.3	5.2
2025-01-20 10:12:29.905304	207.8	18.2	-91.4	3.6
2025-01-20 10:12:31.060946	207.8	18.0	-91.2	4.4
2025-01-20 10:12:32.215349	207.8	17.9	-91.0	4.6
2025-01-20 10:12:33.369509	207.8	17.8	-91.2	3.9
2025-01-20 10:12:34.515567	207.8	17.6	-91.1	5.8
2025-01-20 10:12:35.670497	207.8	17.5	-91.0	4.1
2025-01-20 10:12:36.821513	207.8	17.4	-91.4	4.2
2025-01-20 10:12:37.981742	207.8	17.2	-90.8	3.4
2025-01-20 10:12:39.133636	207.8	17.1	-91.1	2.6
2025-01-20 10:12:40.288519	207.8	17.0	-91.1	2.1
2025-01-20 10:12:41.433831	207.8	16.8	-91.5	5.0
2025-01-20 10:12:42.583994	207.8	16.7	-91.3	6.9
2025-01-20 10:12:43.736739	207.8	16.6	-91.2	5.4
2025-01-20 10:12:44.884160	207.8	16.4	-90.2	4.3
2025-01-20 10:12:46.040103	207.8	16.3	-91.2	8.7
2025-01-20 10:12:47.187433	207.8	16.2	-90.9	5.5
2025-01-20 10:12:48.335322	207.8	16.0	-90.8	4.8
2025-01-20 10:12:49.489552	207.9	15.9	-90.8	5.3
2025-01-20 10:12:50.638298	207.9	15.8	-90.6	6.9
2025-01-20 10:12:51.793396	207.9	15.7	-91.0	6.3
2025-01-20 10:12:52.940745	207.9	15.5	-91.1	7.7
2025-01-20 10:12:54.096691	207.9	15.4	-90.4	7.4
2025-01-20 10:12:55.251363	207.9	15.3	-90.8	6.7
2025-01-20 10:12:56.402602	207.9	15.2	-90.8	5.1
2025-01-20 10:12:57.545942	207.9	15.0	-90.5	7.6
2025-01-20 10:12:58.691936	207.9	14.9	-90.2	7.9
2025-01-20 10:12:59.843968	207.9	14.8	-90.8	6.7
2025-01-20 10:13:00.987577	207.9	14.7	-91.0	7.2
2025-01-20 10:13:02.140192	207.9	14.6	-91.2	6.1
2025-01-20 10:13:03.287743	207.9	14.4	-91.2	7.1
#Closed at: 2025-01-20 10:03:46.519769