passes_logs/2025/01/20/LEX_Murmansk/LEX_Murmansk__20250120_175900_NOAA_19_rec.log

#Pass ID: 20250120_175900_NOAA 19
#Satellite: NOAA 19
#Configuration: NOAA 19
#Start time: 2025-01-20 17:58:55.425000

#LorettStation: 1.0.0 05.05.2024
#Station: LEX_Murmansk
#Location: 33.156738 lon 68.926811 lat
#TLE: 1 33591U 09005A   25020.17232911  .00000399  00000+0  23710-3 0  9996
#TLE: 2 33591  99.0187  83.9745 0014303  43.5990 316.6309 14.13263973822272

#Time	Az	El	Level	SNR
2025-01-20 17:59:07.671418	160.4	16.3	-91.5	1.6
2025-01-20 17:59:08.802788	160.5	16.5	-91.3	2.3
2025-01-20 17:59:09.942712	160.5	16.6	-91.2	2.3
2025-01-20 17:59:11.201087	160.5	16.7	-90.7	0.4
2025-01-20 17:59:12.343479	160.5	16.9	-91.2	0.3
2025-01-20 17:59:13.510403	160.6	17.0	-91.6	2.2
2025-01-20 17:59:14.663706	160.6	17.1	-91.3	0.9
2025-01-20 17:59:15.820633	160.6	17.3	-91.2	1.5
2025-01-20 17:59:16.986434	160.6	17.4	-91.4	1.9
2025-01-20 17:59:18.138823	160.7	17.5	-91.1	2.6
2025-01-20 17:59:19.302788	160.7	17.7	-91.5	1.9
2025-01-20 17:59:20.461548	160.7	17.8	-91.4	5.1
2025-01-20 17:59:21.625988	160.8	17.9	-91.5	5.8
2025-01-20 17:59:22.786152	160.8	18.1	-91.5	2.7
2025-01-20 17:59:23.946877	160.8	18.2	-91.7	2.5
2025-01-20 17:59:25.111794	160.8	18.4	-91.5	5.0
2025-01-20 17:59:26.278881	160.9	18.5	-91.3	5.5
2025-01-20 17:59:27.440071	160.9	18.6	-91.2	7.1
2025-01-20 17:59:28.598837	160.9	18.8	-91.6	8.2
2025-01-20 17:59:29.759641	161.0	18.9	-91.4	8.0
2025-01-20 17:59:30.922535	161.0	19.1	-91.7	3.6
2025-01-20 17:59:32.087419	161.0	19.2	-91.2	1.2
2025-01-20 17:59:33.245522	161.0	19.4	-91.3	3.3
2025-01-20 17:59:34.412965	161.1	19.5	-91.6	1.5
2025-01-20 17:59:35.577403	161.1	19.7	-91.9	5.9
2025-01-20 17:59:36.742926	161.1	19.8	-91.5	4.9
2025-01-20 17:59:37.911009	161.2	20.0	-91.9	10.6
2025-01-20 17:59:39.072275	161.2	20.1	-91.6	7.9
2025-01-20 17:59:40.231369	161.2	20.3	-91.3	5.5
2025-01-20 17:59:41.390484	161.3	20.4	-91.5	6.8
2025-01-20 17:59:42.523937	161.3	20.6	-91.7	6.2
2025-01-20 17:59:43.646044	161.3	20.7	-91.7	11.6
2025-01-20 17:59:44.769534	161.4	20.9	-91.8	9.8
2025-01-20 17:59:45.889551	161.4	21.0	-91.1	6.7
2025-01-20 17:59:47.010049	161.4	21.2	-91.6	3.9
2025-01-20 17:59:48.130600	161.5	21.3	-90.7	2.5
2025-01-20 17:59:49.251139	161.5	21.5	-91.6	1.7
2025-01-20 17:59:50.372746	161.5	21.6	-91.5	3.6
2025-01-20 17:59:51.494402	161.6	21.8	-91.4	7.1
2025-01-20 17:59:52.643864	161.6	21.9	-91.7	8.9
2025-01-20 17:59:53.802373	161.6	22.1	-91.5	9.4
2025-01-20 17:59:54.956317	161.7	22.3	-91.7	9.5
2025-01-20 17:59:56.124158	161.7	22.4	-91.5	8.0
2025-01-20 17:59:57.277120	161.7	22.6	-91.4	4.1
2025-01-20 17:59:58.442171	161.8	22.8	-91.2	7.1
2025-01-20 17:59:59.603343	161.8	22.9	-90.8	8.7
2025-01-20 18:00:00.750501	161.9	23.1	-91.6	8.7
2025-01-20 18:00:01.910493	161.9	23.3	-91.6	9.0
2025-01-20 18:00:03.065858	161.9	23.4	-91.1	3.0
2025-01-20 18:00:04.202407	162.0	23.6	-91.0	1.2
2025-01-20 18:00:05.340544	162.0	23.8	-91.3	2.4
2025-01-20 18:00:06.498991	162.0	24.0	-91.6	4.4
2025-01-20 18:00:07.644960	162.1	24.1	-91.7	7.9
2025-01-20 18:00:08.794439	162.1	24.3	-91.3	9.8
2025-01-20 18:00:09.942688	162.2	24.5	-91.8	11.6
2025-01-20 18:00:11.105561	162.2	24.7	-91.8	12.6
2025-01-20 18:00:12.261897	162.3	24.8	-91.6	7.1
2025-01-20 18:00:13.415129	162.3	25.0	-91.6	6.2
2025-01-20 18:00:14.575856	162.3	25.2	-91.6	9.9
2025-01-20 18:00:15.742230	162.4	25.4	-91.4	7.9
2025-01-20 18:00:16.895126	162.4	25.6	-91.7	11.8
2025-01-20 18:00:18.072580	162.5	25.8	-91.8	7.4
2025-01-20 18:00:19.235754	162.5	25.9	-91.7	0.2
2025-01-20 18:00:20.395417	162.6	26.1	-91.4	2.9
2025-01-20 18:00:21.564165	162.6	26.3	-91.5	1.4
2025-01-20 18:00:22.731157	162.6	26.5	-91.7	2.7
2025-01-20 18:00:23.886215	162.7	26.7	-91.8	2.3
2025-01-20 18:00:25.027980	162.7	26.9	-91.5	7.7
2025-01-20 18:00:26.155290	162.8	27.1	-91.9	10.8
2025-01-20 18:00:27.309103	162.8	27.3	-90.7	8.2
2025-01-20 18:00:28.458565	162.9	27.5	-91.6	7.6
2025-01-20 18:00:29.609313	162.9	27.7	-91.5	10.6
2025-01-20 18:00:30.731411	163.0	27.9	-91.5	7.7
2025-01-20 18:00:31.883796	163.0	28.1	-91.5	11.8
2025-01-20 18:00:33.033197	163.1	28.3	-91.3	13.1
2025-01-20 18:00:34.191028	163.1	28.5	-91.3	11.5
2025-01-20 18:00:35.341911	163.2	28.7	-91.3	8.1
2025-01-20 18:00:36.503697	163.2	28.9	-91.4	2.9
2025-01-20 18:00:37.664377	163.3	29.1	-91.7	3.4
2025-01-20 18:00:38.825140	163.3	29.3	-91.5	1.6
2025-01-20 18:00:39.986789	163.4	29.5	-91.4	4.2
2025-01-20 18:00:41.138785	163.4	29.8	-91.6	7.0
2025-01-20 18:00:42.304221	163.5	30.0	-91.8	7.2
2025-01-20 18:00:43.462829	163.6	30.2	-91.7	10.4
2025-01-20 18:00:44.625190	163.6	30.4	-91.5	7.6
2025-01-20 18:00:45.783083	163.7	30.6	-91.9	4.5
2025-01-20 18:00:46.947029	163.7	30.9	-91.4	7.6
2025-01-20 18:00:48.111383	163.8	31.1	-91.8	10.6
2025-01-20 18:00:49.273217	163.9	31.3	-91.7	9.7
2025-01-20 18:00:50.433761	163.9	31.5	-91.8	12.3
2025-01-20 18:00:51.587281	164.0	31.8	-92.0	7.9
2025-01-20 18:00:52.749062	164.0	32.0	-91.7	4.3
2025-01-20 18:00:53.880682	164.1	32.2	-91.8	1.9
2025-01-20 18:00:55.025359	164.2	32.5	-92.0	2.2
2025-01-20 18:00:56.180540	164.2	32.7	-91.8	3.9
2025-01-20 18:00:57.323165	164.3	32.9	-91.7	3.7
2025-01-20 18:00:58.484572	164.4	33.2	-91.7	9.5
2025-01-20 18:00:59.643048	164.4	33.4	-91.7	10.6
2025-01-20 18:01:00.795151	164.5	33.7	-91.7	12.8
2025-01-20 18:01:01.952803	164.6	33.9	-91.6	8.3
2025-01-20 18:01:03.115006	164.6	34.2	-91.8	8.9
2025-01-20 18:01:04.258061	164.7	34.4	-91.7	7.0
2025-01-20 18:01:05.390118	164.8	34.6	-91.9	8.3
2025-01-20 18:01:06.546056	164.8	34.9	-91.5	11.0
2025-01-20 18:01:07.693135	164.9	35.1	-91.6	11.4
2025-01-20 18:01:08.847400	165.0	35.4	-91.6	5.8
2025-01-20 18:01:09.999149	165.1	35.7	-91.6	6.1
2025-01-20 18:01:11.156698	165.1	35.9	-91.7	7.6
2025-01-20 18:01:12.320074	165.2	36.2	-91.5	1.9
2025-01-20 18:01:13.494048	165.3	36.5	-91.9	3.8
2025-01-20 18:01:14.652671	165.4	36.7	-91.9	8.3
2025-01-20 18:01:15.820054	165.5	37.0	-91.9	8.0
2025-01-20 18:01:16.983772	165.6	37.3	-92.2	11.2
2025-01-20 18:01:18.147573	165.6	37.6	-91.6	9.0
2025-01-20 18:01:19.310281	165.7	37.8	-91.8	7.9
2025-01-20 18:01:20.468015	165.8	38.1	-91.5	8.0
2025-01-20 18:01:21.633992	165.9	38.4	-91.4	5.0
2025-01-20 18:01:22.791268	166.0	38.7	-91.3	6.3
2025-01-20 18:01:23.955611	166.1	39.0	-91.9	6.7
2025-01-20 18:01:25.112860	166.2	39.3	-91.5	7.9
2025-01-20 18:01:26.280632	166.3	39.5	-91.6	9.6
2025-01-20 18:01:27.439375	166.4	39.8	-91.4	6.6
2025-01-20 18:01:28.598770	166.5	40.1	-91.7	2.5
2025-01-20 18:01:29.732215	166.6	40.4	-92.3	3.0
2025-01-20 18:01:30.879977	166.7	40.7	-91.5	2.7
2025-01-20 18:01:32.040503	166.8	41.0	-91.4	3.6
2025-01-20 18:01:33.189399	166.9	41.3	-91.3	4.6
2025-01-20 18:01:34.346106	167.0	41.6	-91.5	7.0
2025-01-20 18:01:35.504982	167.1	41.9	-91.5	11.1
2025-01-20 18:01:36.658236	167.2	42.3	-91.6	13.6
2025-01-20 18:01:37.786192	167.3	42.6	-91.4	9.8
2025-01-20 18:01:38.944707	167.5	42.9	-91.7	10.6
2025-01-20 18:01:40.092187	167.6	43.2	-91.3	9.1
2025-01-20 18:01:41.239079	167.7	43.5	-91.8	7.9
2025-01-20 18:01:42.400452	167.8	43.8	-91.5	9.9
2025-01-20 18:01:43.562451	167.9	44.2	-91.3	13.7
2025-01-20 18:01:44.715683	168.1	44.5	-91.8	11.9
2025-01-20 18:01:45.874175	168.2	44.8	-91.4	11.6
2025-01-20 18:01:47.039674	168.3	45.2	-91.6	8.4
2025-01-20 18:01:48.203057	168.5	45.5	-91.6	6.3
2025-01-20 18:01:49.361825	168.6	45.8	-91.4	3.9
2025-01-20 18:01:50.515105	168.8	46.2	-91.9	5.1
2025-01-20 18:01:51.678430	168.9	46.5	-91.7	4.3
2025-01-20 18:01:52.843910	169.0	46.9	-91.5	4.7
2025-01-20 18:01:54.006545	169.2	47.2	-91.4	9.5
2025-01-20 18:01:55.171899	169.4	47.6	-91.2	11.0
2025-01-20 18:01:56.335849	169.5	48.0	-91.2	14.8
2025-01-20 18:01:57.499706	169.7	48.3	-91.4	10.3
2025-01-20 18:01:58.664521	169.8	48.7	-91.6	9.9
2025-01-20 18:01:59.828446	170.0	49.1	-91.8	6.1
2025-01-20 18:02:00.978769	170.2	49.4	-91.4	8.6
2025-01-20 18:02:02.141998	170.4	49.8	-91.7	9.7
2025-01-20 18:02:03.303097	170.5	50.2	-91.2	7.9
2025-01-20 18:02:04.473972	170.7	50.5	-91.6	9.3
2025-01-20 18:02:05.633289	170.9	50.9	-91.8	5.3
2025-01-20 18:02:06.797496	171.1	51.3	-91.5	5.1
2025-01-20 18:02:07.962100	171.3	51.7	-91.4	3.3
2025-01-20 18:02:09.122559	171.5	52.1	-91.7	4.4
2025-01-20 18:02:10.284667	171.7	52.5	-91.6	0.8
2025-01-20 18:02:11.439948	172.0	52.9	-91.5	4.0
2025-01-20 18:02:12.602753	172.2	53.3	-91.3	3.6
2025-01-20 18:02:13.770146	172.4	53.7	-91.5	2.0
2025-01-20 18:02:14.925971	172.7	54.1	-91.7	7.1
2025-01-20 18:02:16.090706	172.9	54.5	-91.9	8.0
2025-01-20 18:02:17.251629	173.1	54.9	-91.5	7.3
2025-01-20 18:02:18.413264	173.4	55.3	-91.2	6.5
2025-01-20 18:02:19.581253	173.7	55.7	-92.0	6.2
2025-01-20 18:02:20.733587	173.9	56.1	-92.1	9.5
2025-01-20 18:02:21.898478	174.2	56.5	-91.7	7.2
2025-01-20 18:02:23.069031	174.5	57.0	-91.5	8.6
2025-01-20 18:02:24.229189	174.8	57.4	-91.9	4.5
2025-01-20 18:02:25.372597	175.1	57.8	-91.6	2.9
2025-01-20 18:02:26.493137	175.4	58.2	-91.8	7.1
2025-01-20 18:02:27.614156	175.7	58.6	-92.2	11.3
2025-01-20 18:02:28.734901	176.0	59.0	-91.8	13.5
2025-01-20 18:02:29.855108	176.4	59.5	-91.8	14.8
2025-01-20 18:02:30.976539	176.7	59.9	-92.2	12.6
2025-01-20 18:02:32.098113	177.1	60.3	-91.6	8.7
2025-01-20 18:02:33.218196	177.5	60.7	-91.8	6.8
2025-01-20 18:02:34.343618	177.8	61.2	-91.5	6.2
2025-01-20 18:02:35.486192	178.2	61.6	-92.1	7.7
2025-01-20 18:02:36.652485	178.7	62.0	-91.6	6.3
2025-01-20 18:02:37.813022	179.1	62.5	-90.9	2.0
2025-01-20 18:02:38.976790	179.6	62.9	-91.9	5.5
2025-01-20 18:02:40.131653	180.0	63.4	-91.3	10.1
2025-01-20 18:02:41.287601	180.5	63.8	-91.8	10.5
2025-01-20 18:02:42.452322	181.0	64.3	-91.9	12.8
2025-01-20 18:02:43.616312	181.5	64.7	-91.9	12.5
2025-01-20 18:02:44.780575	182.1	65.2	-91.8	13.6
2025-01-20 18:02:45.944054	182.7	65.6	-92.0	8.1
2025-01-20 18:02:47.101433	183.3	66.1	-91.9	9.1
2025-01-20 18:02:48.260594	183.9	66.5	-91.5	5.9
2025-01-20 18:02:49.431068	184.5	67.0	-91.5	6.7
2025-01-20 18:02:50.594486	185.2	67.5	-91.6	7.4
2025-01-20 18:02:51.760272	185.9	67.9	-91.9	6.4
2025-01-20 18:02:52.927373	186.7	68.4	-91.7	9.0
2025-01-20 18:02:54.082575	187.4	68.8	-91.6	9.8
2025-01-20 18:02:55.246581	188.2	69.3	-91.9	9.1
2025-01-20 18:02:56.410144	189.1	69.7	-91.7	10.6
2025-01-20 18:02:57.579294	190.0	70.2	-91.7	13.4
2025-01-20 18:02:58.744454	190.9	70.6	-91.2	13.9
2025-01-20 18:02:59.901205	191.9	71.0	-91.7	14.1
2025-01-20 18:03:01.062423	192.9	71.5	-91.7	15.4
2025-01-20 18:03:02.217424	194.0	71.9	-91.3	14.2
2025-01-20 18:03:03.370399	195.1	72.3	-91.4	12.1
2025-01-20 18:03:04.493101	196.3	72.7	-91.7	10.6
2025-01-20 18:03:05.645847	197.5	73.1	-92.1	13.0
2025-01-20 18:03:06.801479	198.8	73.6	-92.1	6.8
2025-01-20 18:03:07.949010	200.2	74.0	-91.9	5.3
2025-01-20 18:03:09.099885	201.6	74.3	-91.4	5.3
2025-01-20 18:03:10.242339	203.1	74.7	-91.8	4.1
2025-01-20 18:03:11.373271	204.7	75.1	-91.7	4.9
2025-01-20 18:03:12.514906	206.4	75.5	-91.9	11.1
2025-01-20 18:03:13.665660	208.2	75.8	-91.8	7.0
2025-01-20 18:03:14.819971	210.0	76.1	-91.7	5.1
2025-01-20 18:03:15.972926	212.0	76.5	-91.8	9.5
2025-01-20 18:03:17.127329	214.0	76.8	-91.4	12.6
2025-01-20 18:03:18.280297	216.2	77.1	-91.6	16.4
2025-01-20 18:03:19.438641	218.4	77.3	-91.7	14.3
2025-01-20 18:03:20.599384	220.8	77.6	-91.7	18.3
2025-01-20 18:03:21.758870	223.3	77.8	-91.8	18.3
2025-01-20 18:03:22.921947	225.8	78.0	-91.6	19.6
2025-01-20 18:03:24.084900	228.5	78.2	-91.4	17.6
2025-01-20 18:03:25.245596	231.2	78.4	-91.3	16.2
2025-01-20 18:03:26.404528	234.0	78.5	-91.7	17.7
2025-01-20 18:03:27.557945	236.9	78.7	-91.6	16.7
2025-01-20 18:03:28.691280	239.7	78.7	-91.3	17.0
2025-01-20 18:03:29.843705	242.7	78.8	-91.7	18.4
2025-01-20 18:03:30.994428	245.6	78.8	-91.7	17.1
2025-01-20 18:03:32.155610	248.6	78.8	-91.6	12.7
2025-01-20 18:03:33.308673	251.5	78.8	-91.4	11.2
2025-01-20 18:03:34.434497	254.4	78.7	-91.8	10.9
2025-01-20 18:03:35.575682	257.2	78.6	-91.4	15.6
2025-01-20 18:03:36.727848	260.1	78.5	-91.5	12.4
2025-01-20 18:03:37.880109	262.8	78.4	-91.4	12.4
2025-01-20 18:03:39.023221	265.5	78.2	-91.7	15.8
2025-01-20 18:03:40.153251	268.1	78.0	-91.0	9.3
2025-01-20 18:03:41.295500	270.6	77.8	-91.2	10.7
2025-01-20 18:03:42.458354	273.0	77.6	-91.3	12.5
2025-01-20 18:03:43.607186	275.3	77.3	-90.9	9.3
2025-01-20 18:03:44.781138	277.6	77.0	-90.9	7.0
2025-01-20 18:03:45.938114	279.8	76.7	-91.2	12.0
2025-01-20 18:03:47.099386	281.8	76.4	-91.2	12.7
2025-01-20 18:03:48.254107	283.7	76.1	-91.5	10.0
2025-01-20 18:03:49.411351	285.6	75.7	-91.9	12.7
2025-01-20 18:03:50.577325	287.4	75.4	-92.0	13.3
2025-01-20 18:03:51.734206	289.0	75.0	-91.6	9.0
2025-01-20 18:03:52.896431	290.6	74.6	-91.8	9.0
2025-01-20 18:03:54.050477	292.1	74.3	-91.8	10.8
2025-01-20 18:03:55.222852	293.6	73.9	-91.6	9.2
2025-01-20 18:03:56.357085	294.9	73.5	-91.6	8.4
2025-01-20 18:03:57.495703	296.2	73.1	-91.3	14.2
2025-01-20 18:03:58.648580	297.4	72.6	-91.0	13.4
2025-01-20 18:03:59.772118	298.6	72.2	-92.0	13.1
2025-01-20 18:04:00.909177	299.7	71.8	-91.8	9.8
2025-01-20 18:04:02.060876	300.7	71.4	-91.6	12.8
2025-01-20 18:04:03.215313	301.7	71.0	-91.5	8.4
2025-01-20 18:04:04.362298	302.7	70.5	-91.4	7.5
2025-01-20 18:04:05.510930	303.6	70.1	-91.4	8.3
2025-01-20 18:04:06.667215	304.5	69.6	-91.8	7.9
2025-01-20 18:04:07.822342	305.3	69.2	-91.9	6.4
2025-01-20 18:04:08.973200	306.1	68.8	-91.7	9.9
2025-01-20 18:04:10.096958	306.8	68.3	-91.4	6.9
2025-01-20 18:04:11.247474	307.6	67.9	-91.7	5.0
2025-01-20 18:04:12.393125	308.3	67.4	-91.8	4.6
2025-01-20 18:04:13.549659	308.9	67.0	-91.9	3.0
2025-01-20 18:04:14.704835	309.6	66.5	-91.9	4.4
2025-01-20 18:04:15.855257	310.2	66.1	-91.9	2.4
2025-01-20 18:04:17.012813	310.8	65.6	-91.7	6.9
2025-01-20 18:04:18.178685	311.3	65.2	-92.0	5.2
2025-01-20 18:04:19.342543	311.9	64.7	-91.6	1.8
2025-01-20 18:04:20.504066	312.4	64.3	-91.9	5.1
2025-01-20 18:04:21.668184	312.9	63.8	-91.8	2.1
2025-01-20 18:04:22.830158	313.4	63.4	-91.9	2.1
2025-01-20 18:04:23.998171	313.9	62.9	-91.3	3.5
2025-01-20 18:04:25.161452	314.3	62.5	-91.9	6.9
2025-01-20 18:04:26.327033	314.8	62.0	-91.5	3.3
2025-01-20 18:04:27.489044	315.2	61.6	-91.6	4.8
2025-01-20 18:04:28.652626	315.6	61.1	-91.6	6.7
2025-01-20 18:04:29.820121	316.0	60.7	-91.5	7.6
2025-01-20 18:04:30.980224	316.4	60.3	-91.6	9.5
2025-01-20 18:04:32.140830	316.7	59.8	-91.7	10.0
2025-01-20 18:04:33.297638	317.1	59.4	-91.2	9.5
2025-01-20 18:04:34.457677	317.4	59.0	-91.6	13.7
2025-01-20 18:04:35.588395	317.8	58.5	-91.8	10.2
2025-01-20 18:04:36.734546	318.1	58.1	-91.7	11.0
2025-01-20 18:04:37.889659	318.4	57.7	-91.8	15.8
2025-01-20 18:04:39.033857	318.7	57.3	-92.1	11.6
2025-01-20 18:04:40.187269	319.0	56.9	-92.0	14.9
2025-01-20 18:04:41.338855	319.3	56.5	-91.5	14.7
2025-01-20 18:04:42.499112	319.5	56.0	-91.8	12.1
2025-01-20 18:04:43.658420	319.8	55.6	-91.5	14.5
2025-01-20 18:04:44.815800	320.1	55.2	-91.8	11.8
2025-01-20 18:04:45.980080	320.3	54.8	-91.8	8.5
2025-01-20 18:04:47.147259	320.6	54.4	-91.9	6.6
2025-01-20 18:04:48.311635	320.8	54.0	-92.0	3.8
2025-01-20 18:04:49.478332	321.1	53.6	-91.7	5.6
2025-01-20 18:04:50.647151	321.3	53.2	-92.1	7.8
2025-01-20 18:04:51.798110	321.5	52.8	-92.1	7.4
2025-01-20 18:04:52.966829	321.7	52.4	-92.1	6.9
2025-01-20 18:04:54.127625	321.9	52.0	-91.7	6.2
2025-01-20 18:04:55.290810	322.1	51.6	-92.0	4.1
2025-01-20 18:04:56.448964	322.3	51.3	-92.0	7.1
2025-01-20 18:04:57.605258	322.5	50.9	-91.9	8.7
2025-01-20 18:04:58.735975	322.7	50.5	-92.1	6.5
2025-01-20 18:04:59.889194	322.9	50.1	-91.5	6.5
2025-01-20 18:05:01.036992	323.1	49.8	-91.8	7.5
2025-01-20 18:05:02.192125	323.3	49.4	-91.2	5.3
2025-01-20 18:05:03.348378	323.4	49.0	-91.7	9.0
2025-01-20 18:05:04.509268	323.6	48.7	-91.9	12.9
2025-01-20 18:05:05.667640	323.8	48.3	-91.8	13.4
2025-01-20 18:05:06.823175	323.9	48.0	-92.1	7.6
2025-01-20 18:05:07.948832	324.1	47.6	-92.0	9.6
2025-01-20 18:05:09.110984	324.2	47.3	-91.7	12.9
2025-01-20 18:05:10.263175	324.4	46.9	-91.8	14.1
2025-01-20 18:05:11.414972	324.5	46.6	-92.1	14.1
2025-01-20 18:05:12.573867	324.7	46.2	-91.4	13.8
2025-01-20 18:05:13.732304	324.8	45.9	-91.3	7.3
2025-01-20 18:05:14.898341	325.0	45.5	-90.6	10.0
2025-01-20 18:05:16.062784	325.1	45.2	-91.7	9.4
2025-01-20 18:05:17.225561	325.2	44.9	-91.5	5.0
2025-01-20 18:05:18.387360	325.4	44.5	-91.9	7.5
2025-01-20 18:05:19.554811	325.5	44.2	-91.8	8.0
2025-01-20 18:05:20.714857	325.6	43.9	-91.8	3.5
2025-01-20 18:05:21.871223	325.7	43.6	-91.5	5.7
2025-01-20 18:05:23.032619	325.9	43.2	-91.8	6.8
2025-01-20 18:05:24.197484	326.0	42.9	-92.1	6.4
2025-01-20 18:05:25.344747	326.1	42.6	-91.8	11.1
2025-01-20 18:05:26.511399	326.2	42.3	-91.9	10.4
2025-01-20 18:05:27.672884	326.3	42.0	-91.8	15.2
2025-01-20 18:05:28.831409	326.4	41.7	-92.2	13.7
2025-01-20 18:05:29.996671	326.5	41.4	-92.0	16.9
2025-01-20 18:05:31.156809	326.6	41.1	-91.9	18.4
2025-01-20 18:05:32.314911	326.7	40.8	-91.8	12.2
2025-01-20 18:05:33.477854	326.9	40.5	-92.1	14.9
2025-01-20 18:05:34.643355	327.0	40.2	-92.4	12.2
2025-01-20 18:05:35.806003	327.1	39.9	-92.2	6.2
2025-01-20 18:05:36.962242	327.1	39.6	-91.9	6.7
2025-01-20 18:05:38.127229	327.2	39.3	-91.7	9.1
2025-01-20 18:05:39.291736	327.3	39.0	-91.3	3.6
2025-01-20 18:05:40.445570	327.4	38.7	-92.2	6.3
2025-01-20 18:05:41.573879	327.5	38.4	-92.1	6.7
2025-01-20 18:05:42.695224	327.6	38.2	-91.6	6.1
2025-01-20 18:05:43.815241	327.7	37.9	-91.7	5.1
2025-01-20 18:05:44.935810	327.8	37.6	-91.8	8.0
2025-01-20 18:05:46.056423	327.9	37.4	-91.8	9.5
2025-01-20 18:05:47.176715	327.9	37.1	-91.8	6.2
2025-01-20 18:05:48.297410	328.0	36.8	-91.3	11.0
2025-01-20 18:05:49.421744	328.1	36.6	-92.0	9.6
2025-01-20 18:05:50.541725	328.2	36.3	-91.4	10.9
2025-01-20 18:05:51.808066	328.3	36.0	-91.9	3.8
2025-01-20 18:05:52.964284	328.3	35.8	-91.8	5.5
2025-01-20 18:05:54.127262	328.4	35.5	-91.9	6.9
2025-01-20 18:05:55.284467	328.5	35.3	-91.3	3.7
2025-01-20 18:05:56.446609	328.6	35.0	-91.9	4.8
2025-01-20 18:05:57.604302	328.6	34.8	-92.0	5.5
2025-01-20 18:05:58.766743	328.7	34.5	-92.0	4.1
2025-01-20 18:05:59.929909	328.8	34.3	-91.6	3.8
2025-01-20 18:06:01.089046	328.9	34.0	-92.0	6.3
2025-01-20 18:06:02.248103	328.9	33.8	-91.8	7.3
2025-01-20 18:06:03.384344	329.0	33.5	-91.4	10.0
2025-01-20 18:06:04.526202	329.1	33.3	-91.7	12.7
2025-01-20 18:06:05.682166	329.1	33.1	-91.9	9.1
2025-01-20 18:06:06.835560	329.2	32.8	-92.3	8.2
2025-01-20 18:06:07.989836	329.3	32.6	-91.9	11.8
2025-01-20 18:06:09.141050	329.3	32.3	-91.1	6.3
2025-01-20 18:06:10.295151	329.4	32.1	-91.3	5.2
2025-01-20 18:06:11.451573	329.4	31.9	-91.8	9.6
2025-01-20 18:06:12.579257	329.5	31.7	-92.0	11.7
2025-01-20 18:06:13.723232	329.6	31.4	-91.5	11.7
2025-01-20 18:06:14.884608	329.6	31.2	-92.0	6.7
2025-01-20 18:06:16.032322	329.7	31.0	-91.9	9.7
2025-01-20 18:06:17.191786	329.7	30.8	-92.0	4.6
2025-01-20 18:06:18.370980	329.8	30.5	-91.8	5.6
2025-01-20 18:06:19.520071	329.9	30.3	-91.9	7.4
2025-01-20 18:06:20.681417	329.9	30.1	-91.8	7.6
2025-01-20 18:06:21.844918	330.0	29.9	-91.6	5.1
2025-01-20 18:06:23.004365	330.0	29.7	-91.8	6.4
2025-01-20 18:06:24.168710	330.1	29.5	-91.7	5.7
2025-01-20 18:06:25.333169	330.1	29.3	-91.9	5.7
2025-01-20 18:06:26.489550	330.2	29.1	-92.4	3.5
2025-01-20 18:06:27.652199	330.2	28.8	-92.2	11.6
2025-01-20 18:06:28.778386	330.3	28.6	-92.0	13.4
2025-01-20 18:06:29.929744	330.3	28.4	-91.7	14.7
2025-01-20 18:06:31.084788	330.4	28.2	-91.7	10.8
2025-01-20 18:06:32.230160	330.4	28.0	-91.6	5.7
2025-01-20 18:06:33.381414	330.5	27.8	-91.9	6.8
2025-01-20 18:06:34.538271	330.5	27.6	-91.8	6.4
2025-01-20 18:06:35.697317	330.6	27.4	-92.0	2.2
2025-01-20 18:06:36.845503	330.6	27.2	-92.3	3.7
2025-01-20 18:06:37.974291	330.7	27.1	-92.1	5.8
2025-01-20 18:06:39.131897	330.7	26.9	-92.0	3.8
2025-01-20 18:06:40.283063	330.8	26.7	-91.8	3.0
2025-01-20 18:06:41.432197	330.8	26.5	-91.5	5.4
2025-01-20 18:06:42.589356	330.9	26.3	-92.0	8.9
2025-01-20 18:06:43.749762	330.9	26.1	-91.5	10.6
2025-01-20 18:06:44.914109	331.0	25.9	-91.8	4.7
2025-01-20 18:06:46.074406	331.0	25.7	-91.7	11.3
2025-01-20 18:06:47.210364	331.0	25.6	-91.8	6.4
2025-01-20 18:06:48.338091	331.1	25.4	-91.9	6.4
2025-01-20 18:06:49.498286	331.1	25.2	-92.1	5.0
2025-01-20 18:06:50.640475	331.2	25.0	-91.7	8.8
2025-01-20 18:06:51.762219	331.2	24.8	-91.8	3.7
2025-01-20 18:06:52.924149	331.3	24.7	-91.9	5.5
2025-01-20 18:06:54.074772	331.3	24.5	-91.7	3.1
2025-01-20 18:06:55.229059	331.3	24.3	-91.6	1.1
2025-01-20 18:06:56.376216	331.4	24.1	-91.7	6.4
2025-01-20 18:06:57.534183	331.4	24.0	-91.9	8.2
2025-01-20 18:06:58.693324	331.5	23.8	-92.0	10.1
2025-01-20 18:06:59.854644	331.5	23.6	-91.3	10.2
2025-01-20 18:07:01.013719	331.5	23.5	-91.8	5.1
2025-01-20 18:07:02.169455	331.6	23.3	-91.7	7.7
2025-01-20 18:07:03.322328	331.6	23.1	-91.7	2.6
2025-01-20 18:07:04.482059	331.6	22.9	-91.5	4.8
2025-01-20 18:07:05.646856	331.7	22.8	-92.1	4.5
2025-01-20 18:07:06.812298	331.7	22.6	-91.7	2.4
2025-01-20 18:07:07.975925	331.8	22.5	-91.6	6.7
2025-01-20 18:07:09.140161	331.8	22.3	-91.7	9.2
2025-01-20 18:07:10.304885	331.8	22.1	-91.2	11.5
2025-01-20 18:07:11.466433	331.9	22.0	-91.9	11.9
2025-01-20 18:07:12.628602	331.9	21.8	-92.1	9.8
2025-01-20 18:07:13.785575	331.9	21.6	-91.6	13.5
2025-01-20 18:07:14.947660	332.0	21.5	-92.0	9.1
2025-01-20 18:07:16.094005	332.0	21.3	-91.2	9.7
2025-01-20 18:07:17.222821	332.0	21.2	-91.5	4.5
2025-01-20 18:07:18.380406	332.1	21.0	-91.7	2.7
2025-01-20 18:07:19.517485	332.1	20.9	-91.5	3.0
2025-01-20 18:07:20.676835	332.1	20.7	-92.0	4.1
2025-01-20 18:07:21.822682	332.2	20.6	-92.0	2.5
2025-01-20 18:07:22.977682	332.2	20.4	-92.0	3.4
2025-01-20 18:07:24.151101	332.2	20.3	-92.2	2.1
2025-01-20 18:07:25.308410	332.3	20.1	-91.3	2.6
2025-01-20 18:07:26.464886	332.3	20.0	-91.8	5.1
2025-01-20 18:07:27.626773	332.3	19.8	-92.2	4.5
2025-01-20 18:07:28.789951	332.4	19.7	-92.1	2.3
2025-01-20 18:07:29.953869	332.4	19.5	-91.9	1.8
2025-01-20 18:07:31.116102	332.4	19.4	-91.9	3.2
2025-01-20 18:07:32.277880	332.5	19.2	-91.6	2.6
2025-01-20 18:07:33.438325	332.5	19.1	-91.8	3.9
2025-01-20 18:07:34.601089	332.5	19.0	-91.6	1.2
2025-01-20 18:07:35.759215	332.6	18.8	-91.4	3.4
2025-01-20 18:07:36.922317	332.6	18.7	-91.5	1.1
2025-01-20 18:07:38.085772	332.6	18.5	-92.1	2.5
2025-01-20 18:07:39.246256	332.6	18.4	-91.5	3.4
2025-01-20 18:07:40.404287	332.7	18.2	-91.5	2.2
2025-01-20 18:07:41.569259	332.7	18.1	-91.8	1.9
2025-01-20 18:07:42.723040	332.7	18.0	-91.8	0.9
2025-01-20 18:07:43.883033	332.8	17.8	-91.8	3.0
2025-01-20 18:07:45.050009	332.8	17.7	-92.0	3.5
2025-01-20 18:07:46.214277	332.8	17.6	-91.9	1.9
2025-01-20 18:07:47.381400	332.8	17.4	-91.8	1.1
2025-01-20 18:07:48.544256	332.9	17.3	-91.9	2.1
2025-01-20 18:07:49.703378	332.9	17.2	-92.1	1.8
2025-01-20 18:07:50.825453	332.9	17.0	-91.7	4.4
2025-01-20 18:07:51.946023	333.0	16.9	-91.8	4.1
2025-01-20 18:07:53.067779	333.0	16.8	-91.8	4.2
2025-01-20 18:07:54.187852	333.0	16.7	-91.9	4.4
2025-01-20 18:07:55.308278	333.0	16.5	-91.9	5.2
2025-01-20 18:07:56.429461	333.1	16.4	-92.3	3.1
2025-01-20 18:07:57.549906	333.1	16.3	-92.0	1.4
2025-01-20 18:07:58.675342	333.1	16.2	-92.1	1.3
2025-01-20 18:07:59.799674	333.1	16.0	-92.0	2.5
2025-01-20 18:08:00.960481	333.2	15.9	-91.7	0.7
2025-01-20 18:08:02.119190	333.2	15.8	-91.8	2.2
2025-01-20 18:08:03.286582	333.2	15.7	-92.0	1.4
2025-01-20 18:08:04.439137	333.2	15.5	-91.8	3.3
2025-01-20 18:08:05.599006	333.3	15.4	-91.9	3.7
2025-01-20 18:08:06.764911	333.3	15.3	-91.9	1.0
2025-01-20 18:08:07.923675	333.3	15.2	-92.2	2.3
2025-01-20 18:08:09.087572	333.3	15.0	-92.1	4.4
2025-01-20 18:08:10.250027	333.4	14.9	-91.9	1.7
2025-01-20 18:08:11.408737	333.4	14.8	-92.0	1.8
2025-01-20 18:08:12.564165	333.4	14.7	-91.4	4.3
2025-01-20 18:08:13.731197	333.4	14.6	-92.0	1.2
2025-01-20 18:08:14.889859	333.5	14.4	-92.0	3.3
#Closed at: 2025-01-20 17:59:00.461999