passes_logs/2025/01/20/LEX_Murmansk/LEX_Murmansk__20250120_200409_NOAA_18_rec.log

#Pass ID: 20250120_200409_NOAA 18
#Satellite: NOAA 18
#Configuration: NOAA 18
#Start time: 2025-01-20 20:04:04.783049

#LorettStation: 1.0.0 05.05.2024
#Station: LEX_Murmansk
#Location: 33.156738 lon 68.926811 lat
#TLE: 1 28654U 05018A   25020.18862715  .00000449  00000+0  26167-3 0  9997
#TLE: 2 28654  98.8558 101.1913 0014575 164.8261 195.3351 14.13491567 13918

#Time	Az	El	Level	SNR
2025-01-20 20:04:17.027414	190.4	16.2	-92.4	8.3
2025-01-20 20:04:18.191514	190.5	16.3	-92.5	9.1
2025-01-20 20:04:19.346133	190.6	16.5	-92.2	9.6
2025-01-20 20:04:20.504493	190.7	16.6	-92.0	7.7
2025-01-20 20:04:21.657751	190.8	16.7	-92.0	10.9
2025-01-20 20:04:22.809650	191.0	16.8	-92.3	10.1
2025-01-20 20:04:23.941481	191.1	16.9	-92.1	9.7
2025-01-20 20:04:25.061913	191.2	17.0	-92.0	6.6
2025-01-20 20:04:26.181470	191.3	17.2	-91.7	6.2
2025-01-20 20:04:27.301605	191.4	17.3	-92.1	6.6
2025-01-20 20:04:28.423854	191.5	17.4	-92.3	3.1
2025-01-20 20:04:29.547842	191.6	17.5	-92.3	2.4
2025-01-20 20:04:30.668230	191.7	17.6	-91.9	6.0
2025-01-20 20:04:31.794017	191.8	17.8	-91.6	6.3
2025-01-20 20:04:32.913966	191.9	17.9	-92.5	4.8
2025-01-20 20:04:34.077016	192.0	18.0	-92.1	3.0
2025-01-20 20:04:35.231234	192.1	18.1	-92.4	4.6
2025-01-20 20:04:36.382787	192.2	18.2	-92.6	4.6
2025-01-20 20:04:37.538570	192.3	18.4	-92.1	6.5
2025-01-20 20:04:38.704263	192.4	18.5	-92.3	7.4
2025-01-20 20:04:39.864600	192.6	18.6	-92.3	7.1
2025-01-20 20:04:41.026587	192.7	18.8	-92.7	7.8
2025-01-20 20:04:42.190982	192.8	18.9	-92.4	9.2
2025-01-20 20:04:43.357375	192.9	19.0	-92.2	8.3
2025-01-20 20:04:44.516306	193.0	19.1	-92.4	7.1
2025-01-20 20:04:45.684094	193.1	19.3	-92.0	10.8
2025-01-20 20:04:46.840945	193.3	19.4	-92.5	8.7
2025-01-20 20:04:48.006872	193.4	19.5	-91.4	7.4
2025-01-20 20:04:49.174030	193.5	19.7	-91.9	12.6
2025-01-20 20:04:50.332389	193.6	19.8	-91.8	11.2
2025-01-20 20:04:51.499711	193.8	19.9	-92.4	12.9
2025-01-20 20:04:52.664404	193.9	20.1	-92.3	11.0
2025-01-20 20:04:53.822917	194.0	20.2	-92.4	11.2
2025-01-20 20:04:54.987553	194.1	20.3	-92.9	11.1
2025-01-20 20:04:56.151188	194.3	20.5	-92.3	9.7
2025-01-20 20:04:57.315342	194.4	20.6	-92.0	11.4
2025-01-20 20:04:58.470723	194.5	20.8	-92.2	10.6
2025-01-20 20:04:59.629818	194.7	20.9	-91.9	12.7
2025-01-20 20:05:00.786886	194.8	21.0	-92.3	10.8
2025-01-20 20:05:01.945405	194.9	21.2	-92.3	9.4
2025-01-20 20:05:03.107191	195.1	21.3	-91.5	7.0
2025-01-20 20:05:04.274354	195.2	21.4	-92.0	13.7
2025-01-20 20:05:05.432832	195.4	21.6	-91.9	8.2
2025-01-20 20:05:06.593705	195.5	21.7	-92.5	13.4
2025-01-20 20:05:07.746081	195.6	21.9	-92.4	12.7
2025-01-20 20:05:08.906581	195.8	22.0	-92.3	14.8
2025-01-20 20:05:10.064827	195.9	22.2	-91.8	12.0
2025-01-20 20:05:11.226963	196.1	22.3	-92.2	12.7
2025-01-20 20:05:12.392180	196.2	22.4	-92.3	11.5
2025-01-20 20:05:13.560489	196.4	22.6	-92.3	10.0
2025-01-20 20:05:14.720045	196.5	22.7	-92.3	12.0
2025-01-20 20:05:15.885527	196.7	22.9	-92.6	14.7
2025-01-20 20:05:17.047777	196.8	23.0	-92.3	14.5
2025-01-20 20:05:18.205305	197.0	23.2	-92.1	13.9
2025-01-20 20:05:19.371991	197.1	23.3	-91.7	8.2
2025-01-20 20:05:20.531587	197.3	23.5	-92.3	7.2
2025-01-20 20:05:21.689237	197.4	23.6	-92.2	13.4
2025-01-20 20:05:22.852010	197.6	23.8	-92.0	13.5
2025-01-20 20:05:24.017444	197.7	23.9	-92.2	9.2
2025-01-20 20:05:25.181691	197.9	24.1	-92.1	13.4
2025-01-20 20:05:26.350804	198.1	24.2	-92.6	16.4
2025-01-20 20:05:27.490573	198.2	24.4	-92.7	16.7
2025-01-20 20:05:28.653058	198.4	24.5	-92.3	12.3
2025-01-20 20:05:29.817075	198.6	24.7	-92.3	15.6
2025-01-20 20:05:30.991840	198.7	24.8	-92.4	12.8
2025-01-20 20:05:32.154723	198.9	25.0	-92.1	13.9
2025-01-20 20:05:33.314927	199.1	25.1	-91.8	13.0
2025-01-20 20:05:34.479564	199.3	25.3	-92.2	15.9
2025-01-20 20:05:35.649943	199.4	25.5	-92.1	12.3
2025-01-20 20:05:36.812724	199.6	25.6	-91.9	13.3
2025-01-20 20:05:37.971810	199.8	25.8	-92.3	7.4
2025-01-20 20:05:39.143616	200.0	25.9	-91.8	13.8
2025-01-20 20:05:40.303445	200.2	26.1	-92.8	14.2
2025-01-20 20:05:41.471191	200.3	26.3	-92.9	10.9
2025-01-20 20:05:42.633357	200.5	26.4	-92.3	13.3
2025-01-20 20:05:43.795791	200.7	26.6	-92.8	16.8
2025-01-20 20:05:44.959147	200.9	26.7	-92.8	16.0
2025-01-20 20:05:46.123593	201.1	26.9	-92.3	14.8
2025-01-20 20:05:47.286723	201.3	27.1	-92.1	14.9
2025-01-20 20:05:48.450376	201.5	27.2	-91.9	11.8
2025-01-20 20:05:49.618065	201.7	27.4	-92.6	13.8
2025-01-20 20:05:50.777469	201.9	27.6	-92.8	13.0
2025-01-20 20:05:51.942957	202.1	27.7	-92.6	11.2
2025-01-20 20:05:53.109106	202.3	27.9	-92.4	14.2
2025-01-20 20:05:54.271142	202.5	28.1	-92.3	13.1
2025-01-20 20:05:55.440672	202.7	28.2	-92.0	9.0
2025-01-20 20:05:56.604902	202.9	28.4	-92.4	9.0
2025-01-20 20:05:57.772174	203.1	28.6	-92.9	14.2
2025-01-20 20:05:58.933444	203.3	28.7	-92.8	5.8
2025-01-20 20:06:00.098162	203.6	28.9	-92.6	6.9
2025-01-20 20:06:01.250954	203.8	29.1	-92.1	11.1
2025-01-20 20:06:02.415217	204.0	29.2	-92.4	9.8
2025-01-20 20:06:03.582551	204.2	29.4	-92.5	8.3
2025-01-20 20:06:04.746182	204.4	29.6	-92.2	8.7
2025-01-20 20:06:05.911905	204.7	29.8	-92.1	8.8
2025-01-20 20:06:07.071804	204.9	29.9	-92.1	6.8
2025-01-20 20:06:08.235663	205.1	30.1	-92.3	9.3
2025-01-20 20:06:09.397864	205.4	30.3	-92.5	7.5
2025-01-20 20:06:10.545100	205.6	30.5	-92.2	5.6
2025-01-20 20:06:11.698061	205.8	30.6	-92.2	5.2
2025-01-20 20:06:12.866177	206.1	30.8	-92.2	6.6
2025-01-20 20:06:14.031301	206.3	31.0	-92.6	4.9
2025-01-20 20:06:15.196569	206.6	31.2	-92.3	5.6
2025-01-20 20:06:16.366663	206.8	31.3	-92.2	4.6
2025-01-20 20:06:17.524584	207.1	31.5	-91.9	4.9
2025-01-20 20:06:18.692221	207.3	31.7	-92.5	5.7
2025-01-20 20:06:19.843391	207.6	31.9	-92.3	6.1
2025-01-20 20:06:21.003382	207.9	32.1	-92.8	4.6
2025-01-20 20:06:22.162715	208.1	32.2	-92.4	3.6
2025-01-20 20:06:23.330353	208.4	32.4	-92.6	3.7
2025-01-20 20:06:24.497080	208.7	32.6	-93.1	7.3
2025-01-20 20:06:25.657359	208.9	32.8	-92.5	9.8
2025-01-20 20:06:26.818559	209.2	33.0	-92.1	13.2
2025-01-20 20:06:27.982170	209.5	33.1	-92.5	6.3
2025-01-20 20:06:29.145001	209.8	33.3	-92.5	10.9
2025-01-20 20:06:30.310916	210.1	33.5	-92.5	12.8
2025-01-20 20:06:31.472379	210.4	33.7	-92.5	9.1
2025-01-20 20:06:32.636511	210.6	33.9	-92.4	9.5
2025-01-20 20:06:33.805148	210.9	34.1	-92.7	12.0
2025-01-20 20:06:34.968386	211.2	34.2	-92.1	10.8
2025-01-20 20:06:36.117723	211.5	34.4	-92.1	10.6
2025-01-20 20:06:37.281553	211.8	34.6	-91.5	11.0
2025-01-20 20:06:38.442463	212.2	34.8	-92.3	7.7
2025-01-20 20:06:39.604662	212.5	35.0	-92.5	6.6
2025-01-20 20:06:40.762988	212.8	35.2	-92.3	12.2
2025-01-20 20:06:41.927436	213.1	35.3	-92.4	7.9
2025-01-20 20:06:43.094288	213.4	35.5	-92.3	9.1
2025-01-20 20:06:44.261049	213.8	35.7	-92.3	11.7
2025-01-20 20:06:45.425871	214.1	35.9	-92.1	14.0
2025-01-20 20:06:46.590631	214.4	36.1	-92.4	14.0
2025-01-20 20:06:47.755944	214.8	36.3	-92.2	12.9
2025-01-20 20:06:48.917258	215.1	36.5	-92.2	12.1
2025-01-20 20:06:50.083709	215.4	36.6	-92.0	9.6
2025-01-20 20:06:51.248813	215.8	36.8	-92.0	14.5
2025-01-20 20:06:52.401545	216.1	37.0	-92.1	9.8
2025-01-20 20:06:53.561956	216.5	37.2	-92.6	6.8
2025-01-20 20:06:54.726753	216.9	37.4	-92.0	15.1
2025-01-20 20:06:55.887355	217.2	37.6	-92.6	14.3
2025-01-20 20:06:57.053309	217.6	37.7	-92.2	12.0
2025-01-20 20:06:58.217978	218.0	37.9	-92.0	14.0
2025-01-20 20:06:59.378548	218.3	38.1	-92.6	10.6
2025-01-20 20:07:00.530421	218.7	38.3	-92.4	10.1
2025-01-20 20:07:01.691080	219.1	38.5	-92.4	14.0
2025-01-20 20:07:02.855071	219.5	38.7	-92.1	8.9
2025-01-20 20:07:04.022376	219.9	38.8	-92.2	5.5
2025-01-20 20:07:05.187412	220.3	39.0	-91.9	11.2
2025-01-20 20:07:06.348910	220.7	39.2	-92.3	11.0
2025-01-20 20:07:07.511219	221.1	39.4	-92.7	9.1
2025-01-20 20:07:08.675030	221.5	39.6	-92.8	14.8
2025-01-20 20:07:09.839445	221.9	39.7	-92.5	18.6
2025-01-20 20:07:10.998324	222.3	39.9	-92.5	14.9
2025-01-20 20:07:12.165554	222.8	40.1	-91.9	15.0
2025-01-20 20:07:13.330986	223.2	40.3	-92.1	17.2
2025-01-20 20:07:14.496818	223.6	40.4	-92.5	13.8
2025-01-20 20:07:15.658002	224.1	40.6	-92.2	5.9
2025-01-20 20:07:16.821255	224.5	40.8	-92.4	8.7
2025-01-20 20:07:17.988397	225.0	41.0	-92.4	8.1
2025-01-20 20:07:19.152503	225.4	41.1	-92.3	11.3
2025-01-20 20:07:20.315648	225.9	41.3	-92.2	9.5
2025-01-20 20:07:21.466580	226.3	41.5	-92.2	7.7
2025-01-20 20:07:22.633955	226.8	41.6	-92.3	7.2
2025-01-20 20:07:23.793817	227.3	41.8	-92.3	4.6
2025-01-20 20:07:24.956985	227.7	42.0	-92.1	5.9
2025-01-20 20:07:26.119981	228.2	42.1	-92.2	4.0
2025-01-20 20:07:27.285298	228.7	42.3	-91.9	10.2
2025-01-20 20:07:28.448204	229.2	42.4	-92.3	5.9
2025-01-20 20:07:29.610945	229.7	42.6	-92.4	8.6
2025-01-20 20:07:30.768291	230.2	42.7	-91.8	10.4
2025-01-20 20:07:31.933334	230.7	42.9	-91.9	7.0
2025-01-20 20:07:33.099018	231.2	43.1	-91.8	5.5
2025-01-20 20:07:34.259036	231.7	43.2	-92.2	7.1
2025-01-20 20:07:35.426844	232.2	43.4	-91.7	4.2
2025-01-20 20:07:36.591509	232.8	43.5	-92.1	4.7
2025-01-20 20:07:37.770073	233.3	43.6	-92.6	9.0
2025-01-20 20:07:38.932683	233.8	43.8	-92.5	8.9
2025-01-20 20:07:40.098268	234.4	43.9	-92.2	13.5
2025-01-20 20:07:41.257837	234.9	44.1	-92.5	8.8
2025-01-20 20:07:42.422977	235.5	44.2	-92.5	13.4
2025-01-20 20:07:43.595752	236.0	44.3	-92.6	7.9
2025-01-20 20:07:44.758958	236.6	44.5	-92.3	10.9
2025-01-20 20:07:45.922563	237.1	44.6	-92.4	9.3
2025-01-20 20:07:47.088353	237.7	44.7	-92.4	9.0
2025-01-20 20:07:48.253897	238.3	44.8	-92.3	16.9
2025-01-20 20:07:49.425864	238.8	45.0	-92.4	12.0
2025-01-20 20:07:50.594393	239.4	45.1	-92.4	13.9
2025-01-20 20:07:51.759192	240.0	45.2	-92.9	19.4
2025-01-20 20:07:52.923638	240.6	45.3	-92.5	15.5
2025-01-20 20:07:54.080028	241.2	45.4	-92.4	16.2
2025-01-20 20:07:55.244532	241.8	45.5	-92.1	18.5
2025-01-20 20:07:56.408107	242.4	45.6	-92.6	17.8
2025-01-20 20:07:57.571477	243.0	45.7	-92.1	19.5
2025-01-20 20:07:58.732097	243.6	45.8	-92.8	22.0
2025-01-20 20:07:59.895600	244.2	45.9	-92.6	21.6
2025-01-20 20:08:01.041007	244.8	46.0	-92.4	19.8
2025-01-20 20:08:02.203973	245.4	46.1	-92.3	20.0
2025-01-20 20:08:03.368548	246.0	46.2	-92.1	18.7
2025-01-20 20:08:04.532415	246.7	46.2	-92.3	16.4
2025-01-20 20:08:05.695431	247.3	46.3	-92.3	20.2
2025-01-20 20:08:06.848871	247.9	46.4	-91.9	14.4
2025-01-20 20:08:08.013953	248.5	46.5	-92.2	11.7
2025-01-20 20:08:09.177248	249.2	46.5	-92.3	21.8
2025-01-20 20:08:10.330408	249.8	46.6	-92.0	24.1
2025-01-20 20:08:11.479455	250.4	46.6	-92.5	13.1
2025-01-20 20:08:12.659257	251.1	46.7	-92.3	23.7
2025-01-20 20:08:13.821133	251.7	46.8	-92.7	25.3
2025-01-20 20:08:14.986925	252.4	46.8	-92.7	13.7
2025-01-20 20:08:16.148812	253.0	46.8	-92.1	23.7
2025-01-20 20:08:17.309696	253.7	46.9	-91.9	25.8
2025-01-20 20:08:18.474049	254.3	46.9	-92.4	13.9
2025-01-20 20:08:19.634972	255.0	46.9	-92.3	19.2
2025-01-20 20:08:20.794425	255.6	47.0	-92.1	28.3
2025-01-20 20:08:21.952768	256.3	47.0	-92.6	16.9
2025-01-20 20:08:23.123318	256.9	47.0	-91.8	21.0
2025-01-20 20:08:24.272449	257.6	47.0	-91.8	17.5
2025-01-20 20:08:25.428079	258.2	47.0	-92.5	19.2
2025-01-20 20:08:26.587536	258.9	47.0	-92.2	23.7
2025-01-20 20:08:27.747168	259.5	47.0	-92.3	21.6
2025-01-20 20:08:28.914836	260.2	47.0	-91.9	31.1
2025-01-20 20:08:30.079902	260.8	47.0	-92.0	15.0
2025-01-20 20:08:31.238366	261.5	47.0	-92.1	20.4
2025-01-20 20:08:32.401982	262.2	47.0	-91.9	23.0
2025-01-20 20:08:33.566146	262.8	47.0	-91.8	25.5
2025-01-20 20:08:34.731464	263.5	47.0	-92.5	25.7
2025-01-20 20:08:35.896108	264.1	47.0	-92.4	21.2
2025-01-20 20:08:37.063895	264.8	46.9	-91.9	18.2
2025-01-20 20:08:38.228882	265.4	46.9	-91.8	24.3
2025-01-20 20:08:39.384857	266.1	46.9	-92.4	16.6
2025-01-20 20:08:40.553743	266.7	46.8	-91.9	17.2
2025-01-20 20:08:41.713761	267.4	46.8	-91.9	17.2
2025-01-20 20:08:42.881311	268.0	46.7	-92.4	14.2
2025-01-20 20:08:44.042152	268.6	46.7	-91.3	10.5
2025-01-20 20:08:45.207041	269.3	46.6	-92.1	21.5
2025-01-20 20:08:46.372535	269.9	46.6	-92.1	14.6
2025-01-20 20:08:47.532782	270.6	46.5	-92.3	15.2
2025-01-20 20:08:48.700925	271.2	46.4	-92.2	21.6
2025-01-20 20:08:49.867360	271.8	46.3	-91.7	13.9
2025-01-20 20:08:51.030958	272.5	46.3	-92.3	8.9
2025-01-20 20:08:52.185760	273.1	46.2	-92.0	11.2
2025-01-20 20:08:53.351296	273.7	46.1	-91.9	14.9
2025-01-20 20:08:54.506388	274.3	46.0	-91.9	12.5
2025-01-20 20:08:55.670406	274.9	45.9	-92.1	15.7
2025-01-20 20:08:56.834533	275.5	45.9	-92.7	17.3
2025-01-20 20:08:58.006609	276.1	45.8	-92.2	9.2
2025-01-20 20:08:59.176094	276.8	45.7	-92.6	19.0
2025-01-20 20:09:00.332584	277.3	45.6	-92.2	10.2
2025-01-20 20:09:01.495932	277.9	45.5	-92.3	8.1
2025-01-20 20:09:02.657312	278.5	45.3	-92.4	17.1
2025-01-20 20:09:03.825380	279.1	45.2	-92.6	21.7
2025-01-20 20:09:04.989283	279.7	45.1	-92.6	9.7
2025-01-20 20:09:06.157201	280.3	45.0	-92.3	21.4
2025-01-20 20:09:07.328001	280.9	44.9	-92.3	19.1
2025-01-20 20:09:08.490352	281.4	44.8	-92.0	8.1
2025-01-20 20:09:09.649863	282.0	44.6	-92.4	23.1
2025-01-20 20:09:10.807802	282.6	44.5	-91.6	19.9
2025-01-20 20:09:11.967987	283.1	44.4	-92.2	13.4
2025-01-20 20:09:13.127701	283.7	44.3	-92.0	18.2
2025-01-20 20:09:14.290430	284.2	44.1	-92.4	15.8
2025-01-20 20:09:15.453687	284.8	44.0	-92.3	9.8
2025-01-20 20:09:16.616602	285.3	43.8	-92.7	14.9
2025-01-20 20:09:17.773545	285.8	43.7	-91.9	21.4
2025-01-20 20:09:18.942763	286.4	43.6	-92.6	12.2
2025-01-20 20:09:20.101255	286.9	43.4	-92.1	14.8
2025-01-20 20:09:21.258439	287.4	43.3	-92.3	17.0
2025-01-20 20:09:22.413963	287.9	43.1	-92.5	8.7
2025-01-20 20:09:23.581064	288.4	43.0	-92.5	12.2
2025-01-20 20:09:24.742530	288.9	42.8	-92.1	17.4
2025-01-20 20:09:25.900001	289.4	42.7	-92.3	15.4
2025-01-20 20:09:27.067761	289.9	42.5	-92.1	13.4
2025-01-20 20:09:28.225278	290.4	42.3	-92.0	23.0
2025-01-20 20:09:29.389536	290.9	42.2	-92.2	16.0
2025-01-20 20:09:30.553369	291.4	42.0	-92.0	11.6
2025-01-20 20:09:31.706282	291.9	41.9	-92.3	15.0
2025-01-20 20:09:32.869983	292.4	41.7	-92.2	15.5
2025-01-20 20:09:34.033636	292.8	41.5	-92.4	12.8
2025-01-20 20:09:35.198205	293.3	41.4	-92.4	14.3
2025-01-20 20:09:36.363172	293.7	41.2	-92.4	21.5
2025-01-20 20:09:37.531302	294.2	41.0	-92.5	12.1
2025-01-20 20:09:38.685699	294.6	40.9	-92.6	17.7
2025-01-20 20:09:39.847853	295.1	40.7	-92.5	19.3
2025-01-20 20:09:41.006013	295.5	40.5	-92.5	16.6
2025-01-20 20:09:42.165308	296.0	40.3	-92.4	18.4
2025-01-20 20:09:43.325496	296.4	40.2	-92.5	17.3
2025-01-20 20:09:44.487015	296.8	40.0	-92.3	20.4
2025-01-20 20:09:45.646308	297.2	39.8	-92.4	21.5
2025-01-20 20:09:46.806229	297.7	39.6	-92.7	18.5
2025-01-20 20:09:47.966625	298.1	39.5	-92.7	17.8
2025-01-20 20:09:49.130781	298.5	39.3	-92.1	19.1
2025-01-20 20:09:50.294125	298.9	39.1	-91.8	17.2
2025-01-20 20:09:51.473996	299.3	38.9	-92.5	14.4
2025-01-20 20:09:52.637657	299.7	38.7	-92.6	16.2
2025-01-20 20:09:53.796350	300.1	38.5	-93.0	17.1
2025-01-20 20:09:54.956078	300.5	38.4	-92.9	13.8
2025-01-20 20:09:56.119558	300.8	38.2	-92.0	12.0
2025-01-20 20:09:57.286601	301.2	38.0	-92.4	15.8
2025-01-20 20:09:58.450030	301.6	37.8	-92.4	8.5
2025-01-20 20:09:59.613409	302.0	37.6	-91.8	6.3
2025-01-20 20:10:00.769330	302.3	37.5	-91.5	20.3
2025-01-20 20:10:01.924573	302.7	37.3	-92.5	8.3
2025-01-20 20:10:03.095771	303.1	37.1	-92.3	6.8
2025-01-20 20:10:04.252433	303.4	36.9	-92.3	16.5
2025-01-20 20:10:05.410147	303.8	36.7	-92.1	6.8
2025-01-20 20:10:06.577530	304.1	36.5	-92.2	10.9
2025-01-20 20:10:07.742461	304.4	36.3	-92.6	16.6
2025-01-20 20:10:08.909558	304.8	36.2	-92.4	7.8
2025-01-20 20:10:10.073946	305.1	36.0	-91.9	8.7
2025-01-20 20:10:11.239431	305.5	35.8	-92.5	14.6
2025-01-20 20:10:12.398778	305.8	35.6	-91.4	9.1
2025-01-20 20:10:13.562601	306.1	35.4	-92.3	9.8
2025-01-20 20:10:14.743015	306.4	35.2	-92.8	7.8
2025-01-20 20:10:15.908842	306.8	35.0	-92.1	9.2
2025-01-20 20:10:17.075998	307.1	34.9	-92.2	6.2
2025-01-20 20:10:18.236581	307.4	34.7	-92.3	10.1
2025-01-20 20:10:19.397530	307.7	34.5	-92.8	10.6
2025-01-20 20:10:20.561764	308.0	34.3	-92.6	10.2
2025-01-20 20:10:21.719509	308.3	34.1	-92.6	4.7
2025-01-20 20:10:22.886933	308.6	33.9	-92.8	9.8
2025-01-20 20:10:24.054739	308.9	33.8	-91.8	12.0
2025-01-20 20:10:25.215486	309.2	33.6	-92.4	10.8
2025-01-20 20:10:26.383395	309.5	33.4	-92.4	10.2
2025-01-20 20:10:27.544416	309.7	33.2	-92.3	10.2
2025-01-20 20:10:28.712296	310.0	33.0	-92.1	16.1
2025-01-20 20:10:29.876862	310.3	32.8	-92.4	4.8
2025-01-20 20:10:31.035555	310.6	32.7	-92.7	9.7
2025-01-20 20:10:32.199600	310.8	32.5	-92.8	10.2
2025-01-20 20:10:33.357101	311.1	32.3	-92.3	10.2
2025-01-20 20:10:34.521126	311.4	32.1	-92.3	9.0
2025-01-20 20:10:35.685281	311.6	31.9	-92.9	15.0
2025-01-20 20:10:36.853927	311.9	31.8	-92.1	11.2
2025-01-20 20:10:38.266646	312.2	31.5	-92.1	10.4
2025-01-20 20:10:39.430687	312.5	31.4	-91.8	17.0
2025-01-20 20:10:40.591207	312.7	31.2	-92.2	11.9
2025-01-20 20:10:41.746844	313.0	31.0	-92.7	11.3
2025-01-20 20:10:42.895525	313.2	30.8	-92.6	17.5
2025-01-20 20:10:44.020260	313.4	30.7	-92.6	13.3
2025-01-20 20:10:45.140816	313.7	30.5	-92.6	7.1
2025-01-20 20:10:46.260854	313.9	30.3	-92.5	11.6
2025-01-20 20:10:47.381287	314.1	30.2	-92.3	9.9
2025-01-20 20:10:48.502505	314.4	30.0	-92.6	14.7
2025-01-20 20:10:49.622936	314.6	29.8	-92.5	5.5
2025-01-20 20:10:50.743529	314.8	29.7	-92.8	10.0
2025-01-20 20:10:51.864135	315.0	29.5	-92.8	13.5
2025-01-20 20:10:52.985203	315.2	29.3	-92.6	18.0
2025-01-20 20:10:54.141982	315.5	29.2	-92.7	8.7
2025-01-20 20:10:55.303310	315.7	29.0	-92.3	8.8
2025-01-20 20:10:56.459258	315.9	28.8	-92.1	12.4
2025-01-20 20:10:57.610100	316.1	28.7	-92.4	14.6
2025-01-20 20:10:58.769450	316.3	28.5	-92.4	7.5
2025-01-20 20:10:59.937293	316.5	28.3	-92.7	13.1
2025-01-20 20:11:01.093850	316.8	28.1	-92.6	12.2
2025-01-20 20:11:02.257230	317.0	28.0	-92.7	13.8
2025-01-20 20:11:03.420106	317.2	27.8	-92.4	13.4
2025-01-20 20:11:04.584743	317.4	27.6	-92.2	12.5
2025-01-20 20:11:05.750378	317.6	27.5	-92.4	17.3
2025-01-20 20:11:06.908812	317.8	27.3	-92.2	17.3
2025-01-20 20:11:08.076154	318.0	27.2	-91.9	16.9
2025-01-20 20:11:09.240201	318.2	27.0	-92.2	17.9
2025-01-20 20:11:10.402596	318.4	26.8	-92.2	17.4
2025-01-20 20:11:11.566038	318.5	26.7	-92.7	11.9
2025-01-20 20:11:12.726163	318.7	26.5	-92.7	10.9
2025-01-20 20:11:13.890277	318.9	26.3	-92.6	7.1
2025-01-20 20:11:15.051614	319.1	26.2	-92.4	13.5
2025-01-20 20:11:16.218658	319.3	26.0	-92.7	6.6
2025-01-20 20:11:17.378729	319.5	25.9	-91.9	14.0
2025-01-20 20:11:18.541896	319.7	25.7	-91.9	12.0
2025-01-20 20:11:19.698992	319.8	25.5	-92.7	6.6
2025-01-20 20:11:20.865177	320.0	25.4	-92.6	13.1
2025-01-20 20:11:22.023766	320.2	25.2	-92.3	13.4
2025-01-20 20:11:23.183903	320.4	25.1	-92.0	11.4
2025-01-20 20:11:24.344011	320.5	24.9	-91.9	18.5
2025-01-20 20:11:25.506775	320.7	24.8	-92.6	14.3
2025-01-20 20:11:26.666647	320.9	24.6	-92.7	9.5
2025-01-20 20:11:27.828195	321.0	24.5	-92.8	14.0
2025-01-20 20:11:28.991052	321.2	24.3	-92.9	14.5
2025-01-20 20:11:30.148210	321.4	24.2	-92.6	8.6
2025-01-20 20:11:31.310241	321.5	24.0	-92.5	10.2
2025-01-20 20:11:32.473133	321.7	23.9	-92.5	12.8
2025-01-20 20:11:33.636228	321.9	23.7	-92.1	9.4
2025-01-20 20:11:34.795903	322.0	23.6	-92.5	10.5
2025-01-20 20:11:35.949785	322.2	23.4	-92.0	21.0
2025-01-20 20:11:37.111234	322.3	23.3	-92.9	4.4
2025-01-20 20:11:38.276924	322.5	23.1	-92.8	6.6
2025-01-20 20:11:39.437537	322.6	23.0	-92.7	4.1
2025-01-20 20:11:40.596696	322.8	22.8	-92.3	5.0
2025-01-20 20:11:41.756416	322.9	22.7	-92.3	3.2
2025-01-20 20:11:42.918228	323.1	22.5	-92.7	4.9
2025-01-20 20:11:44.083156	323.2	22.4	-92.1	4.9
2025-01-20 20:11:45.249346	323.4	22.2	-92.4	6.5
2025-01-20 20:11:46.410362	323.5	22.1	-92.6	4.1
2025-01-20 20:11:47.574986	323.7	22.0	-92.6	15.6
2025-01-20 20:11:48.739412	323.8	21.8	-91.8	3.1
2025-01-20 20:11:49.900714	323.9	21.7	-92.5	7.6
2025-01-20 20:11:51.068671	324.1	21.5	-92.7	9.1
2025-01-20 20:11:52.228388	324.2	21.4	-92.0	7.4
2025-01-20 20:11:53.390926	324.4	21.2	-91.8	11.1
2025-01-20 20:11:54.547973	324.5	21.1	-92.5	8.2
2025-01-20 20:11:55.706009	324.6	21.0	-92.6	7.9
2025-01-20 20:11:56.872013	324.8	20.8	-92.6	5.4
2025-01-20 20:11:58.033513	324.9	20.7	-92.2	4.6
2025-01-20 20:11:59.200894	325.0	20.6	-91.7	8.1
2025-01-20 20:12:00.354664	325.2	20.4	-92.3	4.3
2025-01-20 20:12:01.520569	325.3	20.3	-92.4	4.5
2025-01-20 20:12:02.693138	325.4	20.2	-92.1	5.3
2025-01-20 20:12:03.862302	325.5	20.0	-92.5	6.5
2025-01-20 20:12:05.027228	325.7	19.9	-92.7	5.8
2025-01-20 20:12:06.191178	325.8	19.7	-92.4	2.2
2025-01-20 20:12:07.359927	325.9	19.6	-92.6	1.4
2025-01-20 20:12:08.521654	326.0	19.5	-92.5	4.2
2025-01-20 20:12:09.677323	326.2	19.4	-93.0	4.7
2025-01-20 20:12:10.849505	326.3	19.2	-92.9	6.2
2025-01-20 20:12:12.023266	326.4	19.1	-92.6	10.4
2025-01-20 20:12:13.179954	326.5	19.0	-92.4	5.1
2025-01-20 20:12:14.342805	326.6	18.8	-92.6	5.4
2025-01-20 20:12:15.502669	326.8	18.7	-92.4	5.4
2025-01-20 20:12:16.671353	326.9	18.6	-92.7	8.8
2025-01-20 20:12:17.836799	327.0	18.4	-92.8	4.4
2025-01-20 20:12:19.001963	327.1	18.3	-93.0	7.1
2025-01-20 20:12:20.170187	327.2	18.2	-92.6	4.5
2025-01-20 20:12:21.332032	327.3	18.1	-92.5	5.6
2025-01-20 20:12:22.491977	327.5	17.9	-92.6	4.7
2025-01-20 20:12:23.647963	327.6	17.8	-92.5	4.9
2025-01-20 20:12:24.807477	327.7	17.7	-92.6	3.7
2025-01-20 20:12:25.966910	327.8	17.6	-92.5	4.3
2025-01-20 20:12:27.128042	327.9	17.4	-92.7	4.6
2025-01-20 20:12:28.298485	328.0	17.3	-92.5	3.3
2025-01-20 20:12:29.459816	328.1	17.2	-92.4	4.1
2025-01-20 20:12:30.626638	328.2	17.1	-92.2	4.4
2025-01-20 20:12:31.790966	328.3	17.0	-92.6	6.9
2025-01-20 20:12:32.951340	328.4	16.8	-92.9	6.7
2025-01-20 20:12:34.117032	328.5	16.7	-92.6	5.2
2025-01-20 20:12:35.279743	328.6	16.6	-92.4	6.2
2025-01-20 20:12:36.448794	328.7	16.5	-92.4	12.4
2025-01-20 20:12:37.608591	328.8	16.4	-92.4	8.9
2025-01-20 20:12:38.772166	328.9	16.2	-92.7	2.9
2025-01-20 20:12:39.935532	329.0	16.1	-92.7	10.3
2025-01-20 20:12:41.095391	329.1	16.0	-92.8	7.0
2025-01-20 20:12:42.254927	329.2	15.9	-92.6	5.4
2025-01-20 20:12:43.415835	329.3	15.8	-93.0	5.0
2025-01-20 20:12:44.580331	329.4	15.7	-92.5	6.5
2025-01-20 20:12:45.741555	329.5	15.5	-92.6	5.4
2025-01-20 20:12:46.906694	329.6	15.4	-92.8	8.4
2025-01-20 20:12:48.066581	329.7	15.3	-92.7	9.7
2025-01-20 20:12:49.223692	329.8	15.2	-92.5	3.9
2025-01-20 20:12:50.377141	329.9	15.1	-92.6	4.5
2025-01-20 20:12:51.541954	330.0	15.0	-92.4	3.3
2025-01-20 20:12:52.700376	330.1	14.9	-92.7	2.3
2025-01-20 20:12:53.869243	330.2	14.7	-92.4	5.4
2025-01-20 20:12:55.028555	330.3	14.6	-92.3	6.3
2025-01-20 20:12:56.187859	330.4	14.5	-91.4	6.3
#Closed at: 2025-01-20 20:04:09.840472