passes_logs/2025/01/21/XPeterburg/XPeterburg__20250121_044825_FENGYUN_3E_rec.log

#Pass ID: 20250121_044825_FENGYUN 3E
#Satellite: FENGYUN 3E
#Configuration: FENGYUN 3E
#Start time: 2025-01-21 04:48:19

#Version: 1.5.20200625
#Station: XPeterburg
#Location: 30.318091 lon 59.932769 lat
#TLE: 1 49008U 21062A   25020.12046540  .00000107  00000+0  70981-4 0  9999
#TLE: 2 49008  98.7400  24.5720 0002519 112.6204 247.5239 14.19834112183776

#Time	Az	El	Level	Level2	SNR	BER	Gain	Gain2
2025-01-21 04:48:19.54	356.23	67.58	-38.0	-39.7	3.3	8397377	94	6014
2025-01-21 04:48:19.74	356.12	67.66	-37.2	-59.6	3.0	6543743	47	65534
2025-01-21 04:48:19.94	356.01	67.75	-37.5	-50.0	3.5	8351474	73	20915
2025-01-21 04:48:20.14	355.90	67.83	-37.9	-40.5	3.3	8413593	92	6671
2025-01-21 04:48:20.34	355.79	67.91	-37.9	-40.3	3.3	8413593	92	6541
2025-01-21 04:48:20.54	355.68	67.99	-37.8	-41.7	3.6	8386230	92	7657
2025-01-21 04:48:20.74	355.57	68.08	-37.8	-41.3	3.6	8414817	92	7374
2025-01-21 04:48:20.94	355.46	68.16	-37.7	-40.2	3.4	8438289	92	6530
2025-01-21 04:48:21.14	355.34	68.24	-37.7	-39.7	3.3	8408832	92	6235
2025-01-21 04:48:21.34	355.23	68.32	-37.6	-40.9	3.6	8389640	92	7158
2025-01-21 04:48:21.55	355.10	68.41	-37.5	-40.6	3.6	8421592	92	7052
2025-01-21 04:48:21.75	354.99	68.49	-37.3	-38.6	3.5	8355869	93	5717
2025-01-21 04:48:21.95	354.87	68.57	-37.2	-38.4	3.4	8355869	92	5627
2025-01-21 04:48:22.15	354.75	68.65	-37.0	-37.6	3.4	8388153	92	5309
2025-01-21 04:48:22.35	354.63	68.74	-36.9	-38.7	3.7	8318870	92	6035
2025-01-21 04:48:22.55	354.51	68.82	-36.6	-37.8	4.0	8421203	91	5622
2025-01-21 04:48:22.75	354.39	68.90	-36.3	-36.3	4.2	8311580	91	4894
2025-01-21 04:48:22.95	354.27	68.98	-35.8	-35.9	4.5	8159179	89	4974
2025-01-21 04:48:23.15	354.14	69.07	-35.5	-35.1	4.8	7837028	89	4707
2025-01-21 04:48:23.35	354.02	69.15	-34.8	-34.1	5.4	7230812	88	4547
2025-01-21 04:48:23.56	353.89	69.23	-34.5	-34.0	5.9	4178913	87	4641
2025-01-21 04:48:23.76	353.76	69.32	-33.7	-33.2	6.7	4178913	85	4651
2025-01-21 04:48:23.96	353.63	69.40	-33.3	-32.3	7.2	2488346	85	4418
2025-01-21 04:48:24.16	353.50	69.48	-32.7	-32.3	7.8	1513298	83	4661
2025-01-21 04:48:24.36	353.37	69.56	-32.2	-31.6	8.7	899860	82	4605
2025-01-21 04:48:24.56	353.24	69.64	-31.8	-31.4	9.2	405624	81	4678
2025-01-21 04:48:24.76	353.11	69.73	-31.4	-30.6	9.6	190544	81	4488
2025-01-21 04:48:24.96	352.97	69.81	-31.1	-30.3	10.2	124591	80	4526
2025-01-21 04:48:25.16	352.84	69.89	-30.6	-29.9	10.5	48614	79	4564
2025-01-21 04:48:25.37	352.69	69.97	-30.2	-29.6	11.1	48614	78	4608
2025-01-21 04:48:25.57	352.56	70.06	-29.7	-28.6	11.6	25371	78	4343
2025-01-21 04:48:25.77	352.42	70.14	-29.5	-28.6	11.9	9750	77	4478
2025-01-21 04:48:25.97	352.28	70.22	-29.3	-28.7	12.2	5424	76	4620
2025-01-21 04:48:26.17	352.14	70.30	-29.0	-28.2	12.4	2529	76	4471
2025-01-21 04:48:26.37	351.99	70.38	-28.8	-27.8	12.7	1625	76	4358
2025-01-21 04:48:26.57	351.85	70.46	-28.8	-27.7	12.8	949	76	4335
2025-01-21 04:48:26.77	351.71	70.55	-28.7	-28.0	12.7	801	75	4570
2025-01-21 04:48:26.97	351.56	70.63	-28.7	-28.0	12.8	801	75	4576
2025-01-21 04:48:27.17	351.41	70.71	-28.7	-28.0	12.7	629	75	4542
2025-01-21 04:48:27.37	351.26	70.79	-28.7	-28.1	12.7	801	75	4592
2025-01-21 04:48:27.58	351.10	70.88	-28.7	-28.0	12.7	823	75	4560
2025-01-21 04:48:27.78	350.95	70.96	-28.7	-28.1	12.7	789	75	4589
2025-01-21 04:48:27.98	350.80	71.04	-28.7	-28.1	12.7	1098	75	4603
2025-01-21 04:48:28.18	350.64	71.12	-28.8	-28.1	12.6	915	75	4564
2025-01-21 04:48:28.38	350.49	71.20	-28.7	-27.9	12.7	949	75	4525
2025-01-21 04:48:28.58	350.33	71.28	-28.8	-28.2	12.6	743	75	4611
2025-01-21 04:48:28.78	350.17	71.36	-28.5	-27.7	12.9	1041	75	4492
2025-01-21 04:48:28.98	350.01	71.44	-28.4	-27.8	13.2	583	74	4614
2025-01-21 04:48:29.18	349.85	71.52	-28.6	-27.8	12.8	583	75	4484
2025-01-21 04:48:29.38	349.69	71.60	-28.6	-28.4	12.9	1132	74	4825
2025-01-21 04:48:29.58	349.52	71.68	-28.4	-27.4	13.1	343	75	4383
2025-01-21 04:48:29.78	349.35	71.76	-28.7	-28.0	12.8	1201	75	4564
2025-01-21 04:48:29.99	349.18	71.85	-28.5	-27.6	13.0	549	75	4451
2025-01-21 04:48:30.19	349.01	71.93	-28.6	-27.9	12.9	480	75	4517
2025-01-21 04:48:30.39	348.84	72.01	-28.6	-27.8	12.9	560	75	4495
2025-01-21 04:48:30.59	348.66	72.09	-28.5	-27.6	13.1	457	75	4452
2025-01-21 04:48:30.79	348.49	72.17	-28.5	-27.8	13.0	457	75	4521
2025-01-21 04:48:30.99	348.31	72.25	-28.4	-27.5	13.1	503	75	4434
2025-01-21 04:48:31.19	348.14	72.33	-28.4	-27.4	13.1	308	75	4372
2025-01-21 04:48:31.39	347.96	72.41	-28.5	-28.0	13.1	400	74	4691
2025-01-21 04:48:31.59	347.77	72.49	-28.3	-27.7	13.2	217	74	4598
2025-01-21 04:48:31.79	347.59	72.57	-28.2	-27.5	13.4	263	74	4532
2025-01-21 04:48:31.99	347.41	72.65	-28.3	-27.6	13.3	171	74	4574
2025-01-21 04:48:32.20	347.21	72.73	-28.2	-27.5	13.3	91	74	4543
2025-01-21 04:48:32.40	347.02	72.81	-28.0	-27.2	13.6	183	74	4484
2025-01-21 04:48:32.60	346.83	72.89	-28.1	-27.4	13.5	183	74	4528
2025-01-21 04:48:32.80	346.64	72.97	-28.0	-27.2	13.6	114	74	4479
2025-01-21 04:48:33.00	346.44	73.05	-27.9	-27.1	13.6	80	74	4443
2025-01-21 04:48:33.20	346.25	73.12	-27.8	-26.8	13.8	68	74	4369
2025-01-21 04:48:33.40	346.05	73.20	-27.5	-26.7	14.0	34	73	4489
2025-01-21 04:48:33.60	345.85	73.28	-27.6	-26.9	13.9	34	73	4537
2025-01-21 04:48:33.80	345.65	73.36	-27.6	-26.9	13.9	22	73	4551
2025-01-21 04:48:34.00	345.44	73.44	-27.3	-26.2	14.3	68	73	4353
2025-01-21 04:48:34.20	345.24	73.52	-27.2	-26.6	14.4	68	72	4592
2025-01-21 04:48:34.41	345.02	73.60	-27.3	-26.7	14.2	11	72	4607
2025-01-21 04:48:34.61	344.81	73.67	-27.2	-26.5	14.4	11	72	4542
2025-01-21 04:48:34.81	344.60	73.75	-27.1	-26.3	14.4	11	72	4464
2025-01-21 04:48:35.01	344.38	73.83	-27.1	-26.3	14.4	22	72	4464
2025-01-21 04:48:35.21	344.17	73.91	-26.9	-25.9	14.6	22	72	4363
2025-01-21 04:48:35.41	343.95	73.98	-27.1	-26.2	14.5	0	72	4446
2025-01-21 04:48:35.61	343.73	74.06	-27.0	-26.0	14.6	0	72	4389
2025-01-21 04:48:35.81	343.50	74.14	-26.9	-25.8	14.7	0	72	4356
2025-01-21 04:48:36.01	343.28	74.21	-26.9	-25.8	14.7	0	72	4333
2025-01-21 04:48:36.22	343.04	74.29	-26.8	-25.7	14.8	11	72	4321
2025-01-21 04:48:36.42	342.81	74.37	-26.9	-25.8	14.8	0	72	4353
2025-01-21 04:48:36.62	342.58	74.44	-26.8	-25.7	14.8	0	72	4317
2025-01-21 04:48:36.82	342.34	74.52	-26.9	-25.8	14.8	0	72	4348
2025-01-21 04:48:37.02	342.10	74.59	-26.9	-25.8	14.8	0	72	4336
2025-01-21 04:48:37.22	341.86	74.67	-26.6	-25.7	14.9	0	71	4441
2025-01-21 04:48:37.42	341.62	74.74	-26.8	-26.1	14.7	0	71	4536
2025-01-21 04:48:37.62	341.38	74.82	-26.7	-26.0	14.9	0	71	4522
2025-01-21 04:48:37.82	341.13	74.89	-26.6	-25.8	15.0	0	71	4469
2025-01-21 04:48:38.02	340.88	74.97	-26.6	-25.8	15.0	0	71	4472
2025-01-21 04:48:38.22	340.63	75.04	-26.6	-25.8	15.0	0	71	4465
2025-01-21 04:48:38.42	340.37	75.12	-26.6	-25.7	15.1	0	71	4443
2025-01-21 04:48:38.63	340.10	75.19	-26.6	-25.7	15.0	0	71	4458
2025-01-21 04:48:38.83	339.84	75.27	-26.5	-25.6	15.1	0	71	4434
2025-01-21 04:48:39.03	339.58	75.34	-26.5	-25.5	15.1	0	71	4410
2025-01-21 04:48:39.23	339.31	75.41	-26.4	-25.3	15.2	0	71	4361
2025-01-21 04:48:39.43	339.04	75.48	-26.3	-25.1	15.3	0	71	4286
2025-01-21 04:48:39.63	338.77	75.56	-26.3	-25.7	15.3	0	70	4586
2025-01-21 04:48:39.83	338.50	75.63	-26.2	-25.4	15.5	0	70	4505
2025-01-21 04:48:40.03	338.22	75.70	-26.1	-25.3	15.6	0	70	4470
2025-01-21 04:48:40.23	337.94	75.77	-26.3	-25.7	15.4	0	70	4585
2025-01-21 04:48:40.43	337.66	75.84	-26.1	-25.2	15.6	0	70	4444
2025-01-21 04:48:40.63	337.37	75.91	-26.0	-25.1	15.7	0	70	4423
2025-01-21 04:48:40.83	337.08	75.98	-25.9	-25.0	15.8	0	70	4387
2025-01-21 04:48:41.04	336.77	76.06	-25.8	-24.6	15.9	0	70	4301
2025-01-21 04:48:41.24	336.48	76.13	-25.8	-24.6	16.0	0	70	4308
2025-01-21 04:48:41.44	336.18	76.20	-25.7	-24.9	16.0	0	69	4505
2025-01-21 04:48:41.64	335.88	76.26	-25.7	-24.9	16.0	0	69	4511
2025-01-21 04:48:41.84	335.57	76.33	-25.6	-24.8	16.1	0	69	4469
2025-01-21 04:48:42.04	335.27	76.40	-25.7	-24.9	16.1	0	69	4502
2025-01-21 04:48:42.24	334.96	76.47	-25.6	-24.8	16.1	0	69	4480
2025-01-21 04:48:42.44	334.64	76.54	-25.6	-24.7	16.2	0	69	4446
2025-01-21 04:48:42.64	334.32	76.61	-25.6	-24.8	16.1	0	69	4456
2025-01-21 04:48:42.84	334.00	76.67	-25.7	-24.9	16.1	0	69	4509
2025-01-21 04:48:43.04	333.68	76.74	-25.6	-24.7	16.2	0	69	4449
2025-01-21 04:48:43.25	333.34	76.81	-25.6	-24.7	16.2	0	69	4442
2025-01-21 04:48:43.45	333.01	76.87	-25.6	-24.7	16.2	0	69	4438
2025-01-21 04:48:43.65	332.67	76.94	-25.6	-24.7	16.2	0	69	4454
2025-01-21 04:48:43.85	332.33	77.00	-25.7	-24.9	16.1	0	69	4492
2025-01-21 04:48:44.05	331.99	77.07	-25.5	-24.6	16.2	0	69	4411
2025-01-21 04:48:44.25	331.65	77.13	-25.5	-25.1	16.3	0	68	4695
2025-01-21 04:48:44.45	331.30	77.20	-25.4	-24.9	16.3	0	68	4629
2025-01-21 04:48:44.65	330.95	77.26	-25.5	-25.0	16.3	0	68	4650
2025-01-21 04:48:44.85	330.59	77.32	-25.5	-25.1	16.3	0	68	4668
2025-01-21 04:48:45.05	330.23	77.38	-25.5	-25.0	16.3	0	68	4659
2025-01-21 04:48:45.25	329.87	77.45	-25.4	-24.9	16.3	0	68	4623
2025-01-21 04:48:45.45	329.50	77.51	-25.4	-24.9	16.3	0	68	4613
2025-01-21 04:48:45.65	329.13	77.57	-25.6	-25.3	16.1	0	68	4732
2025-01-21 04:48:45.85	328.76	77.63	-25.5	-25.1	16.2	0	68	4678
2025-01-21 04:48:46.06	328.36	77.69	-25.6	-25.2	16.2	0	68	4702
2025-01-21 04:48:46.26	327.98	77.75	-25.6	-25.2	16.2	0	68	4709
2025-01-21 04:48:46.46	327.59	77.81	-25.7	-25.4	16.1	0	68	4753
2025-01-21 04:48:46.66	327.20	77.87	-25.8	-25.5	16.0	0	68	4804
2025-01-21 04:48:46.86	326.81	77.93	-25.7	-25.4	16.0	0	68	4776
2025-01-21 04:48:47.06	326.41	77.98	-25.7	-25.5	16.0	0	68	4792
2025-01-21 04:48:47.26	326.01	78.04	-25.8	-25.6	15.9	0	68	4815
2025-01-21 04:48:47.46	325.61	78.10	-25.8	-25.7	15.9	0	68	4833
2025-01-21 04:48:47.66	325.20	78.15	-25.8	-25.6	15.9	0	68	4826
2025-01-21 04:48:47.86	324.79	78.21	-25.8	-25.7	15.9	0	68	4843
2025-01-21 04:48:48.06	324.37	78.26	-25.7	-25.5	16.0	0	68	4802
2025-01-21 04:48:48.26	323.95	78.32	-25.7	-25.4	16.0	0	68	4765
2025-01-21 04:48:48.46	323.52	78.37	-25.6	-25.3	16.1	0	68	4728
2025-01-21 04:48:48.67	323.07	78.42	-25.6	-25.3	16.1	0	68	4741
2025-01-21 04:48:48.87	322.64	78.48	-25.6	-25.2	16.1	0	68	4708
2025-01-21 04:48:49.07	322.20	78.53	-25.4	-24.7	16.3	0	68	4577
2025-01-21 04:48:49.27	321.76	78.58	-25.4	-24.9	16.3	0	68	4616
2025-01-21 04:48:49.47	321.32	78.63	-25.3	-24.7	16.3	0	68	4564
2025-01-21 04:48:49.67	320.87	78.68	-25.3	-24.7	16.4	0	68	4567
2025-01-21 04:48:49.87	320.42	78.73	-25.3	-24.7	16.4	0	68	4574
2025-01-21 04:48:50.07	319.96	78.77	-25.3	-24.6	16.4	0	68	4544
2025-01-21 04:48:50.27	319.50	78.82	-25.5	-25.0	16.2	0	68	4644
2025-01-21 04:48:50.47	319.03	78.87	-25.2	-24.5	16.5	0	68	4503
2025-01-21 04:48:50.68	318.54	78.92	-25.4	-24.8	16.3	0	68	4604
2025-01-21 04:48:50.88	318.07	78.96	-25.4	-24.8	16.3	0	68	4585
2025-01-21 04:48:51.08	317.59	79.01	-25.5	-25.0	16.2	0	68	4643
2025-01-21 04:48:51.28	317.11	79.05	-25.4	-24.9	16.2	0	68	4612
2025-01-21 04:48:51.48	316.63	79.09	-25.6	-25.2	16.1	0	68	4690
2025-01-21 04:48:51.68	316.14	79.13	-25.6	-25.2	16.1	0	68	4708
2025-01-21 04:48:51.88	315.64	79.18	-25.6	-25.2	16.1	0	68	4706
2025-01-21 04:48:52.08	315.15	79.22	-25.7	-25.5	16.0	0	68	4784
2025-01-21 04:48:52.28	314.65	79.26	-25.7	-25.5	16.0	0	68	4782
2025-01-21 04:48:52.48	314.14	79.30	-25.7	-25.4	16.0	0	68	4759
2025-01-21 04:48:52.68	313.64	79.33	-25.7	-25.5	16.0	0	68	4785
2025-01-21 04:48:52.88	313.13	79.37	-25.7	-25.5	16.0	0	68	4787
2025-01-21 04:48:53.09	312.58	79.41	-25.6	-25.2	16.1	0	68	4694
2025-01-21 04:48:53.29	312.07	79.44	-25.7	-25.4	16.0	0	68	4766
2025-01-21 04:48:53.49	311.54	79.48	-25.7	-25.4	16.1	0	68	4742
2025-01-21 04:48:53.69	311.02	79.51	-25.7	-25.4	16.1	0	68	4752
2025-01-21 04:48:53.89	310.49	79.55	-25.7	-25.3	16.1	0	68	4731
2025-01-21 04:48:54.09	309.96	79.58	-25.7	-25.4	16.1	0	68	4751
2025-01-21 04:48:54.29	309.42	79.61	-25.6	-25.2	16.2	0	68	4693
2025-01-21 04:48:54.49	308.88	79.64	-25.7	-25.4	16.1	0	68	4770
2025-01-21 04:48:54.69	308.34	79.67	-25.7	-25.3	16.1	0	68	4742
2025-01-21 04:48:54.89	307.79	79.70	-25.7	-25.4	16.1	0	68	4741
2025-01-21 04:48:55.09	307.25	79.73	-25.7	-25.5	16.1	0	68	4767
2025-01-21 04:48:55.30	306.67	79.75	-25.9	-25.7	15.9	0	68	4846
2025-01-21 04:48:55.50	306.11	79.78	-25.9	-25.9	15.9	0	68	4889
2025-01-21 04:48:55.70	305.55	79.80	-26.0	-25.5	15.8	0	69	4646
2025-01-21 04:48:55.90	304.99	79.83	-26.0	-25.5	15.8	0	69	4642
2025-01-21 04:48:56.10	304.43	79.85	-26.1	-25.6	15.7	0	69	4690
2025-01-21 04:48:56.30	303.87	79.87	-26.1	-25.7	15.7	0	69	4707
2025-01-21 04:48:56.50	303.30	79.89	-26.2	-25.9	15.6	0	69	4756
2025-01-21 04:48:56.70	302.73	79.91	-26.4	-26.3	15.4	0	69	4866
2025-01-21 04:48:56.90	302.16	79.93	-26.4	-26.2	15.5	0	69	4854
2025-01-21 04:48:57.10	301.58	79.95	-26.5	-26.0	15.4	0	70	4648
2025-01-21 04:48:57.30	301.01	79.97	-26.4	-25.9	15.5	0	70	4636
2025-01-21 04:48:57.51	300.40	79.99	-26.6	-26.2	15.3	0	70	4723
2025-01-21 04:48:57.71	299.82	80.00	-26.7	-26.3	15.3	0	70	4746
2025-01-21 04:48:57.91	299.24	80.01	-26.7	-26.4	15.2	0	70	4774
2025-01-21 04:48:58.11	298.65	80.03	-26.7	-26.4	15.2	0	70	4773
2025-01-21 04:48:58.31	298.07	80.04	-26.6	-26.2	15.3	0	70	4717
2025-01-21 04:48:58.51	297.48	80.05	-26.8	-26.6	15.1	0	70	4822
2025-01-21 04:48:58.71	296.89	80.06	-26.8	-26.7	15.1	0	70	4845
2025-01-21 04:48:58.91	296.30	80.07	-27.0	-26.5	14.8	0	71	4653
2025-01-21 04:48:59.11	295.71	80.08	-26.9	-26.4	14.9	11	71	4629
2025-01-21 04:48:59.31	295.12	80.08	-26.8	-26.1	15.0	11	71	4557
2025-01-21 04:48:59.51	294.53	80.09	-26.8	-26.2	14.9	0	71	4576
2025-01-21 04:48:59.71	293.94	80.09	-26.9	-26.4	14.9	11	71	4631
2025-01-21 04:48:59.92	293.32	80.10	-26.9	-26.4	14.8	0	71	4635
2025-01-21 04:49:00.12	292.72	80.10	-27.0	-26.6	14.8	0	71	4683
2025-01-21 04:49:00.32	292.13	80.10	-27.1	-26.8	14.7	0	71	4759
2025-01-21 04:49:00.52	291.54	80.10	-27.1	-26.8	14.7	11	71	4738
2025-01-21 04:49:00.72	290.94	80.10	-27.0	-26.6	14.8	0	71	4693
2025-01-21 04:49:00.92	290.35	80.10	-26.9	-26.4	14.9	0	71	4632
2025-01-21 04:49:01.12	289.76	80.10	-27.1	-26.8	14.6	0	71	4752
2025-01-21 04:49:01.32	289.17	80.09	-27.3	-27.1	14.5	0	71	4833
2025-01-21 04:49:01.52	288.57	80.09	-27.2	-26.9	14.6	11	71	4773
2025-01-21 04:49:01.72	287.98	80.08	-27.3	-27.1	14.5	11	71	4831
2025-01-21 04:49:01.92	287.39	80.08	-27.4	-27.3	14.4	11	71	4877
2025-01-21 04:49:02.13	286.77	80.07	-27.1	-26.7	14.7	22	71	4705
2025-01-21 04:49:02.33	286.18	80.06	-27.4	-27.4	14.4	0	71	4906
2025-01-21 04:49:02.53	285.60	80.05	-27.5	-27.5	14.4	0	71	4947
2025-01-21 04:49:02.73	285.01	80.04	-27.5	-27.1	14.5	22	72	4679
2025-01-21 04:49:02.93	284.42	80.03	-27.7	-27.5	14.2	22	72	4783
2025-01-21 04:49:03.13	283.84	80.01	-27.9	-27.9	14.1	0	72	4907
2025-01-21 04:49:03.33	283.26	80.00	-27.8	-27.6	14.2	34	72	4812
2025-01-21 04:49:03.53	282.68	79.98	-27.7	-26.9	14.2	45	73	4506
2025-01-21 04:49:03.73	282.10	79.97	-28.0	-27.6	13.9	80	73	4671
2025-01-21 04:49:03.93	281.53	79.95	-28.3	-28.2	13.5	114	73	4847
2025-01-21 04:49:04.13	280.95	79.93	-28.2	-27.9	13.7	114	73	4764
2025-01-21 04:49:04.33	280.38	79.91	-28.3	-28.1	13.6	45	73	4823
2025-01-21 04:49:04.54	279.78	79.89	-28.6	-28.3	13.3	114	74	4752
2025-01-21 04:49:04.74	279.21	79.87	-28.7	-28.4	13.2	194	74	4774
2025-01-21 04:49:04.94	278.65	79.85	-28.5	-28.1	13.4	183	74	4679
2025-01-21 04:49:05.14	278.09	79.82	-28.6	-28.2	13.2	274	74	4730
2025-01-21 04:49:05.34	277.53	79.80	-28.9	-28.9	12.9	514	74	4920
2025-01-21 04:49:05.54	276.97	79.78	-28.9	-28.8	12.9	526	74	4892
2025-01-21 04:49:05.74	276.41	79.75	-28.8	-28.1	12.9	526	75	4560
2025-01-21 04:49:05.94	275.86	79.72	-28.9	-28.5	12.8	686	75	4653
2025-01-21 04:49:06.14	275.32	79.70	-28.8	-28.2	12.9	652	75	4591
2025-01-21 04:49:06.35	274.74	79.67	-28.8	-28.2	12.9	514	75	4577
2025-01-21 04:49:06.55	274.20	79.64	-29.0	-28.5	12.7	709	75	4670
2025-01-21 04:49:06.75	273.66	79.60	-28.9	-28.3	12.8	755	75	4609
2025-01-21 04:49:06.95	273.13	79.57	-28.9	-28.5	12.8	583	75	4683
2025-01-21 04:49:07.15	272.59	79.54	-28.9	-28.5	12.8	789	75	4679
2025-01-21 04:49:07.35	272.07	79.51	-29.0	-28.6	12.7	789	75	4721
2025-01-21 04:49:07.55	271.54	79.47	-28.8	-28.2	12.9	698	75	4579
2025-01-21 04:49:07.75	271.02	79.44	-28.8	-28.2	12.9	709	75	4574
2025-01-21 04:49:07.95	270.50	79.40	-29.0	-28.6	12.7	720	75	4684
2025-01-21 04:49:08.15	269.99	79.37	-28.8	-28.1	13.0	915	75	4570
2025-01-21 04:49:08.35	269.47	79.33	-29.1	-28.7	12.6	698	75	4718
2025-01-21 04:49:08.55	268.97	79.29	-29.3	-29.3	12.4	869	75	4899
2025-01-21 04:49:08.76	268.44	79.25	-29.4	-29.3	12.3	1853	75	4904
2025-01-21 04:49:08.96	267.94	79.21	-29.9	-29.8	11.9	3124	76	4910
2025-01-21 04:49:09.16	267.44	79.17	-29.8	-29.8	12.0	3124	76	4887
2025-01-21 04:49:09.36	266.95	79.13	-30.0	-30.1	11.8	3376	76	4981
2025-01-21 04:49:09.56	266.46	79.08	-30.0	-29.6	11.7	4783	77	4741
2025-01-21 04:49:09.76	265.98	79.04	-30.1	-29.9	11.6	6088	77	4823
2025-01-21 04:49:09.96	265.50	79.00	-30.1	-29.9	11.6	8182	77	4813
2025-01-21 04:49:10.16	265.02	78.95	-30.0	-29.7	11.6	8136	77	4776
2025-01-21 04:49:10.36	264.55	78.91	-30.2	-30.1	11.4	8274	77	4855
2025-01-21 04:49:10.56	264.08	78.86	-30.1	-29.9	11.5	9349	77	4786
2025-01-21 04:49:10.76	263.62	78.82	-30.3	-30.2	11.3	9349	77	4860
2025-01-21 04:49:10.97	263.13	78.77	-30.4	-30.3	11.2	12016	77	4908
2025-01-21 04:49:11.17	262.68	78.72	-30.3	-30.2	11.3	13034	77	4857
2025-01-21 04:49:11.37	262.22	78.67	-30.4	-30.5	11.1	15392	77	4956
2025-01-21 04:49:11.57	261.78	78.62	-30.5	-30.2	11.0	19123	78	4752
2025-01-21 04:49:11.77	261.33	78.57	-30.5	-30.2	11.1	22544	78	4755
2025-01-21 04:49:11.97	260.89	78.52	-30.6	-30.5	10.9	23357	78	4856
2025-01-21 04:49:12.17	260.45	78.47	-30.3	-29.9	11.3	20404	78	4675
2025-01-21 04:49:12.37	260.02	78.41	-30.5	-30.2	11.0	19042	78	4738
2025-01-21 04:49:12.57	259.59	78.36	-30.6	-30.5	10.9	19042	78	4847
2025-01-21 04:49:12.77	259.17	78.31	-30.4	-29.9	11.2	17612	78	4682
2025-01-21 04:49:12.98	258.73	78.25	-30.7	-30.6	10.8	19981	78	4879
2025-01-21 04:49:13.18	258.31	78.20	-30.4	-30.0	11.2	24753	78	4678
2025-01-21 04:49:13.38	257.90	78.14	-30.4	-30.1	11.1	18390	78	4714
2025-01-21 04:49:13.58	257.49	78.09	-30.9	-30.6	10.4	23689	79	4747
2025-01-21 04:49:13.78	257.09	78.03	-31.1	-31.1	10.2	39493	79	4893
2025-01-21 04:49:13.98	256.69	77.97	-31.0	-30.8	10.3	64315	79	4795
2025-01-21 04:49:14.18	256.29	77.92	-31.3	-31.3	10.0	63434	79	4960
2025-01-21 04:49:14.38	255.90	77.86	-31.3	-31.4	10.0	75279	79	4949
2025-01-21 04:49:14.58	255.51	77.80	-31.5	-31.3	9.9	75279	80	4780
2025-01-21 04:49:14.78	255.12	77.74	-31.7	-31.8	9.7	107505	80	4930
2025-01-21 04:49:14.98	254.74	77.68	-31.8	-31.8	9.6	123081	80	4935
2025-01-21 04:49:15.19	254.34	77.62	-31.6	-31.4	9.7	141300	80	4835
2025-01-21 04:49:15.39	253.97	77.56	-31.8	-31.9	9.4	134777	80	4952
2025-01-21 04:49:15.59	253.60	77.50	-31.8	-31.9	9.5	151576	80	4959
2025-01-21 04:49:15.79	253.23	77.43	-31.7	-31.7	9.6	149688	80	4908
2025-01-21 04:49:15.99	252.87	77.37	-31.8	-31.7	9.5	139492	80	4881
2025-01-21 04:49:16.19	252.51	77.31	-31.6	-31.3	9.7	139492	80	4761
2025-01-21 04:49:16.39	252.16	77.25	-31.5	-31.1	9.8	122531	80	4695
2025-01-21 04:49:16.59	251.81	77.18	-31.6	-31.4	9.6	119476	80	4788
2025-01-21 04:49:16.79	251.46	77.12	-31.4	-30.9	9.9	110618	80	4651
2025-01-21 04:49:16.99	251.11	77.06	-31.3	-30.8	10.0	94905	80	4617
2025-01-21 04:49:17.20	250.76	76.99	-31.4	-30.9	9.8	87215	80	4657
2025-01-21 04:49:17.40	250.42	76.92	-31.1	-30.4	10.2	83381	80	4521
2025-01-21 04:49:17.60	250.08	76.86	-31.0	-30.1	10.4	74455	80	4437
2025-01-21 04:49:17.80	249.75	76.79	-31.4	-31.1	9.8	65689	80	4729
2025-01-21 04:49:18.00	249.43	76.72	-30.7	-30.0	10.5	65689	79	4572
2025-01-21 04:49:18.20	249.10	76.66	-30.6	-29.8	10.6	52848	79	4488
2025-01-21 04:49:18.40	248.78	76.59	-31.0	-30.7	10.1	56453	79	4736
2025-01-21 04:49:18.60	248.47	76.52	-30.4	-29.4	10.8	61729	79	4374
2025-01-21 04:49:18.80	248.15	76.46	-30.6	-29.8	10.5	38497	79	4473
2025-01-21 04:49:19.00	247.84	76.39	-30.6	-30.3	10.6	41313	78	4763
2025-01-21 04:49:19.20	247.53	76.32	-30.1	-29.3	11.2	36403	78	4474
2025-01-21 04:49:19.41	247.22	76.25	-30.8	-30.7	10.4	28919	78	4847
2025-01-21 04:49:19.61	246.91	76.18	-30.6	-30.3	10.7	28919	78	4792
2025-01-21 04:49:19.81	246.62	76.11	-30.5	-30.1	10.7	31986	78	4690
2025-01-21 04:49:20.01	246.32	76.04	-30.9	-31.0	10.2	47653	78	4962
2025-01-21 04:49:20.21	246.03	75.97	-30.5	-30.2	10.7	47527	78	4713
2025-01-21 04:49:20.41	245.74	75.90	-30.9	-30.8	10.3	42388	78	4885
2025-01-21 04:49:20.61	245.46	75.83	-31.1	-31.0	9.9	55572	79	4847
2025-01-21 04:49:20.81	245.17	75.76	-30.7	-30.1	10.4	81756	79	4588
2025-01-21 04:49:21.01	244.89	75.68	-31.1	-30.9	9.8	78151	79	4820
2025-01-21 04:49:21.21	244.62	75.61	-31.1	-30.9	9.9	78678	79	4809
2025-01-21 04:49:21.41	244.34	75.54	-30.9	-30.5	10.1	78678	79	4693
2025-01-21 04:49:21.61	244.07	75.47	-31.3	-31.2	9.7	85144	79	4901
2025-01-21 04:49:21.82	243.79	75.39	-30.9	-30.4	10.2	105125	79	4663
2025-01-21 04:49:22.02	243.52	75.32	-31.6	-31.5	9.5	79524	80	4876
2025-01-21 04:49:22.22	243.26	75.25	-31.3	-30.9	9.9	130817	80	4706
2025-01-21 04:49:22.42	243.00	75.17	-31.7	-31.6	9.4	116775	80	4867
2025-01-21 04:49:22.62	242.74	75.10	-31.5	-31.2	9.8	118034	80	4793
2025-01-21 04:49:22.82	242.49	75.02	-31.7	-31.6	9.5	152446	80	4857
2025-01-21 04:49:23.02	242.24	74.95	-31.7	-31.5	9.6	152446	80	4856
2025-01-21 04:49:23.22	241.99	74.88	-31.8	-31.8	9.4	126491	80	4936
2025-01-21 04:49:23.42	241.74	74.80	-31.9	-32.1	9.3	184799	80	5038
2025-01-21 04:49:23.62	241.50	74.73	-31.7	-31.6	9.5	158008	80	4860
2025-01-21 04:49:23.82	241.25	74.65	-31.9	-32.2	9.3	152446	80	5057
2025-01-21 04:49:24.02	241.01	74.58	-31.8	-31.7	9.5	169853	80	4913
2025-01-21 04:49:24.23	240.77	74.50	-31.9	-31.5	9.2	185314	81	4699
2025-01-21 04:49:24.43	240.53	74.42	-31.8	-31.3	9.4	178653	81	4662
2025-01-21 04:49:24.63	240.30	74.35	-31.7	-31.2	9.4	199150	81	4649
2025-01-21 04:49:24.83	240.07	74.27	-31.9	-31.6	9.2	184238	81	4748
2025-01-21 04:49:25.03	239.84	74.19	-31.7	-31.1	9.5	184238	81	4583
2025-01-21 04:49:25.23	239.62	74.12	-31.8	-31.4	9.3	175941	81	4696
2025-01-21 04:49:25.43	239.39	74.04	-31.6	-30.9	9.5	195316	81	4544
2025-01-21 04:49:25.63	239.17	73.96	-31.6	-30.9	9.6	152801	81	4534
2025-01-21 04:49:25.83	238.95	73.89	-31.6	-30.9	9.6	152561	81	4540
2025-01-21 04:49:26.03	238.74	73.81	-31.4	-30.6	9.8	131732	81	4472
2025-01-21 04:49:26.23	238.52	73.73	-31.4	-30.4	9.9	104930	81	4394
2025-01-21 04:49:26.44	238.30	73.65	-31.2	-30.6	10.1	91999	80	4584
2025-01-21 04:49:26.64	238.09	73.57	-31.3	-30.8	10.1	70037	80	4661
2025-01-21 04:49:26.84	237.88	73.49	-31.1	-30.3	10.3	70037	80	4522
2025-01-21 04:49:27.04	237.68	73.42	-31.0	-30.2	10.3	64739	80	4478
2025-01-21 04:49:27.24	237.47	73.34	-30.9	-30.0	10.4	55366	80	4406
2025-01-21 04:49:27.44	237.27	73.26	-31.1	-30.4	10.3	53627	80	4535
2025-01-21 04:49:27.64	237.07	73.18	-31.0	-30.2	10.3	58319	80	4461
2025-01-21 04:49:27.84	236.87	73.10	-31.2	-30.4	10.2	58387	80	4528
2025-01-21 04:49:28.04	236.68	73.02	-31.1	-30.4	10.2	70587	80	4522
2025-01-21 04:49:28.24	236.48	72.95	-31.2	-30.7	10.0	71422	80	4621
2025-01-21 04:49:28.44	236.29	72.87	-31.3	-30.7	9.9	71422	80	4638
2025-01-21 04:49:28.64	236.10	72.79	-31.2	-30.5	10.0	86666	80	4541
2025-01-21 04:49:28.84	235.91	72.71	-31.2	-30.6	9.9	91152	80	4608
2025-01-21 04:49:29.05	235.72	72.62	-31.2	-30.6	9.9	93887	80	4594
2025-01-21 04:49:29.25	235.53	72.55	-31.3	-30.8	9.8	103660	80	4639
2025-01-21 04:49:29.45	235.35	72.47	-31.1	-30.5	9.9	102230	80	4584
2025-01-21 04:49:29.65	235.17	72.39	-31.3	-30.7	9.7	91609	80	4645
2025-01-21 04:49:29.85	234.99	72.31	-31.1	-30.4	9.9	110618	80	4551
2025-01-21 04:49:30.05	234.81	72.23	-31.2	-30.6	9.8	110618	80	4586
2025-01-21 04:49:30.25	234.63	72.15	-31.0	-30.2	9.9	105903	80	4467
2025-01-21 04:49:30.45	234.46	72.07	-31.2	-30.5	9.7	99803	80	4561
2025-01-21 04:49:30.65	234.29	71.99	-31.1	-30.4	9.7	114028	80	4543
2025-01-21 04:49:30.85	234.12	71.91	-31.2	-30.7	9.6	115539	80	4626
2025-01-21 04:49:31.05	233.95	71.83	-31.1	-30.3	9.8	128917	80	4510
2025-01-21 04:49:31.25	233.78	71.74	-31.2	-30.5	9.7	111797	80	4575
2025-01-21 04:49:31.46	233.60	71.66	-30.9	-30.1	9.9	114349	80	4455
2025-01-21 04:49:31.66	233.44	71.58	-31.1	-30.5	9.7	101428	80	4548
2025-01-21 04:49:31.86	233.28	71.50	-30.9	-29.8	10.0	101428	80	4344
2025-01-21 04:49:32.06	233.11	71.42	-31.0	-30.0	9.9	105342	80	4420
2025-01-21 04:49:32.26	232.95	71.34	-30.9	-29.9	10.0	91106	80	4380
2025-01-21 04:49:32.46	232.79	71.26	-30.4	-29.4	10.3	94116	79	4394
2025-01-21 04:49:32.66	232.64	71.17	-30.7	-30.0	10.0	59692	79	4544
2025-01-21 04:49:32.86	232.48	71.09	-30.5	-29.5	10.3	77384	79	4409
2025-01-21 04:49:33.06	232.33	71.01	-30.7	-30.1	10.0	61134	79	4602
2025-01-21 04:49:33.26	232.17	70.93	-30.6	-29.9	10.1	91426	79	4535
2025-01-21 04:49:33.47	232.01	70.85	-30.5	-29.6	10.4	91426	79	4447
2025-01-21 04:49:33.67	231.86	70.76	-30.7	-30.1	10.0	51303	79	4558
2025-01-21 04:49:33.87	231.72	70.68	-30.4	-29.4	10.4	78952	79	4378
2025-01-21 04:49:34.07	231.57	70.60	-31.1	-30.9	9.7	51029	79	4822
2025-01-21 04:49:34.27	231.42	70.52	-38.1	-41.8	3.6	938117	93	7538
2025-01-21 04:49:34.47	231.28	70.44	-38.2	-41.5	3.6	8444458	94	7190
2025-01-21 04:49:34.67	231.13	70.36	-38.3	-40.8	3.4	8367954	94	6508
2025-01-21 04:49:34.87	230.99	70.27	-38.3	-40.5	3.3	8407505	94	6318

#Closed at: 2025-01-21 04:49:35